# .PCD v0.7 - Point Cloud Data file format
VERSION 0.7
FIELDS x y z
SIZE 4 4 4
TYPE F F F
COUNT 1 1 1
WIDTH 1789
HEIGHT 1
VIEWPOINT 0 0 0 1 0 0 0
POINTS 1789
DATA ascii
5.6079998 -1.176 0.301
5.5999999 -1.158 0.301
5.5929999 -1.141 0.30000001
5.6030002 -1.127 0.301
5.598 -1.11 0.30000001
5.5879998 -1.092 0.30000001
5.592 -1.077 0.30000001
5.5879998 -1.061 0.30000001
5.5960002 -1.0470001 0.30000001
5.5999999 -1.0319999 0.30000001
5.5960002 -1.016 0.30000001
5.5910001 -1 0.30000001
5.586 -0.98400003 0.29899999
5.5830002 -0.96899998 0.29899999
5.5949998 -0.95599997 0.30000001
5.6009998 -0.94199997 0.30000001
5.5960002 -0.926 0.30000001
5.599 -0.912 0.30000001
5.586 -0.89600003 0.29899999
5.5910001 -0.88200003 0.29899999
5.5910001 -0.86799997 0.29899999
5.5869999 -0.85299999 0.29899999
5.5869999 -0.83899999 0.29899999
5.5830002 -0.824 0.29899999
5.5840001 -0.81 0.29899999
5.5949998 -0.79799998 0.29899999
5.5760002 -0.78200001 0.29800001
5.5910001 -0.76999998 0.29899999
5.5780001 -0.755 0.29800001
5.5879998 -0.74199998 0.29899999
5.5830002 -0.72799999 0.29899999
5.592 -0.71600002 0.29899999
5.579 -0.70099998 0.29800001
5.5879998 -0.68900001 0.29899999
5.5819998 -0.67500001 0.29899999
5.5830002 -0.66299999 0.29899999
5.5760002 -0.64899999 0.29800001
5.579 -0.63599998 0.29800001
5.573 -0.62300003 0.29800001
5.5679998 -0.61000001 0.29800001
5.5830002 -0.59899998 0.29899999
5.579 -0.58600003 0.29800001
5.5780001 -0.574 0.29800001
5.579 -0.56099999 0.29800001
5.5689998 -0.54799998 0.29800001
5.5819998 -0.537 0.29800001
5.5700002 -0.52399999 0.29800001
5.5689998 -0.51200002 0.29800001
5.579 -0.50099999 0.29800001
5.5710001 -0.48899999 0.29800001
5.572 -0.477 0.29800001
5.5700002 -0.465 0.29800001
5.5890002 -0.45500001 0.29899999
5.5749998 -0.442 0.29800001
5.5910001 -0.43200001 0.29899999
5.592 -0.421 0.29899999
5.5809999 -0.40900001 0.29800001
5.5799999 -0.398 0.29800001
5.573 -0.38600001 0.29800001
5.5770001 -0.375 0.29800001
5.5809999 -0.36500001 0.29800001
5.5830002 -0.354 0.29800001
5.5749998 -0.34299999 0.29800001
5.5770001 -0.33199999 0.29800001
5.579 -0.32100001 0.29800001
5.586 -0.31099999 0.29899999
5.5830002 -0.301 0.29800001
5.579 -0.28999999 0.29800001
5.585 -0.28 0.29899999
5.5770001 -0.26899999 0.29800001
5.5949998 -0.25999999 0.29899999
5.5890002 -0.249 0.29899999
5.5890002 -0.23899999 0.29899999
5.5970001 -0.23 0.29899999
5.5939999 -0.22 0.29899999
5.5890002 -0.20999999 0.29899999
5.5830002 -0.2 0.29899999
5.5970001 -0.191 0.29899999
5.598 -0.18099999 0.29899999
5.6069999 -0.17200001 0.30000001
5.6069999 -0.162 0.30000001
5.6069999 -0.153 0.30000001
5.6139998 -0.14399999 0.30000001
5.6350002 -0.13500001 0.30199999
5.6199999 -0.125 0.301
5.6420002 -0.117 0.30199999
5.6389999 -0.107 0.30199999
5.651 -0.098999999 0.303
5.6789999 -0.090000004 0.30399999
5.6789999 -0.081 0.30399999
5.6849999 -0.071999997 0.30399999
5.6789999 -0.063000001 0.30399999
5.7080002 -0.055 0.30599999
5.7290001 -0.046 0.30700001
5.7290001 -0.037999999 0.30700001
5.744 -0.028999999 0.308
5.7540002 -0.021 0.308
5.7719998 -0.012 0.30899999
5.7909999 -0.0040000002 0.31
5.7940001 0.0040000002 0.31099999
5.823 0.012 0.31200001
5.8330002 0.02 0.31299999
5.8660002 0.028999999 0.315
5.9349999 0.037 0.31799999
5.9219999 0.045000002 0.31799999
5.7160001 0.081 0.271
5.7459998 0.092 0.27200001
5.737 0.102 0.27200001
5.743 0.113 0.27200001
5.7509999 0.123 0.27200001
5.77 0.13500001 0.273
5.7849998 0.146 0.27399999
5.7719998 0.156 0.273
5.7690001 0.167 0.273
5.7639999 0.17900001 0.27200001
5.7690001 0.19 0.273
5.7750001 0.20200001 0.273
5.7610002 0.213 0.27200001
5.7340002 0.223 0.271
5.7329998 0.235 0.271
5.7480001 0.248 0.271
5.704 0.25799999 0.26899999
5.7199998 0.27000001 0.27000001
5.7030001 0.28200001 0.26899999
5.6919999 0.29300001 0.26800001
5.6690001 0.30399999 0.26699999
5.6739998 0.317 0.26800001
5.6890001 0.33000001 0.26800001
5.6589999 0.34099999 0.26699999
5.6459999 0.35299999 0.266
5.645 0.366 0.266
5.6360002 0.37799999 0.266
5.631 0.391 0.26499999
5.6160002 0.40200001 0.26499999
5.6020002 0.41499999 0.264
5.6079998 0.428 0.264
5.586 0.44 0.26300001
5.5840001 0.45300001 0.26300001
5.5650001 0.465 0.26199999
5.5549998 0.477 0.26199999
5.5209999 0.48800001 0.25999999
5.461 0.49599999 0.257
5.4299998 0.50599998 0.25600001
5.4070001 0.51800001 0.255
5.4000001 0.53100002 0.25400001
5.3990002 0.54400003 0.25400001
5.388 0.55699998 0.25400001
5.395 0.57099998 0.25400001
5.3920002 0.58499998 0.25400001
5.3920002 0.59799999 0.25400001
5.3920002 0.61199999 0.25400001
4.7210002 0.54900002 0.223
4.5630002 0.542 0.215
4.5289998 0.55000001 0.214
4.5 0.55800003 0.212
4.487 0.56900001 0.212
4.4109998 0.57099998 0.208
4.3410001 0.574 0.205
4.323 0.583 0.204
4.3179998 0.59399998 0.204
4.309 0.60500002 0.20299999
4.296 0.61500001 0.20299999
4.2789998 0.62400001 0.20200001
4.2810001 0.63599998 0.20200001
4.276 0.648 0.20200001
4.2610002 0.65799999 0.20100001
4.2480001 0.667 0.20100001
4.25 0.68000001 0.20100001
4.2319999 0.68900001 0.2
4.2270002 0.69999999 0.2
4.2249999 0.71200001 0.2
4.2119999 0.722 0.199
4.1999998 0.73299998 0.199
4.1989999 0.745 0.199
4.1880002 0.755 0.198
4.1799998 0.76599997 0.198
4.1690001 0.77600002 0.198
4.1630001 0.787 0.197
4.1500001 0.79699999 0.197
4.151 0.81 0.197
4.1560001 0.824 0.197
4.1630001 0.838 0.198
4.211 0.86000001 0.2
4.302 0.89200002 0.205
4.3520002 0.91500002 0.207
4.3210001 0.92199999 0.206
4.303 0.93099999 0.205
4.25 0.93300003 0.20200001
4.1939998 0.93400002 0.2
4.165 0.94 0.199
4.1020002 0.93900001 0.19599999
4.0450001 0.93900001 0.193
4.0380001 0.94999999 0.193
4.0349998 0.96200001 0.193
4.0190001 0.97100002 0.192
4.0089998 0.98100001 0.192
3.9960001 0.991 0.191
3.997 1.0039999 0.191
4.013 1.021 0.192
4.0359998 1.04 0.193
4.105 1.071 0.197
4.1929998 1.107 0.20100001
4.217 1.127 0.20200001
4.1869998 1.133 0.20100001
4.184 1.146 0.20100001
4.1469998 1.149 0.199
4.0970001 1.149 0.197
4.0500002 1.149 0.19499999
3.9690001 1.1390001 0.191
3.905 1.1339999 0.18799999
3.888 1.142 0.18700001
3.872 1.15 0.18700001
3.8629999 1.16 0.186
3.8529999 1.17 0.186
3.848 1.182 0.186
3.8380001 1.192 0.186
3.8280001 1.201 0.185
3.8239999 1.2130001 0.185
3.8069999 1.221 0.185
3.8110001 1.235 0.185
3.8 1.244 0.184
3.783 1.252 0.184
3.779 1.2640001 0.184
3.7739999 1.275 0.184
3.7579999 1.283 0.183
3.76 1.296 0.183
3.744 1.303 0.183
3.74 1.3150001 0.183
3.7279999 1.324 0.182
3.7179999 1.3329999 0.182
3.714 1.345 0.182
3.704 1.354 0.18099999
3.6989999 1.365 0.18099999
3.7060001 1.381 0.182
3.7550001 1.4119999 0.184
3.8410001 1.4579999 0.189
3.9119999 1.499 0.192
3.9189999 1.516 0.193
3.9200001 1.53 0.193
3.973 1.5650001 0.19599999
3.987 1.585 0.197
4.0760002 1.6339999 0.20100001
4.1040001 1.66 0.20299999
5.23 2.1340001 0.259
5.2309999 2.154 0.259
5.2290001 2.1719999 0.259
5.2309999 2.191 0.25999999
5.2309999 2.21 0.25999999
5.23 2.2279999 0.25999999
5.223 2.244 0.25999999
5.2160001 2.26 0.25999999
5.223 2.2820001 0.25999999
5.2210002 2.3 0.26100001
5.2199998 2.3180001 0.26100001
5.2129998 2.3340001 0.26100001
5.211 2.352 0.26100001
5.2119999 2.3710001 0.26100001
5.2049999 2.3870001 0.26100001
5.211 2.4089999 0.26199999
5.2030001 2.424 0.26199999
5.2020001 2.4419999 0.26199999
5.1869998 2.454 0.26100001
5.138 2.45 0.259
5.0929999 2.447 0.257
5.0539999 2.447 0.255
5.006 2.4419999 0.25299999
4.9569998 2.4360001 0.25099999
4.9120002 2.431 0.249
4.8670001 2.427 0.24699999
4.8249998 2.424 0.245
4.7810001 2.4189999 0.243
4.75 2.421 0.242
4.6939998 2.4089999 0.23899999
4.658 2.408 0.23800001
4.6329999 2.4119999 0.236
4.631 2.428 0.237
4.631 2.4449999 0.237
4.6300001 2.461 0.237
4.6279998 2.477 0.237
4.6269999 2.493 0.23800001
4.6199999 2.506 0.237
4.625 2.526 0.23800001
4.6129999 2.536 0.23800001
4.6110001 2.552 0.23800001
4.599 2.562 0.237
4.5939999 2.576 0.237
4.5960002 2.5940001 0.23800001
4.5879998 2.6059999 0.23800001
4.5799999 2.618 0.23800001
4.579 2.6340001 0.23800001
4.5710001 2.6459999 0.23800001
4.5830002 2.6700001 0.23899999
4.5749998 2.681 0.23800001
4.5760002 2.698 0.23899999
4.579 2.717 0.23899999
4.5749998 2.7309999 0.23899999
4.5700002 2.744 0.23899999
4.5749998 2.7639999 0.23999999
4.566 2.7739999 0.23999999
4.572 2.7939999 0.23999999
4.5619998 2.8039999 0.23999999
4.5689998 2.825 0.241
4.5749998 2.845 0.241
4.5710001 2.858 0.241
4.5650001 2.8710001 0.241
4.5739999 2.8929999 0.242
4.5619998 2.901 0.242
4.559 2.915 0.242
4.559 2.931 0.242
4.5570002 2.9460001 0.242
4.5630002 2.9649999 0.243
4.5599999 2.9790001 0.243
4.559 2.994 0.243
4.5840001 3.026 0.245
4.6360002 3.076 0.248
4.717 3.1459999 0.25299999
4.8470001 3.25 0.25999999
5.0409999 3.3959999 0.271
5.0500002 3.4200001 0.27200001
5.0549998 3.4400001 0.27200001
5.0510001 3.454 0.273
4.875 3.3499999 0.26300001
4.8070002 3.319 0.25999999
4.8260002 3.348 0.26100001
4.7750001 3.3280001 0.259
4.7529998 3.329 0.25799999
4.756 3.346 0.259
4.7249999 3.3399999 0.257
4.6999998 3.3369999 0.25600001
4.7059999 3.3559999 0.257
4.7090001 3.3729999 0.257
4.6919999 3.3759999 0.257
4.6849999 3.3859999 0.257
4.677 3.3940001 0.257
4.7259998 3.444 0.25999999
5.8600001 -3.4790001 0.33899999
5.8520002 -3.457 0.338
5.8870001 -3.461 0.34
5.8790002 -3.4389999 0.34
5.8610001 -3.4119999 0.33899999
5.868 -3.3989999 0.33899999
5.8649998 -3.3800001 0.33899999
5.8720002 -3.3670001 0.33899999
5.875 -3.352 0.34
5.8730001 -3.3340001 0.33899999
5.8740001 -3.3169999 0.33899999
5.8699999 -3.2980001 0.33899999
5.8720002 -3.2820001 0.33899999
5.862 -3.2590001 0.33899999
5.8850002 -3.2550001 0.34
5.8699999 -3.23 0.33899999
5.8670001 -3.211 0.33899999
5.8740001 -3.198 0.33899999
5.8629999 -3.175 0.33899999
5.8699999 -3.1619999 0.33899999
5.862 -3.1400001 0.338
5.8449998 -3.1140001 0.33700001
5.8390002 -3.0929999 0.33700001
5.8410001 -3.0769999 0.33700001
5.855 -3.0680001 0.338
5.8569999 -3.052 0.338
5.869 -3.0409999 0.33899999
5.842 -3.01 0.33700001
5.8569999 -3 0.338
5.8499999 -2.98 0.33700001
5.8590002 -2.967 0.338
5.8579998 -2.95 0.338
5.8460002 -2.9260001 0.33700001
5.8540001 -2.9130001 0.338
5.8410001 -2.8900001 0.33700001
5.8460002 -2.875 0.33700001
5.836 -2.8529999 0.336
5.8319998 -2.8340001 0.336
5.8540001 -2.8280001 0.33700001
5.842 -2.8050001 0.33700001
5.8509998 -2.7920001 0.33700001
5.8559999 -2.777 0.33700001
5.823 -2.744 0.33500001
5.8429999 -2.737 0.33700001
5.8369999 -2.717 0.336
5.829 -2.6960001 0.336
5.8369999 -2.6819999 0.336
5.8319998 -2.6630001 0.336
5.822 -2.641 0.33500001
5.8169999 -2.622 0.33500001
5.8210001 -2.6070001 0.33500001
5.822 -2.5899999 0.33500001
5.8200002 -2.572 0.33500001
5.829 -2.559 0.33500001
5.829 -2.5420001 0.33500001
5.8140001 -2.5179999 0.33399999
5.8150001 -2.5020001 0.33399999
5.7989998 -2.4779999 0.333
5.8210001 -2.47 0.33500001
5.8140001 -2.45 0.33399999
5.823 -2.437 0.33500001
5.8200002 -2.418 0.33399999
5.8189998 -2.401 0.33399999
5.8130002 -2.381 0.33399999
5.8049998 -2.3610001 0.333
5.8000002 -2.342 0.333
5.8109999 -2.329 0.33399999
5.8080001 -2.3110001 0.333
5.8140001 -2.2969999 0.33399999
5.8200002 -2.2820001 0.33399999
5.8150001 -2.263 0.33399999
5.8179998 -2.247 0.33399999
5.8119998 -2.2279999 0.333
5.8039999 -2.2079999 0.333
5.8150001 -2.1949999 0.33399999
5.8119998 -2.177 0.333
5.8130002 -2.1600001 0.333
5.809 -2.142 0.333
5.79 -2.118 0.33199999
5.7550001 -2.0880001 0.33000001
5.7249999 -2.0599999 0.32800001
5.7129998 -2.039 0.32699999
5.7119999 -2.0220001 0.32699999
5.7090001 -2.0039999 0.32699999
5.7150002 -1.99 0.32699999
5.711 -1.972 0.32699999
5.697 -1.95 0.32600001
5.6589999 -1.92 0.324
5.6389999 -1.897 0.32300001
5.6440001 -1.883 0.32300001
5.6360002 -1.864 0.322
5.6339998 -1.846 0.322
5.6329999 -1.83 0.322
5.6090002 -1.8049999 0.32100001
5.6139998 -1.791 0.32100001
5.6259999 -1.778 0.322
5.638 -1.765 0.322
5.6279998 -1.7460001 0.322
5.6399999 -1.733 0.322
5.6370001 -1.716 0.322
5.6290002 -1.697 0.322
5.6339998 -1.682 0.322
5.6350002 -1.666 0.322
5.6350002 -1.65 0.322
5.6329999 -1.632 0.322
5.6490002 -1.6210001 0.322
5.6339998 -1.6 0.32100001
5.632 -1.5829999 0.32100001
5.6370001 -1.568 0.322
5.6339998 -1.551 0.32100001
5.638 -1.536 0.322
5.6279998 -1.516 0.32100001
5.6230001 -1.499 0.32100001
5.6360002 -1.4859999 0.32100001
5.632 -1.469 0.32100001
5.638 -1.454 0.32100001
5.6339998 -1.436 0.32100001
5.6350002 -1.42 0.32100001
5.6350002 -1.404 0.32100001
5.625 -1.385 0.31999999
5.6409998 -1.373 0.32100001
5.6240001 -1.352 0.31999999
5.6269999 -1.337 0.31999999
5.625 -1.3200001 0.31999999
5.6160002 -1.301 0.31900001
5.6110001 -1.284 0.31900001
5.6170001 -1.2690001 0.31900001
5.6149998 -1.252 0.31900001
5.6160002 -1.2359999 0.31900001
5.605 -1.2180001 0.31900001
5.6079998 -1.202 0.31900001
5.6129999 -1.187 0.31900001
5.6090002 -1.17 0.31900001
5.6110001 -1.154 0.31900001
5.6079998 -1.137 0.31799999
5.6090002 -1.1210001 0.31799999
5.6069999 -1.105 0.31799999
5.6009998 -1.087 0.31799999
5.598 -1.071 0.31799999
5.5939999 -1.054 0.317
5.592 -1.0369999 0.317
5.592 -1.021 0.317
5.5890002 -1.0039999 0.317
5.592 -0.98900002 0.317
5.5879998 -0.972 0.317
5.5799999 -0.954 0.31600001
5.585 -0.93900001 0.31600001
5.5929999 -0.92400002 0.317
5.598 -0.90899998 0.317
5.5929999 -0.89200002 0.317
5.5910001 -0.87599999 0.317
5.585 -0.85900003 0.31600001
5.5819998 -0.84200001 0.31600001
5.5819998 -0.82599998 0.31600001
5.5770001 -0.80900002 0.315
5.5710001 -0.79299998 0.315
5.5819998 -0.778 0.31600001
5.5700002 -0.75999999 0.315
5.5799999 -0.74599999 0.315
5.573 -0.72899997 0.315
5.5749998 -0.713 0.315
5.5710001 -0.69599998 0.315
5.5700002 -0.68000001 0.315
5.5749998 -0.66500002 0.315
5.5689998 -0.648 0.31400001
5.5710001 -0.63200003 0.31400001
5.5669999 -0.616 0.31400001
5.5609999 -0.59899998 0.31400001
5.5630002 -0.58399999 0.31400001
5.5630002 -0.56800002 0.31400001
5.566 -0.55199999 0.31400001
5.566 -0.53600001 0.31400001
5.5669999 -0.51999998 0.31400001
5.5710001 -0.50400001 0.31400001
5.5700002 -0.48800001 0.31400001
5.566 -0.472 0.31299999
5.5749998 -0.45699999 0.31400001
5.5650001 -0.44 0.31299999
5.5689998 -0.42399999 0.31299999
5.5700002 -0.40799999 0.31299999
5.572 -0.39300001 0.31299999
5.579 -0.377 0.31400001
5.5710001 -0.361 0.31299999
5.5809999 -0.345 0.31400001
5.5760002 -0.329 0.31299999
5.5760002 -0.31299999 0.31299999
5.586 -0.29800001 0.31400001
5.5869999 -0.28200001 0.31400001
5.585 -0.266 0.31400001
5.586 -0.25 0.31400001
5.5869999 -0.234 0.31400001
5.5890002 -0.21799999 0.31400001
5.5879998 -0.20200001 0.31400001
5.5970001 -0.186 0.31400001
5.6030002 -0.17 0.31400001
5.6129999 -0.154 0.315
5.6279998 -0.139 0.31600001
5.631 -0.123 0.31600001
5.6350002 -0.107 0.31600001
5.6599998 -0.090999998 0.317
5.678 -0.075000003 0.31799999
5.671 -0.057999998 0.31799999
5.6859999 -0.041999999 0.31799999
5.6989999 -0.026000001 0.31900001
5.717 -0.0099999998 0.31999999
5.723 0.0060000001 0.31999999
5.7290001 0.022 0.31999999
5.7399998 0.037999999 0.32100001
5.7709999 0.055 0.32300001
5.7919998 0.071999997 0.324
5.8130002 0.089000002 0.32499999
5.8270001 0.106 0.32600001
5.842 0.123 0.32600001
5.8270001 0.139 0.32499999
5.8379998 0.156 0.32600001
5.8540001 0.17299999 0.32699999
5.8530002 0.19 0.32699999
5.895 0.208 0.329
5.9320002 0.227 0.331
5.9699998 0.245 0.333
5.526 0.052999999 0.27399999
5.52 0.057999998 0.273
5.52 0.063000001 0.273
5.527 0.068999998 0.273
5.527 0.074000001 0.273
5.5209999 0.079999998 0.273
5.5120001 0.085000001 0.27200001
5.52 0.090999998 0.27200001
5.5089998 0.097000003 0.27200001
5.5139999 0.103 0.27200001
5.506 0.109 0.271
5.5079999 0.115 0.271
5.507 0.122 0.271
5.507 0.12800001 0.271
5.4990001 0.13500001 0.27000001
5.4889998 0.142 0.27000001
5.493 0.149 0.27000001
5.4920001 0.156 0.27000001
5.4920001 0.163 0.27000001
5.4850001 0.17 0.26899999
5.4759998 0.178 0.26899999
5.4770002 0.185 0.26899999
5.4840002 0.193 0.26899999
5.467 0.20100001 0.26800001
5.4759998 0.20900001 0.26800001
5.46 0.21600001 0.26800001
5.4629998 0.22499999 0.26800001
5.4689999 0.234 0.26800001
5.4590001 0.242 0.26699999
5.447 0.25 0.26699999
5.4549999 0.259 0.26699999
5.46 0.26800001 0.26699999
5.4460001 0.27599999 0.266
5.4439998 0.285 0.266
5.4450002 0.29499999 0.266
5.4380002 0.30399999 0.266
5.4439998 0.31299999 0.266
5.4429998 0.32300001 0.266
5.434 0.33199999 0.266
5.4359999 0.34200001 0.266
5.427 0.35100001 0.26499999
5.434 0.36199999 0.266
5.427 0.37099999 0.26499999
5.4250002 0.38100001 0.26499999
5.4260001 0.39199999 0.26499999
5.4159999 0.40200001 0.26499999
5.4180002 0.412 0.26499999
5.4180002 0.42300001 0.26499999
5.4229999 0.43399999 0.26499999
5.4219999 0.44499999 0.26499999
5.4060001 0.45500001 0.264
5.4060001 0.46599999 0.264
5.4109998 0.47799999 0.264
5.4099998 0.48899999 0.264
5.402 0.5 0.264
5.401 0.51099998 0.264
5.401 0.523 0.264
5.4060001 0.53500003 0.264
5.395 0.546 0.264
5.3969998 0.55800003 0.264
5.3979998 0.56999999 0.264
5.3940001 0.58200002 0.264
5.3920002 0.59399998 0.264
5.3889999 0.60600001 0.264
4.7810001 0.54799998 0.234
4.6529999 0.54400003 0.228
4.5910001 0.54799998 0.22499999
4.5219998 0.55000001 0.221
4.4710002 0.55500001 0.219
4.4099998 0.55800003 0.21600001
4.3390002 0.55900002 0.213
4.3270001 0.56800002 0.212
4.3130002 0.57700002 0.211
4.309 0.58700001 0.211
4.3099999 0.59799999 0.211
4.2940001 0.60699999 0.211
4.2800002 0.616 0.20999999
4.2849998 0.62699997 0.20999999
4.276 0.63700002 0.20999999
4.263 0.64600003 0.20900001
4.2610002 0.65700001 0.20900001
4.2509999 0.66600001 0.20900001
4.244 0.676 0.20900001
4.2410002 0.68699998 0.20900001
4.2399998 0.69800001 0.20900001
4.211 0.70499998 0.207
4.21 0.71600002 0.207
4.2080002 0.727 0.207
4.1989999 0.73699999 0.207
4.191 0.74699998 0.207
4.1929998 0.759 0.207
4.1719999 0.76700002 0.206
4.164 0.778 0.206
4.1680002 0.79000002 0.206
4.1599998 0.80000001 0.206
4.1409998 0.80800003 0.205
4.1420002 0.82099998 0.205
4.1589999 0.83600003 0.206
4.1830001 0.85299999 0.207
4.2420001 0.87699997 0.20999999
4.336 0.91000003 0.215
4.329 0.921 0.215
4.2800002 0.92299998 0.213
4.237 0.92699999 0.211
4.2090001 0.93300003 0.20900001
4.1690001 0.93699998 0.208
4.1570001 0.94700003 0.207
4.0999999 0.94599998 0.204
4.046 0.94599998 0.20200001
4.0229998 0.95300001 0.20100001
4.033 0.96799999 0.20100001
4.0149999 0.977 0.20100001
4.0139999 0.98900002 0.20100001
4.0040002 0.99900001 0.2
3.9949999 1.0089999 0.2
4.006 1.025 0.20100001
4.0149999 1.04 0.20100001
4.0510001 1.063 0.20299999
4.1409998 1.099 0.208
4.2150002 1.133 0.212
4.1960001 1.141 0.211
4.1570001 1.1440001 0.20900001
4.1339998 1.152 0.208
4.0840001 1.151 0.206
4.066 1.16 0.205
3.9949999 1.153 0.20200001
3.9230001 1.145 0.198
3.8800001 1.146 0.19599999
3.8759999 1.158 0.19599999
3.858 1.166 0.19599999
3.8599999 1.179 0.19599999
3.845 1.188 0.19499999
3.836 1.198 0.19499999
3.8380001 1.212 0.19499999
3.822 1.22 0.19499999
3.8150001 1.232 0.19400001
3.8 1.24 0.19400001
3.796 1.252 0.19400001
3.786 1.262 0.193
3.7820001 1.274 0.193
3.773 1.285 0.193
3.76 1.294 0.193
3.7449999 1.302 0.192
3.7320001 1.311 0.192
3.7360001 1.326 0.192
3.723 1.335 0.192
3.707 1.3430001 0.191
3.7030001 1.355 0.191
3.6989999 1.368 0.191
3.7249999 1.391 0.193
3.7969999 1.432 0.19599999
3.895 1.484 0.20200001
3.8770001 1.4910001 0.20100001
3.904 1.516 0.20299999
3.9619999 1.554 0.206
4.0139999 1.59 0.20900001
4.085 1.633 0.213
4.1989999 1.6950001 0.219
5.243 2.1370001 0.27399999
5.237 2.154 0.27399999
5.2350001 2.174 0.27399999
5.2350001 2.1949999 0.27500001
5.2420001 2.2179999 0.27500001
5.243 2.2390001 0.27599999
5.2319999 2.2550001 0.27500001
5.2309999 2.2750001 0.27599999
5.2309999 2.296 0.27599999
5.2210002 2.312 0.27599999
5.2270002 2.336 0.27599999
5.2189999 2.3529999 0.27599999
5.2129998 2.372 0.27599999
5.2160001 2.3940001 0.27700001
5.2199998 2.4170001 0.27700001
5.2080002 2.4330001 0.27700001
5.178 2.4400001 0.27599999
5.1079998 2.428 0.273
5.0700002 2.431 0.271
5.013 2.425 0.26800001
4.9629998 2.421 0.266
4.9120002 2.4159999 0.264
4.8649998 2.414 0.26100001
4.822 2.4130001 0.259
4.7709999 2.4070001 0.257
4.7150002 2.3989999 0.25400001
4.6700001 2.3959999 0.252
4.638 2.3989999 0.25099999
4.6430001 2.4219999 0.25099999
4.6690001 2.4549999 0.25299999
4.7220001 2.503 0.25600001
4.7849998 2.5580001 0.25999999
4.8109999 2.592 0.26199999
4.8039999 2.6099999 0.26199999
4.8070002 2.632 0.26300001
4.7919998 2.645 0.26199999
4.789 2.664 0.26199999
4.803 2.694 0.264
4.7940001 2.71 0.264
4.7969999 2.733 0.264
4.7940001 2.753 0.264
4.7919998 2.773 0.26499999
4.7849998 2.79 0.26499999
4.789 2.8139999 0.26499999
4.7870002 2.835 0.266
4.77 2.8469999 0.26499999
4.7659998 2.8659999 0.26499999
4.7659998 2.888 0.266
4.7589998 2.905 0.266
4.7550001 2.924 0.266
4.7340002 2.934 0.26499999
4.73 2.9530001 0.26499999
4.717 2.967 0.26499999
4.704 2.9809999 0.26499999
4.6869998 2.9920001 0.264
4.6719999 3.0050001 0.264
4.6560001 3.016 0.26300001
4.6500001 3.0339999 0.26300001
4.6370001 3.0480001 0.26300001
4.6259999 3.063 0.26300001
4.6110001 3.0739999 0.26300001
4.5939999 3.085 0.26199999
4.5869999 3.102 0.26199999
4.5689998 3.112 0.26199999
4.553 3.1229999 0.26100001
4.5479999 3.142 0.26100001
4.526 3.1489999 0.25999999
4.5100002 3.1589999 0.25999999
4.4949999 3.171 0.25999999
4.4850001 3.1860001 0.259
4.4689999 3.1960001 0.259
4.4349999 3.194 0.257
5.5599999 -3.652 0.33899999
5.5760002 -3.628 0.34
5.586 -3.5999999 0.34
5.612 -3.582 0.34099999
5.618 -3.552 0.34200001
5.631 -3.526 0.34200001
5.6589999 -3.5090001 0.34299999
5.6620002 -3.4779999 0.34299999
5.6849999 -3.4590001 0.345
5.6849999 -3.4260001 0.34400001
5.7069998 -3.4059999 0.345
5.7090001 -3.3740001 0.345
5.723 -3.3499999 0.34599999
5.7210002 -3.3169999 0.345
5.7309999 -3.2909999 0.34599999
5.7449999 -3.2679999 0.34599999
5.7449999 -3.2360001 0.34599999
5.7399998 -3.2030001 0.34599999
5.7540002 -3.1789999 0.34599999
5.7410002 -3.141 0.345
5.777 -3.131 0.347
5.7859998 -3.105 0.347
5.7859998 -3.075 0.347
5.7849998 -3.0450001 0.347
5.79 -3.0179999 0.347
5.7909999 -2.9890001 0.347
5.7950001 -2.9619999 0.347
5.8010001 -2.9360001 0.347
5.8070002 -2.9100001 0.347
5.8060002 -2.882 0.347
5.816 -2.858 0.347
5.8080001 -2.826 0.347
5.8130002 -2.8 0.347
5.8179998 -2.7750001 0.347
5.8270001 -2.7520001 0.347
5.809 -2.7160001 0.34599999
5.829 -2.698 0.347
5.8200002 -2.6670001 0.34599999
5.823 -2.6429999 0.34599999
5.8070002 -2.609 0.345
5.8210001 -2.589 0.34599999
5.8130002 -2.559 0.345
5.822 -2.5369999 0.345
5.8260002 -2.513 0.345
5.829 -2.4890001 0.345
5.8280001 -2.4630001 0.345
5.8189998 -2.434 0.345
5.829 -2.414 0.345
5.8379998 -2.392 0.345
5.8319998 -2.3659999 0.345
5.8369999 -2.3429999 0.345
5.8210001 -2.313 0.34400001
5.8119998 -2.2850001 0.34299999
5.8260002 -2.266 0.34400001
5.8210001 -2.2409999 0.34299999
5.823 -2.2179999 0.34299999
5.8299999 -2.197 0.34400001
5.8239999 -2.1719999 0.34299999
5.8200002 -2.1470001 0.34299999
5.8179998 -2.1240001 0.34299999
5.8099999 -2.098 0.34200001
5.7579999 -2.0569999 0.33899999
5.7249999 -2.023 0.33700001
5.7210002 -2 0.336
5.7189999 -1.977 0.336
5.7189999 -1.956 0.336
5.698 -1.927 0.33500001
5.658 -1.892 0.33199999
5.6469998 -1.868 0.331
5.6420002 -1.846 0.331
5.6350002 -1.823 0.33000001
5.625 -1.799 0.33000001
5.618 -1.777 0.329
5.6230001 -1.758 0.329
5.6290002 -1.74 0.33000001
5.6350002 -1.722 0.33000001
5.6279998 -1.7 0.329
5.631 -1.681 0.329
5.6360002 -1.663 0.33000001
5.6360002 -1.6440001 0.33000001
5.6290002 -1.623 0.329
5.632 -1.604 0.329
5.625 -1.5829999 0.329
5.6240001 -1.564 0.32800001
5.6259999 -1.546 0.329
5.631 -1.529 0.329
5.6230001 -1.508 0.32800001
5.6199999 -1.489 0.32800001
5.6290002 -1.473 0.32800001
5.6430001 -1.459 0.329
5.6700001 -1.448 0.331
5.645 -1.423 0.329
5.6209998 -1.399 0.32699999
5.6170001 -1.381 0.32699999
5.6209998 -1.364 0.32699999
5.612 -1.345 0.32699999
5.6160002 -1.3279999 0.32699999
5.6069999 -1.309 0.32600001
5.6020002 -1.291 0.32600001
5.6059999 -1.275 0.32600001
5.605 -1.258 0.32600001
5.6009998 -1.24 0.32600001
5.6030002 -1.224 0.32600001
5.5910001 -1.205 0.32499999
5.5970001 -1.1900001 0.32499999
5.5999999 -1.174 0.32499999
5.5960002 -1.1569999 0.32499999
5.592 -1.14 0.32499999
5.5960002 -1.125 0.32499999
5.585 -1.107 0.324
5.585 -1.091 0.324
5.5840001 -1.075 0.324
5.5840001 -1.0599999 0.324
5.586 -1.045 0.324
5.592 -1.031 0.324
5.5840001 -1.0140001 0.324
5.5840001 -0.99900001 0.324
5.592 -0.98500001 0.324
5.5799999 -0.96799999 0.32300001
5.5900002 -0.95499998 0.324
5.585 -0.93900001 0.324
5.5869999 -0.92500001 0.324
5.5890002 -0.91100001 0.324
5.586 -0.89600003 0.324
5.5809999 -0.88099998 0.32300001
5.5890002 -0.86699998 0.324
5.5830002 -0.852 0.32300001
5.5879998 -0.83899999 0.324
5.5760002 -0.82300001 0.32300001
5.5780001 -0.80900002 0.32300001
5.5939999 -0.79799998 0.324
5.5819998 -0.78200001 0.32300001
5.5770001 -0.76800001 0.32300001
5.5780001 -0.755 0.32300001
5.572 -0.74000001 0.322
5.585 -0.72899997 0.32300001
5.5819998 -0.71499997 0.32300001
5.5760002 -0.70099998 0.32300001
5.5869999 -0.68900001 0.32300001
5.5799999 -0.67500001 0.32300001
5.5819998 -0.66299999 0.32300001
5.5689998 -0.648 0.322
5.5780001 -0.63599998 0.32300001
5.579 -0.62400001 0.32300001
5.573 -0.61000001 0.322
5.5890002 -0.60000002 0.32300001
5.5749998 -0.58600003 0.322
5.5710001 -0.57300001 0.322
5.5710001 -0.56099999 0.322
5.573 -0.54900002 0.322
5.5669999 -0.53600001 0.322
5.5669999 -0.52399999 0.322
5.5760002 -0.51300001 0.322
5.5710001 -0.5 0.322
5.5780001 -0.48899999 0.322
5.5700002 -0.477 0.322
5.5739999 -0.465 0.322
5.5760002 -0.454 0.322
5.5739999 -0.442 0.322
5.5749998 -0.43099999 0.322
5.5830002 -0.41999999 0.32300001
5.5700002 -0.40799999 0.322
5.5650001 -0.39700001 0.322
5.5780001 -0.38600001 0.322
5.5809999 -0.37599999 0.32300001
5.573 -0.36399999 0.322
5.5739999 -0.35299999 0.322
5.5689998 -0.34200001 0.322
5.5749998 -0.33199999 0.322
5.5760002 -0.32100001 0.322
5.5679998 -0.31 0.322
5.5700002 -0.30000001 0.322
5.5780001 -0.28999999 0.322
5.5840001 -0.28 0.32300001
5.572 -0.26899999 0.322
5.5869999 -0.25999999 0.32300001
5.586 -0.249 0.32300001
5.5799999 -0.23899999 0.32300001
5.5799999 -0.229 0.32300001
5.5890002 -0.22 0.32300001
5.5869999 -0.20999999 0.32300001
5.5900002 -0.2 0.32300001
5.585 -0.19 0.32300001
5.5879998 -0.18099999 0.32300001
5.6030002 -0.17200001 0.324
5.5999999 -0.162 0.324
5.6040001 -0.153 0.324
5.612 -0.14399999 0.32499999
5.6269999 -0.13500001 0.32600001
5.6279998 -0.125 0.32600001
5.6339998 -0.116 0.32600001
5.6350002 -0.107 0.32600001
5.6430001 -0.097999997 0.32699999
5.6700001 -0.090000004 0.32800001
5.677 -0.081 0.329
5.6919999 -0.071999997 0.33000001
5.6929998 -0.064000003 0.33000001
5.698 -0.055 0.33000001
5.7069998 -0.046 0.33000001
5.7140002 -0.037999999 0.331
5.743 -0.028999999 0.333
5.75 -0.021 0.333
5.7740002 -0.012 0.33500001
5.777 -0.0040000002 0.33500001
5.8140001 0.0040000002 0.33700001
5.849 0.012 0.33899999
5.8559999 0.02 0.33899999
5.8649998 0.028999999 0.34
5.921 0.037 0.34299999
5.9200001 0.045000002 0.34299999
5.7150002 0.082000002 0.29800001
5.7379999 0.093000002 0.29899999
5.7529998 0.103 0.30000001
5.73 0.113 0.29800001
5.7350001 0.124 0.29899999
5.7649999 0.13500001 0.30000001
5.777 0.146 0.301
5.7690001 0.15700001 0.30000001
5.7490001 0.168 0.29899999
5.757 0.17900001 0.29899999
5.763 0.191 0.30000001
5.7270002 0.20100001 0.29800001
5.73 0.212 0.29800001
5.7199998 0.22400001 0.29699999
5.7259998 0.235 0.29699999
5.7129998 0.24699999 0.29699999
5.7059999 0.25799999 0.296
5.691 0.27000001 0.29499999
5.6700001 0.28099999 0.294
5.6630001 0.292 0.294
5.6659999 0.30500001 0.294
5.6609998 0.317 0.294
5.6430001 0.32800001 0.29300001
5.6459999 0.34099999 0.29300001
5.618 0.352 0.29100001
5.6220002 0.36500001 0.292
5.6300001 0.37799999 0.292
5.6059999 0.389 0.29100001
5.6079998 0.40200001 0.29100001
5.5929999 0.414 0.28999999
5.5830002 0.42699999 0.28999999
5.572 0.43900001 0.289
5.5689998 0.45199999 0.289
5.5489998 0.46399999 0.28799999
5.5209999 0.47499999 0.28600001
5.4790001 0.484 0.28400001
5.4289999 0.493 0.28200001
5.4169998 0.50599998 0.28099999
5.4120002 0.51899999 0.28099999
5.3990002 0.53100002 0.28
5.388 0.54299998 0.28
5.3959999 0.55800003 0.28
5.3920002 0.57099998 0.28
5.3930001 0.58499998 0.28
5.3920002 0.59899998 0.28
5.3899999 0.61299998 0.28
5.3889999 0.62699997 0.28
4.6859999 0.55699998 0.243
4.6160002 0.56099999 0.23999999
4.533 0.56300002 0.235
4.4629998 0.56599998 0.23199999
4.381 0.56699997 0.228
4.3340001 0.57300001 0.22499999
4.3239999 0.58399999 0.22499999
4.3099999 0.59299999 0.22400001
4.2979999 0.60299999 0.223
4.3070002 0.61699998 0.22400001
4.2909999 0.62599999 0.223
4.277 0.63599998 0.223
4.2750001 0.648 0.223
4.2639999 0.65799999 0.222
4.2509999 0.66799998 0.221
4.2509999 0.68000001 0.221
4.2340002 0.69 0.221
4.2319999 0.70099998 0.221
4.2210002 0.71200001 0.22
4.2140002 0.72299999 0.22
4.2030001 0.73299998 0.219
4.191 0.74299997 0.219
4.1810002 0.75400001 0.21799999
4.1690001 0.764 0.21799999
4.1700001 0.77700001 0.21799999
4.1659999 0.78799999 0.21799999
4.1599998 0.79900002 0.21799999
4.1440001 0.80900002 0.21699999
4.1459999 0.82200003 0.21699999
4.158 0.83700001 0.21799999
4.1799998 0.85399997 0.219
4.2340002 0.87800002 0.222
4.3639998 0.91799998 0.229
4.3109999 0.92000002 0.226
4.2379999 0.91799998 0.222
4.2080002 0.92400002 0.221
4.2020001 0.93599999 0.221
4.164 0.94 0.219
4.1100001 0.94099998 0.21600001
4.059 0.94199997 0.214
4.0339999 0.949 0.212
4.027 0.95999998 0.212
4.0110002 0.96899998 0.211
4.0159998 0.98299998 0.212
4.0050001 0.99299997 0.211
3.983 1 0.20999999
3.9990001 1.017 0.211
4.0159998 1.034 0.212
4.0440001 1.0549999 0.214
4.1079998 1.085 0.21699999
4.2010002 1.123 0.222
4.1739998 1.1289999 0.221
4.158 1.1390001 0.22
4.0939999 1.1339999 0.21699999
4.0650001 1.14 0.21600001
4.0469999 1.148 0.215
3.9849999 1.1440001 0.212
3.911 1.136 0.208
3.8800001 1.14 0.207
3.8710001 1.15 0.206
3.865 1.161 0.206
3.8499999 1.17 0.205
3.8540001 1.184 0.206
3.845 1.194 0.205
3.8269999 1.201 0.205
3.8210001 1.212 0.204
3.8139999 1.223 0.204
3.8080001 1.234 0.204
3.8010001 1.245 0.204
3.7880001 1.2539999 0.20299999
3.7839999 1.265 0.20299999
3.7750001 1.275 0.20299999
3.763 1.284 0.20200001
3.753 1.294 0.20200001
3.743 1.303 0.20200001
3.744 1.317 0.20200001
3.7349999 1.326 0.20100001
3.7249999 1.336 0.20100001
3.7160001 1.346 0.20100001
3.704 1.354 0.2
3.7079999 1.369 0.20100001
3.701 1.3789999 0.2
3.7349999 1.405 0.20299999
3.7980001 1.442 0.206
3.872 1.484 0.20999999
3.8789999 1.5 0.211
3.9330001 1.535 0.214
4.0170002 1.582 0.219
4.0819998 1.622 0.223
4.1199999 1.652 0.22499999
5.2290001 2.115 0.28600001
5.2249999 2.132 0.28600001
5.23 2.1530001 0.28600001
5.224 2.1689999 0.28600001
5.217 2.1849999 0.28600001
5.224 2.207 0.287
5.23 2.2279999 0.287
5.223 2.244 0.287
5.2119999 2.2579999 0.287
5.2210002 2.2809999 0.28799999
5.2140002 2.2969999 0.28799999
5.2080002 2.313 0.28799999
5.2129998 2.3340001 0.28799999
5.2059999 2.3499999 0.28799999
5.2049999 2.368 0.28799999
5.2030001 2.3859999 0.289
5.197 2.402 0.289
5.2020001 2.424 0.289
5.1960001 2.4389999 0.289
5.1880002 2.4549999 0.289
5.1350002 2.448 0.28600001
5.0999999 2.45 0.285
5.0500002 2.444 0.28200001
4.9970002 2.437 0.27900001
4.9549999 2.4349999 0.27700001
4.915 2.4330001 0.27599999
4.868 2.427 0.273
4.8239999 2.4230001 0.271
4.7839999 2.421 0.26899999
4.7480001 2.4200001 0.26699999
4.6929998 2.4089999 0.264
4.651 2.404 0.26199999
4.618 2.404 0.26100001
4.6129999 2.4189999 0.26100001
4.6230001 2.441 0.26199999
4.6160002 2.454 0.26199999
4.6269999 2.4760001 0.26300001
4.6209998 2.49 0.26300001
4.6259999 2.51 0.26300001
4.6170001 2.5220001 0.26300001
4.6100001 2.5350001 0.26300001
4.6100001 2.5510001 0.26300001
4.6040001 2.5650001 0.26300001
4.5879998 2.573 0.26199999
4.5939999 2.5929999 0.26300001
4.5970001 2.6110001 0.264
4.592 2.625 0.264
4.5900002 2.641 0.264
4.5879998 2.6559999 0.264
4.5819998 2.6689999 0.264
4.5869999 2.688 0.26499999
4.586 2.704 0.26499999
4.5890002 2.723 0.26499999
4.5819998 2.7349999 0.26499999
4.5809999 2.7509999 0.266
4.5840001 2.7690001 0.266
4.5900002 2.789 0.26699999
4.5879998 2.8050001 0.26699999
4.5929999 2.8239999 0.26800001
4.5910001 2.839 0.26800001
4.5999999 2.8599999 0.26899999
4.5999999 2.8770001 0.26899999
4.598 2.892 0.26899999
4.5970001 2.908 0.27000001
4.5900002 2.9189999 0.27000001
4.5890002 2.934 0.27000001
4.5749998 2.9419999 0.26899999
4.5739999 2.957 0.27000001
4.572 2.971 0.27000001
4.5809999 2.993 0.271
4.5999999 3.0209999 0.27200001
4.6690001 3.0829999 0.27700001
4.7870002 3.177 0.28400001
4.875 3.2520001 0.28999999
5.0599999 3.392 0.301
5.0609999 3.4100001 0.30199999
5.0609999 3.427 0.30199999
5.0580001 3.4419999 0.30199999
4.8210001 3.2969999 0.28799999
4.8639998 3.3429999 0.29100001
4.823 3.3310001 0.289
4.8649998 3.375 0.292
4.8280001 3.3659999 0.28999999
5.0359998 3.527 0.303
4.816 3.388 0.28999999
4.9330001 3.487 0.29800001
4.7680001 3.3859999 0.28799999
4.8179998 3.4360001 0.292
4.776 3.4219999 0.28999999
4.7449999 3.415 0.28799999
4.7620001 3.441 0.289
4.743 3.4419999 0.289
4.7449999 3.4590001 0.289
5.8779998 -3.4920001 0.36700001
5.8590002 -3.464 0.366
5.882 -3.461 0.36700001
5.8759999 -3.4400001 0.36700001
5.8769999 -3.424 0.36700001
5.8709998 -3.4030001 0.366
5.8730001 -3.3870001 0.36700001
5.888 -3.3789999 0.36700001
5.895 -3.3659999 0.368
5.895 -3.349 0.368
5.8969998 -3.3329999 0.368
5.8860002 -3.309 0.36700001
5.875 -3.286 0.366
5.8800001 -3.2720001 0.36700001
5.8889999 -3.26 0.36700001
5.8759999 -3.2360001 0.366
5.8699999 -3.2149999 0.366
5.8660002 -3.1960001 0.366
5.8730001 -3.1830001 0.366
5.8520002 -3.154 0.36500001
5.8379998 -3.1289999 0.36399999
5.8239999 -3.105 0.36300001
5.8520002 -3.1029999 0.36500001
5.8400002 -3.079 0.36399999
5.8319998 -3.0580001 0.36300001
5.8470001 -3.049 0.36399999
5.8429999 -3.029 0.36399999
5.8340001 -3.0079999 0.36300001
5.8410001 -2.994 0.36399999
5.8559999 -2.9849999 0.36500001
5.8439999 -2.961 0.36399999
5.8429999 -2.944 0.36399999
5.8439999 -2.927 0.36399999
5.8400002 -2.908 0.36300001
5.8499999 -2.8959999 0.36399999
5.8460002 -2.8770001 0.36399999
5.8319998 -2.8529999 0.36300001
5.8340001 -2.8369999 0.36300001
5.8470001 -2.826 0.36399999
5.842 -2.806 0.36300001
5.8410001 -2.789 0.36300001
5.8319998 -2.767 0.36300001
5.8280001 -2.7479999 0.36199999
5.8309999 -2.7320001 0.36199999
5.835 -2.7179999 0.36300001
5.8410001 -2.7030001 0.36300001
5.8280001 -2.6800001 0.36199999
5.8280001 -2.6630001 0.36199999
5.829 -2.6459999 0.36199999
5.8299999 -2.6289999 0.36199999
5.8280001 -2.6110001 0.36199999
5.8260002 -2.5929999 0.36199999
5.8210001 -2.5739999 0.361
5.829 -2.5610001 0.36199999
5.8340001 -2.5450001 0.36199999
5.8210001 -2.523 0.361
5.8270001 -2.5079999 0.36199999
5.8200002 -2.4879999 0.361
5.8140001 -2.4679999 0.361
5.8249998 -2.4560001 0.361
5.8189998 -2.4360001 0.361
5.8140001 -2.4170001 0.36000001
5.8169999 -2.401 0.361
5.8169999 -2.3840001 0.361
5.8169999 -2.3670001 0.36000001
5.809 -2.3469999 0.36000001
5.7979999 -2.326 0.359
5.8080001 -2.312 0.36000001
5.8099999 -2.296 0.36000001
5.8249998 -2.2850001 0.361
5.8109999 -2.263 0.36000001
5.816 -2.247 0.36000001
5.802 -2.2249999 0.359
5.8060002 -2.2090001 0.359
5.8130002 -2.1949999 0.36000001
5.8049998 -2.175 0.359
5.8130002 -2.161 0.36000001
5.8099999 -2.1429999 0.359
5.7750001 -2.1129999 0.35699999
5.7410002 -2.0840001 0.35499999
5.7179999 -2.059 0.35299999
5.7090001 -2.039 0.35299999
5.7160001 -2.0239999 0.35299999
5.7080002 -2.0050001 0.35299999
5.7129998 -1.99 0.35299999
5.704 -1.97 0.352
5.6859999 -1.947 0.35100001
5.6539998 -1.92 0.34900001
5.645 -1.9 0.34799999
5.6360002 -1.881 0.34799999
5.6350002 -1.864 0.34799999
5.6409998 -1.849 0.34799999
5.631 -1.83 0.347
5.619 -1.809 0.347
5.612 -1.791 0.34599999
5.6100001 -1.774 0.34599999
5.6069999 -1.756 0.34599999
5.6259999 -1.7460001 0.347
5.6389999 -1.733 0.347
5.638 -1.717 0.347
5.6339998 -1.699 0.347
5.6300001 -1.682 0.347
5.6220002 -1.663 0.34599999
5.6240001 -1.647 0.34599999
5.638 -1.6339999 0.347
5.6300001 -1.6160001 0.347
5.6240001 -1.598 0.34599999
5.6220002 -1.581 0.34599999
5.6170001 -1.563 0.34599999
5.625 -1.549 0.34599999
5.6290002 -1.534 0.34599999
5.632 -1.518 0.34599999
5.6300001 -1.501 0.34599999
5.6290002 -1.484 0.34599999
5.6329999 -1.469 0.34599999
5.6350002 -1.4529999 0.34599999
5.6469998 -1.4400001 0.347
5.6919999 -1.4349999 0.34999999
5.7020001 -1.421 0.34999999
5.658 -1.393 0.347
5.6389999 -1.372 0.34599999
5.6230001 -1.352 0.345
5.6209998 -1.335 0.345
5.6209998 -1.319 0.345
5.6279998 -1.304 0.345
5.618 -1.286 0.345
5.6079998 -1.267 0.34400001
5.619 -1.253 0.34400001
5.6139998 -1.2359999 0.34400001
5.6110001 -1.219 0.34400001
5.6149998 -1.204 0.34400001
5.5970001 -1.184 0.34299999
5.6009998 -1.168 0.34299999
5.605 -1.153 0.34299999
5.6069999 -1.137 0.34299999
5.6160002 -1.123 0.34400001
5.5960002 -1.102 0.34200001
5.6020002 -1.087 0.34299999
5.5960002 -1.0700001 0.34200001
5.6020002 -1.0549999 0.34299999
5.5900002 -1.0369999 0.34200001
5.5939999 -1.021 0.34200001
5.5949998 -1.005 0.34200001
5.5900002 -0.98799998 0.34200001
5.5869999 -0.972 0.34099999
5.5890002 -0.95599997 0.34099999
5.5809999 -0.93800002 0.34099999
5.5939999 -0.92500001 0.34200001
5.5879998 -0.90700001 0.34099999
5.586 -0.89099997 0.34099999
5.579 -0.87400001 0.34
5.5869999 -0.85900003 0.34099999
5.5710001 -0.83999997 0.34
5.5739999 -0.82499999 0.34
5.5830002 -0.81 0.34
5.5780001 -0.79299998 0.34
5.559 -0.77499998 0.33899999
5.5760002 -0.76099998 0.34
5.5700002 -0.74400002 0.33899999
5.572 -0.72799999 0.33899999
5.5679998 -0.71200001 0.33899999
5.5679998 -0.69599998 0.33899999
5.5640001 -0.67900002 0.33899999
5.5770001 -0.66500002 0.33899999
5.5679998 -0.648 0.33899999
5.5689998 -0.63200003 0.33899999
5.5700002 -0.616 0.33899999
5.566 -0.59899998 0.338
5.5570002 -0.58200002 0.338
5.5630002 -0.56699997 0.338
5.5710001 -0.55199999 0.33899999
5.5609999 -0.53500003 0.338
5.553 -0.51800001 0.33700001
5.5700002 -0.50400001 0.338
5.5619998 -0.48699999 0.338
5.5630002 -0.47099999 0.338
5.572 -0.456 0.338
5.5599999 -0.43900001 0.33700001
5.5650001 -0.42399999 0.338
5.5689998 -0.40799999 0.338
5.5700002 -0.39199999 0.338
5.572 -0.37599999 0.338
5.573 -0.36000001 0.338
5.5710001 -0.34400001 0.338
5.5749998 -0.32800001 0.338
5.5689998 -0.31200001 0.33700001
5.5700002 -0.296 0.33700001
5.5770001 -0.28 0.338
5.5780001 -0.26499999 0.338
5.5869999 -0.249 0.338
5.5780001 -0.233 0.33700001
5.5949998 -0.21699999 0.338
5.5809999 -0.20100001 0.33700001
5.5929999 -0.185 0.338
5.6110001 -0.17 0.33899999
5.6030002 -0.153 0.33899999
5.631 -0.138 0.34
5.6329999 -0.122 0.34
5.6269999 -0.106 0.34
5.6630001 -0.090000004 0.34200001
5.664 -0.074000001 0.34200001
5.6789999 -0.057999998 0.34299999
5.677 -0.041000001 0.34200001
5.7069998 -0.025 0.34400001
5.7129998 -0.0089999996 0.34400001
5.7189999 0.0060000001 0.345
5.7449999 0.023 0.34599999
5.763 0.039999999 0.347
5.7880001 0.056000002 0.34900001
5.7919998 0.072999999 0.34900001
5.8119998 0.090000004 0.34999999
5.8060002 0.106 0.34900001
5.8540001 0.124 0.352
5.7870002 0.139 0.34799999
5.8400002 0.15700001 0.35100001
5.8899999 0.175 0.354
5.875 0.192 0.35299999
5.902 0.20999999 0.35499999
5.901 0.227 0.35499999
5.5339999 0.055 0.30000001
5.5310001 0.059999999 0.30000001
5.5320001 0.064999998 0.30000001
5.5320001 0.07 0.30000001
5.526 0.075000003 0.29899999
5.526 0.081 0.29899999
5.526 0.086000003 0.29899999
5.526 0.092 0.29899999
5.5050001 0.097999997 0.29699999
5.5040002 0.104 0.29699999
5.5190001 0.11 0.29800001
5.5009999 0.116 0.29699999
5.4980001 0.123 0.296
5.5040002 0.12899999 0.29699999
5.4910002 0.13600001 0.296
5.4910002 0.14300001 0.296
5.4910002 0.15000001 0.296
5.4819999 0.15700001 0.29499999
5.4899998 0.164 0.29499999
5.4840002 0.171 0.29499999
5.4819999 0.17900001 0.29499999
5.4809999 0.186 0.29499999
5.4749999 0.19400001 0.294
5.4749999 0.20200001 0.294
5.4749999 0.20999999 0.294
5.467 0.21799999 0.294
5.4590001 0.226 0.29300001
5.461 0.234 0.29300001
5.4520001 0.242 0.29300001
5.461 0.25099999 0.29300001
5.4450002 0.259 0.292
5.4439998 0.26800001 0.292
5.4439998 0.27700001 0.292
5.4439998 0.28600001 0.292
5.4380002 0.29499999 0.292
5.4429998 0.30500001 0.292
5.4450002 0.31400001 0.292
5.4359999 0.32300001 0.29100001
5.4289999 0.33199999 0.29100001
5.4320002 0.34200001 0.29100001
5.427 0.352 0.29100001
5.4330001 0.36199999 0.29100001
5.4260001 0.37200001 0.29100001
5.4250002 0.382 0.29100001
5.4219999 0.39199999 0.29100001
5.4219999 0.403 0.29100001
5.4229999 0.41299999 0.29100001
5.414 0.42300001 0.28999999
5.4070001 0.43399999 0.28999999
5.4180002 0.44499999 0.28999999
5.4190001 0.45699999 0.29100001
5.4099998 0.46700001 0.28999999
5.4029999 0.477 0.28999999
5.4089999 0.48899999 0.28999999
5.4159999 0.50099999 0.28999999
5.4000001 0.51099998 0.28999999
5.4070001 0.52399999 0.28999999
5.3979998 0.53500003 0.28999999
5.3969998 0.546 0.28999999
5.3870001 0.55699998 0.289
5.401 0.57099998 0.28999999
5.3870001 0.58099997 0.289
5.3909998 0.59399998 0.289
4.7620001 0.53500003 0.25600001
4.7069998 0.54000002 0.25299999
4.618 0.54100001 0.248
4.5279999 0.54100001 0.243
4.48 0.546 0.241
4.4180002 0.54900002 0.237
4.355 0.551 0.234
4.3140001 0.55699998 0.23199999
4.3249998 0.56800002 0.233
4.3039999 0.57599998 0.23199999
4.296 0.58600003 0.23100001
4.3010001 0.597 0.23199999
4.2870002 0.60600001 0.23100001
4.276 0.61500001 0.23
4.2779999 0.62599999 0.23100001
4.27 0.63599998 0.23
4.2600002 0.64600003 0.23
4.2519999 0.65600002 0.229
4.244 0.66600001 0.229
4.2360001 0.67500001 0.229
4.2280002 0.685 0.228
4.2259998 0.69599998 0.228
4.211 0.70499998 0.228
4.2090001 0.71600002 0.228
4.1999998 0.72600001 0.227
4.198 0.73699999 0.227
4.1880002 0.74699998 0.227
4.1729999 0.75599998 0.226
4.1739998 0.76800001 0.226
4.1630001 0.77700001 0.226
4.1529999 0.787 0.226
4.151 0.79900002 0.226
4.1430001 0.80900002 0.22499999
4.1409998 0.81999999 0.22499999
4.152 0.83499998 0.226
4.1700001 0.85100001 0.227
4.2270002 0.87400001 0.23
4.2909999 0.89999998 0.234
4.2810001 0.91100001 0.234
4.2129998 0.90899998 0.23
4.1960001 0.91799998 0.229
4.1939998 0.93000001 0.229
4.1529999 0.93300003 0.227
4.0999999 0.93400002 0.22400001
4.0599999 0.93699998 0.222
4.0370002 0.94400001 0.221
4.0339999 0.95599997 0.221
4.0250001 0.96600002 0.221
4.013 0.97600001 0.22
4.006 0.98699999 0.22
3.9960001 0.99699998 0.22
3.994 1.0089999 0.22
3.9909999 1.021 0.22
4.0019999 1.0369999 0.221
4.0300002 1.057 0.222
4.073 1.082 0.22499999
4.1880002 1.125 0.23100001
4.165 1.133 0.23
4.1279998 1.136 0.228
4.098 1.142 0.227
4.0560002 1.1440001 0.22499999
4.0409999 1.153 0.22400001
3.964 1.1440001 0.22
3.8970001 1.138 0.21699999
3.885 1.147 0.21600001
3.869 1.156 0.215
3.865 1.168 0.215
3.848 1.176 0.215
3.836 1.1849999 0.214
3.835 1.198 0.214
3.8369999 1.212 0.215
3.8210001 1.22 0.214
3.8110001 1.23 0.214
3.7969999 1.239 0.213
3.789 1.25 0.213
3.7909999 1.2640001 0.213
3.7809999 1.274 0.213
3.7709999 1.284 0.212
3.753 1.291 0.212
3.7490001 1.304 0.212
3.7390001 1.314 0.211
3.727 1.323 0.211
3.724 1.336 0.211
3.707 1.3430001 0.20999999
3.7079999 1.357 0.20999999
3.697 1.367 0.20999999
3.7049999 1.383 0.211
3.7650001 1.42 0.214
3.829 1.4579999 0.21799999
3.8559999 1.483 0.22
3.915 1.521 0.22400001
4.0370002 1.5829999 0.23100001
4.1259999 1.6339999 0.236
4.04 1.615 0.23199999
4.059 1.638 0.233
4.0349998 1.6440001 0.23199999
5.243 2.1570001 0.30199999
5.2360001 2.174 0.30199999
5.2290001 2.1919999 0.30199999
5.2329998 2.214 0.30199999
5.2389998 2.237 0.303
5.2319999 2.2550001 0.303
5.2249999 2.2720001 0.303
5.224 2.293 0.303
5.2280002 2.3150001 0.30399999
5.21 2.3280001 0.303
5.2179999 2.3529999 0.30399999
5.2160001 2.3729999 0.30399999
5.2069998 2.3900001 0.30399999
5.2049999 2.4100001 0.30500001
5.204 2.431 0.30500001
5.2030001 2.4519999 0.30500001
5.145 2.4449999 0.30199999
5.086 2.4389999 0.29899999
5.0430002 2.4389999 0.29699999
4.9899998 2.434 0.294
4.9289999 2.425 0.29100001
4.8909998 2.4260001 0.289
4.8369999 2.4200001 0.287
4.7950001 2.4189999 0.28400001
4.743 2.4130001 0.28200001
4.6929998 2.408 0.27900001
4.6479998 2.404 0.27700001
4.6129999 2.4059999 0.27500001
4.6209998 2.4300001 0.27599999
4.6469998 2.464 0.278
4.7119999 2.5190001 0.28200001
4.7750001 2.573 0.287
4.7740002 2.5929999 0.287
4.7820001 2.619 0.28799999
4.77 2.6329999 0.28799999
4.7810001 2.6600001 0.289
4.7779999 2.6800001 0.289
4.7789998 2.701 0.289
4.7779999 2.7219999 0.28999999
4.79 2.75 0.29100001
4.7649999 2.7579999 0.28999999
4.7789998 2.7869999 0.29100001
4.7670002 2.802 0.29100001
4.7659998 2.822 0.29100001
4.7639999 2.8429999 0.292
4.7589998 2.862 0.292
4.7550001 2.881 0.292
4.75 2.9000001 0.292
4.737 2.914 0.292
4.7249999 2.928 0.292
4.7290001 2.9519999 0.292
4.7080002 2.961 0.292
4.698 2.977 0.292
4.6859999 2.9920001 0.29100001
4.6700001 3.003 0.29100001
4.6490002 3.0109999 0.28999999
4.645 3.0309999 0.28999999
4.638 3.0480001 0.28999999
4.6149998 3.0550001 0.289
4.6110001 3.0739999 0.28999999
4.5879998 3.0810001 0.289
4.572 3.0929999 0.28799999
4.5619998 3.108 0.28799999
4.552 3.1229999 0.28799999
4.5359998 3.1340001 0.287
4.5190001 3.145 0.287
4.5040002 3.1559999 0.28600001
4.4860001 3.165 0.28600001
4.4840002 3.1849999 0.28600001
4.4660001 3.1949999 0.285
4.4349999 3.1949999 0.28400001
5.5599999 -3.651 0.36500001
5.5869999 -3.6340001 0.36700001
5.5840001 -3.5969999 0.366
5.6199999 -3.586 0.368
5.6139998 -3.5480001 0.36700001
5.638 -3.529 0.36899999
5.6700001 -3.516 0.37099999
5.665 -3.4790001 0.37
5.6820002 -3.4560001 0.37099999
5.684 -3.424 0.37099999
5.7049999 -3.404 0.37200001
5.7199998 -3.3800001 0.37200001
5.7179999 -3.3469999 0.37200001
5.723 -3.3180001 0.37200001
5.7280002 -3.289 0.37200001
5.757 -3.2739999 0.37400001
5.7389998 -3.2320001 0.37200001
5.724 -3.1930001 0.37099999
5.7340002 -3.168 0.37099999
5.7340002 -3.1370001 0.37099999
5.7389998 -3.1099999 0.37099999
5.7620001 -3.092 0.37200001
5.7529998 -3.0569999 0.37200001
5.7600002 -3.0309999 0.37200001
5.7670002 -3.0050001 0.37200001
5.7709999 -2.9779999 0.37200001
5.7820001 -2.9549999 0.373
5.7880001 -2.9289999 0.373
5.7919998 -2.902 0.373
5.803 -2.8789999 0.373
5.803 -2.8510001 0.373
5.803 -2.823 0.373
5.8010001 -2.7939999 0.37200001
5.8169999 -2.7739999 0.373
5.8189998 -2.7479999 0.373
5.8169999 -2.72 0.373
5.829 -2.698 0.373
5.8150001 -2.665 0.37200001
5.822 -2.642 0.37200001
5.8210001 -2.615 0.37200001
5.8280001 -2.592 0.37200001
5.8249998 -2.5639999 0.37200001
5.8210001 -2.536 0.37200001
5.816 -2.5090001 0.37099999
5.8340001 -2.4909999 0.37200001
5.8239999 -2.461 0.37099999
5.816 -2.4330001 0.37099999
5.8280001 -2.4130001 0.37099999
5.835 -2.391 0.37099999
5.8270001 -2.3629999 0.37099999
5.8280001 -2.339 0.37099999
5.8200002 -2.312 0.37
5.822 -2.2880001 0.37
5.8239999 -2.2650001 0.37
5.8189998 -2.24 0.36899999
5.8210001 -2.217 0.36899999
5.8179998 -2.1919999 0.36899999
5.8169999 -2.1689999 0.36899999
5.8150001 -2.145 0.36899999
5.8169999 -2.1229999 0.36899999
5.8099999 -2.098 0.368
5.7529998 -2.0550001 0.36399999
5.717 -2.02 0.36199999
5.71 -1.9960001 0.361
5.7150002 -1.976 0.361
5.71 -1.952 0.361
5.691 -1.925 0.36000001
5.6550002 -1.891 0.35699999
5.6409998 -1.8660001 0.35600001
5.6350002 -1.8430001 0.35600001
5.6329999 -1.822 0.35499999
5.6079998 -1.793 0.354
5.618 -1.777 0.354
5.6020002 -1.752 0.35299999
5.6269999 -1.739 0.354
5.6339998 -1.721 0.35499999
5.6269999 -1.7 0.354
5.632 -1.682 0.354
5.6300001 -1.661 0.354
5.6259999 -1.641 0.354
5.6259999 -1.622 0.354
5.619 -1.601 0.35299999
5.6300001 -1.585 0.354
5.6199999 -1.563 0.35299999
5.6079998 -1.541 0.352
5.6230001 -1.527 0.35299999
5.6220002 -1.508 0.35299999
5.618 -1.489 0.35299999
5.631 -1.474 0.35299999
5.6729999 -1.467 0.35600001
5.6950002 -1.454 0.35699999
5.6300001 -1.42 0.35299999
5.6129999 -1.398 0.352
5.6170001 -1.381 0.352
5.6160002 -1.363 0.352
5.6110001 -1.344 0.35100001
5.6059999 -1.326 0.35100001
5.6129999 -1.3099999 0.35100001
5.6009998 -1.291 0.34999999
5.599 -1.273 0.34999999
5.6020002 -1.257 0.34999999
5.6040001 -1.2410001 0.34999999
5.5949998 -1.222 0.34999999
5.598 -1.206 0.34999999
5.599 -1.1900001 0.34999999
5.5840001 -1.171 0.34900001
5.5830002 -1.154 0.34900001
5.5970001 -1.141 0.34999999
5.5939999 -1.125 0.34900001
5.5879998 -1.108 0.34900001
5.585 -1.091 0.34900001
5.5770001 -1.074 0.34799999
5.5830002 -1.0599999 0.34799999
5.5879998 -1.045 0.34900001
5.5939999 -1.031 0.34900001
