# .PCD v0.7 - Point Cloud Data file format
VERSION 0.7
FIELDS x y z
SIZE 4 4 4
TYPE F F F
COUNT 1 1 1
WIDTH 1945
HEIGHT 1
VIEWPOINT 0 0 0 1 0 0 0
POINTS 1945
DATA ascii
5.4499998 -0.428 1.155
5.4520001 -0.412 1.155
5.4520001 -0.396 1.155
5.4530001 -0.38 1.155
5.4590001 -0.36399999 1.156
5.4699998 -0.34900001 1.158
5.4660001 -0.33199999 1.156
5.4720001 -0.317 1.1569999
5.473 -0.301 1.1569999
5.474 -0.28400001 1.1569999
5.4899998 -0.26899999 1.16
5.4959998 -0.25299999 1.161
5.4980001 -0.237 1.161
5.4980001 -0.221 1.161
5.5100002 -0.205 1.163
5.5120001 -0.189 1.163
5.527 -0.17299999 1.166
5.5359998 -0.15700001 1.1670001
5.5430002 -0.141 1.168
5.5570002 -0.125 1.171
5.5999999 -0.109 1.179
5.6139998 -0.093000002 1.182
5.6149998 -0.077 1.182
5.6290002 -0.059999999 1.184
5.6440001 -0.044 1.187
5.664 -0.027000001 1.191
5.737 -0.011 1.206
5.7480001 0.039000001 1.207
5.7129998 0.056000002 1.199
5.73 0.072999999 1.202
5.7189999 0.089000002 1.2
5.809 0.108 1.2180001
5.8179998 0.125 1.219
5.8649998 0.14300001 1.229
5.6360002 0.085000001 1.249
5.6360002 0.089000002 1.248
5.6560001 0.093999997 1.252
5.6279998 0.098999999 1.2460001
5.631 0.104 1.2460001
5.6300001 0.11 1.245
5.6199999 0.115 1.243
5.6160002 0.12 1.2410001
5.6160002 0.126 1.2410001
5.6129999 0.132 1.24
5.6160002 0.138 1.2410001
5.6090002 0.14399999 1.239
5.6069999 0.15000001 1.238
5.6220002 0.15700001 1.2410001
5.5999999 0.163 1.2359999
5.5749998 0.169 1.23
5.559 0.175 1.226
5.5619998 0.183 1.227
5.5539999 0.189 1.225
5.5479999 0.19599999 1.223
5.5469999 0.204 1.223
5.5359998 0.211 1.22
5.5209999 0.21799999 1.217
5.5339999 0.226 1.22
5.5310001 0.234 1.219
5.513 0.241 1.215
5.4920001 0.248 1.21
5.5009999 0.257 1.212
5.48 0.264 1.2079999
5.4889998 0.273 1.21
5.4850001 0.28099999 1.209
5.474 0.28999999 1.206
5.4699998 0.29800001 1.206
5.4629998 0.30700001 1.204
5.4689999 0.31600001 1.206
5.4629998 0.32499999 1.204
5.4450002 0.333 1.2
5.4549999 0.34299999 1.2029999
5.448 0.352 1.202
5.4460001 0.36199999 1.201
5.4390001 0.37099999 1.2
5.4390001 0.38100001 1.2
5.4460001 0.391 1.202
5.4369998 0.40099999 1.2
5.4439998 0.412 1.202
5.4359999 0.421 1.2
5.4219999 0.43099999 1.197
5.434 0.442 1.2
5.4330001 0.45300001 1.2
5.4400001 0.46399999 1.202
5.4239998 0.47400001 1.199
5.421 0.484 1.199
5.4219999 0.49599999 1.199
5.421 0.50700003 1.199
5.4169998 0.51800001 1.199
5.4260001 0.52999997 1.201
4.5450001 0.45300001 1.007
5.4169998 0.55199999 1.2
5.4099998 0.56300002 1.199
5.4289999 0.57700002 1.204
4.4390001 0.48199999 0.98500001
4.4099998 0.48800001 0.97799999
4.4629998 0.50400001 0.991
4.4860001 0.51700002 0.99599999
4.4330001 0.52100003 0.98500001
4.3470001 0.52100003 0.96600002
4.369 0.53399998 0.97100002
4.3639998 0.54299998 0.97100002
4.362 0.55299997 0.97100002
4.448 0.57499999 0.991
4.598 0.60500002 1.024
4.5009999 0.60299999 1.003
4.4239998 0.60399997 0.98699999
5.4180002 0.75300002 1.209
5.4050002 0.76499999 1.207
4.5040002 0.648 1.006
4.3779998 0.64099997 0.97899997
4.3629999 0.64999998 0.97600001
4.3540001 0.66000003 0.97399998
4.3660002 0.67299998 0.97799999
4.3449998 0.68099999 0.97399998
4.3169999 0.68800002 0.96799999
4.3200002 0.69999999 0.96899998
4.2870002 0.70599997 0.963
4.2449999 0.70999998 0.954
4.2049999 0.71499997 0.94499999
4.2610002 0.736 0.95899999
4.3169999 0.75700003 0.972
4.289 0.764 0.96600002
4.3330002 0.78399998 0.977
4.2389998 0.778 0.95599997
4.2020001 0.78299999 0.949
4.2280002 0.80000001 0.95499998
4.1880002 0.80400002 0.94700003
4.1859999 0.81599998 0.94700003
4.1170001 0.81400001 0.93300003
4.0770001 0.81800002 0.92400002
4.1139998 0.83700001 0.93300003
4.1479998 0.85600001 0.94199997
4.1599998 0.87099999 0.94499999
4.145 0.88 0.94300002
4.1230001 0.88800001 0.93800002
4.0879998 0.89200002 0.93099999
4.086 0.90399998 0.93199998
4.1409998 0.92900002 0.94499999
4.138 0.94099998 0.94499999
4.1389999 0.95300001 0.94599998
4.152 0.96899998 0.94999999
4.2129998 0.99599999 0.96499997
4.23 1.013 0.97000003
4.1560001 1.0089999 0.954
4.1209998 1.013 0.94700003
4.1370001 1.03 0.95099998
4.1539998 1.0470001 0.95599997
4.1939998 1.071 0.96600002
5.3969998 1.395 1.245
5.3889999 1.411 1.244
5.3969998 1.448 1.249
5.381 1.461 1.2460001
5.388 1.4809999 1.249
5.3800001 1.4960001 1.249
5.3839998 1.515 1.251
5.3740001 1.53 1.25
5.381 1.55 1.253
5.3759999 1.567 1.253
5.381 1.587 1.256
5.3790002 1.604 1.257
5.3740001 1.6210001 1.257
5.3829999 1.642 1.261
5.3779998 1.659 1.261
5.3720002 1.676 1.261
5.3730001 1.6950001 1.263
5.3720002 1.7130001 1.2640001
5.3660002 1.73 1.2640001
5.375 1.752 1.268
5.3649998 1.768 1.267
5.362 1.786 1.268
5.3629999 1.8049999 1.27
5.362 1.824 1.271
5.3639998 1.844 1.273
5.3499999 1.859 1.272
5.3639998 1.883 1.277
5.3579998 1.901 1.277
5.3449998 1.916 1.275
5.3499999 1.938 1.278
5.3429999 1.955 1.278
5.3569999 1.98 1.283
5.3629999 2.0020001 1.2869999
5.355 2.0190001 1.286
5.3629999 2.0420001 1.29
5.348 2.0569999 1.288
5.3309999 2.0699999 1.286
5.3429999 2.096 1.291
5.342 2.1159999 1.2920001
5.3340001 2.1329999 1.2920001
5.3439999 2.158 1.296
5.3559999 2.1830001 1.301
5.348 2.201 1.301
5.348 2.2219999 1.303
5.3439999 2.2420001 1.304
5.336 2.2590001 1.304
5.336 2.28 1.306
5.3470001 2.306 1.311
5.3530002 2.3299999 1.314
5.3429999 2.3469999 1.314
5.3210001 2.359 1.3099999
5.3270001 2.3840001 1.314
5.3319998 2.4070001 1.317
5.3309999 2.4289999 1.319
5.3390002 2.454 1.323
5.3410001 2.477 1.326
5.322 2.49 1.323
5.3249998 2.5139999 1.326
5.3210001 2.5339999 1.327
5.3130002 2.553 1.327
5.3049998 2.5710001 1.327
5.3210001 2.6010001 1.3329999
5.3239999 2.625 1.336
5.323 2.6470001 1.3380001
5.329 2.6730001 1.342
5.3270001 2.6949999 1.344
5.3109999 2.7090001 1.342
5.3200002 2.737 1.347
5.3080001 2.7539999 1.346
5.3239999 2.7850001 1.352
5.3200002 2.806 1.353
5.322 2.8310001 1.3559999
5.3080001 2.846 1.355
5.3270001 2.8800001 1.362
5.322 2.901 1.364
5.3049998 2.915 1.3609999
5.309 2.9419999 1.365
5.3150001 2.9690001 1.369
5.2839999 2.9749999 1.363
5.289 3.0020001 1.367
5.0300002 2.878 1.303
4.9520001 2.8559999 1.285
4.8969998 2.846 1.273
4.8889999 2.8640001 1.273
4.855 2.8659999 1.267
4.842 2.881 1.265
4.8979998 2.937 1.283
4.9450002 2.9879999 1.2970001
4.8379998 2.9460001 1.272
4.7610002 2.9219999 1.2539999
4.7350001 2.928 1.249
4.7069998 2.9330001 1.244
4.697 2.9489999 1.244
4.665 2.951 1.238
4.6500001 2.964 1.2359999
4.632 2.9749999 1.234
4.6079998 2.9809999 1.23
4.5970001 2.997 1.23
4.5799999 3.0079999 1.227
4.559 3.016 1.224
4.5349998 3.023 1.22
4.5279999 3.04 1.221
4.507 3.0480001 1.2180001
4.5019999 3.0669999 1.219
4.487 3.079 1.217
4.4720001 3.0910001 1.216
4.4559999 3.102 1.214
4.4320002 3.1070001 1.21
4.4229999 3.1229999 1.21
4.4130001 3.138 1.209
4.4000001 3.151 1.2079999
5.0960002 -3.355 1.158
5.1079998 -3.3299999 1.159
5.1360002 -3.3169999 1.165
5.1500001 -3.2939999 1.1670001
5.1630001 -3.2709999 1.169
5.178 -3.2490001 1.171
5.1919999 -3.227 1.173
5.21 -3.2079999 1.176
5.211 -3.178 1.175
5.2309999 -3.1600001 1.179
5.2379999 -3.1329999 1.179
5.2449999 -3.108 1.1799999
5.2519999 -3.082 1.181
5.257 -3.056 1.181
5.2690001 -3.0339999 1.183
5.277 -3.0090001 1.183
5.2820001 -2.983 1.183
5.2940001 -2.961 1.1849999
5.3049998 -2.9389999 1.187
5.3109999 -2.914 1.187
5.3150001 -2.888 1.187
5.3210001 -2.8629999 1.188
5.3270001 -2.839 1.188
5.3249998 -2.8099999 1.187
5.3410001 -2.7920001 1.1900001
5.3439999 -2.766 1.189
5.3579998 -2.7460001 1.192
5.3530002 -2.717 1.1900001
5.3600001 -2.694 1.1900001
5.3709998 -2.6730001 1.192
5.3740001 -2.648 1.192
5.3839998 -2.6270001 1.193
5.375 -2.5969999 1.1900001
5.3899999 -2.579 1.193
5.388 -2.552 1.192
5.395 -2.53 1.193
5.3940001 -2.5039999 1.192
5.3979998 -2.4809999 1.192
5.4070001 -2.461 1.193
5.4029999 -2.434 1.191
5.4039998 -2.4100001 1.191
5.402 -2.385 1.1900001
5.4029999 -2.362 1.189
5.4190001 -2.3440001 1.192
5.401 -2.313 1.187
5.4000001 -2.289 1.187
5.4039998 -2.267 1.187
5.3930001 -2.24 1.184
5.381 -2.2119999 1.1799999
5.3829999 -2.1900001 1.1799999
5.4109998 -2.178 1.186
5.4039998 -2.1530001 1.183
5.4109998 -2.1340001 1.184
5.4200001 -2.115 1.186
5.4130001 -2.0899999 1.184
5.415 -2.069 1.183
5.4219999 -2.049 1.184
5.4180002 -2.026 1.183
5.4219999 -2.006 1.183
5.415 -1.982 1.181
5.4239998 -1.964 1.182
5.4159999 -1.9400001 1.1799999
5.4169998 -1.92 1.1799999
5.415 -1.898 1.179
5.428 -1.882 1.181
5.4289999 -1.862 1.181
5.428 -1.841 1.1799999
5.4200001 -1.818 1.178
5.4260001 -1.8 1.179
5.4190001 -1.777 1.177
5.4250002 -1.7589999 1.177
5.4159999 -1.737 1.175
5.4190001 -1.7180001 1.175
5.4130001 -1.697 1.173
5.4130001 -1.678 1.173
5.421 -1.661 1.174
5.4169998 -1.64 1.173
5.4190001 -1.622 1.173
5.427 -1.6059999 1.174
5.427 -1.587 1.173
5.4229999 -1.567 1.1720001
5.4219999 -1.548 1.1720001
5.4200001 -1.529 1.171
5.4190001 -1.511 1.17
5.4299998 -1.495 1.1720001
5.421 -1.475 1.17
5.4190001 -1.456 1.169
5.415 -1.438 1.168
5.4130001 -1.419 1.1670001
5.4239998 -1.405 1.169
5.4299998 -1.3890001 1.169
5.4200001 -1.369 1.1670001
5.4130001 -1.35 1.165
5.4130001 -1.3329999 1.165
5.4239998 -1.318 1.1670001
5.408 -1.2970001 1.163
5.4250002 -1.285 1.166
5.414 -1.265 1.163
5.4120002 -1.248 1.163
5.428 -1.235 1.166
5.4190001 -1.217 1.163
5.414 -1.2 1.1619999
5.4169998 -1.184 1.1619999
5.414 -1.1670001 1.1619999
5.4239998 -1.153 1.163
5.4130001 -1.135 1.161
5.4180002 -1.12 1.161
5.4130001 -1.104 1.16
5.4099998 -1.087 1.159
5.4180002 -1.074 1.161
5.4130001 -1.057 1.159
5.4109998 -1.041 1.158
5.4190001 -1.028 1.16
5.4089999 -1.011 1.1569999
5.4260001 -0.99900001 1.161
5.4200001 -0.98299998 1.159
5.4239998 -0.96799999 1.16
5.415 -0.95200002 1.158
5.4219999 -0.93900001 1.159
5.4109998 -0.92199999 1.156
5.421 -0.90899998 1.158
5.415 -0.89399999 1.1569999
5.4250002 -0.88099998 1.159
5.4200001 -0.866 1.1569999
5.4219999 -0.852 1.1569999
5.4169998 -0.838 1.156
5.4190001 -0.824 1.156
5.4250002 -0.81099999 1.1569999
5.4229999 -0.79699999 1.1569999
5.4320002 -0.78399998 1.158
5.4190001 -0.76899999 1.156
5.4359999 -0.75700003 1.159
5.4229999 -0.74199998 1.156
5.4250002 -0.72899997 1.156
5.428 -0.71600002 1.1569999
5.428 -0.70300001 1.156
5.4299998 -0.69 1.1569999
5.4310002 -0.67699999 1.1569999
5.4330001 -0.66399997 1.1569999
5.434 -0.65100002 1.1569999
5.4239998 -0.63700002 1.155
5.4369998 -0.62599999 1.1569999
5.4439998 -0.61400002 1.159
5.428 -0.60000002 1.155
5.441 -0.58899999 1.158
5.4429998 -0.57599998 1.158
5.4369998 -0.56300002 1.1569999
5.4380002 -0.551 1.1569999
5.441 -0.53899997 1.1569999
5.4419999 -0.52700001 1.1569999
5.4419999 -0.51499999 1.1569999
5.4369998 -0.50300002 1.156
5.4330001 -0.49000001 1.155
5.4390001 -0.479 1.156
5.4460001 -0.46799999 1.1569999
5.4450002 -0.456 1.1569999
5.4419999 -0.44400001 1.156
5.4549999 -0.43399999 1.159
5.4569998 -0.42199999 1.159
5.4510002 -0.41 1.158
5.4629998 -0.40000001 1.161
5.4520001 -0.38800001 1.158
5.454 -0.377 1.158
5.4679999 -0.36700001 1.161
5.4689999 -0.35600001 1.161
5.4699998 -0.345 1.1619999
5.4650002 -0.33399999 1.16
5.4710002 -0.32300001 1.1619999
5.4780002 -0.31299999 1.163
5.4790001 -0.30199999 1.163
5.48 -0.29100001 1.163
5.48 -0.28099999 1.163
5.48 -0.27000001 1.163
5.4949999 -0.26100001 1.166
5.4899998 -0.25 1.165
5.4959998 -0.23999999 1.1670001
5.4829998 -0.229 1.164
5.4889998 -0.219 1.165
5.5040002 -0.20999999 1.168
5.5120001 -0.2 1.17
5.5250001 -0.19 1.173
5.52 -0.18000001 1.1720001
5.526 -0.17 1.173
5.52 -0.161 1.1720001
5.5409999 -0.15099999 1.176
5.5409999 -0.142 1.176
5.54 -0.132 1.176
5.5619998 -0.123 1.181
5.585 -0.114 1.1849999
5.5830002 -0.104 1.1849999
5.612 -0.094999999 1.191
5.619 -0.086000003 1.193
5.6209998 -0.077 1.193
5.6609998 -0.068000004 1.202
5.6630001 -0.059 1.202
5.6760001 -0.050000001 1.205
5.6690001 -0.041000001 1.204
5.704 -0.032000002 1.211
5.71 -0.023 1.212
5.7750001 -0.014 1.226
5.8080001 -0.0049999999 1.233
5.7950001 0.029999999 1.2309999
5.8140001 0.039000001 1.235
5.5650001 0.109 1.247
5.5840001 0.119 1.251
5.5650001 0.12800001 1.247
5.572 0.138 1.248
5.5570002 0.148 1.245
5.5710001 0.15800001 1.248
5.573 0.169 1.248
5.5580001 0.178 1.245
5.5700002 0.189 1.248
5.5440001 0.199 1.242
5.5510001 0.20999999 1.243
5.546 0.22 1.242
5.5419998 0.23100001 1.2410001
5.5209999 0.241 1.237
5.5120001 0.252 1.235
5.52 0.26300001 1.237
5.5139999 0.27399999 1.235
5.513 0.28600001 1.235
5.5 0.29699999 1.232
5.494 0.308 1.2309999
5.4990001 0.31999999 1.232
5.493 0.331 1.2309999
5.4980001 0.34299999 1.232
4.5180001 0.292 1.013
5.4699998 0.366 1.226
5.4689999 0.37799999 1.226
5.48 0.391 1.229
5.467 0.40200001 1.226
5.4640002 0.414 1.226
5.4590001 0.42699999 1.225
5.4559999 0.43900001 1.225
5.4549999 0.45199999 1.225
5.46 0.465 1.226
5.441 0.47600001 1.222
5.4390001 0.48899999 1.222
5.4439998 0.50199997 1.224
5.4320002 0.514 1.221
5.4299998 0.52700001 1.221
4.513 0.449 1.015
5.4250002 0.55400002 1.221
4.5949998 0.47999999 1.034
4.5009999 0.48199999 1.013
5.4289999 0.59500003 1.223
4.4860001 0.50300002 1.011
4.3899999 0.50300002 0.99000001
4.4580002 0.523 1.005
5.4169998 0.64899999 1.222
4.4029999 0.53899997 0.99400002
4.3410001 0.54299998 0.98000002
4.3629999 0.55699998 0.98500001
4.3850002 0.57200003 0.991
4.473 0.59500003 1.011
5.4239998 0.736 1.227
5.415 0.75 1.225
4.5710001 0.64499998 1.035
5.4200001 0.77999997 1.228
4.4359999 0.64999998 1.005
4.4770002 0.66900003 1.015
4.3959999 0.66900003 0.99699998
4.368 0.67699999 0.99199998
4.4200001 0.69700003 1.0039999
4.4959998 0.722 1.021
4.3369999 0.708 0.986
4.336 0.72100002 0.986
4.2659998 0.72100002 0.97100002
4.2210002 0.72600001 0.96100003
4.2940001 0.75099999 0.97799999
4.3319998 0.76999998 0.98799998
4.3309999 0.78200001 0.98799998
4.322 0.79299998 0.98699999
4.2420001 0.79100001 0.96899998
4.237 0.80299997 0.96799999
4.1849999 0.80500001 0.95700002
4.1490002 0.81099999 0.94999999
4.1059999 0.815 0.94099998
4.0549998 0.81699997 0.92900002
4.092 0.83600003 0.93900001
4.1729999 0.866 0.958
4.1570001 0.875 0.95499998
4.1620002 0.889 0.95700002
4.125 0.89399999 0.949
4.125 0.90600002 0.94999999
4.1599998 0.92699999 0.958
4.1630001 0.94 0.95999998
4.1430001 0.949 0.95599997
4.177 0.97000003 0.96499997
4.2119999 0.991 0.97299999
4.2680001 1.018 0.98699999
4.1939998 1.013 0.97100002
4.2259998 1.034 0.97899997
4.2909999 1.064 0.995
4.2610002 1.0700001 0.98900002
4.3099999 1.096 1.001
4.2940001 1.1059999 0.99800003
5.3850002 1.405 1.253
5.3870001 1.423 1.255
5.3930001 1.442 1.257
5.3909998 1.459 1.258
5.381 1.474 1.257
5.382 1.492 1.258
5.3899999 1.512 1.261
5.3850002 1.528 1.261
5.382 1.545 1.262
5.3759999 1.561 1.261
5.388 1.5829999 1.265
5.3790002 1.598 1.2640001
5.3720002 1.614 1.2640001
5.381 1.635 1.267
5.3759999 1.652 1.268
5.3699999 1.668 1.267
5.3660002 1.6849999 1.268
5.3730001 1.705 1.271
5.3670001 1.722 1.271
5.362 1.739 1.271
5.368 1.7589999 1.273
5.3649998 1.776 1.274
5.3590002 1.793 1.274
5.3540001 1.8099999 1.274
5.348 1.826 1.274
5.3499999 1.845 1.276
5.348 1.863 1.277
5.3439999 1.881 1.277
5.342 1.898 1.278
5.349 1.92 1.281
5.349 1.939 1.283
5.3449998 1.956 1.283
5.3439999 1.975 1.285
5.3439999 1.994 1.286
5.3369999 2.01 1.286
5.3449998 2.0320001 1.289
5.3439999 2.05 1.29
5.3429999 2.069 1.2920001
5.3369999 2.086 1.2920001
5.3309999 2.1029999 1.2920001
5.3400002 2.125 1.296
5.3299999 2.141 1.295
5.3330002 2.161 1.2970001
5.336 2.181 1.3
5.3400002 2.2019999 1.302
5.3410001 2.2219999 1.304
5.3330002 2.2379999 1.304
5.3270001 2.2550001 1.304
5.3309999 2.276 1.307
5.3239999 2.2920001 1.307
5.323 2.312 1.308
5.3319998 2.335 1.312
5.3239999 2.3510001 1.312
5.3130002 2.365 1.3099999
5.3070002 2.382 1.311
5.3140001 2.405 1.314
5.3330002 2.4330001 1.321
5.3249998 2.4489999 1.321
5.3309999 2.471 1.324
5.3299999 2.49 1.325
5.3210001 2.506 1.325
5.3150001 2.523 1.325
5.3119998 2.5409999 1.326
5.3049998 2.5569999 1.326
5.309 2.579 1.329
5.3039999 2.596 1.33
5.3179998 2.6229999 1.335
5.323 2.645 1.3380001
5.3130002 2.6600001 1.3380001
5.3179998 2.6819999 1.341
5.3119998 2.6989999 1.341
5.3010001 2.7130001 1.34
5.3119998 2.7390001 1.345
5.309 2.756 1.346
5.3189998 2.7820001 1.351
5.3109999 2.7980001 1.351
5.3080001 2.816 1.352
5.323 2.8429999 1.358
5.3099999 2.8559999 1.3559999
5.3119998 2.8770001 1.359
5.309 2.895 1.36
5.3140001 2.918 1.363
5.3169999 2.9389999 1.3660001
5.3200002 2.961 1.369
5.3130002 2.977 1.369
5.3000002 2.9890001 1.368
5.3070002 3.013 1.372
5.3010001 3.029 1.372
5.3119998 3.0550001 1.377
5.302 3.069 1.377
5.3049998 3.0910001 1.38
5.3039999 3.1099999 1.382
5.2880001 3.1199999 1.38
5.2919998 3.142 1.383
5.2919998 3.1619999 1.385
5.3099999 3.1919999 1.392
5.29 3.1989999 1.3890001
5.2930002 3.221 1.392
5.2839999 3.2349999 1.392
5.2719998 3.2460001 1.39
5.289 3.277 1.397
5.2810001 3.2909999 1.397
5.2880001 3.3150001 1.401
5.2859998 3.3329999 1.403
5.2800002 3.348 1.404
5.2789998 3.3670001 1.406
5.2820001 3.388 1.409
5.2639999 3.3959999 1.406
5.2309999 3.3929999 1.4
5.23 3.411 1.402
5.2140002 3.4189999 1.4
5.1900001 3.4219999 1.395
5.1760001 3.4319999 1.3940001
5.1560001 3.437 1.391
5.125 3.4349999 1.385
5.0929999 3.431 1.378
5.085 3.444 1.378
4.7449999 3.23 1.288
4.7420001 3.244 1.29
4.7319999 3.2550001 1.289
5.2600002 -3.2179999 1.196
5.2540002 -3.1989999 1.194
5.2610002 -3.187 1.1950001
5.2680001 -3.175 1.197
5.2750001 -3.1630001 1.198
5.2820001 -3.151 1.199
5.2849998 -3.1359999 1.2
5.289 -3.122 1.2
5.29 -3.1070001 1.2
5.2919998 -3.092 1.201
5.2909999 -3.075 1.2
5.3060002 -3.0669999 1.2029999
5.3000002 -3.0469999 1.202
5.3000002 -3.0309999 1.201
5.3070002 -3.0179999 1.2029999
5.3150001 -3.007 1.204
5.3150001 -2.99 1.204
5.316 -2.974 1.204
5.3210001 -2.961 1.205
5.329 -2.9489999 1.206
5.329 -2.9330001 1.206
5.3270001 -2.915 1.205
5.3309999 -2.901 1.206
5.3299999 -2.8840001 1.205
5.3340001 -2.8699999 1.206
5.3319998 -2.852 1.205
5.335 -2.8369999 1.206
5.3390002 -2.822 1.206
5.3379998 -2.806 1.206
5.342 -2.7909999 1.206
5.3400002 -2.7739999 1.206
5.3530002 -2.7639999 1.2079999
5.3410001 -2.7409999 1.205
5.348 -2.7279999 1.206
5.3429999 -2.7090001 1.205
5.349 -2.6960001 1.206
5.3540001 -2.6819999 1.207
5.349 -2.6630001 1.205
5.348 -2.6459999 1.205
5.3610001 -2.6359999 1.2079999
5.3610001 -2.619 1.207
5.3530002 -2.599 1.205
5.3600001 -2.586 1.207
5.3600001 -2.569 1.206
5.3660002 -2.556 1.207
5.3670001 -2.54 1.207
5.3660002 -2.523 1.207
5.3730001 -2.5090001 1.2079999
5.3649998 -2.4890001 1.206
5.3850002 -2.4809999 1.21
5.3790002 -2.4619999 1.2079999
5.3699999 -2.4419999 1.206
5.3779998 -2.4289999 1.2079999
5.3790002 -2.4119999 1.207
5.3769999 -2.395 1.207
5.3699999 -2.3759999 1.205
5.375 -2.3610001 1.206
5.375 -2.345 1.205
5.362 -2.323 1.202
5.3520002 -2.302 1.2
5.3610001 -2.289 1.201
5.3530002 -2.2690001 1.199
5.3579998 -2.2550001 1.2
5.3779998 -2.247 1.204
5.3829999 -2.233 1.205
5.3889999 -2.2190001 1.206
5.3889999 -2.2019999 1.206
5.3870001 -2.1849999 1.205
5.3930001 -2.171 1.206
5.3870001 -2.152 1.204
5.3899999 -2.1370001 1.205
5.3959999 -2.122 1.206
5.3889999 -2.1029999 1.204
5.395 -2.089 1.205
5.3930001 -2.072 1.204
5.3979998 -2.0569999 1.205
5.3979998 -2.0409999 1.204
5.402 -2.026 1.205
5.408 -2.0109999 1.206
5.3940001 -1.99 1.2029999
5.3990002 -1.975 1.2029999
5.3990002 -1.959 1.2029999
5.4089999 -1.946 1.205
5.401 -1.927 1.2029999
5.4120002 -1.914 1.205
5.4099998 -1.897 1.204
5.4099998 -1.88 1.204
5.4070001 -1.863 1.2029999
5.4060001 -1.846 1.202
5.4109998 -1.832 1.2029999
5.4099998 -1.8150001 1.2029999
5.4060001 -1.7970001 1.201
5.4120002 -1.783 1.202
5.4099998 -1.766 1.202
5.421 -1.753 1.204
5.4120002 -1.733 1.201
5.4039998 -1.715 1.199
5.4070001 -1.699 1.2
5.4130001 -1.6849999 1.201
5.4099998 -1.6670001 1.2
5.421 -1.654 1.202
5.4130001 -1.635 1.2
5.4169998 -1.62 1.2
5.4219999 -1.6059999 1.201
5.4260001 -1.59 1.201
5.4299998 -1.575 1.202
5.4219999 -1.556 1.2
5.4190001 -1.539 1.199
5.4159999 -1.522 1.198
5.4190001 -1.506 1.198
5.4250002 -1.492 1.199
5.4299998 -1.477 1.2
5.4250002 -1.459 1.199
5.4089999 -1.439 1.1950001
5.4289999 -1.428 1.199
5.4229999 -1.41 1.197
5.4089999 -1.39 1.194
5.4120002 -1.374 1.194
5.408 -1.357 1.193
5.4180002 -1.3430001 1.1950001
5.4289999 -1.33 1.197
5.427 -1.313 1.196
5.4229999 -1.296 1.1950001
5.4200001 -1.279 1.194
5.4070001 -1.26 1.191
5.4190001 -1.2460001 1.193
5.4229999 -1.2309999 1.193
5.421 -1.214 1.192
5.4229999 -1.198 1.193
5.4200001 -1.182 1.192
5.4159999 -1.164 1.1900001
5.4130001 -1.147 1.189
5.4169998 -1.132 1.1900001
5.4260001 -1.118 1.191
5.414 -1.099 1.189
5.4320002 -1.087 1.192
5.421 -1.068 1.189
5.4109998 -1.05 1.187
5.4120002 -1.034 1.187
5.4169998 -1.0190001 1.187
5.4260001 -1.005 1.189
5.415 -0.986 1.186
5.4229999 -0.972 1.188
5.428 -0.95599997 1.188
5.4159999 -0.93800002 1.1849999
5.4200001 -0.92299998 1.186
5.414 -0.90600002 1.184
5.4159999 -0.88999999 1.184
5.421 -0.875 1.1849999
5.415 -0.85699999 1.183
5.4180002 -0.84200001 1.184
5.4200001 -0.82599998 1.184
5.408 -0.80800003 1.181
5.4180002 -0.79400003 1.183
5.4099998 -0.77600002 1.1799999
5.4229999 -0.76200002 1.183
5.4169998 -0.745 1.181
5.421 -0.73000002 1.182
5.421 -0.71399999 1.182
5.4229999 -0.69800001 1.182
5.4250002 -0.68199998 1.182
5.421 -0.66500002 1.1799999
5.4310002 -0.65100002 1.182
5.4330001 -0.63499999 1.182
5.4349999 -0.61900002 1.182
5.4289999 -0.602 1.181
5.4190001 -0.58499998 1.178
5.4320002 -0.56999999 1.181
5.4419999 -0.55500001 1.182
5.4359999 -0.53899997 1.181
5.4299998 -0.52200001 1.179
5.4380002 -0.50700003 1.1799999
5.4310002 -0.49000001 1.179
5.4419999 -0.47499999 1.1799999
5.4359999 -0.458 1.179
5.4439998 -0.44299999 1.1799999
5.4510002 -0.42699999 1.181
5.4400001 -0.41 1.179
5.454 -0.39500001 1.181
5.4569998 -0.37900001 1.181
5.4640002 -0.36399999 1.183
5.4569998 -0.347 1.181
5.4580002 -0.331 1.181
5.467 -0.31600001 1.182
5.4749999 -0.30000001 1.183
5.4819999 -0.28400001 1.184
5.4770002 -0.26800001 1.183
5.506 -0.25299999 1.189
5.4990001 -0.236 1.187
5.507 -0.22 1.188
5.506 -0.204 1.188
5.5209999 -0.18799999 1.191
5.5300002 -0.17200001 1.192
5.5370002 -0.156 1.193
5.5580001 -0.141 1.197
5.552 -0.124 1.196
5.5819998 -0.108 1.202
5.6079998 -0.092 1.207
5.6069999 -0.075999998 1.206
5.638 -0.059999999 1.2130001
5.645 -0.043000001 1.214
5.651 -0.026000001 1.215
5.664 -0.0099999998 1.217
5.6760001 0.0060000001 1.219
5.6989999 0.023 1.224
5.7350001 0.039999999 1.2309999
5.717 0.057 1.227
5.7550001 0.074000001 1.234
5.7309999 0.090999998 1.229
5.7979999 0.109 1.243
5.8829999 0.12800001 1.26
5.8530002 0.14399999 1.2539999
5.6459999 0.085000001 1.2819999
5.6420002 0.090000004 1.281
5.6290002 0.093999997 1.278
5.6220002 0.098999999 1.275
5.6339998 0.105 1.278
5.6240001 0.11 1.275
5.6090002 0.115 1.271
5.6090002 0.121 1.271
5.6090002 0.126 1.27
5.6009998 0.132 1.268
5.5999999 0.138 1.268
5.5890002 0.14399999 1.265
5.5830002 0.15000001 1.263
5.5819998 0.156 1.263
5.5970001 0.163 1.266
5.592 0.17 1.265
5.6020002 0.177 1.267
5.5819998 0.184 1.262
5.5809999 0.191 1.262
5.5679998 0.197 1.258
5.5689998 0.205 1.2589999
5.5549998 0.212 1.255
5.54 0.219 1.252
5.5279999 0.226 1.249
5.5339999 0.234 1.25
5.5209999 0.242 1.247
5.5 0.249 1.243
5.4980001 0.257 1.242
5.5 0.266 1.242
5.4860001 0.273 1.239
5.487 0.28200001 1.24
5.4850001 0.29100001 1.239
5.4749999 0.29899999 1.237
5.4840002 0.308 1.239
5.4629998 0.31600001 1.234
5.4650002 0.32499999 1.235
5.4489999 0.33399999 1.2309999
5.4510002 0.34299999 1.232
5.4359999 0.352 1.229
5.4349999 0.361 1.229
5.4349999 0.37099999 1.229
5.4400001 0.38100001 1.23
5.4429998 0.39199999 1.2309999
5.4369998 0.40099999 1.23
5.4299998 0.41100001 1.229
5.4200001 0.41999999 1.227
5.4219999 0.43099999 1.227
5.4320002 0.442 1.23
5.427 0.45300001 1.229
5.4190001 0.463 1.228
5.4219999 0.47400001 1.229
5.4239998 0.48500001 1.229
5.414 0.495 1.227
5.4159999 0.50700003 1.228
5.421 0.51800001 1.23
5.4159999 0.52899998 1.229
5.4239998 0.542 1.2309999
5.4190001 0.55299997 1.2309999
5.4180002 0.56400001 1.2309999
5.4200001 0.57700002 1.232
5.4130001 0.588 1.2309999
5.4120002 0.60000002 1.2309999
5.408 0.611 1.23
5.402 0.62300003 1.23
5.415 0.63700002 1.233
5.4120002 0.64899999 1.233
5.3990002 0.66000003 1.2309999
5.4120002 0.67400002 1.234
5.4089999 0.68699998 1.234
5.4130001 0.69999999 1.2359999
5.421 0.71399999 1.238
5.4159999 0.727 1.238
5.414 0.74000001 1.238
5.4130001 0.75300002 1.238
5.4039998 0.76499999 1.237
5.4000001 0.778 1.237
5.4070001 0.79299998 1.239
5.4070001 0.80599999 1.24
5.402 0.81900001 1.239
5.401 0.833 1.24
5.4000001 0.847 1.2410001
5.408 0.86199999 1.243
5.3990002 0.875 1.242
4.4369998 0.73100001 1.021
4.2849998 0.71700001 0.98699999
4.2119999 0.71600002 0.97100002
4.23 0.73100001 0.97600001
4.368 0.76700002 1.008
5.3930001 0.96100003 1.245
5.3959999 0.977 1.247
5.4000001 0.99199998 1.249
4.3179998 0.80500001 0.99900001
4.283 0.81099999 0.99199998
4.1830001 0.80400002 0.97000003
4.1599998 0.81099999 0.96499997
4.1059999 0.81300002 0.95300001
4.112 0.82599998 0.95499998
4.105 0.83600003 0.95499998
4.145 0.85600001 0.96499997
4.1810002 0.87599999 0.97399998
4.1919999 0.89099997 0.977
4.1890001 0.90200001 0.977
4.1669998 0.91000003 0.97299999
4.184 0.926 0.97799999
4.1929998 0.94099998 0.98100001
4.1529999 0.94400001 0.972
4.1220002 0.94999999 0.96600002
4.1880002 0.97799999 0.98199999
4.2210002 0.99900001 0.991
4.2690001 1.023 1.003
4.2930002 1.0420001 1.01
5.3740001 1.322 1.266
5.3759999 1.339 1.267
5.369 1.372 1.268
5.3829999 1.393 1.273
5.3860002 1.411 1.275
5.3829999 1.427 1.276
5.3800001 1.462 1.277
5.368 1.476 1.276
5.3829999 1.498 1.281
5.3829999 1.516 1.2819999
5.3790002 1.5319999 1.283
5.3740001 1.549 1.283
5.3769999 1.568 1.285
5.3639998 1.582 1.284
5.3839998 1.6059999 1.29
5.3670001 1.62 1.2869999
5.3740001 1.64 1.29
5.3709998 1.658 1.291
5.3709998 1.677 1.293
5.3670001 1.694 1.293
5.3670001 1.7130001 1.295
5.3579998 1.729 1.294
5.3670001 1.75 1.298
5.3610001 1.768 1.298
5.3530002 1.784 1.298
5.3499999 1.802 1.299
5.3610001 1.825 1.303
5.3520002 1.841 1.302
5.3569999 1.863 1.3049999
5.349 1.8789999 1.3049999
5.3509998 1.899 1.307
5.355 1.921 1.3099999
5.3559999 1.941 1.312
5.3439999 1.956 1.311
5.3540001 1.98 1.3150001
5.3559999 2.0009999 1.317
5.3499999 2.0179999 1.318
5.355 2.04 1.321
5.3299999 2.0510001 1.316
5.3330002 2.072 1.319
5.348 2.099 1.324
5.348 2.119 1.326
5.3390002 2.1359999 1.326
5.3439999 2.1589999 1.329
5.3400002 2.178 1.33
5.3410001 2.2 1.332
5.3309999 2.2160001 1.332
5.3390002 2.2409999 1.336
5.3379998 2.2609999 1.337
5.3379998 2.283 1.339
5.3470001 2.3069999 1.344
5.323 2.3180001 1.34
5.3119998 2.335 1.339
5.3039999 2.3529999 1.339
5.303 2.3740001 1.341
5.3309999 2.408 1.35
5.3200002 2.425 1.349
5.3270001 2.45 1.353
5.3299999 2.473 1.3559999
5.3260002 2.494 1.357
5.3200002 2.513 1.358
5.3189998 2.5350001 1.36
5.3189998 2.5569999 1.362
5.316 2.5780001 1.363
5.3140001 2.599 1.365
5.329 2.6289999 1.3710001
5.3260002 2.6500001 1.373
5.316 2.668 1.373
5.3130002 2.6889999 1.374
5.309 2.71 1.375
5.3010001 2.7290001 1.376
5.302 2.753 1.378
5.322 2.786 1.386
5.3200002 2.8080001 1.388
5.3200002 2.832 1.39
5.3109999 2.8499999 1.39
5.3200002 2.878 1.395
5.3150001 2.8989999 1.396
5.3049998 2.918 1.396
5.3150001 2.947 1.401
5.3080001 2.967 1.402
5.2870002 2.9790001 1.399
5.2989998 3.01 1.405
5.0019999 2.8640001 1.3279999
4.9330001 2.846 1.312
4.8899999 2.8440001 1.303
4.8730001 2.8570001 1.301
4.855 2.868 1.299
4.8109999 2.865 1.289
4.7940001 2.8770001 1.2869999
4.7919998 2.898 1.289
4.7639999 2.904 1.284
4.743 2.9130001 1.281
4.7220001 2.9219999 1.278
4.7119999 2.9389999 1.277
4.6750002 2.937 1.27
4.671 2.957 1.271
4.6420002 2.961 1.266
4.6269999 2.974 1.2640001
4.6030002 2.9809999 1.26
4.579 2.987 1.256
4.5630002 2.9990001 1.2539999
4.553 3.0139999 1.2539999
4.5380001 3.027 1.252
4.5139999 3.033 1.248
4.506 3.05 1.248
4.493 3.063 1.247
4.48 3.0769999 1.2460001
4.4699998 3.092 1.2460001
4.4530001 3.102 1.244
4.428 3.1070001 1.239
4.4190001 3.1229999 1.239
4.4070001 3.1370001 1.238
4.3800001 3.1400001 1.233
5.0910001 -3.352 1.182
5.1100001 -3.3329999 1.186
5.1300001 -3.3139999 1.189
5.151 -3.296 1.193
5.158 -3.2690001 1.194
5.178 -3.2509999 1.197
5.184 -3.224 1.197
5.1989999 -3.2019999 1.2
5.2189999 -3.1830001 1.2029999
5.2199998 -3.154 1.2029999
5.2329998 -3.132 1.204
5.2360001 -3.1029999 1.204
5.2519999 -3.0840001 1.207
5.2519999 -3.0539999 1.206
5.2659998 -3.033 1.2079999
5.277 -3.01 1.21
5.2740002 -2.9790001 1.2079999
5.2880001 -2.9590001 1.21
5.3010001 -2.937 1.212
5.3049998 -2.911 1.212
5.3109999 -2.8870001 1.2130001
5.316 -2.862 1.2130001
5.322 -2.8369999 1.2130001
5.3270001 -2.812 1.214
5.3369999 -2.79 1.215
5.335 -2.7620001 1.214
5.3460002 -2.7409999 1.215
5.3579998 -2.72 1.217
5.355 -2.6919999 1.216
5.3660002 -2.671 1.217
5.3559999 -2.6400001 1.214
5.3629999 -2.618 1.215
5.3699999 -2.595 1.216
5.3740001 -2.572 1.216
5.3759999 -2.5469999 1.216
5.388 -2.527 1.217
5.3769999 -2.497 1.214
5.3860002 -2.477 1.215
5.3829999 -2.451 1.214
5.3909998 -2.4289999 1.215
5.3940001 -2.4070001 1.215
5.4029999 -2.3859999 1.216
5.4050002 -2.3629999 1.216
5.401 -2.3380001 1.215
5.401 -2.3139999 1.214
5.4039998 -2.2920001 1.214
5.401 -2.267 1.212
5.382 -2.2360001 1.207
5.3839998 -2.214 1.207
5.3850002 -2.191 1.207
5.3920002 -2.1719999 1.2079999
5.4070001 -2.155 1.21
5.4070001 -2.1329999 1.21
5.408 -2.1110001 1.209
5.4070001 -2.0880001 1.209
5.415 -2.069 1.21
5.4229999 -2.05 1.211
5.4099998 -2.0239999 1.207
5.4169998 -2.0050001 1.2079999
5.4169998 -1.984 1.2079999
5.4239998 -1.965 1.209
5.4180002 -1.941 1.207
5.4120002 -1.918 1.205
5.4169998 -1.899 1.205
5.4200001 -1.88 1.206
5.4169998 -1.858 1.204
5.4260001 -1.841 1.206
5.421 -1.819 1.204
5.414 -1.796 1.202
5.4200001 -1.778 1.2029999
5.4200001 -1.758 1.202
5.4190001 -1.738 1.202
5.4169998 -1.7180001 1.201
5.4159999 -1.698 1.2
5.4130001 -1.678 1.199
5.4130001 -1.659 1.198
5.4190001 -1.641 1.199
5.4169998 -1.622 1.198
5.4219999 -1.604 1.199
5.4159999 -1.584 1.197
5.4250002 -1.568 1.199
5.428 -1.55 1.199
5.415 -1.528 1.196
5.4200001 -1.511 1.196
5.4169998 -1.492 1.1950001
5.421 -1.475 1.196
5.4190001 -1.457 1.1950001
5.4180002 -1.439 1.194
5.415 -1.42 1.193
5.4120002 -1.402 1.192
5.4229999 -1.387 1.194
5.4200001 -1.369 1.193
5.4109998 -1.349 1.1900001
5.421 -1.335 1.192
5.4190001 -1.317 1.191
5.408 -1.298 1.189
5.4180002 -1.283 1.1900001
5.4099998 -1.265 1.188
5.4050002 -1.247 1.187
5.4159999 -1.233 1.189
5.4190001 -1.217 1.189
5.4109998 -1.199 1.187
5.4200001 -1.1849999 1.189
5.4089999 -1.166 1.186
5.4130001 -1.151 1.187
5.4169998 -1.136 1.187
5.4130001 -1.119 1.186
5.414 -1.104 1.186
5.4169998 -1.089 1.186
5.4200001 -1.074 1.187
5.4159999 -1.058 1.1849999
5.4099998 -1.041 1.184
5.4159999 -1.027 1.1849999
5.4169998 -1.012 1.1849999
5.421 -0.99800003 1.1849999
5.4239998 -0.98299998 1.186
5.4190001 -0.96700001 1.184
5.415 -0.95200002 1.183
5.4180002 -0.93800002 1.184
5.4190001 -0.92299998 1.184
5.4229999 -0.90899998 1.184
5.4250002 -0.89499998 1.184
5.4200001 -0.88 1.183
5.421 -0.866 1.183
5.4229999 -0.852 1.183
5.4180002 -0.83700001 1.182
5.414 -0.82300001 1.181
5.4229999 -0.81 1.183
5.4120002 -0.79500002 1.1799999
5.4200001 -0.78200001 1.181
5.428 -0.76999998 1.183
5.4159999 -0.75400001 1.1799999
5.4260001 -0.74199998 1.182
5.427 -0.72899997 1.182
5.4359999 -0.71700001 1.184
5.4229999 -0.70200002 1.181
5.4310002 -0.69 1.182
5.4260001 -0.676 1.181
5.428 -0.66299999 1.181
5.4289999 -0.64999998 1.182
5.4180002 -0.63599998 1.179
5.4289999 -0.625 1.181
5.4359999 -0.61299998 1.182
5.4289999 -0.59899998 1.181
5.4299998 -0.58700001 1.181
5.4380002 -0.57499999 1.182
5.4380002 -0.56300002 1.182
5.4400001 -0.551 1.183
5.441 -0.53899997 1.183
5.4359999 -0.52600002 1.181
5.4369998 -0.514 1.182
5.4390001 -0.50199997 1.182
5.4400001 -0.49000001 1.182
5.4400001 -0.479 1.182
5.4419999 -0.46700001 1.182
5.434 -0.45500001 1.1799999
5.4369998 -0.44299999 1.181
5.4439998 -0.43200001 1.182
5.4510002 -0.421 1.184
5.4520001 -0.41 1.184
5.4549999 -0.39899999 1.184
5.4559999 -0.38800001 1.1849999
5.4549999 -0.37599999 1.184
5.4549999 -0.36500001 1.184
5.4559999 -0.354 1.184
5.4650002 -0.34400001 1.186
5.4650002 -0.333 1.186
5.4580002 -0.32100001 1.1849999
5.4720001 -0.31099999 1.188
5.467 -0.30000001 1.186
5.4679999 -0.28999999 1.186
5.4679999 -0.27900001 1.187
5.4759998 -0.26899999 1.188
5.4899998 -0.259 1.191
5.4899998 -0.249 1.191
5.4970002 -0.23899999 1.193
5.494 -0.229 1.192
5.4920001 -0.21799999 1.192
5.5009999 -0.208 1.193
5.5050001 -0.199 1.194
5.513 -0.189 1.196
5.5139999 -0.17900001 1.196
5.52 -0.169 1.198
5.5209999 -0.15899999 1.198
5.5289998 -0.15000001 1.199
5.5440001 -0.141 1.2029999
5.5469999 -0.131 1.2029999
5.5500002 -0.121 1.204
5.592 -0.113 1.2130001
5.5799999 -0.103 1.211
5.6129999 -0.093999997 1.2180001
5.6100001 -0.085000001 1.217
5.6339998 -0.075999998 1.222
5.6420002 -0.067000002 1.224
5.6490002 -0.057 1.226
5.6690001 -0.048 1.23
5.6700001 -0.039000001 1.23
5.6989999 -0.029999999 1.237
5.678 -0.021 1.232
5.711 -0.012 1.24
5.697 -0.003 1.2359999
5.7470002 0.0049999999 1.247
5.7470002 0.014 1.247
5.8049998 0.023 1.26
5.8099999 0.030999999 1.261
5.8990002 0.041000001 1.281
5.5469999 0.109 1.274
5.5710001 0.119 1.279
5.579 0.12899999 1.281
5.5650001 0.139 1.278
5.572 0.149 1.279
5.572 0.15899999 1.279
5.5840001 0.17 1.2819999
5.566 0.17900001 1.278
5.5630002 0.19 1.277
5.5630002 0.2 1.277
5.5500002 0.211 1.274
5.5500002 0.221 1.274
5.5359998 0.23199999 1.271
5.52 0.242 1.267
5.5219998 0.25299999 1.268
5.52 0.264 1.267
5.5209999 0.27500001 1.267
5.507 0.28600001 1.2640001
5.494 0.29699999 1.261
5.493 0.308 1.261
5.5110002 0.32100001 1.266
5.4920001 0.33199999 1.261
5.4910002 0.34400001 1.261
5.4819999 0.35499999 1.2589999
5.4749999 0.36700001 1.258
5.4749999 0.37900001 1.258
5.467 0.391 1.257
5.461 0.40200001 1.255
5.4660001 0.41499999 1.257
5.4569998 0.42699999 1.255
5.4580002 0.44 1.255
5.4429998 0.45100001 1.252
5.4549999 0.465 1.256
5.4369998 0.47600001 1.252
5.4390001 0.49000001 1.252
5.4439998 0.50300002 1.2539999
5.4250002 0.514 1.25
5.4289999 0.528 1.251
4.507 0.449 1.039
4.4710002 0.45699999 1.031
5.414 0.56699997 1.249
5.4180002 0.58099997 1.25
5.4159999 0.59399998 1.25
5.4289999 0.61000001 1.2539999
5.4109998 0.62099999 1.25
5.421 0.63599998 1.253
5.4099998 0.64899999 1.251
5.414 0.66399997 1.252
5.4180002 0.67799997 1.2539999
5.4169998 0.69300002 1.2539999
5.4120002 0.70599997 1.253
5.4130001 0.72100002 1.2539999
5.4169998 0.736 1.256
5.4169998 0.75099999 1.256
5.421 0.76599997 1.258
5.4169998 0.77999997 1.257
5.4169998 0.79500002 1.258
5.4130001 0.80900002 1.258
5.4130001 0.824 1.2589999
5.421 0.84100002 1.261
5.4130001 0.85500002 1.26
5.4050002 0.86900002 1.2589999
5.4029999 0.88300002 1.2589999
4.4099998 0.73400003 1.028
4.2620001 0.72100002 0.99400002
4.1490002 0.71399999 0.96799999
4.1929998 0.73400003 0.97899997
4.3590002 0.77499998 1.0190001
5.4070001 0.97799999 1.2640001
5.402 0.99299997 1.2640001
4.2880001 0.80000001 1.0039999
4.2600002 0.80800003 0.99800003
4.1929998 0.80699998 0.98299998
4.178 0.81699997 0.98000002
4.1479998 0.824 0.97399998
4.145 0.83499998 0.97399998
4.1370001 0.84600002 0.97299999
4.1799998 0.86799997 0.98299998
4.1370001 0.87099999 0.97399998
4.2140002 0.90100002 0.99299997
4.3010001 0.93199998 1.0140001
4.2670002 0.93800002 1.007
4.1999998 0.93599999 0.99199998
4.1350002 0.935 0.977
4.1230001 0.94499999 0.97500002
4.2160001 0.97899997 0.99800003
4.2579999 1.003 1.0089999
4.1729999 0.99599999 0.98900002
4.277 1.034 1.015
5.3850002 1.319 1.279
5.3870001 1.337 1.28
5.3769999 1.352 1.279
5.381 1.37 1.281
5.3779998 1.386 1.281
5.3769999 1.421 1.284
5.382 1.4400001 1.286
5.3790002 1.457 1.286
5.3769999 1.474 1.2869999
5.382 1.493 1.289
5.3860002 1.512 1.291
5.3790002 1.527 1.291
5.381 1.546 1.293
5.3769999 1.563 1.293
5.3720002 1.579 1.293
5.3860002 1.601 1.298
5.368 1.614 1.295
5.375 1.6339999 1.2970001
5.3610001 1.648 1.295
5.3779998 1.671 1.301
5.381 1.691 1.303
5.3660002 1.704 1.301
5.3740001 1.725 1.304
5.369 1.742 1.304
5.3629999 1.758 1.304
5.355 1.774 1.303
5.3639998 1.795 1.307
5.3579998 1.812 1.307
5.3520002 1.8279999 1.307
5.349 1.846 1.307
5.3460002 1.864 1.308
5.349 1.8839999 1.3099999
5.342 1.9 1.3099999
5.348 1.921 1.313
5.349 1.9400001 1.3150001
5.336 1.954 1.313
5.3369999 1.973 1.3150001
5.3429999 1.994 1.318
5.3390002 2.0120001 1.318
5.3379998 2.03 1.3200001
5.3429999 2.0510001 1.323
5.3299999 2.0650001 1.321
5.336 2.0869999 1.324
5.3270001 2.102 1.323
5.335 2.125 1.327
5.3299999 2.142 1.327
5.3340001 2.1630001 1.33
5.3340001 2.1819999 1.332
5.3280001 2.1989999 1.332
5.3400002 2.223 1.336
5.3309999 2.2390001 1.336
5.3309999 2.2579999 1.3380001
5.3309999 2.277 1.339
5.3179998 2.2909999 1.3380001
5.3080001 2.306 1.337
5.3169999 2.329 1.341
5.302 2.3429999 1.339
5.283 2.3540001 1.336
5.2950001 2.378 1.341
5.3039999 2.402 1.345
5.3210001 2.4289999 1.351
5.3189998 2.448 1.352
5.3119998 2.464 1.352
5.3150001 2.4849999 1.355
5.3270001 2.5109999 1.36
5.3150001 2.5239999 1.358
5.3119998 2.543 1.359
5.316 2.5639999 1.362
5.3150001 2.5840001 1.364
5.3130002 2.602 1.365
5.323 2.6270001 1.37
5.3140001 2.642 1.369
5.3060002 2.658 1.369
5.3260002 2.688 1.376
5.3150001 2.7019999 1.376
5.3049998 2.717 1.375
5.3210001 2.7449999 1.381
5.3140001 2.7609999 1.381
5.302 2.7750001 1.38
5.309 2.7980001 1.3839999
5.3189998 2.823 1.3890001
5.316 2.842 1.39
5.3080001 2.8570001 1.39
5.3150001 2.881 1.3940001
5.3150001 2.9000001 1.396
5.3039999 2.914 1.395
5.3099999 2.937 1.399
5.3130002 2.9590001 1.401
5.296 2.9690001 1.399
5.296 2.9890001 1.401
5.302 3.0120001 1.405
5.3140001 3.039 1.41
5.3049998 3.053 1.41
5.3119998 3.0769999 1.414
5.3060002 3.0929999 1.415
5.3000002 3.109 1.415
5.283 3.119 1.413
5.296 3.1459999 1.418
5.2909999 3.1630001 1.419
5.2909999 3.1830001 1.4220001
5.29 3.2019999 1.424
5.3010001 3.2279999 1.429
5.2979999 3.2449999 1.4299999
5.289 3.26 1.4299999
5.2930002 3.2809999 1.433
5.2859998 3.296 1.434
5.2870002 3.316 1.436
5.2940001 3.3399999 1.4400001
5.2870002 3.355 1.441
5.283 3.372 1.442
5.2579999 3.375 1.438
5.2480001 3.388 1.437
5.2399998 3.401 1.437
5.23 3.414 1.437
5.2010002 3.4130001 1.431
5.1820002 3.4200001 1.428
5.1669998 3.4289999 1.427
5.1370001 3.427 1.421
5.1069999 3.425 1.414
5.0760002 3.4219999 1.408
4.7600002 3.2260001 1.323
4.7639999 3.2460001 1.326
4.7350001 3.2420001 1.3200001
5.2540002 -3.2179999 1.221
5.2610002 -3.2060001 1.222
5.2620001 -3.1900001 1.222
5.2750001 -3.1819999 1.225
5.2750001 -3.1659999 1.225
5.2750001 -3.1489999 1.224
5.277 -3.1340001 1.224
5.2779999 -3.118 1.224
5.2849998 -3.1059999 1.226
5.2859998 -3.0910001 1.226
5.2969999 -3.0810001 1.228
5.2979999 -3.0650001 1.228
5.2989998 -3.049 1.228
5.3060002 -3.0369999 1.229
5.303 -3.0190001 1.228
5.3049998 -3.0039999 1.229
5.3150001 -2.993 1.2309999
5.3099999 -2.974 1.229
5.3210001 -2.9630001 1.2309999
5.3119998 -2.9419999 1.229
5.3260002 -2.9330001 1.232
5.3249998 -2.9159999 1.2309999
5.3189998 -2.8959999 1.23
5.3249998 -2.8829999 1.2309999
5.3330002 -2.8710001 1.232
5.3260002 -2.8510001 1.2309999
5.3400002 -2.842 1.233
5.3330002 -2.822 1.232
5.3410001 -2.809 1.233
5.3410001 -2.793 1.233
5.3369999 -2.7739999 1.232
5.3410001 -2.76 1.232
5.3410001 -2.743 1.232
5.3540001 -2.733 1.235
5.349 -2.714 1.233
5.3460002 -2.6960001 1.232
5.348 -2.681 1.232
5.3439999 -2.6619999 1.2309999
5.3499999 -2.648 1.232
5.3559999 -2.635 1.233
5.3499999 -2.6159999 1.232
5.355 -2.602 1.233
5.3559999 -2.586 1.232
5.3629999 -2.572 1.234
5.3559999 -2.552 1.232
5.362 -2.539 1.233
5.3610001 -2.5220001 1.232
5.3670001 -2.5079999 1.233
5.3600001 -2.4879999 1.2309999
5.3660002 -2.474 1.232
5.3660002 -2.4579999 1.232
5.3730001 -2.444 1.233
5.3590002 -2.4219999 1.23
5.3709998 -2.411 1.232
5.3720002 -2.3940001 1.232
5.3779998 -2.381 1.233
5.3699999 -2.3610001 1.2309999
5.3629999 -2.3410001 1.229
5.3569999 -2.322 1.228
5.3499999 -2.302 1.226
5.355 -2.2880001 1.226
5.355 -2.2720001 1.226
5.3509998 -2.2539999 1.225
5.3720002 -2.2460001 1.229
5.3790002 -2.2320001 1.2309999
5.3779998 -2.2149999 1.23
5.3839998 -2.201 1.2309999
5.381 -2.184 1.23
5.388 -2.1700001 1.2309999
5.3930001 -2.155 1.232
5.3920002 -2.1389999 1.232
5.3909998 -2.1210001 1.2309999
5.382 -2.102 1.229
5.388 -2.0869999 1.23
5.395 -2.0739999 1.2309999
5.3860002 -2.0539999 1.229
5.3920002 -2.039 1.23
5.395 -2.0239999 1.23
5.3969998 -2.0079999 1.23
5.395 -1.9910001 1.229
5.3959999 -1.975 1.229
5.4050002 -1.962 1.2309999
5.3990002 -1.943 1.229
5.401 -1.928 1.23
5.4060001 -1.913 1.23
5.3969998 -1.893 1.228
5.4039998 -1.8789999 1.229
5.395 -1.86 1.227
5.4000001 -1.845 1.228
5.4050002 -1.83 1.228
5.4099998 -1.8150001 1.229
5.402 -1.796 1.227
5.4060001 -1.781 1.228
5.4050002 -1.7640001 1.227
5.402 -1.747 1.226
5.414 -1.735 1.228
5.4050002 -1.715 1.226
5.4099998 -1.701 1.227
5.4060001 -1.683 1.226
5.4180002 -1.67 1.228
5.4099998 -1.651 1.226
5.414 -1.636 1.226
5.4099998 -1.619 1.225
5.4159999 -1.604 1.226
5.4200001 -1.589 1.227
5.428 -1.575 1.228
5.4169998 -1.5549999 1.225
5.4180002 -1.539 1.225
5.4109998 -1.521 1.223
5.415 -1.506 1.224
5.4169998 -1.49 1.224
5.4229999 -1.475 1.225
5.4200001 -1.4579999 1.224
5.4169998 -1.441 1.223
5.4219999 -1.426 1.224
5.4169998 -1.408 1.222
5.4089999 -1.39 1.22
5.4190001 -1.376 1.222
5.4089999 -1.357 1.219
5.4130001 -1.342 1.22
5.4250002 -1.329 1.222
5.4219999 -1.312 1.221
5.4250002 -1.296 1.222
5.415 -1.278 1.219
5.4180002 -1.262 1.219
5.414 -1.245 1.2180001
5.4169998 -1.23 1.2180001
5.4089999 -1.212 1.216
5.4190001 -1.197 1.2180001
5.408 -1.179 1.215
5.4109998 -1.163 1.215
5.4070001 -1.146 1.214
5.4109998 -1.131 1.215
5.4190001 -1.117 1.216
5.4089999 -1.098 1.214
5.4200001 -1.084 1.216
5.415 -1.067 1.214
5.4180002 -1.052 1.215
5.4089999 -1.034 1.212
5.4260001 -1.021 1.216
5.414 -1.002 1.2130001
5.415 -0.986 1.212
5.4060001 -0.96799999 1.21
5.408 -0.95300001 1.21
5.4180002 -0.93800002 1.212
5.415 -0.92199999 1.211
5.408 -0.90499997 1.209
5.4050002 -0.88800001 1.2079999
5.4219999 -0.875 1.211
5.4159999 -0.85799998 1.21
5.4120002 -0.84100002 1.2079999
5.415 -0.82499999 1.209
5.4050002 -0.80800003 1.206
5.4130001 -0.79299998 1.2079999
5.415 -0.77700001 1.2079999
5.4169998 -0.76099998 1.2079999
5.4200001 -0.745 1.2079999
5.4130001 -0.72799999 1.206
5.4239998 -0.71399999 1.2079999
5.4260001 -0.69800001 1.2079999
5.4159999 -0.68099999 1.206
5.4159999 -0.66500002 1.205
5.4239998 -0.64899999 1.207
5.434 -0.634 1.2079999
5.4299998 -0.61799997 1.207
5.428 -0.602 1.206
5.4310002 -0.58600003 1.207
5.4180002 -0.56800002 1.2029999
5.4289999 -0.55400002 1.205
5.4359999 -0.53799999 1.207
5.4229999 -0.52100003 1.2029999
5.4320002 -0.50599998 1.205
5.434 -0.49000001 1.205
5.4349999 -0.47400001 1.205
5.4450002 -0.45899999 1.207
5.4359999 -0.442 1.204
5.448 -0.42699999 1.207
5.441 -0.41 1.205
5.4489999 -0.39399999 1.206
5.4520001 -0.37900001 1.206
5.4569998 -0.36300001 1.207
5.467 -0.347 1.209
5.4679999 -0.331 1.209
5.4679999 -0.315 1.2079999
5.4689999 -0.29899999 1.2079999
5.4809999 -0.28299999 1.21
5.4770002 -0.26699999 1.209
5.4840002 -0.25099999 1.21
5.4990001 -0.236 1.2130001
5.5019999 -0.22 1.2130001
5.5149999 -0.204 1.216
5.5159998 -0.18799999 1.216
5.5180001 -0.171 1.216
5.5320001 -0.155 1.2180001
5.559 -0.14 1.224
5.5760002 -0.124 1.227
5.5970001 -0.108 1.2309999
5.6030002 -0.090999998 1.232
5.6030002 -0.075000003 1.232
5.618 -0.057999998 1.235
5.6399999 -0.041999999 1.239
5.6599998 -0.025 1.243
5.6500001 -0.0089999996 1.2410001
5.6609998 0.0070000002 1.243
5.6810002 0.024 1.247
5.7059999 0.041000001 1.252
5.7080002 0.057999998 1.252
5.7140002 0.074000001 1.253
5.757 0.092 1.262
5.842 0.111 1.28
5.6269999 0.085000001 1.309
5.6329999 0.090000004 1.3099999
5.6479998 0.094999999 1.313
5.638 0.1 1.311
5.6420002 0.105 1.311
5.6560001 0.111 1.314
5.612 0.116 1.303
5.6350002 0.122 1.308
5.6079998 0.127 1.302
5.6090002 0.133 1.301
5.6090002 0.139 1.301
5.5869999 0.14399999 1.296
5.5960002 0.15099999 1.2970001
5.579 0.15700001 1.293
5.5749998 0.163 1.2920001
5.5749998 0.17 1.2920001
5.5609999 0.176 1.288
5.5489998 0.183 1.285
5.5599999 0.19 1.288
5.5549998 0.197 1.286
5.5549998 0.205 1.286
5.5479999 0.212 1.285
5.5209999 0.219 1.278
5.5310001 0.227 1.28
5.526 0.234 1.279
5.507 0.242 1.275
5.506 0.25 1.275
5.506 0.25799999 1.274
5.4899998 0.26499999 1.271
5.493 0.27399999 1.271
5.4840002 0.28200001 1.2690001
5.4710002 0.28999999 1.266
5.4720001 0.29899999 1.267
5.474 0.308 1.267
5.4619999 0.317 1.265
5.4559999 0.32499999 1.263
5.4629998 0.33500001 1.265
5.454 0.34400001 1.263
5.4419999 0.35299999 1.26
5.447 0.36300001 1.262
5.4400001 0.37200001 1.26
5.4400001 0.382 1.261
5.4390001 0.39199999 1.26
5.4380002 0.40200001 1.26
5.4289999 0.41100001 1.2589999
5.4310002 0.42199999 1.2589999
5.4349999 0.43200001 1.261
5.427 0.442 1.2589999
5.4349999 0.454 1.261
5.4190001 0.463 1.258
5.4089999 0.47299999 1.256
5.4250002 0.48500001 1.26
5.4159999 0.49599999 1.258
5.4169998 0.50700003 1.2589999
5.414 0.51800001 1.258
5.4099998 0.52899998 1.258
5.4169998 0.54100001 1.26
5.4180002 0.55299997 1.261
5.414 0.56400001 1.26
5.4159999 0.57700002 1.261
5.4109998 0.588 1.261
5.4109998 0.60000002 1.261
5.4120002 0.61199999 1.262
5.4099998 0.62400001 1.262
5.421 0.63800001 1.265
5.4109998 0.64899999 1.263
5.4060001 0.66100001 1.263
5.4099998 0.67500001 1.2640001
5.408 0.68699998 1.2640001
5.401 0.699 1.263
5.408 0.713 1.266
5.4089999 0.72600001 1.267
5.408 0.73900002 1.267
5.414 0.75400001 1.2690001
5.4039998 0.76599997 1.267
5.402 0.77899998 1.268
5.4000001 0.792 1.268
5.4039998 0.80599999 1.27
5.408 0.82099998 1.271
5.4000001 0.83399999 1.27
5.3920002 0.84600002 1.2690001
5.4029999 0.86199999 1.273
5.395 0.875 1.272
5.3990002 0.88999999 1.273
4.3790002 0.73299998 1.033
4.23 0.72000003 0.99900001
4.296 0.74299997 1.015
5.388 0.94599998 1.274
5.3860002 0.96100003 1.275
5.3899999 0.97600001 1.277
5.3829999 0.99000001 1.276
5.3899999 1.006 1.279
4.3470001 0.824 1.0319999
4.3309999 0.833 1.029
4.3439999 0.84799999 1.033
4.3400002 0.87199998 1.033
4.277 0.87199998 1.0190001
4.2930002 0.88700002 1.024
4.2270002 0.88599998 1.0089999
4.2360001 0.89999998 1.012
5.3779998 1.159 1.286
5.382 1.176 1.288
5.369 1.189 1.286
4.2579999 0.95599997 1.021
4.2620001 0.97000003 1.023
4.2080002 0.97000003 1.011
5.3889999 1.26 1.296
5.3829999 1.275 1.295
5.3709998 1.3049999 1.295
5.3670001 1.321 1.295
5.3699999 1.339 1.2970001
5.3649998 1.354 1.2970001
5.375 1.374 1.301
5.3759999 1.392 1.303
5.3790002 1.41 1.3049999
5.382 1.428 1.307
5.3860002 1.446 1.309
5.3790002 1.462 1.309
5.3769999 1.479 1.3099999
5.3759999 1.497 1.311
5.3709998 1.513 1.311
5.3740001 1.5319999 1.313
5.3670001 1.548 1.313
5.362 1.5650001 1.313
5.3699999 1.585 1.317
5.3720002 1.604 1.319
5.3699999 1.6210001 1.3200001
5.3670001 1.6390001 1.321
5.3530002 1.653 1.319
5.3639998 1.675 1.323
5.3509998 1.6900001 1.321
5.3559999 1.71 1.324
5.3600001 1.73 1.327
5.3569999 1.748 1.3279999
5.3540001 1.766 1.329
5.348 1.783 1.329
5.3600001 1.806 1.3329999
5.349 1.822 1.332
5.3559999 1.844 1.336
5.3499999 1.8609999 1.336
5.3569999 1.883 1.34
5.348 1.899 1.339
5.3449998 1.918 1.34
5.336 1.934 1.339
5.3439999 1.957 1.3430001
5.3429999 1.977 1.345
5.3460002 1.998 1.348
5.335 2.0139999 1.347
5.3390002 2.036 1.349
5.335 2.0539999 1.35
5.3280001 2.072 1.35
5.335 2.095 1.354
5.3249998 2.112 1.354
5.3330002 2.135 1.358
5.3429999 2.1600001 1.362
5.342 2.1800001 1.364
5.3400002 2.2 1.365
5.3390002 2.221 1.367
5.3449998 2.2449999 1.3710001
5.336 2.2620001 1.37
5.323 2.277 1.369
5.3369999 2.3050001 1.374
5.3070002 2.313 1.369
5.3080001 2.335 1.3710001
5.2849998 2.346 1.368
5.3010001 2.375 1.374
5.3150001 2.4030001 1.38
5.3210001 2.427 1.383
5.3309999 2.4530001 1.388
5.323 2.4719999 1.388
5.3260002 2.4949999 1.391
5.3270001 2.5179999 1.393
5.3200002 2.5369999 1.3940001
5.3119998 2.5550001 1.3940001
5.3210001 2.582 1.399
5.3119998 2.5999999 1.399
5.3169999 2.625 1.402
5.3239999 2.651 1.406
5.316 2.6700001 1.4069999
5.3109999 2.6900001 1.408
5.3080001 2.7119999 1.41
5.3119998 2.7360001 1.413
5.3130002 2.76 1.416
5.3099999 2.7809999 1.4170001
5.3119998 2.806 1.42
5.3140001 2.8299999 1.423
5.3039999 2.848 1.423
5.3109999 2.8759999 1.427
5.3070002 2.8970001 1.429
5.309 2.9219999 1.432
5.3039999 2.9430001 1.433
5.3099999 2.97 1.437
5.2789998 2.977 1.432
4.973 2.826 1.351
4.9720001 2.849 1.353
4.915 2.839 1.34
4.8829999 2.842 1.334
4.8569999 2.8499999 1.329
4.848 2.8659999 1.329
4.8039999 2.8629999 1.3200001
4.7880001 2.875 1.318
4.7729998 2.8889999 1.316
4.7459998 2.8940001 1.311
