# .PCD v0.7 - Point Cloud Data file format
VERSION 0.7
FIELDS x y z
SIZE 4 4 4
TYPE F F F
COUNT 1 1 1
WIDTH 1818
HEIGHT 1
VIEWPOINT 0 0 0 1 0 0 0
POINTS 1818
DATA ascii
5.4629998 -0.70999998 0.93800002
5.4499998 -0.69599998 0.93599999
5.454 -0.68300003 0.93599999
5.461 -0.671 0.93699998
5.461 -0.65799999 0.93699998
5.4580002 -0.64499998 0.93599999
5.4520001 -0.63099998 0.935
5.4530001 -0.61900002 0.935
5.4549999 -0.60600001 0.935
5.4530001 -0.59399998 0.935
5.4710002 -0.583 0.93800002
5.46 -0.56999999 0.93599999
5.4660001 -0.55800003 0.93699998
5.467 -0.546 0.93699998
5.4650002 -0.53399998 0.93699998
5.4710002 -0.52200001 0.93800002
5.4629998 -0.50999999 0.93599999
5.4640002 -0.498 0.93599999
5.4720001 -0.48699999 0.93699998
5.467 -0.47499999 0.93699998
5.474 -0.46399999 0.93800002
5.4689999 -0.45199999 0.93699998
5.4689999 -0.44 0.93699998
5.4770002 -0.42899999 0.93800002
5.4770002 -0.41800001 0.93800002
5.4720001 -0.40599999 0.93699998
5.4790001 -0.396 0.93800002
5.474 -0.384 0.93699998
5.4889998 -0.37400001 0.94
5.4819999 -0.36300001 0.93800002
5.4850001 -0.352 0.93900001
5.4829998 -0.34099999 0.93900001
5.4860001 -0.33000001 0.93900001
5.4990001 -0.31999999 0.94099998
5.4819999 -0.30899999 0.93800002
5.5 -0.29899999 0.94099998
5.5009999 -0.289 0.94099998
5.5009999 -0.278 0.94099998
5.5100002 -0.26800001 0.94300002
5.5050001 -0.25799999 0.94199997
5.526 -0.249 0.94599998
5.5089998 -0.23800001 0.94300002
5.5100002 -0.228 0.94300002
5.5250001 -0.21799999 0.94499999
5.5250001 -0.208 0.94499999
5.533 -0.199 0.94700003
5.5289998 -0.189 0.94599998
5.5409999 -0.17900001 0.94800001
5.5549998 -0.17 0.95099998
5.5560002 -0.16 0.95099998
5.5700002 -0.15099999 0.95300001
5.5679998 -0.142 0.95300001
5.586 -0.133 0.95599997
5.6069999 -0.124 0.95899999
5.6139998 -0.114 0.96100003
5.6350002 -0.105 0.96399999
5.6459999 -0.096000001 0.96600002
5.6350002 -0.086999997 0.96399999
5.691 -0.078000002 0.97399998
5.697 -0.068999998 0.97500002
5.698 -0.059999999 0.97500002
5.704 -0.050999999 0.97600001
5.7270002 -0.041999999 0.98000002
5.7340002 -0.034000002 0.98199999
5.763 -0.025 0.98699999
5.777 -0.016000001 0.98900002
5.7870002 -0.0070000002 0.991
5.8390002 0.001 1
5.8959999 0.0089999996 1.01
5.8390002 0.017999999 1
5.5440001 0.101 0.97899997
5.5780001 0.111 0.98500001
5.5809999 0.121 0.986
5.5780001 0.131 0.98500001
5.5770001 0.141 0.98500001
5.5830002 0.15099999 0.986
5.5630002 0.161 0.98199999
5.572 0.17200001 0.98400003
5.5619998 0.182 0.98199999
5.5619998 0.192 0.98199999
5.5560002 0.20299999 0.98100001
5.5609999 0.214 0.98199999
5.5450001 0.22400001 0.97899997
5.5479999 0.235 0.97899997
5.5380001 0.24600001 0.97799999
5.539 0.257 0.97799999
5.5320001 0.26800001 0.977
5.5310001 0.28 0.97600001
5.5310001 0.29100001 0.977
5.5310001 0.303 0.977
5.5229998 0.31400001 0.97500002
5.5170002 0.32600001 0.97399998
5.5079999 0.33700001 0.97299999
5.513 0.34999999 0.97399998
5.5110002 0.36199999 0.97399998
5.513 0.37400001 0.97399998
5.4990001 0.38600001 0.972
5.4980001 0.398 0.972
5.5029998 0.41100001 0.97299999
5.4959998 0.42300001 0.972
5.494 0.43599999 0.972
5.4790001 0.447 0.96899998
5.493 0.461 0.972
5.4850001 0.47299999 0.97100002
5.4780002 0.486 0.97000003
5.4689999 0.498 0.96799999
5.461 0.51099998 0.96700001
5.454 0.523 0.96600002
5.4590001 0.537 0.96700001
5.4520001 0.55000001 0.96600002
5.4419999 0.56300002 0.96499997
5.454 0.57800001 0.96700001
5.448 0.59100002 0.96700001
5.4510002 0.60500002 0.96799999
5.4359999 0.61699998 0.96499997
5.4489999 0.63300002 0.96799999
5.4460001 0.64600003 0.96799999
5.4400001 0.66000003 0.96700001
5.4439998 0.67500001 0.96799999
5.4390001 0.68800002 0.96799999
5.4400001 0.70300001 0.96799999
5.4380002 0.71700001 0.96799999
5.4359999 0.73100001 0.96799999
5.4460001 0.74800003 0.97100002
5.4299998 0.75999999 0.96799999
5.4359999 0.77600002 0.97000003
5.434 0.79000002 0.97000003
5.4369998 0.80599999 0.97100002
5.4429998 0.82200003 0.972
5.427 0.83399999 0.97000003
5.4330001 0.85100001 0.972
5.4359999 0.866 0.97299999
5.4369998 0.88200003 0.97299999
5.4320002 0.89600003 0.97299999
5.4439998 0.91399997 0.97600001
5.4260001 0.92699999 0.97299999
5.4250002 0.94199997 0.97299999
5.427 0.958 0.97399998
5.4310002 0.97500002 0.97600001
5.434 0.991 0.977
5.4250002 1.005 0.97600001
5.4299998 1.022 0.977
5.4250002 1.038 0.977
5.4369998 1.056 0.98000002
5.421 1.069 0.97799999
5.4180002 1.085 0.97799999
5.421 1.102 0.97899997
5.415 1.117 0.97799999
5.427 1.136 0.98100001
5.4200001 1.151 0.98100001
5.4200001 1.1670001 0.98100001
5.4159999 1.183 0.98100001
5.415 1.2 0.98199999
5.4169998 1.217 0.98299998
5.4190001 1.234 0.98400003
5.4219999 1.252 0.98500001
5.4239998 1.2690001 0.98699999
5.415 1.284 0.986
5.4099998 1.3 0.98500001
5.415 1.319 0.98699999
5.4229999 1.3380001 0.98900002
5.4039998 1.35 0.98699999
5.415 1.37 0.99000001
5.4099998 1.387 0.99000001
5.3969998 1.401 0.98799998
5.408 1.421 0.991
5.4169998 1.441 0.99299997
5.3959999 1.4529999 0.99000001
5.3889999 1.469 0.99000001
5.4039998 1.49 0.99400002
5.4190001 1.512 0.99699998
5.401 1.525 0.995
5.4120002 1.546 0.99800003
5.3969998 1.5599999 0.99599999
5.4050002 1.58 0.99800003
5.4000001 1.597 0.99900001
5.402 1.615 1
5.3930001 1.631 0.99900001
5.3850002 1.646 0.99900001
5.3920002 1.6670001 1.001
5.415 1.692 1.006
5.4070001 1.7079999 1.006
5.401 1.724 1.006
5.4039998 1.744 1.007
5.3899999 1.758 1.006
5.3740001 1.771 1.003
5.3800001 1.7920001 1.006
5.3829999 1.811 1.007
5.395 1.834 1.011
5.3899999 1.85 1.011
5.3769999 1.865 1.0089999
5.3709998 1.881 1.0089999
5.3800001 1.903 1.012
5.3790002 1.9220001 1.013
5.382 1.942 1.015
5.3790002 1.959 1.015
5.3730001 1.976 1.015
5.3740001 1.995 1.017
5.3660002 2.0109999 1.016
5.3699999 2.0320001 1.018
5.3730001 2.052 1.02
5.3670001 2.069 1.02
5.3629999 2.086 1.02
5.3610001 2.105 1.021
5.355 2.1210001 1.021
5.3600001 2.1429999 1.024
5.3720002 2.1659999 1.027
5.3649998 2.1830001 1.027
5.3579998 2.1989999 1.027
5.362 2.22 1.029
5.369 2.243 1.031
5.349 2.2539999 1.029
5.3559999 2.276 1.0319999
5.3540001 2.2950001 1.033
5.3530002 2.313 1.034
5.3829999 2.346 1.041
5.401 2.3729999 1.045
5.4310002 2.4070001 1.053
5.5339999 2.4719999 1.074
5.5910001 2.5179999 1.086
5.3740001 -3.263 0.98400003
5.3779998 -3.2490001 0.98500001
5.382 -3.2349999 0.98500001
5.3920002 -3.2249999 0.98699999
5.3990002 -3.2130001 0.98799998
5.3940001 -3.1930001 0.98699999
5.395 -3.178 0.98699999
5.408 -3.1689999 0.98900002
5.4219999 -3.161 0.991
5.4109998 -3.138 0.98900002
5.4260001 -3.1300001 0.99199998
5.4299998 -3.1159999 0.99199998
5.4320002 -3.1010001 0.99199998
5.4380002 -3.0880001 0.99299997
5.4450002 -3.075 0.99400002
5.4390001 -3.0550001 0.99299997
5.4520001 -3.046 0.995
5.454 -3.03 0.995
5.461 -3.0179999 0.99599999
5.467 -3.0039999 0.99699998
5.4720001 -2.9909999 0.99800003
5.4809999 -2.9790001 1
5.4860001 -2.9649999 1
5.4889998 -2.95 1.001
5.5019999 -2.9400001 1.003
5.5110002 -2.928 1.0039999
5.5159998 -2.914 1.005
5.5149999 -2.8959999 1.0039999
5.5279999 -2.8870001 1.007
5.5409999 -2.8770001 1.0089999
5.5450001 -2.862 1.0089999
5.5430002 -2.8440001 1.0089999
5.54 -2.825 1.008
5.5500002 -2.813 1.0089999
5.5510001 -2.7969999 1.0089999
5.5440001 -2.777 1.008
5.5450001 -2.76 1.008
5.5430002 -2.743 1.007
5.5510001 -2.7290001 1.008
5.5570002 -2.7160001 1.0089999
5.5580001 -2.6989999 1.0089999
5.5570002 -2.6819999 1.0089999
5.5450001 -2.6589999 1.006
5.513 -2.6270001 1
5.4879999 -2.598 0.99599999
5.4689999 -2.573 0.99199998
5.4689999 -2.556 0.99199998
5.461 -2.536 0.99000001
5.4679999 -2.5220001 0.991
4.2750001 -1.959 0.77399999
4.1630001 -1.895 0.75400001
4.1240001 -1.865 0.74699998
4.1420002 -1.86 0.75
4.1719999 -1.8609999 0.755
4.197 -1.86 0.75999999
4.1810002 -1.84 0.75599998
4.1719999 -1.823 0.755
4.171 -1.8099999 0.75400001
4.1370001 -1.783 0.74800003
4.1599998 -1.78 0.75199997
4.151 -1.7640001 0.75
4.131 -1.742 0.74599999
4.1259999 -1.728 0.745
4.1129999 -1.71 0.74299997
4.085 -1.686 0.73699999
4.0830002 -1.673 0.73699999
4.0799999 -1.659 0.736
4.0700002 -1.643 0.73400003
4.0630002 -1.627 0.73299998
4.059 -1.614 0.73199999
4.0440001 -1.596 0.72899997
4.0419998 -1.582 0.72799999
4.027 -1.564 0.72500002
4.0089998 -1.545 0.722
4.0289998 -1.541 0.72500002
4.0190001 -1.525 0.72399998
4.0159998 -1.511 0.72299999
4.0139999 -1.499 0.722
4.0170002 -1.488 0.72299999
4.0149999 -1.475 0.722
4.013 -1.462 0.72100002
4.0170002 -1.451 0.722
4.0209999 -1.441 0.72299999
4.0240002 -1.4299999 0.72299999
4.0139999 -1.414 0.72100002
4.0180001 -1.403 0.72100002
4.0209999 -1.392 0.722
4.0250001 -1.381 0.722
4.0159998 -1.3660001 0.72000003
4.0180001 -1.355 0.72100002
4.0229998 -1.344 0.72100002
4.0250001 -1.3329999 0.722
4.0209999 -1.3200001 0.72100002
4.033 -1.312 0.72299999
4.039 -1.301 0.72299999
4.0339999 -1.2869999 0.722
4.0370002 -1.276 0.72299999
4.0430002 -1.266 0.72399998
4.0500002 -1.256 0.72500002
4.053 -1.245 0.72500002
4.0430002 -1.23 0.72299999
4.0539999 -1.221 0.72500002
4.052 -1.2079999 0.72399998
4.053 -1.196 0.72399998
4.0619998 -1.187 0.72600001
4.0650001 -1.176 0.72600001
4.0770001 -1.1670001 0.72799999
4.0770001 -1.155 0.72799999
4.0819998 -1.1440001 0.72799999
4.0770001 -1.131 0.72799999
4.0890002 -1.122 0.72899997
4.092 -1.11 0.73000002
4.0939999 -1.099 0.73000002
4.0890002 -1.085 0.72899997
4.0999999 -1.076 0.73100001
4.1100001 -1.066 0.73199999
4.1129999 -1.0549999 0.73199999
4.1199999 -1.044 0.73400003
4.1129999 -1.03 0.73199999
4.1209998 -1.02 0.73299998
4.118 -1.007 0.73299998
4.1269999 -0.99699998 0.73400003
4.1290002 -0.98500001 0.73400003
4.132 -0.97299999 0.73400003
4.1350002 -0.96200001 0.73500001
4.145 -0.95200002 0.736
4.1479998 -0.94 0.73699999
4.1500001 -0.92799997 0.73699999
4.1599998 -0.91799998 0.73799998
4.1620002 -0.90600002 0.73900002
4.165 -0.89499998 0.73900002
4.1599998 -0.88099998 0.73799998
4.1849999 -0.87400001 0.74199998
4.1719999 -0.85900003 0.73900002
4.1859999 -0.85000002 0.74199998
4.191 -0.838 0.74199998
4.1869998 -0.82499999 0.741
4.1960001 -0.81400001 0.74299997
4.204 -0.80400002 0.74400002
4.2059999 -0.792 0.74400002
4.2080002 -0.77999997 0.74400002
4.211 -0.76700002 0.745
4.2199998 -0.75700003 0.74599999
4.2220001 -0.745 0.74599999
4.2259998 -0.73299998 0.74699998
4.2459998 -0.72399998 0.75
4.3590002 -0.73000002 0.76999998
5.4320002 -0.89399999 0.95899999
5.448 -0.88099998 0.96200001
5.4429998 -0.86400002 0.95999998
5.454 -0.84899998 0.96200001
5.4419999 -0.83099997 0.95999998
5.4380002 -0.815 0.95899999
5.447 -0.80000001 0.95999998
5.4419999 -0.78299999 0.95899999
5.4510002 -0.76899999 0.95999998
5.4530001 -0.75300002 0.95999998
5.4439998 -0.736 0.958
5.4510002 -0.72100002 0.95899999
5.4569998 -0.70499998 0.95999998
5.441 -0.68699998 0.95700002
5.4510002 -0.67199999 0.958
5.4439998 -0.65600002 0.95700002
5.4549999 -0.64099997 0.95899999
5.4569998 -0.625 0.95899999
5.4510002 -0.60799998 0.95700002
5.4460001 -0.59200001 0.95599997
5.4390001 -0.57499999 0.95499998
5.4559999 -0.56099999 0.95700002
5.46 -0.54500002 0.958
5.4520001 -0.528 0.95599997
5.454 -0.51300001 0.95599997
5.4590001 -0.49700001 0.95700002
5.4629998 -0.48100001 0.95700002
5.4710002 -0.46599999 0.958
5.4660001 -0.44999999 0.95700002
5.46 -0.433 0.95599997
5.4679999 -0.41800001 0.95700002
5.4759998 -0.40200001 0.958
5.4759998 -0.38600001 0.958
5.4780002 -0.37 0.958
5.4790001 -0.354 0.958
5.48 -0.338 0.95700002
5.4959998 -0.32300001 0.95999998
5.4970002 -0.30700001 0.95999998
5.4980001 -0.29100001 0.95999998
5.506 -0.27599999 0.96100003
5.513 -0.25999999 0.96200001
5.5149999 -0.244 0.96200001
5.5190001 -0.228 0.96200001
5.5240002 -0.212 0.963
5.5380001 -0.19599999 0.96499997
5.546 -0.18000001 0.96600002
5.559 -0.164 0.96799999
5.5749998 -0.148 0.97000003
5.5749998 -0.132 0.97000003
5.6110001 -0.117 0.97600001
5.6040001 -0.1 0.97399998
5.625 -0.083999999 0.97799999
5.6440001 -0.068000004 0.98100001
5.6739998 -0.050999999 0.986
5.6739998 -0.035 0.98500001
5.6890001 -0.017999999 0.98799998
5.7020001 -0.0020000001 0.99000001
5.7160001 0.014 0.99199998
5.717 0.030999999 0.991
5.7249999 0.048 0.99199998
5.7550001 0.064999998 0.99699998
5.7659998 0.082000002 0.99900001
5.8130002 0.098999999 1.007
5.8639998 0.117 1.015
5.6500001 0.079999998 1.013
5.6500001 0.085000001 1.012
5.6500001 0.090000004 1.012
5.6440001 0.094999999 1.011
5.6539998 0.1 1.012
5.6420002 0.105 1.01
5.6420002 0.111 1.0089999
5.6300001 0.116 1.007
5.6230001 0.122 1.005
5.6059999 0.12800001 1.002
5.6090002 0.134 1.002
5.5879998 0.139 0.99800003
5.5929999 0.146 0.99900001
5.5819998 0.152 0.99699998
5.5580001 0.15800001 0.99199998
5.5609999 0.16500001 0.99299997
5.5539999 0.171 0.991
5.5549998 0.178 0.991
5.5479999 0.185 0.99000001
5.5450001 0.192 0.98900002
5.5339999 0.199 0.98699999
5.5209999 0.206 0.98400003
5.527 0.214 0.986
5.5139999 0.221 0.98299998
5.5050001 0.229 0.98100001
5.506 0.237 0.98100001
5.4980001 0.245 0.98000002
5.5050001 0.25299999 0.98100001
5.4920001 0.26100001 0.97899997
5.4910002 0.26899999 0.97899997
5.4910002 0.278 0.97899997
5.4829998 0.28600001 0.977
5.4899998 0.296 0.97899997
5.4759998 0.30399999 0.97600001
5.474 0.31299999 0.97600001
5.4809999 0.322 0.977
5.474 0.331 0.97600001
5.4640002 0.34 0.97399998
5.4660001 0.34999999 0.97500002
5.4580002 0.359 0.97299999
5.4590001 0.36899999 0.97399998
5.4450002 0.37799999 0.97100002
5.4549999 0.38800001 0.97299999
5.4549999 0.39899999 0.97299999
5.4590001 0.40900001 0.97399998
5.4460001 0.419 0.972
5.454 0.43000001 0.97399998
5.4460001 0.44 0.97299999
5.4510002 0.45100001 0.97399998
5.4489999 0.461 0.97399998
5.4429998 0.472 0.97299999
5.448 0.48300001 0.97399998
5.434 0.493 0.972
5.4460001 0.505 0.97399998
5.4390001 0.51599997 0.97299999
5.4439998 0.528 0.97399998
5.4369998 0.53899997 0.97299999
5.441 0.551 0.97500002
5.434 0.56199998 0.97399998
5.4419999 0.57499999 0.97500002
5.4320002 0.58600003 0.97399998
5.4359999 0.59799999 0.97500002
5.4429998 0.611 0.977
5.441 0.62400001 0.977
5.434 0.63499999 0.97600001
5.4330001 0.648 0.97600001
5.4439998 0.662 0.97799999
5.441 0.67400002 0.97799999
5.434 0.68599999 0.97799999
5.4380002 0.699 0.97899997
5.4369998 0.71200001 0.97899997
5.434 0.72500002 0.97899997
5.4330001 0.73799998 0.97899997
5.4250002 0.75 0.97799999
5.4289999 0.764 0.98000002
5.427 0.778 0.98000002
5.4260001 0.79100001 0.98000002
5.4299998 0.80599999 0.98100001
5.421 0.81800002 0.98000002
5.4250002 0.833 0.98199999
5.4289999 0.847 0.98299998
5.427 0.861 0.98299998
5.4250002 0.875 0.98400003
5.4169998 0.88800001 0.98299998
5.4229999 0.903 0.98500001
5.427 0.91900003 0.986
5.4169998 0.93199998 0.98500001
5.427 0.94800001 0.98699999
5.4180002 0.96100003 0.986
5.4190001 0.97600001 0.98699999
5.4250002 0.99199998 0.98900002
5.4159999 1.006 0.98799998
5.428 1.023 0.991
5.4169998 1.036 0.99000001
5.4159999 1.052 0.99000001
5.4109998 1.066 0.99000001
5.402 1.08 0.98900002
5.4109998 1.097 0.99199998
5.4099998 1.113 0.99199998
5.4130001 1.1289999 0.99400002
5.4029999 1.143 0.99299997
5.395 1.1569999 0.99199998
5.3969998 1.173 0.99299997
5.3990002 1.1900001 0.99400002
5.3940001 1.205 0.99400002
5.3990002 1.223 0.99599999
5.4089999 1.2410001 0.99900001
5.4029999 1.256 0.99900001
5.401 1.273 0.99900001
5.4029999 1.29 1.001
5.4060001 1.307 1.002
5.4039998 1.324 1.003
5.3979998 1.339 1.003
5.402 1.357 1.0039999
5.3899999 1.3710001 1.003
5.4190001 1.396 1.0089999
5.4070001 1.41 1.008
5.4029999 1.426 1.008
5.4130001 1.447 1.011
5.3990002 1.46 1.01
5.3899999 1.475 1.0089999
5.402 1.497 1.013
5.4060001 1.516 1.0140001
5.401 1.5319999 1.015
5.3959999 1.549 1.015
5.4050002 1.569 1.017
5.395 1.585 1.017
5.395 1.603 1.018
5.3959999 1.622 1.0190001
5.3930001 1.6390001 1.02
5.3800001 1.653 1.018
5.3920002 1.676 1.022
5.408 1.7 1.026
5.3899999 1.7130001 1.024
5.3920002 1.732 1.026
5.3899999 1.75 1.026
5.381 1.766 1.026
5.3860002 1.7869999 1.028
5.3990002 1.811 1.0319999
5.3959999 1.829 1.033
5.3860002 1.845 1.0319999
5.381 1.863 1.0319999
5.388 1.885 1.035
5.388 1.904 1.036
5.3870001 1.923 1.0369999
5.381 1.941 1.038
5.3769999 1.959 1.038
5.3800001 1.98 1.04
5.3930001 2.0050001 1.044
5.388 2.0239999 1.044
5.3870001 2.043 1.046
5.381 2.0610001 1.046
5.3709998 2.0780001 1.046
5.3530002 2.0910001 1.043
5.3540001 2.112 1.045
5.3639998 2.1370001 1.048
5.3790002 2.1630001 1.053
5.3800001 2.184 1.0549999
5.3800001 2.2049999 1.056
5.3699999 2.2219999 1.056
5.3649998 2.2409999 1.056
5.3559999 2.2579999 1.056
5.375 2.2880001 1.061
5.3800001 2.3110001 1.064
5.3839998 2.3340001 1.066
5.4060001 2.365 1.072
5.4349999 2.4000001 1.08
5.494 2.448 1.0930001
5.6690001 2.549 1.13
5.013 2.9230001 1.052
4.9780002 2.925 1.0470001
4.9180002 2.9119999 1.036
4.9070001 2.928 1.036
4.8800001 2.9349999 1.0319999
4.836 2.931 1.025
4.809 2.937 1.021
4.6550002 3.0190001 1.003
4.6230001 3.02 0.99800003
4.6059999 3.0309999 0.99699998
4.5879998 3.0420001 0.995
4.5679998 3.0510001 0.99199998
4.5650001 3.0699999 0.99400002
4.5450001 3.0799999 0.991
4.527 3.089 0.98900002
4.5120001 3.1010001 0.98799998
4.4970002 3.1129999 0.98699999
4.4910002 3.131 0.98699999
5.204 -3.418 0.977
5.224 -3.398 0.97899997
5.2389998 -3.3759999 0.98100001
5.2579999 -3.3559999 0.98400003
5.2690001 -3.3310001 0.98500001
5.276 -3.303 0.986
5.302 -3.2880001 0.99000001
5.2979999 -3.2550001 0.98799998
5.3130002 -3.233 0.99000001
5.3309999 -3.2130001 0.99299997
5.329 -3.181 0.991
5.3520002 -3.164 0.995
5.3649998 -3.141 0.99599999
5.3699999 -3.1140001 0.99599999
5.3850002 -3.0929999 0.99800003
5.395 -3.0699999 1
5.4029999 -3.0450001 1
5.415 -3.0220001 1.002
5.4349999 -3.0039999 1.005
5.4450002 -2.9809999 1.006
5.4569998 -2.9579999 1.007
5.4699998 -2.937 1.0089999
5.4749999 -2.911 1.0089999
5.493 -2.8929999 1.012
5.4970002 -2.8659999 1.011
5.506 -2.8440001 1.013
5.5139999 -2.8199999 1.013
5.5229998 -2.7969999 1.0140001
5.533 -2.7750001 1.015
5.539 -2.7509999 1.016
5.5409999 -2.7249999 1.015
5.5409999 -2.698 1.015
5.552 -2.677 1.016
5.5619998 -2.655 1.017
5.5580001 -2.6270001 1.016
5.5570002 -2.5999999 1.015
5.5209999 -2.5580001 1.008
5.4850001 -2.516 1.001
5.4809999 -2.4890001 0.99900001
5.4770002 -2.4619999 0.99800003
5.4829998 -2.441 0.99900001
5.4829998 -2.4159999 0.99800003
4.322 -1.885 0.78600001
4.2709999 -1.844 0.77600002
4.2909999 -1.834 0.77999997
4.2839999 -1.812 0.778
4.2389998 -1.775 0.76899999
4.2319999 -1.7539999 0.76800001
4.2360001 -1.738 0.76800001
4.2379999 -1.721 0.76800001
4.217 -1.694 0.764
4.165 -1.656 0.75400001
4.1500001 -1.633 0.75099999
4.1750002 -1.626 0.755
4.1560001 -1.601 0.75099999
4.1350002 -1.577 0.74699998
4.1269999 -1.557 0.745
4.0929999 -1.528 0.73900002
4.0910001 -1.511 0.73799998
4.0900002 -1.494 0.73699999
4.0949998 -1.48 0.73799998
4.0999999 -1.466 0.73799998
4.085 -1.4450001 0.73500001
4.073 -1.425 0.73299998
4.073 -1.41 0.73299998
4.072 -1.3940001 0.73199999
4.0710001 -1.378 0.73100001
4.0679998 -1.362 0.73000002
4.0599999 -1.344 0.72899997
4.0580001 -1.329 0.72799999
4.0619998 -1.3150001 0.72899997
4.059 -1.3 0.72799999
4.0700002 -1.289 0.72899997
4.0669999 -1.273 0.72899997
4.0710001 -1.26 0.72899997
4.0749998 -1.247 0.72899997
4.079 -1.233 0.73000002
4.0760002 -1.2180001 0.72899997
4.066 -1.201 0.727
4.0840001 -1.192 0.73000002
4.0819998 -1.178 0.72899997
4.0910001 -1.1670001 0.73100001
4.0949998 -1.154 0.73100001
4.0819998 -1.137 0.72799999
4.0960002 -1.127 0.73100001
4.105 -1.1160001 0.73199999
4.1079998 -1.103 0.73199999
4.112 -1.091 0.73299998
4.1069999 -1.076 0.73199999
4.118 -1.0650001 0.73299998
4.1129999 -1.051 0.73199999
4.118 -1.039 0.73299998
4.1209998 -1.027 0.73299998
4.1230001 -1.0140001 0.73299998
4.1339998 -1.0039999 0.73500001
4.1430001 -0.99299997 0.736
4.1459999 -0.98100001 0.73699999
4.1420002 -0.96700001 0.736
4.151 -0.95700002 0.73699999
4.1469998 -0.94300002 0.736
4.164 -0.935 0.73900002
4.1589999 -0.921 0.73799998
4.1620002 -0.90899998 0.73799998
4.1729999 -0.89899999 0.74000001
4.1719999 -0.88700002 0.74000001
4.1750002 -0.875 0.74000001
4.1789999 -0.86400002 0.741
4.1880002 -0.85399997 0.74199998
4.191 -0.84200001 0.74199998
4.1989999 -0.83200002 0.74299997
4.2010002 -0.82099998 0.74400002
4.1950002 -0.80800003 0.74299997
4.2119999 -0.79900002 0.745
4.2069998 -0.787 0.74400002
4.2090001 -0.77499998 0.74400002
4.2179999 -0.76499999 0.74599999
4.2280002 -0.75599998 0.74699998
4.23 -0.74400002 0.74800003
4.276 -0.741 0.75599998
4.4060001 -0.75199997 0.77899998
4.6290002 -0.778 0.81800002
5.4460001 -0.89999998 0.96200001
4.6009998 -0.74800003 0.81199998
4.6259999 -0.74000001 0.81699997
5.4530001 -0.85900003 0.963
5.4489999 -0.84399998 0.96200001
5.428 -0.82700002 0.958
5.4499998 -0.81599998 0.96200001
5.4429998 -0.80199999 0.95999998
5.448 -0.78899997 0.96100003
5.461 -0.77700001 0.963
5.4520001 -0.76200002 0.96100003
5.4559999 -0.74900001 0.96200001
5.441 -0.73400003 0.95899999
5.4510002 -0.722 0.95999998
5.4530001 -0.70899999 0.96100003
5.448 -0.69499999 0.95999998
5.448 -0.68199998 0.95999998
5.4520001 -0.66900003 0.95999998
5.4590001 -0.65700001 0.96100003
5.4489999 -0.64300001 0.95899999
5.448 -0.63099998 0.95899999
5.4489999 -0.61799997 0.95899999
5.4549999 -0.60600001 0.95999998
5.46 -0.59399998 0.96100003
5.4580002 -0.58200002 0.95999998
5.46 -0.56999999 0.96100003
5.4619999 -0.55699998 0.96100003
5.4510002 -0.54400003 0.95899999
5.4660001 -0.53399998 0.96100003
5.467 -0.52200001 0.96100003
5.46 -0.509 0.95999998
5.467 -0.498 0.96100003
5.4619999 -0.486 0.95999998
5.4710002 -0.47499999 0.96200001
5.4629998 -0.46200001 0.95999998
5.4580002 -0.44999999 0.95899999
5.4569998 -0.43900001 0.95899999
5.4699998 -0.428 0.96100003
5.4759998 -0.417 0.96200001
5.474 -0.40599999 0.96200001
5.4759998 -0.39500001 0.96200001
5.4780002 -0.384 0.963
5.4790001 -0.373 0.963
5.4860001 -0.36199999 0.96399999
5.4829998 -0.35100001 0.963
5.4879999 -0.34099999 0.96399999
5.4879999 -0.33000001 0.96399999
5.4889998 -0.31900001 0.96399999
5.4889998 -0.30899999 0.96399999
5.4899998 -0.29800001 0.96399999
5.4970002 -0.28799999 0.96499997
5.5029998 -0.278 0.96600002
5.5100002 -0.26800001 0.96799999
5.506 -0.257 0.96700001
5.5170002 -0.248 0.96899998
5.507 -0.237 0.96700001
5.5139999 -0.227 0.96799999
5.5289998 -0.21799999 0.97100002
5.5359998 -0.208 0.972
5.5289998 -0.198 0.97100002
5.5300002 -0.18799999 0.97100002
5.5450001 -0.17900001 0.97399998
5.546 -0.169 0.97399998
5.5580001 -0.16 0.97600001
5.573 -0.15000001 0.97899997
5.573 -0.141 0.97899997
5.5939999 -0.132 0.98199999
5.6030002 -0.123 0.98400003
5.6030002 -0.113 0.98400003
5.6360002 -0.104 0.99000001
5.645 -0.094999999 0.991
5.6440001 -0.086000003 0.991
5.6739998 -0.077 0.99699998
5.6719999 -0.068000004 0.99599999
5.7020001 -0.059 1.002
5.7150002 -0.050000001 1.0039999
5.7290001 -0.041000001 1.006
5.7270002 -0.032000002 1.006
5.756 -0.024 1.011
5.777 -0.015 1.015
5.7919998 -0.0060000001 1.018
5.8270001 0.0020000001 1.024
5.888 0.011 1.035
5.5450001 0.102 1.008
5.5739999 0.112 1.013
5.5650001 0.122 1.011
5.573 0.132 1.012
5.573 0.142 1.013
5.572 0.152 1.012
5.5749998 0.162 1.013
5.572 0.17200001 1.012
5.5630002 0.183 1.01
5.5560002 0.193 1.0089999
5.5689998 0.204 1.011
5.5469999 0.214 1.007
5.5560002 0.226 1.0089999
5.5430002 0.236 1.007
5.5370002 0.24699999 1.006
5.5339999 0.25799999 1.005
5.539 0.27000001 1.006
5.526 0.28 1.0039999
5.526 0.292 1.0039999
5.5349998 0.30399999 1.005
5.5250001 0.315 1.0039999
5.5180001 0.32699999 1.002
5.5110002 0.338 1.001
5.5100002 0.34999999 1.001
5.4990001 0.36199999 0.99900001
5.5089998 0.375 1.001
5.4970002 0.38600001 0.99900001
5.507 0.39899999 1.001
5.4920001 0.41100001 0.99900001
5.4840002 0.42300001 0.99800003
5.4899998 0.43599999 0.99900001
5.474 0.447 0.99599999
5.4879999 0.461 0.99900001
5.48 0.47400001 0.99800003
5.4619999 0.48500001 0.995
5.4640002 0.49900001 0.995
5.454 0.51099998 0.99400002
5.4549999 0.52399999 0.99400002
5.454 0.53799999 0.99400002
5.4520001 0.551 0.99400002
5.4450002 0.56400001 0.99299997
5.447 0.57800001 0.99400002
5.448 0.59100002 0.995
5.4530001 0.60600001 0.99599999
5.4520001 0.62 0.99599999
5.4499998 0.63300002 0.99599999
5.4390001 0.64600003 0.99400002
5.441 0.66100001 0.995
5.4450002 0.67500001 0.99599999
5.4510002 0.69099998 0.99800003
5.441 0.704 0.99599999
5.4450002 0.71899998 0.99800003
5.4450002 0.73299998 0.99800003
5.4429998 0.74800003 0.99800003
5.4390001 0.76200002 0.99800003
5.4390001 0.77700001 0.99800003
5.4349999 0.79100001 0.99800003
5.4330001 0.80599999 0.99800003
5.4450002 0.82300001 1.001
5.4359999 0.83700001 1
5.4260001 0.85000002 0.99800003
5.4299998 0.866 1
5.4289999 0.88099998 1
5.4330001 0.89700001 1.001
5.4299998 0.912 1.001
5.427 0.92699999 1.001
5.4369998 0.94499999 1.0039999
5.4369998 0.95999998 1.0039999
5.434 0.97600001 1.0039999
5.4310002 0.991 1.0039999
5.428 1.007 1.005
5.4310002 1.023 1.006
5.4289999 1.039 1.006
5.434 1.056 1.008
5.4159999 1.069 1.005
5.4130001 1.084 1.005
5.4169998 1.101 1.006
5.4250002 1.12 1.0089999
5.4239998 1.136 1.0089999
5.4180002 1.151 1.0089999
5.4089999 1.166 1.008
5.408 1.182 1.008
5.4159999 1.201 1.011
5.4130001 1.217 1.011
5.421 1.235 1.013
5.4310002 1.255 1.016
5.4190001 1.2690001 1.0140001
5.4169998 1.286 1.015
5.4130001 1.302 1.015
5.415 1.319 1.016
5.4180002 1.337 1.017
5.421 1.355 1.0190001
5.415 1.3710001 1.018
5.4200001 1.39 1.02
5.4070001 1.404 1.0190001
5.4099998 1.4220001 1.02
5.4120002 1.4400001 1.021
5.4130001 1.4579999 1.022
5.4089999 1.475 1.023
5.4109998 1.493 1.024
5.4190001 1.513 1.026
5.401 1.526 1.024
5.4109998 1.5470001 1.027
5.4029999 1.562 1.026
5.4120002 1.5829999 1.029
5.402 1.598 1.028
5.4050002 1.617 1.029
5.4000001 1.633 1.029
5.3889999 1.648 1.028
5.395 1.668 1.031
5.402 1.689 1.033
5.3930001 1.704 1.0319999
5.3969998 1.724 1.034
5.3990002 1.743 1.035
5.3940001 1.76 1.035
5.381 1.774 1.034
5.3740001 1.79 1.034
5.3829999 1.812 1.0369999
5.382 1.83 1.038
5.3839998 1.849 1.039
5.3779998 1.8660001 1.039
5.3699999 1.882 1.039
5.3779998 1.903 1.041
5.3740001 1.921 1.0420001
5.3930001 1.946 1.0470001
5.3730001 1.9579999 1.044
5.3610001 1.973 1.043
5.3730001 1.9960001 1.046
5.3629999 2.0109999 1.045
5.3740001 2.0339999 1.049
5.368 2.0510001 1.049
5.3740001 2.073 1.051
5.355 2.0840001 1.049
5.3509998 2.102 1.049
5.349 2.1199999 1.05
5.3600001 2.1440001 1.053
5.3639998 2.164 1.0549999
5.3709998 2.187 1.058
5.3639998 2.2030001 1.058
5.3709998 2.2249999 1.061
5.3639998 2.2409999 1.061
5.3579998 2.2579999 1.061
5.362 2.279 1.063
5.3569999 2.2969999 1.063
5.3600001 2.3180001 1.0650001
5.3649998 2.339 1.067
5.3579998 2.3559999 1.067
5.3639998 2.378 1.0700001
5.381 2.405 1.075
5.4029999 2.4349999 1.081
5.441 2.471 1.09
5.5549998 2.5439999 1.114
5.3670001 -3.2609999 1.0089999
5.3779998 -3.2520001 1.011
5.3759999 -3.234 1.01
5.3790002 -3.22 1.01
5.3839998 -3.2060001 1.011
5.3909998 -3.194 1.012
5.3930001 -3.1800001 1.013
5.3979998 -3.1659999 1.013
5.402 -3.152 1.0140001
5.4060001 -3.138 1.0140001
5.4130001 -3.125 1.015
5.4260001 -3.1159999 1.018
5.414 -3.0929999 1.015
5.4130001 -3.076 1.015
5.4159999 -3.0610001 1.015
5.4169998 -3.0450001 1.015
5.4289999 -3.0350001 1.017
5.4239998 -3.016 1.016
5.4239998 -3 1.016
5.4310002 -2.987 1.017
5.4380002 -2.974 1.018
5.427 -2.951 1.015
5.4330001 -2.9389999 1.017
5.4439998 -2.928 1.018
5.4419999 -2.9100001 1.018
5.441 -2.8929999 1.017
5.4549999 -2.8840001 1.02
5.4419999 -2.8599999 1.017
5.4460001 -2.846 1.018
5.4549999 -2.8340001 1.0190001
5.4619999 -2.8210001 1.02
5.4530001 -2.799 1.018
5.4619999 -2.7869999 1.02
5.4699998 -2.7750001 1.021
5.4770002 -2.7620001 1.022
5.4759998 -2.7449999 1.022
5.487 -2.733 1.023
5.4959998 -2.721 1.025
5.4959998 -2.704 1.025
5.5079999 -2.6930001 1.026
5.5139999 -2.6800001 1.027
5.5139999 -2.6630001 1.027
5.5079999 -2.6429999 1.026
5.4980001 -2.6210001 1.024
5.4720001 -2.592 1.0190001
5.4569998 -2.569 1.016
5.4640002 -2.5550001 1.017
5.4699998 -2.5420001 1.018
5.4629998 -2.5220001 1.016
5.4640002 -2.5050001 1.016
5.4640002 -2.4890001 1.016
5.4569998 -2.4690001 1.0140001
5.4369998 -2.4430001 1.01
5.4169998 -2.418 1.006
5.4109998 -2.3989999 1.005
5.4089999 -2.381 1.0039999
5.4089999 -2.365 1.0039999
5.401 -2.345 1.002
5.395 -2.326 1.001
5.3889999 -2.3069999 0.99900001
5.381 -2.2869999 0.99800003
5.3769999 -2.27 0.99699998
5.3790002 -2.2539999 0.99699998
5.3759999 -2.2360001 0.99599999
5.4039998 -2.2309999 1.001
5.4060001 -2.1989999 1.001
5.4089999 -2.184 1.001
5.4070001 -2.1670001 1.001
5.4180002 -2.155 1.002
4.2519999 -1.678 0.78600001
4.237 -1.66 0.78299999
4.2080002 -1.636 0.778
4.1820002 -1.613 0.773
4.1830001 -1.601 0.773
4.1739998 -1.584 0.77100003
4.197 -1.58 0.77499998
4.2290001 -1.58 0.78100002
4.2589998 -1.5779999 0.78600001
4.243 -1.559 0.78299999
4.2340002 -1.543 0.78100002
4.2379999 -1.5319999 0.78200001
4.23 -1.516 0.77999997
4.2319999 -1.5039999 0.77999997
4.25 -1.498 0.78299999
4.1999998 -1.4680001 0.77399999
4.1960001 -1.4529999 0.773
4.1820002 -1.436 0.76999998
4.1620002 -1.416 0.76599997
4.177 -1.409 0.76899999
4.1739998 -1.395 0.76800001
4.1560001 -1.377 0.764
4.1669998 -1.368 0.76599997
4.1490002 -1.35 0.76300001
4.1550002 -1.339 0.764
4.1440001 -1.323 0.76200002
4.1420002 -1.3099999 0.76099998
4.145 -1.299 0.76099998
4.1389999 -1.284 0.75999999
4.131 -1.2690001 0.75800002
4.1279998 -1.256 0.75800002
4.125 -1.243 0.75700003
4.1269999 -1.2309999 0.75700003
4.1240001 -1.2180001 0.75599998
4.119 -1.204 0.755
4.1360002 -1.197 0.75800002
4.1269999 -1.182 0.75599998
4.131 -1.17 0.75700003
4.1259999 -1.1569999 0.75599998
4.1290002 -1.145 0.75599998
4.1259999 -1.132 0.755
4.1290002 -1.12 0.755
4.118 -1.105 0.75300002
4.132 -1.097 0.75599998
4.1300001 -1.084 0.755
4.1279998 -1.071 0.755
4.131 -1.0599999 0.755
4.1389999 -1.049 0.75599998
4.145 -1.038 0.75700003
4.1399999 -1.025 0.75599998
4.1409998 -1.013 0.75599998
4.1459999 -1.001 0.75599998
4.1479998 -0.99000001 0.75700003
4.1490002 -0.97799999 0.75700003
4.1539998 -0.96600002 0.75700003
4.1630001 -0.95599997 0.759
4.1589999 -0.94300002 0.75800002
4.1620002 -0.93099999 0.75800002
4.1750002 -0.92199999 0.75999999
4.1669998 -0.90799999 0.759
4.1760001 -0.89700001 0.75999999
4.1719999 -0.884 0.759
4.1869998 -0.875 0.76200002
4.1929998 -0.86299998 0.76300001
4.1919999 -0.85100001 0.76200002
4.1880002 -0.838 0.76099998
4.184 -0.824 0.75999999
4.1859999 -0.81199998 0.75999999
4.2020001 -0.80299997 0.76300001
4.2030001 -0.79100001 0.76300001
4.2049999 -0.77899998 0.76300001
4.2080002 -0.76700002 0.764
4.224 -0.75700003 0.76599997
4.2179999 -0.74400002 0.76499999
4.2280002 -0.73299998 0.76700002
4.2540002 -0.72500002 0.77100003
4.3699999 -0.73199999 0.792
4.526 -0.745 0.81999999
4.5430002 -0.73400003 0.82300001
4.5999999 -0.73000002 0.833
5.4330001 -0.84600002 0.98299998
5.4380002 -0.83099997 0.98400003
5.4400001 -0.815 0.98400003
5.448 -0.80000001 0.98500001
5.4320002 -0.78200001 0.98199999
5.4439998 -0.76700002 0.98400003
5.4419999 -0.75099999 0.98299998
5.4510002 -0.736 0.98500001
5.4530001 -0.72000003 0.98500001
5.441 -0.70300001 0.98199999
5.4429998 -0.68699998 0.98199999
5.4390001 -0.671 0.98100001
5.447 -0.65600002 0.98199999
5.454 -0.63999999 0.98299998
5.4510002 -0.62400001 0.98199999
5.4429998 -0.60699999 0.98100001
5.4559999 -0.59200001 0.98299998
5.4489999 -0.57599998 0.98100001
5.4569998 -0.56099999 0.98199999
5.4460001 -0.54299998 0.98000002
5.4429998 -0.52700001 0.97899997
5.4489999 -0.51200002 0.98000002
5.4510002 -0.49599999 0.98000002
5.4650002 -0.48100001 0.98199999
5.461 -0.465 0.98100001
5.4650002 -0.449 0.98199999
5.4689999 -0.433 0.98199999
5.4640002 -0.417 0.98100001
5.4619999 -0.40099999 0.98000002
5.473 -0.38499999 0.98199999
5.467 -0.36899999 0.98000002
5.4749999 -0.35299999 0.98199999
5.4910002 -0.338 0.98400003
5.4910002 -0.322 0.98400003
5.493 -0.30599999 0.98400003
5.5019999 -0.29100001 0.98500001
5.5089998 -0.27500001 0.986
5.5100002 -0.259 0.986
5.5170002 -0.243 0.98699999
5.5250001 -0.227 0.98799998
5.5229998 -0.211 0.98699999
5.539 -0.19499999 0.99000001
5.5339999 -0.17900001 0.98900002
5.5630002 -0.164 0.99400002
5.5840001 -0.148 0.99699998
5.586 -0.132 0.99699998
5.6149998 -0.116 1.002
5.6209998 -0.098999999 1.003
5.625 -0.082999997 1.003
5.6279998 -0.067000002 1.003
5.6659999 -0.050000001 1.01
5.6719999 -0.034000002 1.01
5.6849999 -0.017000001 1.012
5.697 -0.001 1.0140001
5.7259998 0.015 1.0190001
5.7189999 0.032000002 1.017
5.756 0.048999999 1.024
5.7620001 0.066 1.024
5.7680001 0.082999997 1.025
5.868 0.101 1.043
5.6719999 0.081 1.046
5.665 0.086000003 1.044
5.678 0.090999998 1.046
5.6630001 0.096000001 1.043
5.651 0.101 1.04
5.6570001 0.106 1.041
5.645 0.112 1.039
5.631 0.117 1.036
5.6240001 0.123 1.034
5.625 0.12899999 1.034
5.625 0.13500001 1.034
5.6100001 0.14 1.031
5.5799999 0.146 1.025
5.5970001 0.153 1.028
5.5700002 0.15899999 1.023
5.5770001 0.16599999 1.024
5.5500002 0.17200001 1.0190001
5.553 0.17900001 1.0190001
5.5430002 0.186 1.017
5.5479999 0.193 1.018
5.5430002 0.2 1.017
5.5279999 0.207 1.0140001
5.527 0.215 1.0140001
5.5359998 0.223 1.015
5.513 0.23 1.011
5.4980001 0.237 1.008
5.506 0.24600001 1.01
5.4990001 0.25400001 1.008
5.5 0.26199999 1.008
5.4920001 0.27000001 1.007
5.4990001 0.27900001 1.008
5.4860001 0.287 1.006
5.4790001 0.296 1.005
5.4790001 0.30399999 1.005
5.4699998 0.31299999 1.003
5.4699998 0.322 1.003
5.4749999 0.33199999 1.0039999
5.4650002 0.34099999 1.002
5.4679999 0.34999999 1.003
5.467 0.36000001 1.003
5.454 0.36899999 1.001
5.4650002 0.38 1.003
5.4640002 0.38999999 1.003
5.4580002 0.39899999 1.002
5.4640002 0.41 1.003
5.448 0.419 1.001
5.4549999 0.43000001 1.002
5.4400001 0.44 0.99900001
5.4460001 0.45100001 1.001
5.4530001 0.46200001 1.002
5.4369998 0.472 1
5.4369998 0.48300001 1
5.4439998 0.49399999 1.001
5.441 0.505 1.001
5.4400001 0.51700002 1.001
5.4450002 0.52899998 1.002
5.4380002 0.54000002 1.002
5.4390001 0.551 1.002
5.4429998 0.56400001 1.003
5.4419999 0.57499999 1.003
5.4349999 0.58700001 1.002
5.4390001 0.59899998 1.0039999
5.4289999 0.61000001 1.002
5.4310002 0.62300003 1.003
5.4349999 0.63599998 1.0039999
5.4369998 0.64899999 1.005
5.4390001 0.66100001 1.006
5.4390001 0.67400002 1.006
5.4289999 0.68599999 1.005
5.427 0.69800001 1.005
5.4320002 0.71200001 1.006
5.4299998 0.72500002 1.007
5.4229999 0.73699999 1.006
5.4260001 0.75099999 1.007
5.4250002 0.764 1.007
5.4200001 0.77700001 1.007
5.427 0.792 1.0089999
5.4159999 0.80400002 1.007
5.4289999 0.81999999 1.01
5.428 0.83399999 1.011
5.4260001 0.847 1.011
5.4219999 0.861 1.011
5.4200001 0.875 1.011
5.4200001 0.889 1.012
5.4169998 0.903 1.012
5.4289999 0.91900003 1.015
5.4180002 0.93199998 1.013
5.4130001 0.94599998 1.013
5.4200001 0.96200001 1.015
5.4099998 0.97500002 1.0140001
5.4159999 0.991 1.016
5.4180002 1.007 1.017
5.4229999 1.023 1.018
5.4180002 1.0369999 1.018
5.4169998 1.052 1.0190001
5.4109998 1.066 1.0190001
5.4029999 1.08 1.018
5.4120002 1.098 1.02
5.4099998 1.113 1.021
5.401 1.127 1.02
5.3990002 1.143 1.021
5.4070001 1.16 1.023
5.395 1.174 1.022
5.4000001 1.191 1.023
5.4029999 1.2079999 1.025
5.4070001 1.225 1.027
5.3979998 1.239 1.026
5.415 1.26 1.03
5.4089999 1.275 1.03
5.3920002 1.288 1.027
5.401 1.307 1.03
5.4099998 1.326 1.033
5.401 1.34 1.0319999
5.3829999 1.353 1.03
5.3850002 1.37 1.031
5.4029999 1.392 1.035
5.4099998 1.411 1.038
5.4109998 1.429 1.039
5.4190001 1.449 1.0420001
5.408 1.4630001 1.041
5.4089999 1.4809999 1.0420001
5.4130001 1.5 1.044
5.408 1.517 1.044
5.4039998 1.534 1.044
5.4050002 1.552 1.046
5.4000001 1.568 1.046
5.3959999 1.585 1.046
5.3959999 1.604 1.0470001
5.3969998 1.622 1.049
5.381 1.636 1.0470001
5.381 1.655 1.048
5.395 1.678 1.052
5.395 1.696 1.053
5.3959999 1.715 1.0549999
5.3979998 1.735 1.056
5.3930001 1.752 1.057
5.3930001 1.771 1.058
5.3839998 1.7869999 1.057
5.3940001 1.8099999 1.061
5.388 1.827 1.061
5.3870001 1.846 1.062
5.3829999 1.864 1.063
5.3829999 1.8839999 1.064
5.382 1.903 1.0650001
5.3829999 1.923 1.067
5.375 1.9400001 1.067
5.369 1.957 1.067
5.3759999 1.98 1.0700001
5.382 2.0020001 1.072
5.381 2.0220001 1.073
5.3790002 2.0409999 1.075
5.375 2.0599999 1.075
5.3579998 2.0739999 1.073
5.3610001 2.095 1.075
5.3540001 2.1129999 1.075
5.3600001 2.1359999 1.0779999
5.3829999 2.1659999 1.084
5.3709998 2.1819999 1.0829999
5.362 2.1989999 1.0829999
5.3730001 2.2249999 1.087
5.3709998 2.2449999 1.0880001
5.3709998 2.266 1.09
5.3670001 2.2850001 1.09
5.3860002 2.3150001 1.096
5.3649998 2.3269999 1.0930001
5.3759999 2.3529999 1.097
5.382 2.3770001 1.1
5.375 2.3959999 1.1
5.408 2.4319999 1.109
5.4590001 2.4779999 1.1210001
5.5819998 2.556 1.148
4.9819999 2.8829999 1.074
4.9720001 2.9000001 1.074
4.9580002 2.915 1.073
4.9169998 2.9130001 1.066
4.8790002 2.9130001 1.0599999
4.8530002 2.9200001 1.056
4.8130002 2.918 1.049
4.8049998 2.9360001 1.05
4.7709999 2.937 1.044
4.6810002 2.97 1.0319999
4.6700001 2.9860001 1.0319999
4.6550002 2.9979999 1.031
4.586 3.0420001 1.023
4.5650001 3.05 1.021
4.533 3.073 1.018
4.5240002 3.089 1.018
4.507 3.0999999 1.016
5.1960001 -3.4130001 1
5.2210002 -3.3970001 1.0039999
5.2449999 -3.3800001 1.008
5.257 -3.3559999 1.0089999
5.2579999 -3.325 1.0089999
5.2800002 -3.306 1.012
5.2870002 -3.28 1.012
5.29 -3.2509999 1.012
5.3140001 -3.234 1.016
5.3119998 -3.2019999 1.015
5.3280001 -3.181 1.017
5.336 -3.155 1.017
5.3559999 -3.1370001 1.02
5.3559999 -3.1070001 1.02
5.3610001 -3.0799999 1.02
5.381 -3.062 1.023
5.381 -3.033 1.022
5.3860002 -3.006 1.022
5.3979998 -2.984 1.023
5.3969998 -2.9549999 1.023
5.4099998 -2.934 1.024
5.4219999 -2.9119999 1.026
5.4200001 -2.8829999 1.025
5.4320002 -2.8610001 1.026
5.4380002 -2.836 1.026
5.4419999 -2.8110001 1.026
5.447 -2.786 1.027
5.4489999 -2.76 1.027
5.461 -2.7390001 1.028
5.4650002 -2.7149999 1.028
5.4759998 -2.694 1.03
5.4809999 -2.6689999 1.03
5.4910002 -2.648 1.031
5.507 -2.6289999 1.033
5.5029998 -2.6010001 1.0319999
5.52 -2.5840001 1.034
5.4980001 -2.5480001 1.03
5.4860001 -2.517 1.027
5.4910002 -2.494 1.027
5.4860001 -2.467 1.025
5.4889998 -2.444 1.025
5.4790001 -2.415 1.023
5.48 -2.391 1.022
5.4450002 -2.352 1.015
5.4239998 -2.319 1.011
5.4289999 -2.2969999 1.011
5.4239998 -2.2720001 1.01
5.421 -2.247 1.0089999
5.415 -2.2219999 1.007
5.402 -2.194 1.0039999
5.4099998 -2.174 1.005
5.4250002 -2.158 1.007
5.4299998 -2.1370001 1.008
5.4320002 -2.1159999 1.008
5.4330001 -2.0940001 1.007
5.4349999 -2.073 1.007
4.335 -1.636 0.80299997
4.2550001 -1.5880001 0.787
4.2399998 -1.566 0.78399998
4.256 -1.5549999 0.787
4.4229999 -1.599 0.81699997
4.322 -1.546 0.79799998
4.3270001 -1.531 0.79900002
4.3530002 -1.523 0.80299997
4.402 -1.524 0.81199998
4.3010001 -1.473 0.79299998
4.3340001 -1.4680001 0.79900002
4.3109999 -1.444 0.79400003
4.3039999 -1.425 0.792
4.2940001 -1.406 0.79000002
4.3130002 -1.397 0.79299998
4.2639999 -1.365 0.78399998
4.2550001 -1.347 0.78200001
4.244 -1.329 0.77999997
4.204 -1.301 0.77200001
4.2059999 -1.2869999 0.77200001
4.2179999 -1.276 0.77399999
4.2270002 -1.2640001 0.77499998
4.198 -1.24 0.76999998
4.2010002 -1.227 0.76999998
4.2129998 -1.216 0.77200001
4.217 -1.2029999 0.77200001
4.2150002 -1.188 0.77200001
4.1950002 -1.168 0.76800001
4.1830001 -1.151 0.76499999
4.1890001 -1.1390001 0.76599997
4.1859999 -1.124 0.76499999
4.1760001 -1.108 0.76300001
4.1789999 -1.095 0.764
4.1849999 -1.0829999 0.76499999
4.1859999 -1.0700001 0.764
4.1760001 -1.054 0.76200002
4.1849999 -1.043 0.764
4.1830001 -1.029 0.76300001
4.1830001 -1.016 0.76300001
4.1869998 -1.0039999 0.76300001
4.1830001 -0.99000001 0.76200002
4.1919999 -0.97899997 0.764
4.197 -0.96799999 0.76499999
4.1950002 -0.954 0.764
4.1950002 -0.94199997 0.764
4.2030001 -0.93099999 0.76499999
4.2129998 -0.921 0.76700002
4.223 -0.91000003 0.76800001
4.2270002 -0.89899999 0.76899999
4.2059999 -0.88200003 0.76499999
4.2030001 -0.86900002 0.764
4.2030001 -0.85699999 0.764
4.2080002 -0.84600002 0.764
4.2160001 -0.83499998 0.76599997
4.2119999 -0.82300001 0.76499999
4.2210002 -0.81300002 0.76599997
4.2290001 -0.80199999 0.76800001
4.224 -0.79000002 0.76700002
4.2189999 -0.77700001 0.76499999
4.2280002 -0.76700002 0.76700002
4.2389998 -0.75800002 0.76899999
4.2529998 -0.74800003 0.77100003
4.3109999 -0.74699998 0.78100002
4.4489999 -0.759 0.80599999
4.4749999 -0.75199997 0.81099999
4.4549999 -0.736 0.80699998
4.4429998 -0.72299999 0.80500001
4.5009999 -0.72000003 0.815
4.6129999 -0.72600001 0.83499998
5.4439998 -0.84299999 0.986
5.4310002 -0.82700002 0.98299998
5.4450002 -0.815 0.98500001
5.4419999 -0.801 0.98500001
5.4520001 -0.78899997 0.986
5.4520001 -0.77499998 0.986
5.448 -0.76099998 0.98500001
5.4429998 -0.74699998 0.98400003
5.4510002 -0.73500001 0.98500001
5.4530001 -0.722 0.986
5.4400001 -0.70700002 0.98299998
5.4499998 -0.69499999 0.98500001
5.4580002 -0.68300003 0.986
5.447 -0.66900003 0.98400003
5.4640002 -0.65799999 0.98699999
5.4559999 -0.64399999 0.98500001
5.4489999 -0.63 0.98400003
5.4450002 -0.61699998 0.98299998
5.4520001 -0.60600001 0.98400003
5.454 -0.59299999 0.98400003
5.4629998 -0.58200002 0.986
5.4640002 -0.56900001 0.986
5.4590001 -0.55699998 0.98500001
5.4590001 -0.54400003 0.98500001
5.4619999 -0.53299999 0.98500001
5.4629998 -0.52100003 0.98500001
5.4640002 -0.509 0.98500001
5.4679999 -0.49700001 0.986
5.4640002 -0.48500001 0.98500001
5.467 -0.47400001 0.986
5.4590001 -0.461 0.98400003
5.461 -0.44999999 0.98500001
5.4699998 -0.43900001 0.986
5.4710002 -0.428 0.986
5.473 -0.417 0.986
5.4699998 -0.405 0.986
5.4710002 -0.39399999 0.986
5.4720001 -0.38299999 0.986
5.473 -0.37200001 0.986
5.4780002 -0.361 0.98699999
5.4889998 -0.35100001 0.98900002
5.4829998 -0.34 0.98799998
5.4829998 -0.329 0.98799998
5.4840002 -0.31799999 0.98799998
5.494 -0.308 0.99000001
5.5 -0.29800001 0.991
5.5 -0.287 0.991
5.507 -0.27700001 0.99199998
5.507 -0.26699999 0.99199998
5.5050001 -0.257 0.99199998
5.5149999 -0.24699999 0.99299997
5.5240002 -0.237 0.995
5.5089998 -0.226 0.99199998
5.5180001 -0.21600001 0.99400002
5.5349998 -0.207 0.99699998
5.5320001 -0.197 0.99599999
5.54 -0.18700001 0.99800003
5.54 -0.178 0.99800003
5.5469999 -0.168 0.99900001
5.566 -0.15899999 1.002
5.5599999 -0.149 1.001
5.5689998 -0.14 1.003
5.6040001 -0.131 1.0089999
5.6129999 -0.122 1.011
5.6160002 -0.113 1.012
5.6339998 -0.103 1.015
5.6339998 -0.093999997 1.015
5.6469998 -0.085000001 1.017
5.6890001 -0.075999998 1.025
5.7030001 -0.067000002 1.027
5.7030001 -0.057999998 1.028
5.7179999 -0.048999999 1.03
5.7249999 -0.039999999 1.0319999
5.7389998 -0.030999999 1.034
5.7659998 -0.023 1.039
5.7680001 -0.014 1.04
5.763 -0.0049999999 1.039
5.5619998 0.103 1.039
5.5939999 0.113 1.045
5.586 0.123 1.044
5.5679998 0.132 1.04
5.5669999 0.142 1.04
5.5650001 0.152 1.039
5.5739999 0.163 1.041
5.572 0.17299999 1.041
5.573 0.184 1.041
5.5640001 0.19400001 1.039
5.5599999 0.205 1.038
5.5450001 0.215 1.036
5.5450001 0.226 1.035
5.539 0.237 1.034
5.5370002 0.248 1.034
5.5339999 0.259 1.033
5.5300002 0.27000001 1.033
5.5359998 0.28200001 1.034
5.5289998 0.29300001 1.033
5.5209999 0.30399999 1.031
5.5159998 0.315 1.03
5.507 0.32699999 1.029
5.506 0.33899999 1.029
5.5149999 0.35100001 1.031
5.5100002 0.36300001 1.03
5.5019999 0.375 1.028
5.5029998 0.38699999 1.029
5.5 0.39899999 1.028
5.4840002 0.41100001 1.026
5.4790001 0.42300001 1.025
5.493 0.43700001 1.028
5.4840002 0.449 1.026
5.4819999 0.46200001 1.026
5.4749999 0.47400001 1.025
5.4660001 0.486 1.024
5.467 0.5 1.024
5.4510002 0.51099998 1.021
5.4619999 0.52600002 1.024
5.448 0.53799999 1.021
5.447 0.551 1.022
5.4530001 0.565 1.023
5.4510002 0.579 1.023
5.4429998 0.59200001 1.022
5.4450002 0.60600001 1.023
5.441 0.61900002 1.022
5.4390001 0.63300002 1.022
5.4359999 0.64700001 1.022
5.4359999 0.66100001 1.022
5.4359999 0.67500001 1.023
5.4310002 0.68900001 1.022
5.4390001 0.704 1.024
5.428 0.71700001 1.022
5.4400001 0.73299998 1.025
5.4330001 0.74699998 1.025
5.4359999 0.76200002 1.026
5.428 0.77600002 1.025
5.4380002 0.792 1.027
5.441 0.80800003 1.028
5.4250002 0.81999999 1.025
5.4380002 0.83700001 1.028
5.4349999 0.852 1.028
5.4330001 0.86699998 1.029
5.4299998 0.88200003 1.029
5.4250002 0.89700001 1.028
5.4260001 0.912 1.029
5.434 0.92900002 1.031
5.4320002 0.94499999 1.031
5.4289999 0.95999998 1.031
5.4289999 0.97600001 1.0319999
5.4239998 0.991 1.0319999
5.4239998 1.007 1.0319999
5.4330001 1.024 1.035
5.4169998 1.0369999 1.0319999
5.4120002 1.052 1.0319999
5.4180002 1.0700001 1.034
5.4260001 1.0880001 1.036
5.4169998 1.102 1.035
5.4219999 1.12 1.0369999
5.4109998 1.1339999 1.035
5.421 1.152 1.038
5.415 1.168 1.038
5.421 1.186 1.039
5.4169998 1.202 1.04
5.414 1.2180001 1.04
5.4229999 1.237 1.0420001
5.4180002 1.252 1.0420001
5.4219999 1.27 1.044
5.4180002 1.286 1.044
5.421 1.304 1.045
5.4159999 1.3200001 1.045
5.3979998 1.3329999 1.0420001
5.3829999 1.346 1.04
5.3839998 1.364 1.041
5.4000001 1.385 1.045
5.4219999 1.408 1.05
5.4089999 1.423 1.049
5.4190001 1.443 1.052
5.414 1.459 1.052
5.4089999 1.476 1.052
5.4130001 1.494 1.053
5.4169998 1.513 1.0549999
5.4089999 1.529 1.0549999
5.4169998 1.549 1.057
5.4039998 1.563 1.0549999
5.4070001 1.582 1.057
5.414 1.602 1.059
5.3990002 1.6160001 1.058
5.4060001 1.636 1.0599999
5.395 1.651 1.059
5.3899999 1.668 1.059
5.3990002 1.689 1.062
5.4050002 1.709 1.064
5.4050002 1.727 1.0650001
5.4000001 1.744 1.0650001
5.3940001 1.761 1.0650001
5.3899999 1.778 1.0650001
5.3829999 1.794 1.0650001
5.3839998 1.813 1.066
5.3850002 1.832 1.068
5.3790002 1.849 1.068
5.3790002 1.867 1.069
5.381 1.886 1.0700001
5.381 1.905 1.072
5.388 1.927 1.074
5.369 1.939 1.072
5.3660002 1.956 1.072
5.3629999 1.974 1.073
5.381 2 1.0779999
5.3629999 2.0120001 1.075
5.369 2.033 1.0779999
5.3740001 2.0539999 1.08
5.369 2.0710001 1.08
5.3629999 2.0880001 1.08
5.3559999 2.105 1.08
5.3499999 2.1210001 1.08
5.362 2.145 1.084
5.3670001 2.1670001 1.086
5.3740001 2.1889999 1.089
5.3720002 2.207 1.09
5.3649998 2.224 1.09
5.3649998 2.243 1.091
5.3629999 2.2620001 1.092
5.3579998 2.279 1.092
5.355 2.2969999 1.0930001
5.3610001 2.319 1.096
5.3670001 2.3410001 1.098
5.3600001 2.3570001 1.098
5.3579998 2.3759999 1.099
5.3639998 2.3989999 1.102
5.362 2.4170001 1.103
5.3800001 2.4449999 1.108
5.3959999 2.4719999 1.113
5.4720001 2.527 1.13
5.5570002 2.5869999 1.149
5.3769999 -3.27 1.0369999
5.3759999 -3.253 1.036
5.3759999 -3.237 1.036
5.3779998 -3.2219999 1.036
5.3870001 -3.211 1.038
5.3839998 -3.1930001 1.0369999
5.3909998 -3.181 1.038
5.3920002 -3.165 1.038
5.4070001 -3.1570001 1.041
5.3940001 -3.1329999 1.038
5.4089999 -3.1259999 1.041
5.415 -3.1129999 1.0420001
5.408 -3.092 1.04
5.4159999 -3.0799999 1.041
5.4130001 -3.062 1.04
5.4120002 -3.0450001 1.04
5.4250002 -3.036 1.0420001
5.4180002 -3.0150001 1.041
5.427 -3.0039999 1.0420001
5.4200001 -2.983 1.041
5.428 -2.971 1.0420001
5.4299998 -2.9549999 1.0420001
5.4289999 -2.938 1.0420001
5.4359999 -2.925 1.043
5.4289999 -2.905 1.041
5.4359999 -2.892 1.0420001
5.4380002 -2.8770001 1.0420001
5.4349999 -2.858 1.0420001
5.4390001 -2.8440001 1.0420001
5.4450002 -2.8310001 1.043
5.4510002 -2.8169999 1.044
5.4390001 -2.7939999 1.0420001
5.4460001 -2.7809999 1.043
5.4450002 -2.7639999 1.0420001
5.448 -2.7490001 1.043
5.4530001 -2.7349999 1.043
5.441 -2.7119999 1.041
5.4530001 -2.7019999 1.043
5.4590001 -2.688 1.044
5.4530001 -2.668 1.0420001
5.461 -2.655 1.044
5.454 -2.635 1.0420001
5.4629998 -2.6229999 1.043
5.461 -2.6059999 1.043
5.454 -2.586 1.041
5.4590001 -2.5710001 1.0420001
5.4530001 -2.552 1.041
5.4689999 -2.5420001 1.043
5.46 -2.5220001 1.0420001
5.4650002 -2.507 1.0420001
5.4590001 -2.4879999 1.041
5.4520001 -2.4679999 1.039
5.4289999 -2.441 1.035
5.4130001 -2.418 1.031
5.4159999 -2.4030001 1.0319999
5.3990002 -2.378 1.028
5.3979998 -2.362 1.028
5.3990002 -2.345 1.027
5.3909998 -2.326 1.026
5.3899999 -2.309 1.025
5.3759999 -2.2869999 1.022
5.369 -2.267 1.021
5.3769999 -2.2539999 1.022
5.388 -2.243 1.024
5.3930001 -2.2279999 1.025
5.4050002 -2.217 1.027
5.4099998 -2.2030001 1.027
5.4130001 -2.187 1.028
5.408 -2.1689999 1.026
5.415 -2.155 1.028
5.4130001 -2.138 1.027
5.4190001 -2.1240001 1.028
5.421 -2.108 1.028
5.4159999 -2.0899999 1.027
5.4239998 -2.076 1.028
5.415 -2.0569999 1.026
5.4260001 -2.0439999 1.028
5.415 -2.0239999 1.025
5.4219999 -2.01 1.027
5.4120002 -1.99 1.024
5.4200001 -1.976 1.026
5.4109998 -1.957 1.024
5.415 -1.942 1.024
5.4229999 -1.928 1.025
5.4320002 -1.915 1.027
5.4310002 -1.899 1.026
5.4299998 -1.882 1.026
5.4289999 -1.865 1.025
5.421 -1.846 1.024
5.4289999 -1.832 1.025
5.4380002 -1.819 1.026
