# .PCD v0.7 - Point Cloud Data file format
VERSION 0.7
FIELDS x y z
SIZE 4 4 4
TYPE F F F
COUNT 1 1 1
WIDTH 1748
HEIGHT 1
VIEWPOINT 0 0 0 1 0 0 0
POINTS 1748
DATA ascii
5.5380001 0.15700001 -0.30399999
5.5440001 0.16500001 -0.30500001
5.5370002 0.17299999 -0.30399999
5.5229998 0.18099999 -0.30399999
5.5370002 0.19 -0.30500001
5.5170002 0.198 -0.30399999
5.5300002 0.207 -0.30500001
5.5219998 0.215 -0.30399999
5.5149999 0.22400001 -0.30399999
5.5079999 0.233 -0.30399999
5.5149999 0.242 -0.30399999
5.5050001 0.25099999 -0.30399999
5.5139999 0.26100001 -0.30399999
5.507 0.27000001 -0.30399999
5.4920001 0.27900001 -0.303
5.4970002 0.289 -0.30399999
5.494 0.29899999 -0.30399999
5.4899998 0.30899999 -0.30399999
5.4889998 0.31900001 -0.30399999
5.4889998 0.329 -0.30399999
5.4889998 0.33899999 -0.30399999
5.487 0.34999999 -0.30399999
5.4860001 0.36000001 -0.30399999
5.4860001 0.37099999 -0.30500001
5.4860001 0.382 -0.30500001
5.4850001 0.39199999 -0.30500001
5.4840002 0.403 -0.30500001
5.4759998 0.414 -0.30500001
5.4840002 0.426 -0.30500001
5.4819999 0.43700001 -0.30500001
5.4679999 0.447 -0.30500001
5.4710002 0.45899999 -0.30500001
5.4660001 0.47 -0.30500001
5.4710002 0.48199999 -0.30599999
5.4640002 0.493 -0.30500001
5.4689999 0.50599998 -0.30599999
5.474 0.51800001 -0.30700001
5.467 0.52999997 -0.30599999
5.4590001 0.54100001 -0.30599999
5.4580002 0.55400002 -0.30599999
5.4629998 0.56699997 -0.30700001
5.4650002 0.579 -0.30700001
5.46 0.59100002 -0.30700001
5.4590001 0.60399997 -0.30700001
5.4580002 0.61699998 -0.308
5.4569998 0.63 -0.308
5.46 0.64300001 -0.308
5.4590001 0.65600002 -0.308
5.4510002 0.66799998 -0.308
5.4489999 0.68199998 -0.308
5.4549999 0.69599998 -0.30899999
5.4530001 0.70899999 -0.30899999
5.4510002 0.72299999 -0.30899999
5.4549999 0.73699999 -0.31
5.4530001 0.75 -0.31
5.4450002 0.76300001 -0.31
5.441 0.77700001 -0.31
5.4559999 0.79299998 -0.31099999
5.447 0.80599999 -0.31099999
5.4450002 0.81999999 -0.31099999
5.4489999 0.83499998 -0.31200001
5.4419999 0.84799999 -0.31099999
5.4499998 0.86400002 -0.31200001
5.4390001 0.87699997 -0.31200001
5.4400001 0.89200002 -0.31200001
5.4380002 0.90600002 -0.31299999
5.4320002 0.92000002 -0.31299999
5.4380002 0.93699998 -0.31299999
5.4429998 0.95200002 -0.31400001
5.4400001 0.96700001 -0.31400001
5.4380002 0.98199999 -0.31400001
5.434 0.99699998 -0.31400001
5.4380002 1.013 -0.315
5.4369998 1.028 -0.315
5.4400001 1.045 -0.31600001
5.4289999 1.058 -0.31600001
5.4320002 1.075 -0.31600001
5.4439998 1.0930001 -0.317
5.4289999 1.1059999 -0.317
5.4369998 1.124 -0.31799999
5.4359999 1.14 -0.31799999
5.4310002 1.155 -0.31799999
5.4349999 1.1720001 -0.31900001
5.4320002 1.188 -0.31900001
5.4260001 1.2029999 -0.31900001
5.4320002 1.221 -0.31999999
5.427 1.237 -0.31999999
5.4299998 1.2539999 -0.31999999
5.427 1.27 -0.31999999
5.4229999 1.286 -0.32100001
5.427 1.304 -0.32100001
5.4260001 1.321 -0.322
5.4310002 1.34 -0.322
5.4229999 1.355 -0.322
5.4159999 1.3710001 -0.322
5.4180002 1.388 -0.32300001
5.4180002 1.406 -0.32300001
5.4239998 1.425 -0.324
5.4200001 1.442 -0.324
5.415 1.4579999 -0.32499999
5.4229999 1.478 -0.32600001
5.4190001 1.495 -0.32600001
5.4219999 1.5140001 -0.32600001
5.4169998 1.53 -0.32699999
5.4180002 1.549 -0.32699999
5.4130001 1.566 -0.32699999
5.4190001 1.586 -0.32800001
5.4089999 1.601 -0.32800001
5.4159999 1.622 -0.329
5.4130001 1.64 -0.329
5.4060001 1.656 -0.329
5.408 1.676 -0.33000001
5.4029999 1.693 -0.33000001
5.4099998 1.714 -0.331
5.4039998 1.7309999 -0.331
5.4120002 1.753 -0.33199999
5.4039998 1.7690001 -0.33199999
5.401 1.7869999 -0.33199999
5.401 1.807 -0.333
5.401 1.826 -0.33399999
5.401 1.845 -0.33399999
5.4029999 1.8660001 -0.33500001
5.4029999 1.885 -0.33500001
5.3969998 1.903 -0.33500001
5.4039998 1.925 -0.336
5.3899999 1.9400001 -0.336
5.3889999 1.96 -0.33700001
5.3969998 1.982 -0.338
5.3959999 2.0020001 -0.338
5.3889999 2.02 -0.338
5.395 2.0420001 -0.33899999
5.3759999 2.0550001 -0.33899999
5.3829999 2.0780001 -0.34
5.401 2.1059999 -0.34099999
3.6559999 1.439 -0.23100001
3.5320001 1.404 -0.22400001
3.438 1.38 -0.21799999
3.3640001 1.363 -0.214
3.365 1.377 -0.214
3.3610001 1.388 -0.214
3.3640001 1.402 -0.215
3.3729999 1.419 -0.21600001
3.3729999 1.433 -0.21600001
3.388 1.452 -0.21799999
3.4130001 1.477 -0.22
4.8709998 2.1270001 -0.31400001
4.8249998 2.1259999 -0.31200001
4.8010001 2.135 -0.31099999
4.7950001 2.151 -0.31099999
4.7979999 2.1719999 -0.31200001
4.796 2.191 -0.31299999
4.7950001 2.2090001 -0.31299999
4.7870002 2.2249999 -0.31299999
4.789 2.2460001 -0.31400001
4.7849998 2.2639999 -0.31400001
4.7969999 2.289 -0.315
4.875 2.3469999 -0.32100001
5.131 2.4909999 -0.33899999
5.1090002 2.5020001 -0.338
5.3189998 2.6270001 -0.35299999
5.0640001 2.7620001 -0.34400001
5.0320001 2.766 -0.34200001
5.0359998 2.79 -0.34299999
5.0489998 2.8199999 -0.345
5.033 2.8340001 -0.34400001
5.0219998 2.8499999 -0.34400001
5.02 2.8710001 -0.345
5.02 2.8929999 -0.34599999
5.0190001 2.915 -0.34599999
5.0139999 2.9349999 -0.347
4.993 2.9449999 -0.34599999
4.9809999 2.961 -0.34599999
4.961 2.9719999 -0.345
4.9400001 2.9820001 -0.345
4.8660002 2.9590001 -0.34
4.8709998 2.9849999 -0.34099999
4.8740001 3.0090001 -0.34200001
4.835 3.007 -0.34
4.8150001 3.017 -0.33899999
4.7849998 3.0209999 -0.338
4.777 3.0380001 -0.338
4.7490001 3.043 -0.33700001
4.7150002 3.043 -0.33500001
4.6999998 3.0550001 -0.33500001
4.6890001 3.0710001 -0.33500001
4.6739998 3.0829999 -0.33500001
4.6659999 3.099 -0.33500001
4.6490002 3.1099999 -0.33399999
4.6279998 3.118 -0.33399999
4.6110001 3.1289999 -0.333
4.5949998 3.1400001 -0.333
4.5739999 3.1489999 -0.33199999
4.5549998 3.1570001 -0.331
4.5409999 3.1700001 -0.331
4.5370002 3.1889999 -0.331
4.5139999 3.1949999 -0.331
4.5110002 3.2149999 -0.331
4.487 3.22 -0.33000001
4.4559999 3.22 -0.329
5.0229998 -3.3280001 -0.20200001
5.0689998 -3.326 -0.20299999
5.3899999 -3.5020001 -0.21600001
5.0799999 -3.2690001 -0.20299999
5.1370001 -3.2739999 -0.205
4.9660001 -3.135 -0.198
4.8870001 -3.056 -0.19499999
4.8439999 -3 -0.193
4.8390002 -2.9679999 -0.192
4.8270001 -2.9319999 -0.192
4.835 -2.908 -0.192
4.8280001 -2.8759999 -0.191
4.8460002 -2.859 -0.192
4.8629999 -2.8410001 -0.192
4.8889999 -2.829 -0.193
4.9159999 -2.8169999 -0.19400001
4.901 -2.7809999 -0.193
4.8860002 -2.7460001 -0.192
4.8909998 -2.7219999 -0.192
4.9099998 -2.7060001 -0.193
4.9439998 -2.6989999 -0.19400001
5.026 -2.7160001 -0.197
5.1059999 -2.733 -0.2
5.1409998 -2.7249999 -0.20100001
5.1399999 -2.698 -0.20100001
5.1259999 -2.664 -0.2
5.1230001 -2.6359999 -0.2
5.1469998 -2.6229999 -0.2
5.1880002 -2.6170001 -0.20200001
5.2969999 -2.6459999 -0.206
5.6360002 -2.7869999 -0.219
5.6440001 -2.7639999 -0.219
5.6550002 -2.7420001 -0.219
5.6669998 -2.72 -0.219
5.6700001 -2.694 -0.219
5.6799998 -2.6719999 -0.219
5.677 -2.6440001 -0.219
5.6690001 -2.6140001 -0.219
5.671 -2.5880001 -0.21799999
5.6739998 -2.5639999 -0.21799999
5.6789999 -2.54 -0.21799999
5.6500001 -2.5009999 -0.21699999
5.612 -2.46 -0.215
5.5939999 -2.4260001 -0.214
4.3280001 -1.858 -0.16599999
4.1719999 -1.773 -0.16
4.132 -1.738 -0.15800001
4.119 -1.714 -0.15700001
4.1199999 -1.697 -0.15700001
4.1240001 -1.681 -0.15700001
4.125 -1.664 -0.15700001
4.1220002 -1.646 -0.15700001
4.1090002 -1.623 -0.156
4.1170001 -1.609 -0.156
4.1199999 -1.5930001 -0.156
4.119 -1.576 -0.156
4.1170001 -1.559 -0.156
4.1170001 -1.5420001 -0.156
4.1110001 -1.523 -0.156
4.1079998 -1.506 -0.155
4.1139998 -1.492 -0.155
4.112 -1.475 -0.155
4.1100001 -1.4579999 -0.155
4.1059999 -1.441 -0.155
4.105 -1.425 -0.155
4.098 -1.4069999 -0.154
4.1240001 -1.4 -0.155
4.1469998 -1.392 -0.156
4.2069998 -1.396 -0.15800001
4.237 -1.391 -0.15899999
4.2360001 -1.375 -0.15899999
4.2480001 -1.363 -0.15899999
4.2379999 -1.345 -0.15899999
4.2280002 -1.326 -0.15800001
4.2189999 -1.308 -0.15800001
4.1409998 -1.2690001 -0.155
4.085 -1.237 -0.153
4.0689998 -1.2180001 -0.152
4.073 -1.205 -0.152
4.0749998 -1.192 -0.152
4.066 -1.175 -0.15099999
4.0770001 -1.164 -0.152
4.0879998 -1.153 -0.152
4.0949998 -1.141 -0.152
4.1500001 -1.143 -0.154
4.1789999 -1.137 -0.155
4.164 -1.119 -0.154
4.1529999 -1.102 -0.154
4.178 -1.095 -0.155
4.1729999 -1.08 -0.154
4.1690001 -1.066 -0.154
4.1659999 -1.052 -0.154
4.1490002 -1.034 -0.153
4.0640001 -1 -0.15000001
4.0580001 -0.986 -0.15000001
4.0440001 -0.97000003 -0.149
4.0430002 -0.95700002 -0.149
4.0440001 -0.94499999 -0.149
4.0289998 -0.92900002 -0.148
4.0310001 -0.917 -0.148
4.0300002 -0.90499997 -0.148
4.0359998 -0.89399999 -0.148
4.0310001 -0.88 -0.148
4.0300002 -0.86799997 -0.148
4.027 -0.85600001 -0.148
4.0250001 -0.84399998 -0.148
4.026 -0.83200002 -0.148
4.0209999 -0.81900001 -0.147
4.0229998 -0.80800003 -0.147
4.026 -0.79699999 -0.147
4.0250001 -0.78500003 -0.147
4.0149999 -0.77200001 -0.147
4.0170002 -0.76099998 -0.147
4.0190001 -0.75 -0.147
4.0209999 -0.74000001 -0.147
4.027 -0.73000002 -0.147
4.0110002 -0.71600002 -0.146
4.006 -0.704 -0.146
4.0050001 -0.69300002 -0.146
4.0100002 -0.68300003 -0.146
4.0279999 -0.67500001 -0.147
4.0770001 -0.67299998 -0.148
4.1490002 -0.67400002 -0.15099999
4.2329998 -0.676 -0.154
4.3010001 -0.676 -0.156
4.3379998 -0.671 -0.15800001
4.3600001 -0.66299999 -0.15800001
4.3979998 -0.65700001 -0.16
4.4180002 -0.64899999 -0.16
4.4640002 -0.64499998 -0.162
4.513 -0.63999999 -0.164
4.546 -0.634 -0.16500001
4.5760002 -0.62699997 -0.16599999
4.6329999 -0.62300003 -0.168
4.7480001 -0.62699997 -0.17200001
5.573 -0.72299999 -0.20200001
5.5599999 -0.708 -0.20100001
5.5710001 -0.69599998 -0.20200001
5.566 -0.68199998 -0.20100001
5.559 -0.66799998 -0.20100001
5.566 -0.65600002 -0.20100001
5.5539999 -0.64099997 -0.20100001
5.5689998 -0.63 -0.20100001
5.559 -0.616 -0.20100001
5.566 -0.60399997 -0.20100001
5.573 -0.59200001 -0.20100001
5.5609999 -0.579 -0.20100001
5.5619998 -0.56599998 -0.20100001
5.5689998 -0.55500001 -0.20100001
5.5650001 -0.542 -0.2
5.566 -0.52999997 -0.2
5.5669999 -0.51800001 -0.2
5.5679998 -0.50599998 -0.2
5.5679998 -0.49399999 -0.2
5.5640001 -0.48199999 -0.2
5.5700002 -0.47 -0.2
5.572 -0.45899999 -0.2
5.573 -0.447 -0.2
5.5830002 -0.43599999 -0.20100001
5.5679998 -0.42399999 -0.2
5.5819998 -0.41299999 -0.2
5.5700002 -0.40099999 -0.2
5.5770001 -0.38999999 -0.2
5.5710001 -0.37900001 -0.2
5.579 -0.368 -0.2
5.5749998 -0.35699999 -0.2
5.5799999 -0.34599999 -0.2
5.5869999 -0.336 -0.2
5.5799999 -0.32499999 -0.2
5.5819998 -0.31400001 -0.2
5.585 -0.303 -0.2
5.5830002 -0.29300001 -0.2
5.598 -0.28299999 -0.2
5.5960002 -0.273 -0.2
5.5929999 -0.26199999 -0.2
5.6090002 -0.25299999 -0.20100001
5.592 -0.242 -0.2
5.6009998 -0.23199999 -0.2
5.6020002 -0.222 -0.2
5.6100001 -0.212 -0.2
5.6079998 -0.20200001 -0.2
5.6170001 -0.193 -0.20100001
5.6030002 -0.182 -0.2
5.6030002 -0.17299999 -0.2
5.618 -0.163 -0.20100001
5.6160002 -0.154 -0.2
5.618 -0.14399999 -0.2
5.625 -0.13500001 -0.20100001
5.631 -0.126 -0.20100001
5.6469998 -0.117 -0.20100001
5.665 -0.108 -0.20200001
5.6469998 -0.097999997 -0.20100001
5.6490002 -0.089000002 -0.20100001
5.6700001 -0.081 -0.20200001
5.6680002 -0.071999997 -0.20200001
5.6859999 -0.063000001 -0.20299999
5.6919999 -0.054000001 -0.20299999
5.7069998 -0.045000002 -0.20299999
5.7140002 -0.037 -0.20299999
5.7259998 -0.028000001 -0.204
5.737 -0.02 -0.204
5.743 -0.011 -0.204
5.7610002 -0.003 -0.205
5.7639999 0.0049999999 -0.205
5.77 0.013 -0.205
5.7919998 0.022 -0.206
5.8049998 0.029999999 -0.207
5.8319998 0.039000001 -0.207
5.8410001 0.046999998 -0.208
5.8769999 0.055 -0.20900001
5.8579998 0.063000001 -0.208
5.8759999 0.071000002 -0.20900001
5.9349999 0.079999998 -0.211
5.9629998 0.089000002 -0.212
5.7719998 0.064999998 -0.301
5.7719998 0.075000003 -0.30199999
5.7930002 0.086000003 -0.303
5.8049998 0.097000003 -0.303
5.796 0.108 -0.303
5.8099999 0.12 -0.30399999
5.8109999 0.131 -0.30399999
5.8099999 0.142 -0.30399999
5.809 0.154 -0.30399999
5.8189998 0.16599999 -0.30500001
5.809 0.177 -0.30500001
5.802 0.189 -0.30399999
5.7880001 0.2 -0.30399999
5.809 0.213 -0.30500001
5.7930002 0.22400001 -0.30399999
5.8010001 0.237 -0.30500001
5.7919998 0.249 -0.30500001
5.7919998 0.26100001 -0.30500001
5.7909999 0.27399999 -0.30500001
5.789 0.28600001 -0.30500001
5.8169999 0.301 -0.30599999
5.789 0.31200001 -0.30500001
5.7810001 0.32499999 -0.30500001
5.7690001 0.33700001 -0.30399999
5.7620001 0.34999999 -0.30399999
5.7540002 0.36300001 -0.30399999
5.7509999 0.37599999 -0.30399999
5.744 0.389 -0.30399999
5.7449999 0.40200001 -0.30399999
5.7150002 0.414 -0.303
5.7090001 0.42699999 -0.303
5.7010002 0.44 -0.30199999
5.6849999 0.45300001 -0.30199999
5.678 0.46599999 -0.30199999
5.638 0.477 -0.30000001
5.6149998 0.48800001 -0.29899999
5.5580001 0.49700001 -0.296
5.5170002 0.50800002 -0.294
5.4889998 0.51899999 -0.29300001
5.474 0.53100002 -0.292
5.473 0.54500002 -0.292
5.4580002 0.55800003 -0.292
5.4569998 0.57200003 -0.292
5.4619999 0.58600003 -0.292
5.4489999 0.59899998 -0.292
5.4580002 0.61500001 -0.29300001
5.4510002 0.62800002 -0.292
5.4559999 0.64300001 -0.29300001
5.4530001 0.65799999 -0.29300001
5.4580002 0.67299998 -0.294
5.4499998 0.68699998 -0.29300001
5.448 0.70099998 -0.294
5.447 0.71600002 -0.294
5.4510002 0.73199999 -0.294
5.4460001 0.74599999 -0.294
5.447 0.76099998 -0.29499999
5.4439998 0.77600002 -0.29499999
5.4419999 0.79100001 -0.29499999
5.448 0.80699998 -0.296
5.4400001 0.82200003 -0.29499999
5.441 0.83700001 -0.296
5.447 0.85399997 -0.296
5.4359999 0.86799997 -0.296
5.4419999 0.88499999 -0.29699999
5.4390001 0.89999998 -0.29699999
5.4369998 0.91500002 -0.29699999
5.4400001 0.93199998 -0.29699999
5.4369998 0.94700003 -0.29800001
5.4359999 0.963 -0.29800001
5.4359999 0.97899997 -0.29800001
5.4359999 0.99599999 -0.29899999
5.441 1.013 -0.29899999
5.4349999 1.028 -0.29899999
5.4330001 1.044 -0.29899999
5.4380002 1.061 -0.30000001
5.427 1.076 -0.30000001
5.4310002 1.0930001 -0.30000001
5.4429998 1.112 -0.301
5.4320002 1.127 -0.301
5.4310002 1.143 -0.301
5.4310002 1.16 -0.30199999
5.4349999 1.178 -0.30199999
5.4289999 1.194 -0.30199999
5.4219999 1.209 -0.30199999
5.4369998 1.23 -0.303
5.4260001 1.244 -0.303
5.4289999 1.262 -0.30399999
5.4330001 1.28 -0.30399999
5.4219999 1.295 -0.30399999
5.4229999 1.313 -0.30500001
5.4190001 1.329 -0.30500001
5.4289999 1.349 -0.30599999
5.4260001 1.3660001 -0.30599999
5.4219999 1.382 -0.30599999
5.4310002 1.402 -0.30700001
5.4190001 1.4170001 -0.30700001
5.428 1.437 -0.308
5.4180002 1.452 -0.30700001
5.4260001 1.472 -0.308
5.4299998 1.4910001 -0.30899999
5.4239998 1.507 -0.30899999
5.4250002 1.526 -0.30899999
5.427 1.544 -0.31
5.4229999 1.561 -0.31
5.4239998 1.579 -0.31099999
5.4130001 1.595 -0.31
5.421 1.615 -0.31099999
5.4109998 1.631 -0.31099999
5.4169998 1.651 -0.31200001
5.4180002 1.669 -0.31200001
5.4190001 1.688 -0.31299999
5.421 1.707 -0.31400001
5.4219999 1.726 -0.31400001
5.4159999 1.743 -0.31400001
5.4109998 1.7589999 -0.31400001
5.4200001 1.781 -0.315
5.4120002 1.7970001 -0.315
5.408 1.8150001 -0.31600001
5.414 1.835 -0.31600001
5.4120002 1.853 -0.317
5.415 1.873 -0.317
5.402 1.888 -0.317
5.4109998 1.909 -0.31799999
5.4050002 1.926 -0.31799999
5.4099998 1.947 -0.31900001
5.3979998 1.962 -0.31900001
5.4039998 1.983 -0.31999999
5.3979998 2 -0.31999999
5.4060001 2.0220001 -0.32100001
5.3990002 2.0380001 -0.32100001
5.4039998 2.059 -0.322
5.3990002 2.076 -0.322
5.415 2.102 -0.32300001
3.622 1.419 -0.21600001
3.529 1.395 -0.211
3.4549999 1.378 -0.207
3.3759999 1.358 -0.20299999
3.3710001 1.369 -0.20299999
3.3729999 1.381 -0.20299999
3.3770001 1.395 -0.204
3.3759999 1.4069999 -0.204
3.3740001 1.418 -0.204
3.3670001 1.427 -0.204
3.3699999 1.441 -0.205
3.402 1.467 -0.207
3.612 1.5700001 -0.22
4.849 2.1259999 -0.296
4.8049998 2.1240001 -0.294
4.7979999 2.1389999 -0.294
4.7989998 2.1559999 -0.294
4.7989998 2.174 -0.29499999
4.7919998 2.188 -0.29499999
4.7909999 2.2049999 -0.29499999
4.7919998 2.223 -0.296
4.7969999 2.243 -0.29699999
4.79 2.257 -0.29699999
4.7820001 2.2709999 -0.29699999
4.7979999 2.296 -0.29800001
4.8740001 2.3499999 -0.30399999
5.191 2.5220001 -0.324
5.348 2.618 -0.33399999
5.198 2.773 -0.33199999
5.0539999 2.7149999 -0.32300001
4.9050002 2.652 -0.31400001
4.829 2.6289999 -0.31
4.8049998 2.6329999 -0.30899999
4.7979999 2.6470001 -0.30899999
4.796 2.6630001 -0.31
4.8070002 2.687 -0.31099999
4.8039999 2.7030001 -0.31099999
4.8080001 2.723 -0.31200001
4.8140001 2.743 -0.31299999
4.8000002 2.753 -0.31299999
4.7979999 2.7690001 -0.31299999
4.803 2.789 -0.31400001
4.8010001 2.8050001 -0.315
4.7989998 2.822 -0.315
4.7969999 2.8380001 -0.31600001
4.7989998 2.8559999 -0.31600001
4.8000002 2.8740001 -0.317
4.8039999 2.8940001 -0.31799999
3.8380001 2.325 -0.25400001
3.7909999 2.3110001 -0.252
3.773 2.313 -0.25099999
3.7379999 2.3050001 -0.249
3.7149999 2.3039999 -0.248
3.7090001 2.313 -0.248
3.6919999 2.316 -0.24699999
3.6789999 2.3199999 -0.24699999
3.674 2.3299999 -0.24699999
3.652 2.329 -0.24600001
3.635 2.3310001 -0.245
3.6229999 2.336 -0.245
3.625 2.349 -0.24600001
3.6270001 2.3640001 -0.24600001
3.6340001 2.3800001 -0.24699999
3.6070001 2.375 -0.24600001
3.582 2.3710001 -0.245
3.5599999 2.369 -0.244
3.55 2.3740001 -0.243
3.5439999 2.382 -0.243
3.5320001 2.3859999 -0.243
3.5220001 2.391 -0.243
3.533 2.4100001 -0.244
3.5209999 2.4130001 -0.244
3.5220001 2.4260001 -0.244
3.529 2.4419999 -0.245
3.5220001 2.4489999 -0.245
3.5179999 2.4579999 -0.245
3.5120001 2.4649999 -0.245
3.523 2.484 -0.24699999
3.507 2.484 -0.24600001
3.5009999 2.4909999 -0.24600001
3.5 2.5009999 -0.24600001
3.506 2.517 -0.24699999
3.513 2.533 -0.248
3.5079999 2.54 -0.248
3.5250001 2.563 -0.25
3.552 2.5929999 -0.25299999
5.632 -3.29 -0.208
5.6240001 -3.2690001 -0.208
5.638 -3.2620001 -0.208
5.632 -3.243 -0.208
5.6469998 -3.2360001 -0.208
5.6469998 -3.22 -0.208
5.6269999 -3.1930001 -0.207
5.6479998 -3.1889999 -0.208
5.1409998 -2.888 -0.189
5.0370002 -2.816 -0.185
4.9879999 -2.7739999 -0.184
4.9790001 -2.7550001 -0.183
4.973 -2.7379999 -0.183
4.9689999 -2.7219999 -0.183
4.967 -2.707 -0.182
4.9660001 -2.6919999 -0.182
4.973 -2.6819999 -0.182
4.9959998 -2.6800001 -0.183
5.027 -2.6830001 -0.184
5.0209999 -2.665 -0.184
4.9819999 -2.6300001 -0.182
4.9679999 -2.609 -0.182
4.9549999 -2.5880001 -0.18099999
4.9720001 -2.5829999 -0.182
5.0120001 -2.5899999 -0.183
5.0819998 -2.6110001 -0.186
5.1529999 -2.6329999 -0.18799999
5.1890001 -2.6370001 -0.189
5.2049999 -2.6300001 -0.19
5.2010002 -2.6129999 -0.19
5.1810002 -2.589 -0.189
5.1750002 -2.5710001 -0.18799999
5.1739998 -2.556 -0.18799999
5.1960001 -2.552 -0.189
5.244 -2.5599999 -0.191
5.3520002 -2.598 -0.19499999
5.6500001 -2.7260001 -0.205
5.6739998 -2.7219999 -0.206
5.691 -2.714 -0.207
5.6929998 -2.698 -0.207
5.6849999 -2.6789999 -0.206
5.684 -2.6619999 -0.206
5.6929998 -2.6500001 -0.206
5.6820002 -2.6289999 -0.206
5.691 -2.6170001 -0.206
5.697 -2.6029999 -0.206
5.6869998 -2.582 -0.206
5.684 -2.5650001 -0.205
5.698 -2.5550001 -0.206
5.6890001 -2.5339999 -0.205
5.6760001 -2.5120001 -0.205
5.6409998 -2.48 -0.20299999
5.6160002 -2.4530001 -0.20200001
5.6079998 -2.434 -0.20200001
4.5050001 -1.942 -0.162
4.2649999 -1.827 -0.153
4.184 -1.78 -0.15000001
4.1220002 -1.742 -0.148
4.1290002 -1.733 -0.148
4.1240001 -1.719 -0.148
4.1230001 -1.707 -0.148
4.118 -1.693 -0.148
4.118 -1.681 -0.147
4.1220002 -1.671 -0.148
4.1199999 -1.658 -0.147
4.1160002 -1.645 -0.147
4.119 -1.6339999 -0.147
4.118 -1.622 -0.147
4.1220002 -1.612 -0.147
4.118 -1.599 -0.147
4.1100001 -1.584 -0.147
4.1139998 -1.573 -0.147
4.1110001 -1.5599999 -0.146
4.1160002 -1.551 -0.147
4.1040001 -1.534 -0.146
4.1100001 -1.525 -0.146
4.1110001 -1.513 -0.146
4.1100001 -1.501 -0.146
4.099 -1.485 -0.146
4.1110001 -1.478 -0.146
4.1009998 -1.4630001 -0.145
4.1059999 -1.4529999 -0.146
4.1009998 -1.439 -0.145
4.1059999 -1.429 -0.145
4.1020002 -1.416 -0.145
4.099 -1.403 -0.145
4.1100001 -1.395 -0.145
4.1259999 -1.3890001 -0.146
4.1620002 -1.3890001 -0.147
4.2069998 -1.392 -0.149
4.2940001 -1.409 -0.152
4.3379998 -1.411 -0.153
4.342 -1.399 -0.153
4.342 -1.387 -0.153
4.362 -1.381 -0.154
4.3520002 -1.365 -0.153
4.335 -1.348 -0.152
4.3049998 -1.326 -0.15099999
4.1939998 -1.28 -0.147
4.1129999 -1.243 -0.14399999
4.0819998 -1.222 -0.14300001
4.0869999 -1.212 -0.14300001
4.0760002 -1.197 -0.14300001
4.0650001 -1.182 -0.142
4.0739999 -1.174 -0.14300001
4.0710001 -1.161 -0.142
4.0739999 -1.15 -0.142
4.0689998 -1.137 -0.142
4.086 -1.13 -0.14300001
4.1040001 -1.123 -0.14300001
4.1469998 -1.124 -0.145
4.198 -1.125 -0.146
4.2140002 -1.118 -0.147
4.197 -1.101 -0.146
4.1939998 -1.0880001 -0.146
4.2389998 -1.0880001 -0.148
4.2750001 -1.085 -0.149
4.2779999 -1.074 -0.149
4.27 -1.059 -0.148
4.2639999 -1.046 -0.148
4.1820002 -1.0140001 -0.145
4.0819998 -0.97799999 -0.142
4.0489998 -0.958 -0.14
4.0500002 -0.94700003 -0.14
4.046 -0.935 -0.14
4.0430002 -0.92299998 -0.14
4.0450001 -0.91100001 -0.14
4.0479999 -0.90100002 -0.14
4.0440001 -0.88800001 -0.14
4.0380001 -0.875 -0.139
4.026 -0.861 -0.139
4.0300002 -0.85100001 -0.139
4.0450001 -0.84200001 -0.139
4.033 -0.82800001 -0.139
4.0370002 -0.81800002 -0.139
4.0370002 -0.80599999 -0.139
4.0339999 -0.79400003 -0.139
4.0359998 -0.78299999 -0.139
4.0279999 -0.76999998 -0.138
4.0190001 -0.75700003 -0.138
4.02 -0.74599999 -0.138
4.0149999 -0.73400003 -0.138
4.0240002 -0.72399998 -0.138
4.0190001 -0.71100003 -0.138
4.0149999 -0.699 -0.13699999
4.0100002 -0.68699998 -0.13699999
4.0040002 -0.67500001 -0.13699999
4.0349998 -0.66900003 -0.138
4.098 -0.667 -0.14
4.2069998 -0.67299998 -0.14399999
4.2950001 -0.67500001 -0.147
4.3309999 -0.66900003 -0.148
4.3759999 -0.66299999 -0.149
4.4349999 -0.66000003 -0.15099999
4.4720001 -0.65200001 -0.152
4.5240002 -0.64700001 -0.154
4.5609999 -0.63999999 -0.155
4.632 -0.63599998 -0.15700001
4.8969998 -0.65899998 -0.16599999
5.5580001 -0.73199999 -0.189
5.5599999 -0.71700001 -0.189
5.5560002 -0.70099998 -0.189
5.5489998 -0.68400002 -0.18799999
5.5650001 -0.67000002 -0.189
5.5609999 -0.65399998 -0.18799999
5.5689998 -0.639 -0.189
5.5560002 -0.62199998 -0.18799999
5.5580001 -0.60699999 -0.18799999
5.5560002 -0.59100002 -0.18799999
5.5549998 -0.57499999 -0.18799999
5.5630002 -0.56 -0.18799999
5.5650001 -0.54400003 -0.18799999
5.566 -0.52899998 -0.18799999
5.5679998 -0.51300001 -0.18799999
5.5689998 -0.498 -0.18799999
5.5700002 -0.48199999 -0.18799999
5.5780001 -0.46700001 -0.18799999
5.572 -0.45100001 -0.18700001
5.5710001 -0.435 -0.18700001
5.5689998 -0.419 -0.18700001
5.5700002 -0.403 -0.18700001
5.5780001 -0.38800001 -0.18700001
5.579 -0.37200001 -0.18700001
5.5679998 -0.35600001 -0.18700001
5.5809999 -0.34099999 -0.18700001
5.5900002 -0.32600001 -0.18700001
5.5830002 -0.31 -0.18700001
5.592 -0.294 -0.18700001
5.5929999 -0.27900001 -0.18700001
5.5999999 -0.26300001 -0.18700001
5.6009998 -0.24699999 -0.18700001
5.6020002 -0.23199999 -0.18700001
5.6020002 -0.21600001 -0.18700001
5.6110001 -0.2 -0.18700001
5.6170001 -0.185 -0.18700001
5.618 -0.169 -0.18700001
5.6399999 -0.154 -0.18799999
5.6339998 -0.138 -0.18700001
5.6399999 -0.122 -0.18700001
5.6550002 -0.106 -0.18799999
5.6620002 -0.090000004 -0.18799999
5.6919999 -0.075000003 -0.189
5.698 -0.059 -0.189
5.7129998 -0.043000001 -0.189
5.7340002 -0.027000001 -0.19
5.7350001 -0.011 -0.19
5.7340002 0.0040000002 -0.19
5.7490001 0.021 -0.19
5.7550001 0.037 -0.19
5.7919998 0.052999999 -0.191
5.7870002 0.07 -0.191
5.8200002 0.086999997 -0.192
5.8270001 0.103 -0.192
5.8280001 0.12 -0.192
5.8270001 0.13600001 -0.192
5.842 0.153 -0.192
5.8540001 0.17 -0.192
5.882 0.18700001 -0.193
5.8979998 0.204 -0.193
5.9089999 0.221 -0.19400001
5.9640002 0.23999999 -0.19499999
5.9580002 0.257 -0.19499999
5.987 0.27500001 -0.19599999
5.9809999 0.37599999 -0.19499999
5.9780002 0.39300001 -0.19499999
5.5970001 0.025 -0.27700001
5.6090002 0.030999999 -0.27700001
5.5900002 0.035999998 -0.27599999
5.5960002 0.041999999 -0.27700001
5.6020002 0.048 -0.27700001
5.5960002 0.054000001 -0.27700001
5.6020002 0.059999999 -0.27700001
5.5949998 0.066 -0.27700001
5.5890002 0.071999997 -0.27700001
5.5809999 0.079000004 -0.27599999
5.5890002 0.085000001 -0.27700001
5.5689998 0.092 -0.27599999
5.5809999 0.098999999 -0.27599999
5.5749998 0.106 -0.27599999
5.5679998 0.113 -0.27599999
5.5669999 0.12 -0.27599999
5.5679998 0.12800001 -0.27599999
5.559 0.13500001 -0.27599999
5.5549998 0.14300001 -0.27599999
5.5469999 0.15000001 -0.27500001
5.546 0.15800001 -0.27500001
5.539 0.16599999 -0.27500001
5.5300002 0.17399999 -0.27500001
5.5310001 0.182 -0.27500001
5.527 0.191 -0.27500001
5.5170002 0.199 -0.27399999
5.5240002 0.208 -0.27500001
5.5250001 0.21699999 -0.27500001
5.5250001 0.226 -0.27500001
5.5159998 0.234 -0.27500001
5.5219998 0.244 -0.27500001
5.5089998 0.252 -0.27500001
5.5079999 0.26199999 -0.27500001
5.5 0.271 -0.27399999
5.493 0.28 -0.27399999
5.5009999 0.28999999 -0.27500001
5.5 0.30000001 -0.27500001
5.4910002 0.31 -0.27500001
5.4910002 0.31999999 -0.27500001
5.4899998 0.33000001 -0.27500001
5.4899998 0.34 -0.27500001
5.4819999 0.34999999 -0.27500001
5.4889998 0.361 -0.27500001
5.4879999 0.37200001 -0.27500001
5.487 0.382 -0.27500001
5.4790001 0.39300001 -0.27500001
5.4860001 0.40400001 -0.27599999
5.4689999 0.414 -0.27500001
5.4710002 0.42500001 -0.27500001
5.4759998 0.43700001 -0.27599999
5.4759998 0.44800001 -0.27599999
5.4679999 0.45899999 -0.27599999
5.4679999 0.47099999 -0.27599999
5.4720001 0.48300001 -0.27599999
5.4619999 0.49399999 -0.27599999
5.4640002 0.50599998 -0.27599999
5.4629998 0.51800001 -0.27700001
5.46 0.52999997 -0.27700001
5.461 0.542 -0.27700001
5.4590001 0.55400002 -0.27700001
5.4580002 0.56699997 -0.27700001
5.4569998 0.579 -0.27700001
5.4549999 0.59100002 -0.27700001
5.454 0.60399997 -0.278
5.4499998 0.616 -0.278
5.4510002 0.62900001 -0.278
5.4499998 0.64200002 -0.278
5.454 0.65600002 -0.27900001
5.447 0.66799998 -0.278
5.4429998 0.68099999 -0.27900001
5.4499998 0.69599998 -0.27900001
5.441 0.708 -0.27900001
5.447 0.722 -0.28
5.4380002 0.73500001 -0.27900001
5.4359999 0.74800003 -0.28
5.441 0.76300001 -0.28
5.4450002 0.77700001 -0.28099999
5.4429998 0.79100001 -0.28099999
5.4489999 0.80599999 -0.28099999
5.447 0.81999999 -0.28099999
5.4450002 0.83399999 -0.28200001
5.4419999 0.84799999 -0.28200001
5.4460001 0.86400002 -0.28200001
5.4439998 0.87800002 -0.28299999
5.4310002 0.89099997 -0.28200001
5.4390001 0.90700001 -0.28299999
5.4369998 0.921 -0.28299999
5.447 0.93800002 -0.28400001
5.4380002 0.95200002 -0.28400001
5.4289999 0.96499997 -0.28400001
5.4390001 0.98199999 -0.28400001
5.4359999 0.99699998 -0.285
5.427 1.011 -0.28400001
5.4330001 1.028 -0.285
5.4359999 1.044 -0.28600001
5.4330001 1.059 -0.28600001
5.4359999 1.075 -0.28600001
5.4310002 1.09 -0.28600001
5.4349999 1.107 -0.287
5.4380002 1.124 -0.287
5.4299998 1.138 -0.287
5.434 1.155 -0.28799999
5.4289999 1.171 -0.28799999
5.4260001 1.186 -0.28799999
5.4190001 1.201 -0.28799999
5.4320002 1.221 -0.289
5.4289999 1.237 -0.28999999
5.4260001 1.253 -0.28999999
5.428 1.27 -0.28999999
5.4239998 1.286 -0.28999999
5.4260001 1.304 -0.29100001
5.4239998 1.3200001 -0.29100001
5.4200001 1.337 -0.29100001
5.4219999 1.354 -0.292
5.4250002 1.372 -0.292
5.4260001 1.39 -0.29300001
5.4159999 1.405 -0.29300001
5.4180002 1.423 -0.29300001
5.427 1.443 -0.294
5.4229999 1.46 -0.294
5.4180002 1.476 -0.29499999
5.4260001 1.497 -0.29499999
5.421 1.513 -0.296
5.4169998 1.53 -0.296
5.4219999 1.55 -0.29699999
5.4200001 1.568 -0.29699999
5.415 1.584 -0.29699999
5.4169998 1.603 -0.29800001
5.4260001 1.624 -0.29899999
5.4039998 1.637 -0.29800001
5.415 1.659 -0.29899999
5.4099998 1.676 -0.29899999
5.4099998 1.6950001 -0.30000001
5.4169998 1.716 -0.30000001
5.4060001 1.7309999 -0.30000001
5.414 1.753 -0.301
5.415 1.772 -0.30199999
5.408 1.789 -0.30199999
5.4029999 1.807 -0.30199999
5.4060001 1.827 -0.303
5.4050002 1.846 -0.303
5.4050002 1.8660001 -0.30399999
5.4120002 1.888 -0.30399999
5.4039998 1.905 -0.30500001
5.4000001 1.923 -0.30500001
5.4060001 1.9450001 -0.30599999
5.3990002 1.962 -0.30599999
5.3930001 1.98 -0.30599999
5.4000001 2.003 -0.30700001
5.3990002 2.023 -0.30700001
5.3990002 2.043 -0.308
5.3899999 2.0599999 -0.308
5.3959999 2.0829999 -0.30899999
3.6570001 1.425 -0.20900001
3.5320001 1.39 -0.20299999
3.457 1.374 -0.199
3.372 1.353 -0.19400001
3.3710001 1.365 -0.19400001
3.368 1.377 -0.19499999
3.3699999 1.391 -0.19499999
3.3710001 1.405 -0.19499999
3.3659999 1.416 -0.19599999
3.375 1.433 -0.19599999
3.395 1.455 -0.198
3.5929999 1.554 -0.20999999
4.8540001 2.118 -0.28400001
4.8099999 2.118 -0.28200001
4.803 2.135 -0.28200001
4.796 2.151 -0.28200001
4.8000002 2.1719999 -0.28299999
4.8000002 2.1919999 -0.28400001
4.7849998 2.204 -0.28299999
4.796 2.2290001 -0.285
4.789 2.2449999 -0.285
4.8000002 2.27 -0.28600001
4.8169999 2.2980001 -0.287
4.9819999 2.3970001 -0.29800001
5.2220001 2.5350001 -0.31299999
5.3979998 2.642 -0.324
5.1290002 2.819 -0.317
5.1199999 2.836 -0.317
5.1100001 2.8529999 -0.317
5.0770001 2.8570001 -0.315
5.0669999 2.8740001 -0.31600001
5.0450001 2.8840001 -0.315
5.0229998 2.8940001 -0.31400001
5.0489998 2.9319999 -0.31600001
5.0159998 2.9349999 -0.315
4.9829998 2.938 -0.31400001
4.973 2.9549999 -0.31400001
4.9460001 2.961 -0.31299999
4.9159999 2.9660001 -0.31099999
4.8959999 2.9760001 -0.31099999
4.8629999 2.9790001 -0.30899999
4.835 2.984 -0.308
4.8039999 2.987 -0.30700001
4.7789998 2.993 -0.30599999
4.7659998 3.0079999 -0.30599999
4.7540002 3.0220001 -0.30599999
4.7340002 3.0320001 -0.30500001
4.7119999 3.04 -0.30399999
4.6890001 3.0469999 -0.30399999
4.6760001 3.0599999 -0.303
4.658 3.0710001 -0.303
4.6430001 3.0840001 -0.303
4.6269999 3.095 -0.30199999
4.612 3.1070001 -0.30199999
4.6020002 3.122 -0.30199999
4.5770001 3.1270001 -0.301
4.5640001 3.1400001 -0.301
4.5469999 3.151 -0.30000001
4.539 3.1670001 -0.301
4.526 3.181 -0.30000001
4.5050001 3.188 -0.30000001
4.5009999 3.207 -0.30000001
4.48 3.214 -0.29899999
4.4549999 3.2179999 -0.29899999
5.026 -3.3280001 -0.176
5.0879998 -3.3369999 -0.178
5.3899999 -3.5 -0.189
5.4120002 -3.4820001 -0.189
5.4089999 -3.4460001 -0.189
5.1279998 -3.2360001 -0.17900001
5.033 -3.145 -0.175
4.9359999 -3.0550001 -0.17200001
4.8769999 -2.99 -0.169
4.8540001 -2.947 -0.168
4.8429999 -2.9119999 -0.168
4.848 -2.8859999 -0.168
4.8600001 -2.8659999 -0.168
4.8600001 -2.8380001 -0.168
4.8790002 -2.822 -0.168
4.902 -2.8080001 -0.169
4.9330001 -2.7980001 -0.17
4.9299998 -2.7690001 -0.169
4.9050002 -2.7290001 -0.168
4.8969998 -2.698 -0.168
4.9089999 -2.678 -0.168
4.9569998 -2.678 -0.17
5.0310001 -2.691 -0.17200001
5.125 -2.7149999 -0.175
5.1490002 -2.701 -0.176
5.152 -2.6760001 -0.176
5.132 -2.6389999 -0.175
5.132 -2.6140001 -0.175
5.1589999 -2.6010001 -0.175
5.2129998 -2.6029999 -0.177
5.3660002 -2.6530001 -0.182
5.645 -2.763 -0.191
5.645 -2.7349999 -0.191
5.6609998 -2.7160001 -0.191
5.6690001 -2.6930001 -0.191
5.6760001 -2.6689999 -0.191
5.6859999 -2.6470001 -0.192
5.6760001 -2.6159999 -0.191
5.6739998 -2.589 -0.191
5.6859999 -2.5680001 -0.191
5.6799998 -2.539 -0.191
5.6820002 -2.5150001 -0.191
5.6300001 -2.4660001 -0.189
5.6090002 -2.4319999 -0.18799999
5.5970001 -2.402 -0.18700001
4.2259998 -1.795 -0.141
4.138 -1.74 -0.138
4.118 -1.7130001 -0.13699999
4.119 -1.696 -0.13699999
4.1209998 -1.679 -0.13699999
4.125 -1.663 -0.13699999
4.131 -1.648 -0.13699999
4.1149998 -1.625 -0.13699999
4.1149998 -1.608 -0.13600001
4.1170001 -1.592 -0.13600001
4.1199999 -1.576 -0.13600001
4.1129999 -1.556 -0.13600001
4.112 -1.539 -0.13600001
4.1040001 -1.52 -0.13500001
4.0999999 -1.502 -0.13500001
4.1079998 -1.489 -0.13500001
4.1129999 -1.475 -0.13500001
4.1040001 -1.455 -0.13500001
4.0960002 -1.437 -0.13500001
4.0999999 -1.4220001 -0.13500001
4.099 -1.406 -0.13500001
4.1160002 -1.397 -0.13500001
4.1490002 -1.392 -0.13600001
4.2010002 -1.3940001 -0.138
4.3049998 -1.413 -0.141
4.3740001 -1.419 -0.14300001
4.3920002 -1.409 -0.14399999
4.3889999 -1.392 -0.14300001
4.3530002 -1.365 -0.142
4.2160001 -1.307 -0.13699999
4.1020002 -1.257 -0.134
4.0780001 -1.235 -0.133
4.0679998 -1.2180001 -0.132
4.059 -1.201 -0.132
4.073 -1.191 -0.132
4.0739999 -1.177 -0.132
4.0710001 -1.1619999 -0.132
4.0840001 -1.152 -0.132
4.118 -1.148 -0.133
4.1760001 -1.15 -0.13500001
4.243 -1.154 -0.13699999
4.2519999 -1.143 -0.138
4.2880001 -1.138 -0.139
4.3509998 -1.141 -0.141
4.3590002 -1.128 -0.141
4.329 -1.107 -0.14
4.223 -1.066 -0.13600001
4.0900002 -1.0190001 -0.132
4.033 -0.99199998 -0.13
4.0440001 -0.98199999 -0.13
4.0469999 -0.97000003 -0.13
4.0489998 -0.958 -0.13
4.0440001 -0.94400001 -0.13
4.0349998 -0.93000001 -0.12899999
4.0320001 -0.917 -0.12899999
4.0320001 -0.90499997 -0.12899999
4.0289998 -0.89200002 -0.12899999
4.0279999 -0.88 -0.12899999
4.027 -0.86799997 -0.12899999
4.033 -0.85699999 -0.12899999
4.0240002 -0.84299999 -0.12899999
4.02 -0.83099997 -0.12800001
4.02 -0.81900001 -0.12800001
4.0240002 -0.80800003 -0.12800001
4.027 -0.79699999 -0.12800001
4.0229998 -0.78500003 -0.12800001
4.0100002 -0.77100003 -0.12800001
4.0180001 -0.76099998 -0.12800001
4.006 -0.74800003 -0.12800001
4.013 -0.73799998 -0.12800001
4.0180001 -0.72799999 -0.12800001
4.02 -0.71700001 -0.12800001
4.0219998 -0.70700002 -0.12800001
4.0089998 -0.69400001 -0.127
4.0180001 -0.68400002 -0.127
4.0700002 -0.68199998 -0.12899999
4.1479998 -0.685 -0.132
4.2420001 -0.68900001 -0.134
4.3150001 -0.69 -0.13699999
4.335 -0.68199998 -0.13699999
4.3740001 -0.676 -0.138
4.3969998 -0.66900003 -0.139
4.441 -0.66399997 -0.14
4.4569998 -0.65499997 -0.141
4.4990001 -0.64999998 -0.142
4.5310001 -0.64300001 -0.14300001
4.5679998 -0.63700002 -0.14399999
4.6030002 -0.63099998 -0.145
4.6479998 -0.625 -0.147
4.862 -0.64200002 -0.153
5.559 -0.72100002 -0.175
5.5609999 -0.708 -0.175
5.5549998 -0.69400001 -0.175
5.5650001 -0.68199998 -0.175
5.5549998 -0.66799998 -0.175
5.5609999 -0.65499997 -0.175
5.5549998 -0.64200002 -0.175
5.5640001 -0.63 -0.175
5.5580001 -0.616 -0.175
5.5609999 -0.60399997 -0.175
5.5599999 -0.59100002 -0.175
5.5619998 -0.579 -0.175
5.5630002 -0.56699997 -0.175
5.5580001 -0.55400002 -0.17399999
5.5650001 -0.542 -0.175
5.5669999 -0.52999997 -0.175
5.5640001 -0.51800001 -0.17399999
5.5689998 -0.50599998 -0.17399999
5.5630002 -0.49399999 -0.17399999
5.5609999 -0.48199999 -0.17399999
5.566 -0.47 -0.17399999
5.5609999 -0.458 -0.17399999
5.5609999 -0.447 -0.17399999
5.5749998 -0.43599999 -0.17399999
5.5749998 -0.42500001 -0.17399999
5.5760002 -0.41299999 -0.17399999
5.573 -0.40200001 -0.17399999
5.5710001 -0.391 -0.17399999
5.5640001 -0.37900001 -0.17399999
5.5710001 -0.368 -0.17399999
5.5819998 -0.35800001 -0.17399999
5.5799999 -0.347 -0.17399999
5.5819998 -0.336 -0.17399999
5.5749998 -0.32499999 -0.17399999
5.5739999 -0.31400001 -0.17399999
5.5830002 -0.30399999 -0.17399999
5.5830002 -0.29300001 -0.17399999
5.585 -0.28299999 -0.17399999
5.5869999 -0.273 -0.17399999
5.5879998 -0.26199999 -0.17399999
5.5939999 -0.25299999 -0.17399999
5.5890002 -0.242 -0.17399999
5.5869999 -0.23199999 -0.17399999
5.5949998 -0.222 -0.17399999
5.5970001 -0.212 -0.17399999
5.6170001 -0.20299999 -0.175
5.6020002 -0.193 -0.17399999
5.6030002 -0.183 -0.17399999
5.6030002 -0.17299999 -0.17399999
5.6129999 -0.164 -0.17399999
5.6110001 -0.154 -0.17399999
5.6069999 -0.145 -0.17399999
5.619 -0.13600001 -0.17399999
5.632 -0.127 -0.175
5.6209998 -0.117 -0.17399999
5.6350002 -0.108 -0.175
5.6329999 -0.098999999 -0.175
5.6420002 -0.090000004 -0.175
5.6560001 -0.081 -0.175
5.6560001 -0.071999997 -0.175
5.6630001 -0.064000003 -0.175
5.677 -0.055 -0.176
5.6849999 -0.046 -0.176
5.7080002 -0.037999999 -0.177
5.7030001 -0.028999999 -0.177
5.7210002 -0.02 -0.177
5.7449999 -0.012 -0.178
5.75 -0.003 -0.178
5.75 0.0040000002 -0.178
5.7379999 0.012 -0.178
5.7779999 0.021 -0.17900001
5.7659998 0.028999999 -0.178
5.8140001 0.037 -0.18000001
5.8200002 0.046 -0.18000001
5.8410001 0.054000001 -0.18099999
5.849 0.061999999 -0.18099999
5.862 0.07 -0.18099999
5.8979998 0.079000004 -0.182
5.9070001 0.086999997 -0.183
5.9190001 0.094999999 -0.183
5.9629998 0.103 -0.184
5.7529998 0.066 -0.27000001
5.7800002 0.075999998 -0.271
5.7849998 0.086999997 -0.271
5.7789998 0.097999997 -0.271
5.7859998 0.109 -0.27200001
5.7979999 0.12 -0.27200001
5.8130002 0.132 -0.273
5.8049998 0.14300001 -0.273
5.7880001 0.154 -0.27200001
5.7930002 0.16500001 -0.273
5.7979999 0.177 -0.273
5.8099999 0.189 -0.27399999
5.7839999 0.2 -0.273
5.789 0.213 -0.273
5.7820001 0.22400001 -0.273
5.7670002 0.236 -0.27200001
5.7810001 0.249 -0.273
5.7800002 0.26100001 -0.273
5.7709999 0.273 -0.273
5.7649999 0.28600001 -0.273
5.7789998 0.29899999 -0.27399999
5.7729998 0.31200001 -0.273
5.7779999 0.32499999 -0.27399999
5.7639999 0.33700001 -0.273
5.763 0.34999999 -0.273
5.7420001 0.36199999 -0.273
5.7350001 0.375 -0.27200001
5.7189999 0.38699999 -0.27200001
5.7329998 0.40200001 -0.273
5.71 0.414 -0.27200001
5.7030001 0.42699999 -0.27200001
5.6750002 0.43799999 -0.271
5.6599998 0.45100001 -0.27000001
5.632 0.46200001 -0.26899999
5.5830002 0.472 -0.26699999
5.5209999 0.48100001 -0.264
5.5 0.49200001 -0.26300001
5.4710002 0.50400001 -0.26199999
5.4650002 0.51700002 -0.26199999
5.4619999 0.52999997 -0.26199999
5.4590001 0.54400003 -0.26199999
5.461 0.55800003 -0.26199999
5.4499998 0.57099998 -0.26199999
5.4640002 0.58700001 -0.26300001
5.4530001 0.60000002 -0.26300001
5.454 0.61400002 -0.26300001
5.4499998 0.62800002 -0.26300001
5.4499998 0.64300001 -0.26300001
5.4460001 0.65700001 -0.26300001
5.46 0.67299998 -0.264
5.4580002 0.68800002 -0.264
5.4489999 0.70200002 -0.264
5.447 0.71600002 -0.264
5.4520001 0.73199999 -0.26499999
5.4439998 0.74599999 -0.26499999
5.448 0.76200002 -0.26499999
5.4489999 0.77700001 -0.26499999
5.4520001 0.79299998 -0.266
5.4419999 0.80699998 -0.266
5.4390001 0.82200003 -0.266
5.4489999 0.83899999 -0.266
5.4489999 0.85399997 -0.26699999
5.4400001 0.86799997 -0.26699999
5.4439998 0.88499999 -0.26699999
5.441 0.89999998 -0.26699999
5.4439998 0.917 -0.26800001
5.4359999 0.93099999 -0.26699999
5.4330001 0.94700003 -0.26800001
5.4429998 0.96399999 -0.26800001
5.4400001 0.98000002 -0.26899999
5.4369998 0.99599999 -0.26899999
5.4320002 1.011 -0.26899999
5.4369998 1.028 -0.26899999
5.4429998 1.046 -0.27000001
5.4390001 1.062 -0.27000001
5.4359999 1.077 -0.27000001
5.4330001 1.0930001 -0.27000001
5.4310002 1.11 -0.271
5.4330001 1.127 -0.271
5.4299998 1.143 -0.271
5.4320002 1.16 -0.27200001
5.4260001 1.176 -0.27200001
5.4250002 1.193 -0.27200001
5.427 1.21 -0.27200001
5.4320002 1.228 -0.273
5.428 1.244 -0.273
5.4239998 1.261 -0.273
5.427 1.279 -0.27399999
5.4310002 1.2970001 -0.27399999
5.4190001 1.311 -0.27399999
5.4229999 1.33 -0.27500001
5.414 1.345 -0.27399999
5.421 1.364 -0.27500001
5.4229999 1.382 -0.27599999
5.4190001 1.399 -0.27599999
5.414 1.415 -0.27599999
5.4239998 1.4349999 -0.27700001
5.4190001 1.452 -0.27700001
5.4099998 1.467 -0.27700001
5.4159999 1.487 -0.278
5.4169998 1.505 -0.278
5.4099998 1.521 -0.278
5.415 1.54 -0.27900001
5.4070001 1.556 -0.27900001
5.4130001 1.576 -0.27900001
5.408 1.5930001 -0.27900001
5.415 1.613 -0.28
5.4159999 1.631 -0.28099999
5.408 1.647 -0.28099999
5.408 1.666 -0.28099999
5.408 1.684 -0.28099999
5.4060001 1.702 -0.28200001
5.4039998 1.72 -0.28200001
5.4050002 1.738 -0.28299999
5.4050002 1.757 -0.28299999
5.4070001 1.776 -0.28299999
5.4000001 1.7920001 -0.28400001
5.3959999 1.8099999 -0.28400001
5.402 1.83 -0.28400001
5.3969998 1.847 -0.285
5.3969998 1.8660001 -0.285
5.3979998 1.886 -0.28600001
5.3920002 1.902 -0.28600001
5.3930001 1.921 -0.28600001
5.3930001 1.9400001 -0.287
5.3889999 1.9579999 -0.287
5.3860002 1.976 -0.287
5.3940001 1.998 -0.28799999
5.3930001 2.016 -0.28799999
5.3870001 2.033 -0.289
5.388 2.053 -0.289
5.3909998 2.073 -0.28999999
5.388 2.0910001 -0.28999999
5.3959999 2.1129999 -0.29100001
3.6500001 1.442 -0.197
3.527 1.406 -0.191
3.4660001 1.3940001 -0.18799999
3.3729999 1.369 -0.183
3.3610001 1.376 -0.183
3.359 1.387 -0.183
3.3659999 1.402 -0.183
3.3540001 1.409 -0.183
3.3510001 1.42 -0.183
3.352 1.433 -0.184
3.349 1.444 -0.184
3.3759999 1.4680001 -0.186
3.507 1.5369999 -0.193
4.8379998 2.138 -0.26699999
4.8070002 2.142 -0.266
4.8070002 2.1589999 -0.266
4.789 2.168 -0.266
4.7820001 2.1830001 -0.266
4.7859998 2.2019999 -0.266
4.7810001 2.217 -0.26699999
4.7919998 2.24 -0.26800001
4.8039999 2.263 -0.26899999
4.8140001 2.2850001 -0.27000001
4.8460002 2.3180001 -0.27200001
4.9060001 2.365 -0.27599999
5.2470002 2.5480001 -0.296
5.2360001 2.8499999 -0.30399999
5.1069999 2.7980001 -0.29699999
5.053 2.7869999 -0.294
5.0289998 2.7920001 -0.29300001
4.973 2.779 -0.29100001
4.9660001 2.793 -0.29100001
4.9419999 2.7969999 -0.28999999
4.921 2.8039999 -0.289
4.914 2.8169999 -0.289
4.888 2.8199999 -0.28799999
4.875 2.8299999 -0.28799999
4.8670001 2.8429999 -0.28799999
4.8600001 2.8559999 -0.28799999
4.8449998 2.865 -0.28799999
4.8319998 2.875 -0.28799999
4.8429999 2.8989999 -0.289
4.8990002 2.95 -0.29300001
3.862 2.339 -0.23100001
3.8329999 2.335 -0.23
3.7969999 2.3269999 -0.228
3.757 2.316 -0.226
3.7260001 2.3099999 -0.22499999
3.698 2.3050001 -0.22400001
3.6860001 2.3110001 -0.223
3.6830001 2.322 -0.22400001
3.664 2.323 -0.223
3.642 2.322 -0.222
3.6300001 2.3269999 -0.222
3.6389999 2.345 -0.223
3.6340001 2.355 -0.223
3.602 2.346 -0.221
3.589 2.3510001 -0.221
3.556 2.3410001 -0.219
3.5550001 2.352 -0.22
3.5439999 2.3570001 -0.219
3.5339999 2.362 -0.219
3.527 2.369 -0.219
3.533 2.3859999 -0.22
3.54 2.4030001 -0.221
3.529 2.4070001 -0.221
3.529 2.418 -0.221
3.5239999 2.427 -0.221
3.523 2.438 -0.221
3.5320001 2.4549999 -0.222
3.5239999 2.461 -0.222
3.5190001 2.4690001 -0.222
3.5179999 2.48 -0.223
3.5339999 2.5020001 -0.22400001
3.55 2.5250001 -0.226
3.6129999 2.5810001 -0.23
3.757 2.6960001 -0.23999999
4.592 3.3099999 -0.294
4.599 3.3280001 -0.29499999
4.6139998 3.3529999 -0.296
4.612 3.3659999 -0.29699999
5.6160002 -3.283 -0.18000001
5.625 -3.273 -0.18000001
5.6300001 -3.26 -0.18000001
5.6389999 -3.2490001 -0.18000001
5.632 -3.23 -0.18000001
5.6290002 -3.2119999 -0.18000001
5.1430001 -2.9200001 -0.164
5.033 -2.8440001 -0.161
4.987 -2.8039999 -0.15899999
4.9619999 -2.776 -0.15800001
4.9489999 -2.7550001 -0.15800001
4.9489999 -2.7409999 -0.15800001
4.9450002 -2.7249999 -0.15700001
4.954 -2.7149999 -0.15800001
4.973 -2.7119999 -0.15800001
4.9910002 -2.7079999 -0.15899999
5.0029998 -2.7 -0.15899999
4.9980001 -2.6830001 -0.15899999
4.9780002 -2.658 -0.15800001
4.9569998 -2.6329999 -0.15700001
4.9439998 -2.612 -0.15700001
4.9629998 -2.608 -0.15700001
4.9819999 -2.6040001 -0.15800001
5.0190001 -2.609 -0.15899999
5.1139998 -2.6440001 -0.162
5.158 -2.652 -0.163
5.1830001 -2.6500001 -0.164
5.204 -2.6459999 -0.164
5.1810002 -2.6199999 -0.164
5.1739998 -2.6010001 -0.163
5.1620002 -2.5810001 -0.163
5.1690001 -2.569 -0.163
5.2049999 -2.573 -0.164
5.243 -2.5769999 -0.16500001
5.3720002 -2.625 -0.169
5.6589999 -2.7490001 -0.178
5.6810002 -2.743 -0.17900001
5.6630001 -2.7179999 -0.178
5.6919999 -2.7160001 -0.17900001
5.6820002 -2.6949999 -0.178
5.691 -2.6830001 -0.17900001
5.6859999 -2.664 -0.178
5.684 -2.6470001 -0.178
5.684 -2.631 -0.178
5.6929998 -2.619 -0.178
5.6799998 -2.5969999 -0.178
5.6849999 -2.5829999 -0.178
5.6849999 -2.5669999 -0.178
5.6820002 -2.549 -0.177
5.6830001 -2.533 -0.177
5.6560001 -2.5050001 -0.176
5.6160002 -2.471 -0.175
5.605 -2.45 -0.175
5.6020002 -2.4330001 -0.17399999
4.3899999 -1.8940001 -0.13699999
4.2119999 -1.8049999 -0.131
4.1529999 -1.768 -0.12899999
4.1209998 -1.742 -0.12800001
4.1139998 -1.728 -0.12800001
4.1170001 -1.717 -0.12800001
4.1209998 -1.707 -0.12800001
4.1129999 -1.692 -0.127
4.1149998 -1.681 -0.127
4.1139998 -1.669 -0.127
4.1100001 -1.655 -0.127
4.1220002 -1.648 -0.127
4.1209998 -1.636 -0.127
4.1069999 -1.619 -0.127
4.1220002 -1.613 -0.127
4.112 -1.597 -0.127
4.1110001 -1.585 -0.127
4.1129999 -1.574 -0.127
4.1110001 -1.561 -0.127
4.1149998 -1.551 -0.127
4.1129999 -1.538 -0.126
4.1160002 -1.528 -0.126
4.1069999 -1.513 -0.126
4.1100001 -1.502 -0.126
4.0999999 -1.487 -0.126
4.1030002 -1.476 -0.126
4.0939999 -1.461 -0.125
4.0970001 -1.45 -0.125
4.0900002 -1.436 -0.125
4.112 -1.432 -0.126
4.1020002 -1.4170001 -0.125
4.0999999 -1.404 -0.125
4.0970001 -1.391 -0.125
4.1069999 -1.383 -0.125
4.1370001 -1.381 -0.126
4.1659999 -1.3789999 -0.127
4.2059999 -1.38 -0.12800001
4.2639999 -1.387 -0.13
4.3540001 -1.404 -0.132
4.4000001 -1.406 -0.134
4.3969998 -1.393 -0.134
4.3790002 -1.374 -0.133
4.362 -1.357 -0.132
4.277 -1.318 -0.13
4.171 -1.273 -0.126
4.119 -1.2460001 -0.125
4.0819998 -1.223 -0.124
4.0799999 -1.21 -0.123
4.079 -1.199 -0.123
4.079 -1.187 -0.123
4.0770001 -1.175 -0.123
4.0780001 -1.163 -0.123
4.0669999 -1.148 -0.123
4.0700002 -1.138 -0.123
4.073 -1.127 -0.123
4.0799999 -1.117 -0.123
4.1129999 -1.115 -0.124
4.145 -1.1109999 -0.125
4.1939998 -1.113 -0.126
4.302 -1.1289999 -0.12899999
4.3860002 -1.138 -0.132
4.4190001 -1.1339999 -0.133
4.408 -1.119 -0.132
4.4159999 -1.109 -0.132
4.3930001 -1.09 -0.132
4.3319998 -1.063 -0.13
4.2049999 -1.0190001 -0.126
4.0949998 -0.98100001 -0.122
4.0640001 -0.96200001 -0.121
4.052 -0.94800001 -0.121
4.0500002 -0.93599999 -0.121
4.0500002 -0.92400002 -0.121
4.046 -0.912 -0.121
4.0489998 -0.90100002 -0.121
4.0510001 -0.88999999 -0.121
4.0380001 -0.875 -0.12
4.0349998 -0.86299998 -0.12
4.0370002 -0.852 -0.12
4.0479999 -0.84299999 -0.12
4.0409999 -0.82999998 -0.12
4.0359998 -0.81800002 -0.12
4.04 -0.80699998 -0.12
4.027 -0.79299998 -0.119
4.0159998 -0.77899998 -0.119
4.0320001 -0.77100003 -0.119
4.0170002 -0.75700003 -0.119
4.0209999 -0.74599999 -0.119
4.0240002 -0.73500001 -0.119
4.0250001 -0.72399998 -0.119
4.0190001 -0.71200001 -0.119
4.026 -0.70099998 -0.119
4.0159998 -0.68800002 -0.118
4.0120001 -0.676 -0.118
4.0359998 -0.66900003 -0.119
4.1079998 -0.66900003 -0.121
4.2129998 -0.67400002 -0.124
4.3369999 -0.68199998 -0.12800001
4.3610001 -0.67299998 -0.12800001
4.3969998 -0.66600001 -0.12899999
4.4289999 -0.65799999 -0.13
4.4879999 -0.65499997 -0.132
4.5300002 -0.648 -0.133
4.5749998 -0.64099997 -0.134
4.6479998 -0.63800001 -0.13600001
5.5560002 -0.74699998 -0.163
5.5500002 -0.73100001 -0.162
5.5599999 -0.71700001 -0.163
5.5560002 -0.69999999 -0.162
5.5489998 -0.68400002 -0.162
5.5599999 -0.66900003 -0.162
5.5619998 -0.65399998 -0.162
5.5560002 -0.63700002 -0.162
5.572 -0.62300003 -0.162
5.5560002 -0.60600001 -0.162
5.5609999 -0.59100002 -0.162
5.5609999 -0.57499999 -0.162
5.5640001 -0.56 -0.162
5.566 -0.54400003 -0.162
5.5580001 -0.528 -0.161
5.5630002 -0.51200002 -0.161
5.5609999 -0.49599999 -0.161
5.5710001 -0.48199999 -0.161
5.572 -0.46599999 -0.161
5.559 -0.449 -0.161
5.5679998 -0.43399999 -0.161
5.573 -0.419 -0.161
5.5780001 -0.403 -0.161
5.579 -0.38800001 -0.161
5.5819998 -0.37200001 -0.161
5.5739999 -0.35600001 -0.161
5.579 -0.34 -0.161
5.5830002 -0.32499999 -0.161
5.5900002 -0.30899999 -0.161
5.5900002 -0.294 -0.161
5.5929999 -0.278 -0.161
5.5970001 -0.26199999 -0.161
5.6009998 -0.24699999 -0.161
5.6020002 -0.23100001 -0.161
5.6079998 -0.215 -0.161
5.618 -0.2 -0.161
5.6240001 -0.184 -0.161
5.619 -0.168 -0.161
5.6550002 -0.153 -0.162
5.6440001 -0.13699999 -0.161
5.6350002 -0.121 -0.161
5.6620002 -0.106 -0.162
5.677 -0.090000004 -0.162
5.6849999 -0.074000001 -0.162
5.6999998 -0.057999998 -0.162
5.7210002 -0.041999999 -0.163
5.7270002 -0.026000001 -0.163
5.7360001 -0.0099999998 -0.163
5.7350001 0.0049999999 -0.163
5.7529998 0.022 -0.163
5.7649999 0.037999999 -0.164
5.796 0.054000001 -0.164
5.8140001 0.071000002 -0.16500001
5.8280001 0.088 -0.16500001
5.8340001 0.104 -0.16500001
5.849 0.121 -0.16500001
5.8400002 0.13699999 -0.16500001
5.8839998 0.155 -0.16599999
5.8969998 0.17200001 -0.16599999
5.9200001 0.189 -0.167
5.9899998 0.208 -0.169
5.9419999 0.22400001 -0.167
5.974 0.242 -0.168
6.0939999 0.384 -0.171
6.0349998 0.398 -0.169
5.5970001 0.027000001 -0.24699999
5.5910001 0.032000002 -0.24699999
5.5970001 0.037999999 -0.24699999
5.586 0.043000001 -0.24699999
5.5910001 0.048999999 -0.24699999
5.5799999 0.055 -0.24699999
5.5970001 0.061000001 -0.24699999
5.585 0.067000002 -0.24699999
5.579 0.074000001 -0.24699999
5.5760002 0.079999998 -0.24699999
5.5760002 0.086999997 -0.24699999
5.5689998 0.093000002 -0.24600001
5.5689998 0.1 -0.24600001
5.5570002 0.107 -0.24600001
5.5630002 0.114 -0.24600001
5.5630002 0.122 -0.24600001
5.5570002 0.12899999 -0.24600001
5.5560002 0.13600001 -0.24600001
5.5409999 0.14399999 -0.24600001
5.5349998 0.15099999 -0.245
