# .PCD v0.7 - Point Cloud Data file format
VERSION 0.7
FIELDS x y z
SIZE 4 4 4
TYPE F F F
COUNT 1 1 1
WIDTH 1735
HEIGHT 1
VIEWPOINT 0 0 0 1 0 0 0
POINTS 1735
DATA ascii
4.0929999 -0.056000002 0.48500001
4.0939999 -0.050000001 0.48500001
4.1020002 -0.043000001 0.486
4.1079998 -0.037 0.486
4.1149998 -0.030999999 0.48699999
4.1230001 -0.024 0.48800001
4.1360002 -0.017999999 0.49000001
4.158 -0.012 0.49200001
4.138 -0.0060000001 0.49000001
4.1500001 -0 0.49200001
4.1789999 0.0049999999 0.495
4.1789999 0.011 0.495
4.1919999 0.017999999 0.49700001
4.1859999 0.023 0.49599999
4.1999998 0.028999999 0.498
4.23 0.035999998 0.50099999
4.243 0.041999999 0.50300002
4.2709999 0.048 0.50599998
4.2709999 0.054000001 0.50599998
4.3060002 0.059999999 0.51099998
4.362 0.067000002 0.51700002
4.066 0.067000002 0.47999999
4.086 0.074000001 0.48199999
4.0840001 0.081 0.48199999
4.0780001 0.089000002 0.48100001
4.0780001 0.096000001 0.48100001
4.086 0.104 0.48199999
4.0650001 0.111 0.479
4.0689998 0.118 0.47999999
4.0640001 0.126 0.479
4.0500002 0.133 0.477
4.0430002 0.141 0.47600001
4.0370002 0.149 0.47600001
4.0170002 0.156 0.47299999
4.0089998 0.164 0.472
4.0089998 0.17200001 0.472
3.9949999 0.17900001 0.47099999
3.9960001 0.18799999 0.47099999
3.984 0.19499999 0.46900001
3.987 0.204 0.47
3.98 0.212 0.46900001
3.98 0.22 0.46900001
3.9790001 0.229 0.46900001
3.973 0.237 0.46799999
3.964 0.245 0.46700001
3.957 0.25400001 0.46599999
3.9619999 0.26300001 0.46700001
3.9690001 0.27200001 0.46799999
4.007 0.28400001 0.47299999
4.151 0.30399999 0.49000001
5.5300002 0.41800001 0.653
5.5209999 0.43000001 0.65200001
5.5219998 0.44299999 0.65200001
5.5180001 0.456 0.65100002
5.506 0.46799999 0.64999998
5.4980001 0.47999999 0.64899999
5.4759998 0.49200001 0.64700001
5.4629998 0.50400001 0.64600003
5.4450002 0.51499999 0.64399999
5.4460001 0.52899998 0.64399999
5.4450002 0.542 0.64399999
5.4369998 0.55500001 0.64300001
5.4419999 0.56900001 0.64399999
5.4359999 0.58200002 0.64300001
5.4390001 0.59600002 0.64399999
5.4359999 0.61000001 0.64399999
5.4359999 0.62400001 0.64399999
5.434 0.63800001 0.64399999
5.4310002 0.65200001 0.64399999
5.4380002 0.667 0.64499998
5.4260001 0.68000001 0.64399999
5.434 0.69499999 0.64499998
5.4320002 0.70999998 0.64499998
5.4219999 0.72299999 0.64399999
5.4359999 0.73900002 0.64600003
5.421 0.75199997 0.64399999
5.4299998 0.76800001 0.64600003
5.428 0.78299999 0.64600003
5.4289999 0.79799998 0.64600003
5.4320002 0.81300002 0.64700001
5.421 0.82700002 0.64600003
5.428 0.84299999 0.64700001
5.4250002 0.85799998 0.64700001
5.4120002 0.87099999 0.64600003
5.421 0.88800001 0.64700001
5.4250002 0.90399998 0.648
5.4219999 0.91900003 0.648
5.4330001 0.93699998 0.64899999
5.4260001 0.95099998 0.64899999
5.414 0.96499997 0.648
5.4250002 0.98299998 0.64999998
5.428 0.99900001 0.64999998
5.4190001 1.0140001 0.64999998
5.4289999 1.0319999 0.65100002
5.4190001 1.046 0.64999998
5.4200001 1.062 0.65100002
5.4130001 1.077 0.64999998
5.4169998 1.094 0.65100002
5.415 1.11 0.65200001
5.4239998 1.1289999 0.653
5.4180002 1.1440001 0.653
5.4029999 1.1569999 0.65100002
5.414 1.176 0.653
5.4159999 1.193 0.65399998
5.4120002 1.209 0.65399998
5.4229999 1.229 0.65600002
5.4120002 1.243 0.65499997
5.4219999 1.262 0.65600002
5.4089999 1.276 0.65499997
5.421 1.296 0.65700001
5.4169998 1.312 0.65700001
5.4190001 1.33 0.65799999
5.415 1.346 0.65799999
5.408 1.362 0.65799999
5.421 1.383 0.66000003
5.4050002 1.396 0.65799999
5.4180002 1.4170001 0.66000003
5.414 1.433 0.66000003
5.401 1.447 0.65899998
5.4109998 1.4680001 0.66100001
5.415 1.487 0.662
5.415 1.5039999 0.66299999
5.4109998 1.521 0.66299999
5.4070001 1.538 0.66299999
5.408 1.556 0.66399997
5.4089999 1.574 0.66399997
5.4060001 1.591 0.66500002
5.4070001 1.61 0.66500002
5.414 1.63 0.667
5.4089999 1.647 0.667
5.4029999 1.663 0.667
5.4050002 1.682 0.667
5.3990002 1.698 0.667
5.4029999 1.7180001 0.66799998
5.4089999 1.738 0.67000002
5.408 1.756 0.67000002
5.3600001 1.7589999 0.66500002
5.3610001 1.778 0.66600001
5.3600001 1.796 0.667
5.3629999 1.8150001 0.66799998
5.3559999 1.831 0.667
5.3699999 1.854 0.67000002
5.3569999 1.869 0.66900003
5.3629999 1.8890001 0.67000002
5.3600001 1.9069999 0.671
5.3540001 1.923 0.67000002
5.348 1.9400001 0.67000002
5.3540001 1.961 0.67199999
5.3610001 1.982 0.67400002
5.355 1.999 0.67299998
5.3460002 2.0139999 0.67299998
5.3540001 2.036 0.67500001
5.348 2.053 0.67500001
5.3449998 2.0710001 0.67500001
5.3429999 2.089 0.676
5.3280001 2.102 0.67500001
5.2909999 2.1059999 0.671
5.1830001 2.082 0.65799999
5.1680002 2.0940001 0.65600002
5.165 2.1110001 0.65700001
5.092 2.0999999 0.648
5.0780001 2.112 0.64700001
5.0339999 2.112 0.64300001
4.9879999 2.1110001 0.63700002
4.9580002 2.1159999 0.634
4.8979998 2.108 0.62699997
4.8470001 2.1040001 0.62199998
4.802 2.102 0.61699998
4.7880001 2.1129999 0.61500001
4.8010001 2.1359999 0.61799997
4.789 2.148 0.61699998
4.796 2.168 0.61900002
4.7820001 2.1789999 0.61799997
4.7880001 2.2 0.61900002
4.7810001 2.214 0.61900002
4.7839999 2.233 0.62
4.7930002 2.2539999 0.62199998
4.7849998 2.2679999 0.62199998
4.776 2.2809999 0.62199998
4.7849998 2.303 0.62400001
4.7779999 2.3180001 0.62400001
4.7820001 2.3369999 0.625
4.789 2.358 0.62699997
4.7919998 2.3770001 0.62800002
4.7859998 2.392 0.62800002
4.7919998 2.4119999 0.63
4.7849998 2.4260001 0.62900001
4.7880001 2.4449999 0.63099998
4.7849998 2.461 0.63099998
4.7870002 2.48 0.63200003
4.7909999 2.4990001 0.634
4.7969999 2.52 0.63499999
4.789 2.5339999 0.63499999
4.7909999 2.552 0.63599998
4.8039999 2.576 0.639
4.8039999 2.5940001 0.63999999
4.7950001 2.6070001 0.639
4.8000002 2.6270001 0.64099997
4.8130002 2.652 0.64399999
4.8629999 2.698 0.65100002
5.0780001 2.836 0.68099999
5.342 3.003 0.71799999
5.3559999 3.03 0.72000003
5.3499999 3.046 0.72100002
5.3520002 3.0669999 0.722
5.355 3.0880001 0.72299999
5.3530002 3.1059999 0.72399998
5.3499999 3.1240001 0.72500002
5.3460002 3.141 0.72500002
5.3509998 3.1630001 0.727
5.3530002 3.184 0.72799999
5.3460002 3.1989999 0.72899997
5.355 3.224 0.73100001
5.3369999 3.2320001 0.72899997
5.348 3.2579999 0.73199999
5.3460002 3.276 0.73299998
5.3369999 3.29 0.73299998
5.3400002 3.3110001 0.73400003
5.3429999 3.332 0.736
5.3280001 3.342 0.73500001
5.336 3.365 0.73699999
5.329 3.3800001 0.73699999
5.3260002 3.3970001 0.73799998
5.3119998 3.4070001 0.73699999
5.3140001 3.427 0.73799998
5.2979999 3.4349999 0.73699999
5.2750001 3.438 0.73500001
5.2610002 3.448 0.73400003
5.2420001 3.454 0.73299998
3.598 2.408 0.505
3.543 2.3829999 0.498
3.549 2.3989999 0.5
3.526 2.3959999 0.49700001
3.5039999 2.392 0.495
5.5630002 -3.3429999 0.70499998
5.5549998 -3.323 0.704
5.5689998 -3.3139999 0.70599997
5.5949998 -3.313 0.70899999
5.5900002 -3.293 0.708
5.6090002 -3.2880001 0.71100003
5.5809999 -3.2550001 0.70700002
5.598 -3.2490001 0.70899999
5.6030002 -3.2349999 0.70899999
5.6139998 -3.2249999 0.71100003
5.6240001 -3.2130001 0.71200001
5.6149998 -3.1919999 0.71100003
5.6009998 -3.1670001 0.70899999
5.6300001 -3.1670001 0.71200001
5.6059999 -3.1359999 0.70899999
5.6259999 -3.131 0.71100003
5.6139998 -3.108 0.70999998
5.6209998 -3.095 0.71100003
5.6129999 -3.073 0.70899999
5.6090002 -3.0550001 0.70899999
5.6110001 -3.039 0.70899999
5.605 -3.0190001 0.708
5.6040001 -3.0020001 0.708
5.632 -3 0.71100003
5.6139998 -2.973 0.70899999
5.6139998 -2.957 0.70899999
5.6009998 -2.9330001 0.70700002
5.6090002 -2.921 0.708
5.6149998 -2.9070001 0.708
5.5960002 -2.8800001 0.70599997
5.5999999 -2.8659999 0.70599997
5.6110001 -2.855 0.708
5.599 -2.832 0.70599997
5.598 -2.8139999 0.70599997
5.605 -2.8010001 0.70599997
5.6030002 -2.7839999 0.70599997
5.5869999 -2.7590001 0.704
5.592 -2.7449999 0.704
5.612 -2.7379999 0.70700002
5.5999999 -2.7149999 0.70499998
5.599 -2.698 0.70499998
5.5999999 -2.681 0.70499998
5.5869999 -2.658 0.70300001
5.586 -2.641 0.70300001
5.573 -2.618 0.70099998
5.5479999 -2.5899999 0.69800001
5.5209999 -2.5610001 0.69400001
5.5009999 -2.5350001 0.69099998
5.5019999 -2.5190001 0.69099998
5.5019999 -2.5020001 0.69099998
5.5079999 -2.4890001 0.69199997
5.5009999 -2.4690001 0.69099998
5.507 -2.4560001 0.69099998
5.5 -2.4360001 0.69
5.467 -2.405 0.68599999
5.4510002 -2.382 0.68400002
5.4460001 -2.3629999 0.68300003
5.441 -2.345 0.68199998
5.4380002 -2.3269999 0.68199998
5.4439998 -2.313 0.68199998
5.4330001 -2.293 0.68099999
5.4359999 -2.2780001 0.68099999
5.415 -2.253 0.67799997
5.415 -2.2360001 0.67799997
5.4130001 -2.2190001 0.67799997
5.4260001 -2.2079999 0.67900002
5.4310002 -2.1949999 0.68000001
5.4349999 -2.1800001 0.68000001
5.4419999 -2.1670001 0.68099999
5.454 -2.155 0.68199998
5.4530001 -2.138 0.68199998
5.4590001 -2.1240001 0.68199998
5.4489999 -2.1040001 0.68099999
5.448 -2.0880001 0.68099999
5.4559999 -2.0739999 0.68199998
5.461 -2.0599999 0.68199998
5.4580002 -2.043 0.68199998
5.4530001 -2.0239999 0.68099999
5.4629998 -2.0120001 0.68199998
5.4619999 -1.995 0.68199998
5.4590001 -1.978 0.68099999
5.4710002 -1.966 0.68199998
5.4549999 -1.944 0.68000001
5.4689999 -1.933 0.68199998
5.474 -1.918 0.68199998
5.4689999 -1.9 0.68099999
5.4640002 -1.882 0.68099999
5.4619999 -1.865 0.68000001
5.4660001 -1.85 0.68099999
5.4710002 -1.836 0.68099999
5.4759998 -1.821 0.68199998
5.467 -1.802 0.68000001
5.4720001 -1.7869999 0.68099999
5.4710002 -1.771 0.68000001
5.474 -1.756 0.68099999
5.48 -1.7410001 0.68099999
5.4759998 -1.724 0.68099999
5.473 -1.707 0.68000001
5.4809999 -1.693 0.68099999
5.4770002 -1.676 0.68000001
5.4780002 -1.66 0.68000001
5.4720001 -1.642 0.67900002
5.4840002 -1.6289999 0.68099999
5.4749999 -1.61 0.67900002
5.4710002 -1.5930001 0.67900002
5.4840002 -1.58 0.68000001
5.4790001 -1.563 0.67900002
5.4770002 -1.546 0.67900002
5.4819999 -1.531 0.67900002
5.4790001 -1.515 0.67900002
5.487 -1.501 0.68000001
5.4819999 -1.483 0.67900002
5.4829998 -1.467 0.67900002
5.4809999 -1.45 0.67799997
5.4860001 -1.4349999 0.67900002
5.4889998 -1.42 0.67900002
5.4790001 -1.401 0.67799997
5.4780002 -1.385 0.67699999
5.473 -1.368 0.67699999
5.4910002 -1.3559999 0.67900002
5.494 -1.34 0.67900002
5.4860001 -1.322 0.67799997
5.4819999 -1.3049999 0.67699999
5.4780002 -1.288 0.676
5.474 -1.271 0.676
5.48 -1.257 0.676
5.4689999 -1.238 0.67500001
5.4749999 -1.223 0.67500001
5.473 -1.207 0.67500001
5.4710002 -1.1900001 0.67400002
5.4819999 -1.177 0.676
5.4710002 -1.158 0.67400002
5.4660001 -1.141 0.67299998
5.4770002 -1.127 0.67400002
5.4660001 -1.109 0.67299998
5.4749999 -1.095 0.67400002
5.4660001 -1.077 0.67299998
4.2189999 -0.81900001 0.51899999
4.033 -0.77100003 0.49599999
3.9649999 -0.74699998 0.48699999
3.947 -0.73199999 0.48500001
3.934 -0.71799999 0.48300001
3.9449999 -0.708 0.48500001
3.938 -0.69499999 0.484
3.9400001 -0.68400002 0.484
3.934 -0.67199999 0.48300001
3.9360001 -0.66100001 0.48300001
3.9400001 -0.64999998 0.48300001
3.9400001 -0.63800001 0.48300001
3.9419999 -0.62699997 0.48300001
3.938 -0.61500001 0.48300001
3.925 -0.60100001 0.48100001
3.934 -0.59100002 0.48199999
3.9430001 -0.58099997 0.48300001
3.937 -0.56900001 0.48199999
3.9389999 -0.55800003 0.48199999
3.941 -0.546 0.48199999
3.9419999 -0.53500003 0.48199999
3.938 -0.523 0.48199999
3.9389999 -0.51200002 0.48199999
3.947 -0.50099999 0.48199999
3.9330001 -0.48800001 0.48100001
3.947 -0.47799999 0.48199999
3.9360001 -0.465 0.48100001
3.9230001 -0.45300001 0.479
3.9400001 -0.44299999 0.48100001
3.9260001 -0.43000001 0.479
3.9349999 -0.41999999 0.47999999
3.9360001 -0.40799999 0.47999999
3.937 -0.39700001 0.47999999
3.9449999 -0.38600001 0.48100001
3.938 -0.37400001 0.47999999
3.941 -0.36300001 0.47999999
3.9400001 -0.35100001 0.47999999
3.9349999 -0.34 0.479
3.944 -0.329 0.47999999
3.9449999 -0.31799999 0.47999999
3.9519999 -0.30700001 0.48100001
3.9460001 -0.29499999 0.47999999
3.9530001 -0.28400001 0.48100001
3.961 -0.273 0.48100001
3.9489999 -0.26100001 0.47999999
3.954 -0.249 0.47999999
3.957 -0.23800001 0.48100001
3.951 -0.226 0.47999999
3.9649999 -0.21600001 0.48100001
3.9579999 -0.204 0.47999999
3.971 -0.193 0.48199999
3.974 -0.182 0.48199999
3.9760001 -0.17 0.48199999
3.99 -0.15899999 0.484
3.9890001 -0.148 0.48300001
3.9909999 -0.13600001 0.48300001
4.0190001 -0.125 0.48699999
4.013 -0.114 0.486
4.0279999 -0.102 0.48699999
4.0430002 -0.090999998 0.48899999
4.0409999 -0.079000004 0.48899999
4.0489998 -0.068000004 0.49000001
4.0710001 -0.056000002 0.49200001
4.0780001 -0.044 0.493
4.0780001 -0.033 0.493
4.086 -0.021 0.493
4.1009998 -0.0089999996 0.495
4.1139998 0.0020000001 0.49599999
4.1199999 0.014 0.49700001
4.1139998 0.026000001 0.49599999
4.1209998 0.037999999 0.49700001
4.1490002 0.050000001 0.5
4.164 0.061999999 0.50199997
4.1430001 0.074000001 0.49900001
4.184 0.086999997 0.50400001
4.171 0.098999999 0.50199997
4.184 0.111 0.50300002
4.2399998 0.125 0.50999999
4.2249999 0.13699999 0.50800002
4.2740002 0.15099999 0.514
4.335 0.16500001 0.52100003
4.0050001 0.050000001 0.48199999
4.0050001 0.052999999 0.48100001
4.0029998 0.057 0.48100001
3.997 0.061000001 0.47999999
3.9960001 0.064000003 0.47999999
3.997 0.068000004 0.47999999
3.984 0.071999997 0.47799999
3.984 0.075999998 0.47799999
3.9760001 0.079999998 0.477
3.9760001 0.083999999 0.477
3.9630001 0.088 0.47499999
3.97 0.093000002 0.47600001
3.9630001 0.097000003 0.47499999
3.964 0.102 0.47499999
3.9460001 0.106 0.472
3.9489999 0.111 0.47299999
3.9489999 0.116 0.472
3.9419999 0.121 0.472
3.9349999 0.126 0.47099999
3.927 0.131 0.47
3.9289999 0.13600001 0.47
3.9349999 0.142 0.47
3.921 0.147 0.46900001
3.921 0.152 0.46900001
3.911 0.15700001 0.46700001
3.9130001 0.163 0.46799999
3.928 0.17 0.46900001
3.9130001 0.175 0.46700001
3.9119999 0.18099999 0.46700001
3.9059999 0.18700001 0.46700001
3.9130001 0.193 0.46700001
3.898 0.199 0.46599999
3.8970001 0.205 0.465
3.891 0.211 0.465
3.888 0.21699999 0.46399999
3.8829999 0.22400001 0.46399999
3.8900001 0.23100001 0.465
3.8900001 0.237 0.465
3.8759999 0.243 0.463
3.8800001 0.25099999 0.46399999
3.875 0.257 0.463
3.8959999 0.266 0.46599999
3.928 0.27500001 0.46900001
4.0019999 0.28799999 0.47799999
4.1170001 0.30399999 0.49200001
4.204 0.31799999 0.50300002
4.2470002 0.33000001 0.50800002
5.4400001 0.433 0.65100002
5.4390001 0.44400001 0.65100002
5.4400001 0.45500001 0.65100002
5.4310002 0.465 0.64999998
5.4380002 0.477 0.65100002
5.4349999 0.48800001 0.65100002
5.434 0.49900001 0.65100002
5.4419999 0.51099998 0.65200001
5.4320002 0.52100003 0.65100002
5.428 0.53299999 0.65100002
5.4289999 0.54400003 0.65100002
5.421 0.55500001 0.64999998
5.4180002 0.56699997 0.64999998
5.4200001 0.579 0.65100002
5.415 0.59100002 0.64999998
5.4169998 0.60299999 0.65100002
5.4219999 0.616 0.65200001
5.4089999 0.62699997 0.64999998
5.4190001 0.64099997 0.65200001
5.4159999 0.653 0.65200001
5.4180002 0.66600001 0.65200001
5.4159999 0.67799997 0.65200001
5.4099998 0.69099998 0.65200001
5.4109998 0.704 0.65200001
5.4029999 0.71600002 0.65100002
5.415 0.73100001 0.653
5.408 0.74299997 0.653
5.4120002 0.75700003 0.653
5.4039998 0.76899999 0.653
5.415 0.78399998 0.65399998
5.4060001 0.79699999 0.65399998
5.4039998 0.81 0.65399998
5.3969998 0.82300001 0.653
5.4000001 0.838 0.65399998
5.3920002 0.85000002 0.65399998
5.401 0.866 0.65499997
5.4000001 0.88 0.65499997
5.3979998 0.89399999 0.65499997
5.395 0.90799999 0.65600002
5.3920002 0.92199999 0.65600002
5.402 0.93900001 0.65700001
5.3870001 0.95099998 0.65600002
5.3899999 0.96600002 0.65700001
5.3959999 0.98199999 0.65799999
5.3920002 0.99599999 0.65799999
5.3909998 1.011 0.65799999
5.3940001 1.027 0.65899998
5.3940001 1.0420001 0.65899998
5.388 1.056 0.65899998
5.381 1.0700001 0.65899998
5.3889999 1.087 0.66000003
5.3790002 1.101 0.66000003
5.3800001 1.117 0.66000003
5.3850002 1.1339999 0.66100001
5.3800001 1.148 0.66100001
5.3870001 1.166 0.66299999
5.3759999 1.1799999 0.662
5.3769999 1.196 0.662
5.382 1.214 0.66399997
5.3699999 1.227 0.66299999
5.375 1.245 0.66399997
5.3769999 1.262 0.66500002
5.375 1.278 0.66500002
5.3769999 1.295 0.66600001
5.3730001 1.3099999 0.66600001
5.3769999 1.3279999 0.667
5.3709998 1.344 0.667
5.3730001 1.3609999 0.66799998
5.4029999 1.386 0.67199999
5.4099998 1.405 0.67400002
5.4000001 1.42 0.67299998
5.4089999 1.4400001 0.67500001
5.4029999 1.456 0.67500001
5.401 1.473 0.67500001
5.3969998 1.489 0.67500001
5.3979998 1.507 0.676
5.3940001 1.524 0.676
5.4000001 1.544 0.67799997
5.3969998 1.561 0.67799997
5.395 1.5779999 0.67900002
5.402 1.599 0.68000001
5.395 1.615 0.68000001
5.3889999 1.631 0.68000001
5.3899999 1.65 0.68099999
5.3940001 1.67 0.68199998
5.4000001 1.6900001 0.68400002
5.3940001 1.707 0.68400002
5.3909998 1.725 0.68400002
5.3969998 1.7460001 0.68599999
5.3889999 1.762 0.68599999
5.3920002 1.7819999 0.68699998
5.3940001 1.802 0.68800002
5.3940001 1.821 0.68900001
5.388 1.8380001 0.68900001
5.3940001 1.86 0.69
5.3940001 1.8789999 0.69099998
5.395 1.899 0.69199997
5.3870001 1.916 0.69199997
5.3769999 1.932 0.69099998
5.368 1.948 0.69099998
5.3889999 1.976 0.69499999
5.382 1.993 0.69499999
5.375 2.0109999 0.69499999
5.375 2.0309999 0.69599998
5.3730001 2.05 0.69599998
5.375 2.0710001 0.69700003
5.362 2.086 0.69700003
5.342 2.099 0.69499999
5.3109999 2.1070001 0.69199997
5.2220001 2.092 0.68099999
5.2199998 2.1110001 0.68199998
5.2129998 2.128 0.68199998
5.1529999 2.1240001 0.67500001
5.1110001 2.1259999 0.67000002
5.0549998 2.1229999 0.66399997
4.9980001 2.118 0.65799999
4.9419999 2.1140001 0.65100002
4.8850002 2.109 0.64399999
4.8400002 2.109 0.639
4.835 2.1259999 0.63999999
4.8330002 2.1440001 0.63999999
4.8319998 2.1630001 0.64099997
4.8239999 2.1789999 0.64099997
4.8169999 2.1949999 0.64099997
4.8200002 2.217 0.64300001
4.8210001 2.237 0.64399999
4.8249998 2.2579999 0.64499998
4.8200002 2.276 0.64499998
4.829 2.3 0.648
4.8210001 2.316 0.648
4.8130002 2.332 0.64700001
4.8239999 2.358 0.64999998
4.8150001 2.3729999 0.64999998
4.8130002 2.3929999 0.65100002
4.8169999 2.415 0.65200001
4.8150001 2.434 0.653
4.8179998 2.4560001 0.65399998
4.8119998 2.474 0.65499997
4.8210001 2.4990001 0.65700001
4.8260002 2.523 0.65899998
4.8260002 2.5439999 0.66000003
4.8410001 2.572 0.66299999
4.8629999 2.605 0.667
4.849 2.619 0.66600001
4.8559999 2.6440001 0.66799998
4.8649998 2.6700001 0.671
4.8930001 2.707 0.676
5.0609999 2.823 0.69999999
5.4099998 3.0409999 0.75
5.4060001 3.063 0.75
5.395 3.0810001 0.75
5.402 3.109 0.75300002
3.737 2.168 0.52100003
3.6670001 2.1440001 0.51300001
3.619 2.132 0.50700003
3.5880001 2.1300001 0.50300002
3.576 2.1389999 0.50300002
3.533 2.1300001 0.49700001
3.5209999 2.1389999 0.49700001
3.483 2.132 0.49200001
3.471 2.1400001 0.491
3.4530001 2.1459999 0.49000001
3.434 2.1500001 0.48800001
3.415 2.154 0.486
3.4070001 2.165 0.486
3.3889999 2.1700001 0.484
3.359 2.1659999 0.48100001
3.346 2.174 0.47999999
3.3269999 2.177 0.47799999
3.322 2.1900001 0.47799999
3.3080001 2.1960001 0.477
3.29 2.2 0.47499999
3.276 2.207 0.47400001
3.2639999 2.214 0.47299999
3.243 2.2160001 0.47099999
3.2379999 2.2290001 0.472
3.224 2.2349999 0.47099999
5.2709999 -3.457 0.68900001
5.2969999 -3.441 0.69199997
5.3369999 -3.434 0.69700003
5.3579998 -3.415 0.699
5.3779998 -3.395 0.70099998
5.3979998 -3.375 0.70300001
5.4190001 -3.3559999 0.70499998
5.4159999 -3.322 0.704
5.4349999 -3.302 0.70599997
5.4439998 -3.276 0.70599997
5.4530001 -3.25 0.70700002
5.4629998 -3.2249999 0.708
5.4770002 -3.2030001 0.70899999
5.4850001 -3.177 0.70899999
5.4910002 -3.1489999 0.70899999
5.5100002 -3.1300001 0.71100003
5.5050001 -3.0969999 0.70999998
5.5050001 -3.0669999 0.70999998
5.526 -3.05 0.71200001
5.5240002 -3.0190001 0.71100003
5.526 -2.9909999 0.71100003
5.5409999 -2.971 0.71200001
5.539 -2.941 0.71100003
5.5430002 -2.915 0.71100003
5.5500002 -2.8900001 0.71200001
5.5609999 -2.8670001 0.713
5.5609999 -2.839 0.71200001
5.5700002 -2.8169999 0.713
5.5689998 -2.789 0.71200001
5.5669999 -2.76 0.71200001
5.5650001 -2.7320001 0.71100003
5.5760002 -2.711 0.71200001
5.573 -2.6819999 0.71100003
5.5819998 -2.6600001 0.71200001
5.5869999 -2.6370001 0.71200001
5.6030002 -2.618 0.713
5.5869999 -2.585 0.71100003
5.5780001 -2.5550001 0.70899999
5.5359998 -2.51 0.704
5.5190001 -2.4779999 0.70099998
5.5089998 -2.448 0.699
5.5180001 -2.428 0.69999999
5.526 -2.4070001 0.70099998
5.5219998 -2.381 0.69999999
5.4860001 -2.3410001 0.69499999
5.4619999 -2.3069999 0.69099998
5.4559999 -2.2809999 0.69
5.4590001 -2.2590001 0.69
5.46 -2.2360001 0.69
5.4419999 -2.2060001 0.68800002
5.4419999 -2.1830001 0.68699998
5.4299998 -2.1559999 0.685
5.4439998 -2.1389999 0.68699998
5.4650002 -2.125 0.68900001
5.4660001 -2.1029999 0.68900001
5.46 -2.079 0.68800002
5.467 -2.0599999 0.68800002
5.474 -2.04 0.68900001
5.473 -2.0179999 0.68800002
5.4679999 -1.995 0.68699998
5.4809999 -1.978 0.68900001
5.474 -1.955 0.68800002
5.474 -1.934 0.68699998
5.4749999 -1.913 0.68699998
5.4809999 -1.895 0.68800002
5.48 -1.874 0.68699998
5.4809999 -1.853 0.68699998
5.48 -1.8329999 0.68699998
5.4720001 -1.8099999 0.685
5.4780002 -1.7920001 0.68599999
5.4780002 -1.772 0.685
5.4749999 -1.751 0.685
5.474 -1.7309999 0.68400002
5.474 -1.711 0.68400002
5.4720001 -1.691 0.68400002
5.48 -1.674 0.68400002
5.4770002 -1.654 0.68400002
5.474 -1.6339999 0.68300003
5.4720001 -1.615 0.68300003
5.4770002 -1.598 0.68300003
5.4720001 -1.577 0.68199998
5.474 -1.559 0.68199998
5.473 -1.541 0.68199998
5.4689999 -1.521 0.68099999
5.4809999 -1.507 0.68199998
5.474 -1.487 0.68099999
5.4770002 -1.469 0.68099999
5.4749999 -1.451 0.68099999
5.4710002 -1.432 0.68000001
5.4699998 -1.414 0.68000001
5.4640002 -1.395 0.67900002
5.4710002 -1.38 0.68000001
5.4749999 -1.363 0.68000001
5.4689999 -1.345 0.67900002
5.4759998 -1.329 0.67900002
5.4650002 -1.3099999 0.67799997
5.4710002 -1.294 0.67799997
5.48 -1.28 0.67900002
5.461 -1.2589999 0.67699999
5.473 -1.245 0.67799997
5.4699998 -1.228 0.67799997
5.4660001 -1.211 0.67699999
5.4629998 -1.194 0.676
5.4660001 -1.178 0.67699999
5.4619999 -1.161 0.676
5.467 -1.146 0.676
5.461 -1.1289999 0.67500001
5.4710002 -1.1160001 0.67699999
4.243 -0.85299999 0.52399999
4.0630002 -0.80500001 0.50199997
3.9660001 -0.77499998 0.49000001
3.934 -0.75800002 0.486
3.944 -0.74900001 0.48699999
3.938 -0.73699999 0.486
3.9400001 -0.72600001 0.486
3.9360001 -0.71499997 0.486
3.937 -0.704 0.486
3.931 -0.69199997 0.48500001
3.9260001 -0.68099999 0.484
3.9430001 -0.67299998 0.486
3.944 -0.66299999 0.486
3.9389999 -0.65200001 0.486
3.9260001 -0.63999999 0.484
3.9349999 -0.63099998 0.48500001
3.944 -0.62199998 0.486
3.944 -0.61199999 0.486
3.9389999 -0.60100001 0.48500001
3.941 -0.59100002 0.48500001
3.9349999 -0.58099997 0.48500001
3.944 -0.57200003 0.48500001
3.9360001 -0.56099999 0.484
3.9460001 -0.55299997 0.486
3.9419999 -0.54299998 0.48500001
3.9419999 -0.53299999 0.48500001
3.9430001 -0.52399999 0.48500001
3.9430001 -0.514 0.48500001
3.938 -0.50400001 0.484
3.947 -0.49599999 0.48500001
3.9419999 -0.486 0.48500001
3.9489999 -0.477 0.48500001
3.95 -0.46799999 0.486
3.9430001 -0.458 0.48500001
3.938 -0.449 0.484
3.9389999 -0.44 0.484
3.9389999 -0.43099999 0.484
3.944 -0.42300001 0.48500001
3.9419999 -0.414 0.484
3.9430001 -0.405 0.484
3.9430001 -0.396 0.484
3.9449999 -0.38800001 0.484
3.9519999 -0.38 0.48500001
3.947 -0.37099999 0.48500001
3.9530001 -0.36300001 0.48500001
3.947 -0.354 0.48500001
3.9549999 -0.34599999 0.48500001
3.951 -0.33700001 0.48500001
3.941 -0.32800001 0.484
3.95 -0.32100001 0.48500001
3.9590001 -0.31299999 0.486
3.9449999 -0.30399999 0.484
3.9590001 -0.29699999 0.486
3.961 -0.289 0.486
3.954 -0.28099999 0.48500001
3.954 -0.273 0.48500001
3.9549999 -0.26499999 0.48500001
3.9530001 -0.257 0.48500001
3.964 -0.25 0.486
3.9489999 -0.241 0.484
3.957 -0.234 0.48500001
3.957 -0.227 0.48500001
3.964 -0.219 0.486
3.973 -0.212 0.48699999
3.964 -0.204 0.486
3.9649999 -0.197 0.486
3.967 -0.19 0.48699999
3.9820001 -0.183 0.48800001
3.974 -0.176 0.48699999
3.9809999 -0.169 0.48800001
3.9890001 -0.162 0.48899999
3.9820001 -0.155 0.48800001
3.9879999 -0.148 0.48899999
3.9879999 -0.141 0.48899999
3.99 -0.134 0.48899999
4.0029998 -0.127 0.491
4.006 -0.12 0.491
4.013 -0.114 0.49200001
4.0120001 -0.107 0.49200001
4.0190001 -0.1 0.493
4.033 -0.093999997 0.495
4.0339999 -0.086999997 0.495
4.0489998 -0.081 0.49700001
4.0609999 -0.075000003 0.498
4.0630002 -0.068000004 0.49900001
4.0760002 -0.061999999 0.5
4.0840001 -0.056000002 0.50099999
4.0970001 -0.048999999 0.50300002
4.105 -0.043000001 0.50400001
4.098 -0.035999998 0.50300002
4.118 -0.029999999 0.50599998
4.1329999 -0.024 0.50700003
4.1420002 -0.017999999 0.509
4.1409998 -0.012 0.50800002
4.1479998 -0.0049999999 0.509
4.177 -0 0.51300001
4.1690001 0.0060000001 0.51200002
4.177 0.012 0.51300001
4.1919999 0.017999999 0.51499999
4.1900001 0.024 0.51499999
4.1919999 0.029999999 0.51499999
4.2199998 0.035999998 0.51800001
4.23 0.041999999 0.51999998
4.2399998 0.048 0.52100003
4.2610002 0.054000001 0.52399999
4.3189998 0.061000001 0.53100002
4.3899999 0.068000004 0.54000002
4.0570002 0.067000002 0.498
4.0700002 0.075000003 0.5
4.0780001 0.082000002 0.5
4.0780001 0.089000002 0.5
4.0840001 0.097000003 0.50099999
4.0700002 0.104 0.49900001
4.0630002 0.111 0.498
4.0479999 0.118 0.49700001
4.0500002 0.126 0.49700001
4.0349998 0.133 0.495
4.027 0.141 0.49399999
4.0289998 0.149 0.49399999
4.007 0.156 0.491
4.007 0.164 0.491
3.9979999 0.17200001 0.49000001
3.993 0.18000001 0.48899999
3.9920001 0.18799999 0.48899999
3.9920001 0.19599999 0.48899999
3.9760001 0.204 0.48800001
3.9820001 0.212 0.48800001
3.9779999 0.221 0.48800001
3.9719999 0.229 0.48699999
3.9560001 0.237 0.48500001
3.961 0.24600001 0.486
3.9619999 0.255 0.486
3.954 0.26300001 0.48500001
3.9660001 0.273 0.48699999
4.027 0.28600001 0.49399999
4.2410002 0.31099999 0.52100003
5.5040002 0.41600001 0.676
5.5120001 0.43000001 0.67699999
5.5100002 0.44299999 0.67699999
5.5120001 0.456 0.67699999
5.5019999 0.46799999 0.676
5.4780002 0.479 0.67299998
5.48 0.49200001 0.67400002
5.4569998 0.50400001 0.671
5.4510002 0.51599997 0.67000002
5.4429998 0.52899998 0.66900003
5.4369998 0.542 0.66900003
5.4400001 0.55599999 0.67000002
5.4489999 0.56999999 0.671
5.4439998 0.58399999 0.67000002
5.4429998 0.597 0.67000002
5.434 0.61000001 0.67000002
5.434 0.62400001 0.67000002
5.4400001 0.639 0.671
5.4299998 0.65200001 0.67000002
5.4349999 0.667 0.671
5.4349999 0.68099999 0.671
5.4310002 0.69499999 0.671
5.434 0.70999998 0.671
5.427 0.72399998 0.671
5.4390001 0.74000001 0.67199999
5.4250002 0.75300002 0.671
5.4289999 0.76800001 0.67199999
5.427 0.78299999 0.67199999
5.4310002 0.79900002 0.67299998
5.421 0.81199998 0.67199999
5.4260001 0.82800001 0.67299998
5.4239998 0.84299999 0.67299998
5.4229999 0.85799998 0.67299998
5.4250002 0.87400001 0.67299998
5.4109998 0.88700002 0.67199999
5.4169998 0.903 0.67299998
5.4190001 0.91900003 0.67400002
5.421 0.935 0.67400002
5.4190001 0.95099998 0.67500001
5.4250002 0.96700001 0.676
5.4130001 0.98100001 0.67400002
5.4260001 0.99900001 0.676
5.4130001 1.013 0.67500001
5.4130001 1.029 0.676
5.4229999 1.0470001 0.67699999
5.4099998 1.061 0.676
5.4169998 1.0779999 0.67699999
5.421 1.096 0.67799997
5.4180002 1.1109999 0.67799997
5.4190001 1.128 0.67900002
5.4120002 1.143 0.67799997
5.414 1.16 0.67900002
5.408 1.175 0.67900002
5.4130001 1.193 0.68000001
5.4159999 1.211 0.68099999
5.4120002 1.227 0.68099999
5.4089999 1.243 0.68099999
5.414 1.261 0.68199998
5.415 1.278 0.68300003
5.4109998 1.294 0.68300003
5.4070001 1.3099999 0.68300003
5.4029999 1.327 0.68300003
5.4029999 1.344 0.68300003
5.4089999 1.363 0.685
5.4109998 1.381 0.685
5.4130001 1.398 0.68599999
5.401 1.413 0.685
5.4109998 1.433 0.68699998
5.414 1.451 0.68800002
5.408 1.467 0.68800002
5.4050002 1.484 0.68800002
5.4039998 1.502 0.68900001
5.4070001 1.52 0.69
5.4089999 1.539 0.69
5.4120002 1.558 0.69099998
5.4130001 1.576 0.69199997
5.414 1.594 0.69300002
5.4070001 1.61 0.69300002
5.4050002 1.628 0.69300002
5.4000001 1.6440001 0.69300002
5.3940001 1.661 0.69300002
5.4089999 1.683 0.69499999
5.3990002 1.699 0.69499999
5.4039998 1.719 0.69599998
5.402 1.7359999 0.69599998
5.408 1.756 0.69800001
5.3769999 1.765 0.69499999
5.355 1.776 0.69199997
5.3579998 1.795 0.69400001
5.3639998 1.816 0.69499999
5.3600001 1.8329999 0.69499999
5.3600001 1.852 0.69599998
5.3639998 1.8710001 0.69700003
5.362 1.89 0.69800001
5.3569999 1.906 0.69800001
5.3629999 1.927 0.699
5.3639998 1.946 0.69999999
5.3559999 1.962 0.69999999
5.3579998 1.982 0.70099998
5.349 1.997 0.69999999
5.3569999 2.0190001 0.70200002
5.3629999 2.04 0.704
5.362 2.059 0.704
5.3509998 2.073 0.704
5.3499999 2.092 0.704
5.3330002 2.105 0.70300001
5.2940001 2.108 0.699
5.2649999 2.115 0.69599998
5.244 2.1259999 0.69400001
5.2329998 2.1400001 0.69300002
5.1680002 2.132 0.685
5.1240001 2.132 0.68000001
5.079 2.132 0.67500001
5.0229998 2.1259999 0.66799998
4.98 2.1259999 0.66299999
4.9359999 2.125 0.65799999
4.8800001 2.119 0.65200001
4.8249998 2.112 0.64499998
4.8070002 2.1210001 0.64300001
4.8109999 2.141 0.64499998
4.8060002 2.1559999 0.64499998
4.8039999 2.1719999 0.64499998
4.8109999 2.1930001 0.64700001
4.7969999 2.204 0.64600003
4.803 2.224 0.648
4.802 2.2420001 0.648
4.8010001 2.2590001 0.64899999
4.7989998 2.2750001 0.64999998
4.8060002 2.296 0.65100002
4.8010001 2.312 0.65200001
4.8000002 2.3280001 0.65200001
4.7909999 2.342 0.65200001
4.8039999 2.3659999 0.65499997
4.803 2.3829999 0.65499997
4.8010001 2.4000001 0.65600002
4.8060002 2.4189999 0.65700001
4.7930002 2.431 0.65700001
4.8010001 2.4519999 0.65899998
4.803 2.471 0.66000003
4.796 2.4849999 0.66000003
4.8070002 2.5079999 0.662
4.8049998 2.5250001 0.66299999
4.8109999 2.546 0.66399997
4.809 2.562 0.66500002
4.816 2.5840001 0.667
4.7989998 2.5929999 0.66600001
4.822 2.6229999 0.67000002
4.8099999 2.6340001 0.66900003
4.8239999 2.6589999 0.67199999
4.8610001 2.697 0.67799997
4.9879999 2.786 0.69700003
5.355 3.0109999 0.74900001
5.3569999 3.0309999 0.75
5.3509998 3.0469999 0.75099999
5.3540001 3.0680001 0.75199997
5.3579998 3.0910001 0.75400001
5.355 3.108 0.75400001
5.3559999 3.128 0.75599998
5.355 3.1470001 0.75700003
5.3569999 3.168 0.75800002
5.3559999 3.187 0.759
5.3530002 3.2049999 0.75999999
4.954 2.983 0.704
5.3249998 3.2260001 0.75800002
5.3379998 3.253 0.76099998
5.342 3.2750001 0.76300001
5.3390002 3.2920001 0.76300001
5.3249998 3.303 0.76300001
5.3060002 3.3099999 0.76099998
5.3099999 3.332 0.76300001
5.329 3.362 0.76700002
5.3249998 3.3789999 0.76700002
5.3249998 3.398 0.76800001
5.3189998 3.4119999 0.76899999
5.3099999 3.425 0.76899999
5.2909999 3.4319999 0.76700002
5.2709999 3.437 0.76499999
5.2600002 3.4489999 0.76499999
5.244 3.4560001 0.764
3.5680001 2.3889999 0.52200001
3.562 2.3970001 0.52200001
3.5680001 2.4130001 0.52399999
3.5350001 2.402 0.51899999
3.5009999 2.392 0.51499999
5.5749998 -3.3540001 0.73299998
5.5669999 -3.332 0.73199999
5.572 -3.319 0.73199999
5.592 -3.3139999 0.73500001
5.586 -3.2939999 0.73400003
5.6059999 -3.289 0.736
5.5869999 -3.2620001 0.73400003
5.6009998 -3.253 0.73500001
5.6020002 -3.237 0.73500001
5.598 -3.2179999 0.73500001
5.599 -3.2019999 0.73500001
5.6059999 -3.1889999 0.73500001
5.5879998 -3.1619999 0.73299998
5.5890002 -3.1459999 0.73299998
5.612 -3.1429999 0.736
5.6030002 -3.1210001 0.73400003
5.605 -3.105 0.73500001
5.6040001 -3.0880001 0.73400003
5.612 -3.075 0.73500001
5.5999999 -3.052 0.73400003
5.5939999 -3.0320001 0.73299998
5.5929999 -3.0139999 0.73199999
5.5949998 -2.9990001 0.73199999
5.5960002 -2.983 0.73199999
5.6040001 -2.97 0.73299998
5.6230001 -2.9630001 0.736
5.6040001 -2.937 0.73299998
5.599 -2.918 0.73199999
5.6059999 -2.904 0.73299998
5.6110001 -2.8900001 0.73400003
5.6059999 -2.8710001 0.73299998
5.5970001 -2.849 0.73100001
5.5939999 -2.8310001 0.73100001
5.6009998 -2.8180001 0.73199999
5.5910001 -2.796 0.73000002
5.5819998 -2.7750001 0.72899997
5.5890002 -2.7609999 0.73000002
5.5890002 -2.7449999 0.72899997
5.5960002 -2.7309999 0.73000002
5.5900002 -2.7119999 0.72899997
5.5960002 -2.698 0.73000002
5.5890002 -2.678 0.72899997
5.5710001 -2.652 0.72600001
5.5830002 -2.642 0.72799999
5.5710001 -2.619 0.72600001
5.5380001 -2.5869999 0.722
5.52 -2.562 0.71899998
5.4980001 -2.5350001 0.71600002
5.506 -2.5220001 0.71700001
5.5009999 -2.5039999 0.71600002
5.5040002 -2.4890001 0.71600002
5.5009999 -2.471 0.71600002
5.4899998 -2.45 0.71399999
5.4850001 -2.431 0.713
5.4699998 -2.408 0.71100003
5.4429998 -2.3789999 0.708
5.4369998 -2.3610001 0.70700002
5.4429998 -2.3469999 0.70700002
5.4330001 -2.326 0.70599997
5.441 -2.313 0.70700002
5.434 -2.2939999 0.70599997
5.4260001 -2.2750001 0.70499998
5.4180002 -2.2550001 0.70300001
5.4099998 -2.2349999 0.70200002
5.4099998 -2.2190001 0.70200002
5.415 -2.2049999 0.70300001
5.428 -2.194 0.704
5.4390001 -2.1830001 0.70499998
5.4380002 -2.1659999 0.70499998
5.4499998 -2.155 0.70599997
5.4499998 -2.138 0.70599997
5.4559999 -2.1240001 0.70700002
5.454 -2.1070001 0.70599997
5.4499998 -2.089 0.70599997
5.4580002 -2.076 0.70700002
5.4580002 -2.0599999 0.70599997
5.4549999 -2.0420001 0.70599997
5.461 -2.0280001 0.70700002
5.46 -2.0120001 0.70599997
5.4650002 -1.997 0.70700002
5.4569998 -1.978 0.70599997
5.467 -1.965 0.70700002
5.467 -1.949 0.70700002
5.4640002 -1.932 0.70599997
5.4689999 -1.9170001 0.70599997
5.4619999 -1.899 0.70499998
5.4650002 -1.883 0.70599997
5.4580002 -1.865 0.704
5.4640002 -1.85 0.70499998
5.467 -1.836 0.70499998
5.473 -1.821 0.70599997
5.4720001 -1.8049999 0.70599997
5.4689999 -1.7869999 0.70499998
5.4749999 -1.773 0.70599997
5.4640002 -1.753 0.704
5.4689999 -1.738 0.704
5.467 -1.722 0.704
5.4710002 -1.707 0.704
5.4689999 -1.6900001 0.704
5.4819999 -1.678 0.70599997
5.4790001 -1.661 0.70499998
5.4660001 -1.641 0.70300001
5.474 -1.627 0.704
5.4710002 -1.61 0.70300001
5.4699998 -1.5930001 0.70300001
5.48 -1.58 0.704
5.4790001 -1.563 0.704
5.4749999 -1.546 0.70300001
5.4809999 -1.5319999 0.704
5.4770002 -1.5140001 0.70300001
5.4809999 -1.499 0.70300001
5.4699998 -1.48 0.70200002
5.4749999 -1.465 0.70200002
5.4679999 -1.447 0.70099998
5.4819999 -1.4349999 0.70300001
5.48 -1.418 0.70300001
5.4679999 -1.399 0.70099998
5.4660001 -1.382 0.69999999
5.467 -1.3660001 0.69999999
5.473 -1.352 0.70099998
5.4850001 -1.339 0.70200002
5.4829998 -1.322 0.70200002
5.4790001 -1.3049999 0.70099998
5.4749999 -1.288 0.69999999
5.4710002 -1.271 0.69999999
5.4749999 -1.256 0.69999999
5.4710002 -1.239 0.699
5.4759998 -1.224 0.69999999
5.4749999 -1.207 0.69999999
5.474 -1.191 0.699
5.4710002 -1.174 0.699
5.4619999 -1.156 0.69700003
5.4629998 -1.141 0.69700003
5.4650002 -1.125 0.69700003
5.4689999 -1.11 0.69800001
5.474 -1.095 0.69800001
5.4780002 -1.079 0.69800001
4.1900001 -0.81300002 0.53399998
4.0180001 -0.76800001 0.51200002
3.957 -0.745 0.50400001
3.937 -0.73000002 0.50099999
3.9319999 -0.71700001 0.50099999
3.9489999 -0.70899999 0.50300002
3.9300001 -0.69400001 0.5
3.9449999 -0.685 0.50199997
3.934 -0.67199999 0.5
3.9360001 -0.66000003 0.5
3.9449999 -0.64999998 0.50099999
3.9319999 -0.63700002 0.5
3.9419999 -0.62699997 0.50099999
3.9289999 -0.61299998 0.49900001
3.931 -0.602 0.49900001
3.9319999 -0.59100002 0.49900001
3.941 -0.58099997 0.5
3.9419999 -0.56900001 0.5
3.9289999 -0.55599999 0.498
3.9449999 -0.54699999 0.5
3.9400001 -0.53500003 0.49900001
3.9430001 -0.523 0.5
3.937 -0.51099998 0.49900001
3.944 -0.50099999 0.5
3.9400001 -0.48899999 0.49900001
3.9330001 -0.47600001 0.498
3.9460001 -0.46599999 0.49900001
3.927 -0.45300001 0.49700001
3.9430001 -0.44299999 0.49900001
3.9389999 -0.43099999 0.498
3.9330001 -0.419 0.49700001
3.941 -0.40799999 0.498
3.9419999 -0.39700001 0.498
3.9419999 -0.38600001 0.498
3.9300001 -0.373 0.49599999
3.931 -0.36199999 0.49599999
3.9319999 -0.34999999 0.49599999
3.941 -0.34 0.49700001
3.9419999 -0.32800001 0.49700001
3.95 -0.31799999 0.498
3.95 -0.30599999 0.498
3.951 -0.29499999 0.498
3.951 -0.28299999 0.498
3.9530001 -0.27200001 0.498
3.96 -0.26100001 0.498
3.9619999 -0.25 0.49900001
3.954 -0.23800001 0.49700001
3.971 -0.227 0.49900001
3.9619999 -0.215 0.498
3.971 -0.204 0.49900001
3.9790001 -0.193 0.5
3.9690001 -0.18099999 0.49900001
3.98 -0.17 0.5
3.9860001 -0.15800001 0.5
3.994 -0.147 0.50099999
4.0019999 -0.13600001 0.50199997
4.0170002 -0.125 0.50400001
4.0159998 -0.113 0.50400001
4.033 -0.102 0.50599998
4.0469999 -0.090000004 0.50700003
4.039 -0.079000004 0.50599998
4.0599999 -0.067000002 0.50800002
4.0679998 -0.056000002 0.509
4.0749998 -0.044 0.50999999
4.0900002 -0.032000002 0.51200002
4.098 -0.02 0.51300001
4.0879998 -0.0080000004 0.51099998
4.1040001 0.0020000001 0.51300001
4.119 0.014 0.51499999
4.119 0.026000001 0.51499999
4.1170001 0.037999999 0.514
4.1430001 0.050999999 0.51700002
4.1529999 0.063000001 0.51800001
4.132 0.074000001 0.51599997
4.1750002 0.086999997 0.52100003
4.131 0.097999997 0.51499999
4.1729999 0.111 0.51999998
4.223 0.125 0.52600002
4.2309999 0.138 0.52700001
4.2940001 0.152 0.53500003
4.3000002 0.16500001 0.53500003
4.3920002 0.18099999 0.54699999
4.007 0.050999999 0.50099999
3.9949999 0.054000001 0.49900001
3.994 0.057999998 0.49900001
4.0029998 0.061000001 0.5
3.9949999 0.064999998 0.49900001
3.994 0.068999998 0.498
3.9879999 0.072999999 0.49700001
3.971 0.075999998 0.495
3.9820001 0.081 0.49599999
3.967 0.085000001 0.49399999
3.9649999 0.089000002 0.49399999
3.9820001 0.093999997 0.49599999
3.9649999 0.097999997 0.49399999
3.9530001 0.102 0.49200001
3.947 0.107 0.491
3.951 0.112 0.49200001
3.954 0.117 0.49200001
3.9449999 0.122 0.491
3.9400001 0.126 0.49000001
3.9400001 0.132 0.49000001
3.9389999 0.13699999 0.49000001
3.9400001 0.142 0.49000001
3.9260001 0.147 0.48800001
3.924 0.153 0.48800001
3.918 0.15800001 0.48699999
3.911 0.164 0.486
3.918 0.17 0.48699999
3.9100001 0.175 0.486
3.9100001 0.18099999 0.486
3.9170001 0.18799999 0.48699999
3.9130001 0.19400001 0.486
3.8970001 0.199 0.484
3.895 0.205 0.484
3.8970001 0.212 0.484
3.888 0.21799999 0.48300001
3.888 0.22400001 0.48300001
3.8940001 0.23100001 0.484
3.878 0.237 0.48199999
3.8800001 0.244 0.48199999
3.8800001 0.25099999 0.48199999
3.891 0.259 0.48300001
3.8989999 0.266 0.48500001
3.941 0.27700001 0.49000001
4.0599999 0.292 0.505
4.1259999 0.30500001 0.51300001
4.2659998 0.324 0.53100002
4.355 0.33899999 0.542
5.441 0.43399999 0.67699999
5.4359999 0.44400001 0.676
5.4429998 0.456 0.67699999
5.4359999 0.46599999 0.67699999
5.441 0.477 0.67699999
5.434 0.48800001 0.67699999
5.4250002 0.498 0.676
5.4299998 0.50999999 0.67699999
5.4260001 0.52100003 0.676
5.4289999 0.53299999 0.67699999
5.428 0.54500002 0.67699999
5.4190001 0.55599999 0.676
5.4239998 0.56800002 0.67699999
5.4250002 0.57999998 0.67699999
5.421 0.59200001 0.67699999
5.4260001 0.60500002 0.67799997
5.421 0.616 0.67699999
5.4169998 0.62800002 0.67699999
5.415 0.64099997 0.67699999
5.414 0.653 0.67699999
5.4239998 0.667 0.67900002
5.4190001 0.67900002 0.67900002
5.4239998 0.69300002 0.68000001
5.4200001 0.70499998 0.67900002
5.4120002 0.71700001 0.67900002
5.4190001 0.73199999 0.68000001
5.4169998 0.745 0.68000001
5.414 0.75800002 0.68000001
5.4050002 0.76999998 0.67900002
5.4050002 0.78299999 0.67900002
5.4089999 0.79799998 0.68000001
5.414 0.81199998 0.68099999
5.4109998 0.82599998 0.68099999
5.402 0.838 0.68099999
5.4000001 0.852 0.68099999
5.4130001 0.86799997 0.68300003
5.4050002 0.88099998 0.68199998
5.4060001 0.89600003 0.68300003
5.4130001 0.91100001 0.68400002
5.4029999 0.92400002 0.68300003
5.4039998 0.93900001 0.68400002
5.4039998 0.954 0.68400002
5.4089999 0.97000003 0.685
5.3969998 0.98199999 0.68400002
5.3959999 0.99699998 0.685
5.3969998 1.012 0.685
5.3979998 1.028 0.68599999
5.388 1.041 0.685
5.3940001 1.058 0.68599999
5.395 1.073 0.68699998
5.3940001 1.089 0.68699998
5.3889999 1.103 0.68699998
5.3930001 1.12 0.68800002
5.388 1.135 0.68800002
5.3850002 1.15 0.68800002
5.395 1.168 0.69
5.3860002 1.182 0.69
5.3899999 1.199 0.69099998
5.3889999 1.215 0.69099998
5.382 1.23 0.69099998
5.3850002 1.247 0.69199997
5.3870001 1.2640001 0.69300002
5.3850002 1.28 0.69300002
5.382 1.296 0.69300002
5.3769999 1.312 0.69300002
5.3790002 1.329 0.69400001
5.382 1.347 0.69499999
5.3779998 1.363 0.69499999
5.408 1.388 0.69999999
5.4089999 1.405 0.70099998
5.408 1.4220001 0.70099998
5.4130001 1.441 0.70300001
5.414 1.459 0.70300001
5.3979998 1.472 0.70200002
5.4070001 1.492 0.704
5.4000001 1.508 0.704
5.4039998 1.527 0.70499998
5.4000001 1.544 0.70499998
5.4060001 1.564 0.70700002
5.402 1.581 0.70700002
5.3990002 1.598 0.70700002
5.4060001 1.618 0.70899999
5.4000001 1.635 0.70899999
5.395 1.652 0.70899999
5.4039998 1.673 0.71100003
5.402 1.691 0.71200001
5.4050002 1.711 0.713
5.4130001 1.732 0.71499997
5.408 1.75 0.71499997
5.3940001 1.7640001 0.71399999
5.3930001 1.783 0.71499997
5.402 1.8049999 0.71700001
5.4029999 1.824 0.71799999
5.3899999 1.84 0.71700001
5.3909998 1.859 0.71799999
5.3920002 1.8789999 0.71899998
5.3930001 1.899 0.72000003
5.3920002 1.918 0.72100002
5.3940001 1.939 0.722
5.3800001 1.9529999 0.72100002
5.3850002 1.975 0.722
5.3790002 1.993 0.722
5.3800001 2.013 0.72299999
5.3769999 2.0320001 0.72399998
5.3769999 2.052 0.72500002
5.3740001 2.0710001 0.72600001
5.3699999 2.0899999 0.72600001
5.3509998 2.1029999 0.72399998
5.302 2.1040001 0.71899998
5.2870002 2.118 0.71799999
5.3169999 2.151 0.72299999
5.3179998 2.171 0.72399998
5.2610002 2.1689999 0.71700001
5.2030001 2.165 0.70999998
5.1220002 2.151 0.69999999
5.0570002 2.1440001 0.69199997
4.9879999 2.1340001 0.68400002
4.9320002 2.1300001 0.67699999
4.8800001 2.1270001 0.671
4.8740001 2.1429999 0.671
4.8639998 2.1589999 0.671
4.8660002 2.1789999 0.67199999
4.8460002 2.1889999 0.67000002
4.849 2.211 0.67199999
4.842 2.227 0.67199999
4.842 2.247 0.67299998
4.8530002 2.2720001 0.67500001
4.8390002 2.2850001 0.67400002
4.8309999 2.3010001 0.67400002
4.842 2.3269999 0.67699999
4.8379998 2.345 0.67699999
4.8379998 2.365 0.67799997
4.8299999 2.382 0.67799997
4.8340001 2.404 0.68000001
4.8330002 2.424 0.68099999
4.8299999 2.4430001 0.68199998
4.8330002 2.4649999 0.68300003
4.8319998 2.4849999 0.68400002
4.8189998 2.4990001 0.68300003
4.8319998 2.526 0.68599999
4.836 2.55 0.68800002
4.8509998 2.5780001 0.69099998
4.8769999 2.6129999 0.69599998
4.8860002 2.6400001 0.699
4.895 2.6659999 0.70099998
4.8940001 2.687 0.70200002
4.9310002 2.7290001 0.70899999
5.3860002 3.0050001 0.77600002
5.402 3.0380001 0.77899998
5.402 3.062 0.78100002
5.3959999 3.082 0.78100002
3.743 2.155 0.54299998
3.678 2.1340001 0.53399998
3.648 2.1329999 0.53100002
3.618 2.132 0.52700001
3.5829999 2.128 0.523
3.556 2.128 0.51999998
3.5369999 2.1329999 0.51800001
3.5120001 2.1340001 0.51599997
3.4820001 2.132 0.51200002
3.4630001 2.1370001 0.50999999
3.451 2.145 0.509
3.4330001 2.1500001 0.50800002
3.414 2.154 0.50599998
3.401 2.1619999 0.505
3.3759999 2.1619999 0.50199997
3.362 2.1689999 0.50099999
3.345 2.174 0.49900001
3.332 2.181 0.498
3.3069999 2.181 0.49599999
3.3069999 2.197 0.49700001
3.2880001 2.1989999 0.495
3.2690001 2.2030001 0.493
3.2609999 2.2130001 0.493
3.2420001 2.2160001 0.491
3.2360001 2.2279999 0.491
3.2160001 2.23 0.48899999
5.3049998 -3.4790001 0.71799999
5.3189998 -3.4549999 0.72000003
5.3439999 -3.438 0.722
5.362 -3.4170001 0.72399998
5.3660002 -3.3870001 0.72399998
5.3959999 -3.3740001 0.727
5.4099998 -3.3499999 0.72899997
5.4130001 -3.3210001 0.72899997
5.427 -3.2969999 0.73000002
5.4439998 -3.276 0.73199999
5.447 -3.247 0.73100001
5.461 -3.224 0.73299998
5.4689999 -3.198 0.73299998
5.4749999 -3.171 0.73299998
5.4949999 -3.152 0.73500001
5.5029998 -3.1259999 0.736
5.5019999 -3.096 0.73500001
5.5050001 -3.0680001 0.73500001
5.5139999 -3.043 0.736
5.5139999 -3.0139999 0.73500001
5.539 -2.9979999 0.73799998
5.5409999 -2.971 0.73799998
5.5370002 -2.9400001 0.73699999
5.5489998 -2.918 0.73799998
5.5440001 -2.8870001 0.73699999
5.552 -2.8629999 0.73699999
5.5580001 -2.8380001 0.73699999
5.5689998 -2.816 0.73799998
5.5679998 -2.7880001 0.73799998
5.5669999 -2.76 0.73699999
5.5700002 -2.7349999 0.73699999
5.573 -2.7090001 0.73699999
5.5700002 -2.681 0.736
5.5799999 -2.6600001 0.73699999
5.5760002 -2.631 0.736
5.5830002 -2.609 0.736
5.579 -2.5810001 0.73500001
5.5630002 -2.5480001 0.73299998
5.526 -2.506 0.727
5.507 -2.473 0.72500002
5.506 -2.447 0.72399998
5.5159998 -2.427 0.72500002
5.5240002 -2.4059999 0.72600001
5.513 -2.3770001 0.72399998
5.4809999 -2.339 0.71899998
5.4650002 -2.309 0.71700001
5.4590001 -2.283 0.71499997
5.4549999 -2.257 0.71399999
5.4640002 -2.2379999 0.71499997
5.4349999 -2.2030001 0.71100003
5.4400001 -2.1830001 0.71100003
5.4239998 -2.154 0.70899999
5.4359999 -2.1359999 0.70999998
5.4699998 -2.1270001 0.71399999
5.461 -2.1010001 0.713
5.4629998 -2.0799999 0.713
5.4640002 -2.059 0.71200001
5.4710002 -2.04 0.713
5.4780002 -2.02 0.71399999
5.4720001 -1.997 0.71200001
5.4790001 -1.978 0.713
5.4660001 -1.952 0.71100003
5.4660001 -1.931 0.71100003
5.4780002 -1.914 0.71200001
5.4710002 -1.891 0.71100003
5.4710002 -1.8710001 0.70999998
5.4829998 -1.854 0.71200001
5.4780002 -1.832 0.71100003
5.4619999 -1.807 0.708
5.473 -1.79 0.70999998
5.474 -1.77 0.70899999
5.4710002 -1.75 0.70899999
5.4710002 -1.73 0.708
5.4780002 -1.7130001 0.70899999
5.4679999 -1.6900001 0.70700002
5.4749999 -1.673 0.708
5.4790001 -1.655 0.708
5.4710002 -1.6339999 0.70700002
5.4780002 -1.617 0.708
5.4749999 -1.597 0.70700002
5.4660001 -1.576 0.70599997
5.4770002 -1.5599999 0.70700002
5.4689999 -1.54 0.70599997
5.4660001 -1.521 0.70499998
5.473 -1.5039999 0.70499998
5.4699998 -1.485 0.70499998
5.467 -1.467 0.704
5.4660001 -1.449 0.704
5.4679999 -1.431 0.704
5.473 -1.415 0.704
5.4710002 -1.397 0.704
5.4749999 -1.381 0.704
5.4720001 -1.363 0.704
5.4759998 -1.347 0.704
5.473 -1.329 0.70300001
5.4759998 -1.312 0.704
5.4720001 -1.294 0.70300001
5.4640002 -1.276 0.70200002
5.461 -1.2589999 0.70099998
5.4650002 -1.243 0.70099998
5.46 -1.225 0.69999999
5.4650002 -1.21 0.70099998
5.467 -1.194 0.70099998
5.4699998 -1.179 0.70099998
5.461 -1.161 0.69999999
5.4699998 -1.147 0.70099998
5.4590001 -1.1289999 0.699
5.4619999 -1.114 0.699
4.211 -0.847 0.53899997
4.0650001 -0.80599999 0.51999998
3.9579999 -0.773 0.50599998
3.9319999 -0.75700003 0.50300002
3.9360001 -0.74699998 0.50300002
3.9360001 -0.736 0.50300002
3.931 -0.72399998 0.50199997
3.9389999 -0.71499997 0.50300002
3.941 -0.70499998 0.50400001
3.9300001 -0.69199997 0.50199997
3.9389999 -0.68300003 0.50300002
3.947 -0.67400002 0.50400001
3.928 -0.66000003 0.50099999
3.9289999 -0.64999998 0.50199997
3.931 -0.63999999 0.50199997
3.9330001 -0.63 0.50199997
3.9400001 -0.62099999 0.50300002
3.9360001 -0.611 0.50199997
3.9300001 -0.60000002 0.50099999
3.9260001 -0.58899999 0.50099999
3.9330001 -0.57999998 0.50099999
3.9419999 -0.57200003 0.50199997
3.9489999 -0.56300002 0.50300002
3.938 -0.55199999 0.50199997
3.9400001 -0.542 0.50199997
3.9400001 -0.53299999 0.50199997
3.9389999 -0.523 0.50199997
3.9419999 -0.514 0.50199997
3.9449999 -0.505 0.50199997
3.9389999 -0.495 0.50199997
3.947 -0.486 0.50199997
3.947 -0.477 0.50199997
3.9419999 -0.46700001 0.50199997
3.9349999 -0.45699999 0.50099999
3.9360001 -0.44800001 0.50099999
3.9360001 -0.43900001 0.50099999
3.938 -0.43099999 0.50099999
3.9449999 -0.42300001 0.50199997
3.954 -0.41499999 0.50300002
3.9400001 -0.40400001 0.50099999
3.948 -0.396 0.50199997
3.9489999 -0.38800001 0.50199997
3.9519999 -0.37900001 0.50199997
3.95 -0.37099999 0.50199997
3.9449999 -0.36199999 0.50199997
3.9460001 -0.35299999 0.50199997
3.947 -0.345 0.50199997
3.947 -0.33700001 0.50199997
3.948 -0.329 0.50199997
3.9489999 -0.31999999 0.50199997
3.9630001 -0.31299999 0.50400001
3.9489999 -0.30399999 0.50199997
3.95 -0.296 0.50199997
3.951 -0.28799999 0.50199997
3.96 -0.28099999 0.50300002
3.9579999 -0.273 0.50300002
3.9560001 -0.26499999 0.50300002
3.9530001 -0.257 0.50199997
3.96 -0.249 0.50300002
3.9530001 -0.241 0.50199997
3.9549999 -0.234 0.50199997
3.97 -0.227 0.50400001
3.9560001 -0.219 0.50199997
3.9560001 -0.211 0.50199997
3.9619999 -0.204 0.50300002
3.9719999 -0.197 0.50400001
3.9649999 -0.19 0.50400001
3.9779999 -0.183 0.505
3.9790001 -0.176 0.505
3.9719999 -0.168 0.50400001
3.9790001 -0.161 0.505
3.9849999 -0.154 0.50599998
3.98 -0.147 0.505
3.9860001 -0.14 0.50599998
3.9949999 -0.134 0.50700003
4.0009999 -0.127 0.50800002
4.0009999 -0.12 0.50800002
4.0100002 -0.113 0.509
4.0159998 -0.107 0.50999999
4.0250001 -0.1 0.51099998
