# .PCD v0.7 - Point Cloud Data file format
VERSION 0.7
FIELDS x y z
SIZE 4 4 4
TYPE F F F
COUNT 1 1 1
WIDTH 1835
HEIGHT 1
VIEWPOINT 0 0 0 1 0 0 0
POINTS 1835
DATA ascii
5.3530002 1.028 0.228
5.3509998 1.044 0.228
5.3470001 1.059 0.228
5.3499999 1.076 0.228
5.3520002 1.0930001 0.228
5.3369999 1.1059999 0.228
5.349 1.125 0.228
5.3449998 1.141 0.228
5.342 1.156 0.228
5.3369999 1.1720001 0.228
5.335 1.188 0.228
5.3369999 1.205 0.228
5.3340001 1.221 0.228
5.336 1.238 0.228
5.329 1.2539999 0.228
5.329 1.27 0.228
5.3239999 1.286 0.228
5.3210001 1.302 0.228
5.323 1.3200001 0.228
5.3249998 1.337 0.229
5.3150001 1.352 0.228
5.3169999 1.37 0.228
5.3210001 1.388 0.229
5.323 1.406 0.229
5.3150001 1.421 0.229
5.3080001 1.436 0.229
5.3099999 1.454 0.229
5.3060002 1.47 0.229
5.3070002 1.488 0.229
5.3080001 1.506 0.229
5.2979999 1.521 0.229
5.2989998 1.539 0.229
5.302 1.557 0.229
5.3039999 1.575 0.229
5.29 1.589 0.229
5.2940001 1.608 0.229
5.289 1.624 0.229
5.2909999 1.643 0.229
5.2919998 1.661 0.23
5.2870002 1.677 0.23
5.2870002 1.696 0.23
5.289 1.714 0.23
5.2709999 1.726 0.229
5.2779999 1.747 0.23
5.27 1.762 0.23
5.2810001 1.784 0.23
5.27 1.799 0.23
5.276 1.819 0.23
5.276 1.837 0.23100001
5.2670002 1.852 0.23
5.2639999 1.87 0.23
5.2589998 1.886 0.23
5.2670002 1.9069999 0.23100001
5.2610002 1.924 0.23100001
5.2509999 1.938 0.23
5.2550001 1.9579999 0.23100001
5.2449999 1.973 0.23100001
5.2480001 1.993 0.23100001
5.2470002 2.0109999 0.23100001
5.2509999 2.0309999 0.23100001
5.2490001 2.049 0.23100001
5.25 2.0680001 0.23199999
5.2420001 2.0829999 0.23199999
5.243 2.102 0.23199999
5.2360001 2.118 0.23199999
5.2350001 2.1370001 0.23199999
5.237 2.1559999 0.23199999
5.2360001 2.174 0.23199999
5.2290001 2.1900001 0.23199999
5.2350001 2.211 0.233
5.2280002 2.227 0.23199999
5.2259998 2.2449999 0.233
5.2270002 2.2650001 0.233
5.2270002 2.283 0.233
5.2249999 2.302 0.233
5.2179999 2.3169999 0.233
5.2189999 2.3369999 0.233
5.204 2.349 0.233
5.21 2.3699999 0.233
5.2030001 2.3859999 0.233
5.2069998 2.4070001 0.234
5.1999998 2.4230001 0.234
5.1929998 2.438 0.233
5.1989999 2.46 0.234
5.158 2.4590001 0.23199999
5.1220002 2.461 0.23100001
5.0679998 2.4530001 0.229
5.0279999 2.4530001 0.227
4.9780002 2.4460001 0.22499999
4.9330001 2.4419999 0.223
4.8909998 2.4389999 0.222
4.842 2.4319999 0.22
4.7979999 2.428 0.21799999
4.7589998 2.425 0.21600001
4.711 2.418 0.214
4.6609998 2.4100001 0.212
4.6329999 2.4119999 0.211
4.6110001 2.4170001 0.20999999
4.6040001 2.4300001 0.20999999
4.6009998 2.4460001 0.20999999
4.6020002 2.4630001 0.211
4.5929999 2.4749999 0.211
4.6069999 2.4990001 0.211
4.598 2.5109999 0.211
4.5939999 2.526 0.211
4.5910001 2.5409999 0.211
4.5809999 2.552 0.211
4.5830002 2.5699999 0.211
4.5809999 2.585 0.212
4.5819998 2.602 0.212
4.579 2.6170001 0.212
4.5780001 2.6329999 0.212
4.5770001 2.6500001 0.212
4.5749998 2.665 0.213
4.5739999 2.681 0.213
4.5770001 2.6989999 0.213
4.572 2.7119999 0.213
4.5760002 2.7309999 0.214
4.5679998 2.743 0.213
4.5640001 2.757 0.213
4.566 2.7739999 0.214
4.5619998 2.7880001 0.214
4.5630002 2.8050001 0.214
4.5609999 2.8199999 0.214
4.5679998 2.8399999 0.215
4.559 2.8510001 0.215
4.5539999 2.8640001 0.215
4.5549998 2.8800001 0.215
4.5539999 2.8959999 0.215
4.5580001 2.914 0.21600001
4.552 2.927 0.21600001
4.553 2.9430001 0.21600001
4.559 2.9630001 0.21699999
4.552 2.974 0.21600001
4.5619998 2.9960001 0.21699999
4.5949998 3.033 0.219
4.652 3.0869999 0.222
5.0760002 3.4030001 0.243
5.0760002 3.4200001 0.243
3.569 2.4159999 0.171
3.5739999 2.4319999 0.17200001
3.484 2.3829999 0.167
3.4679999 2.3829999 0.167
3.441 2.3759999 0.16599999
3.4400001 2.3870001 0.16599999
3.4300001 2.391 0.16599999
3.4130001 2.3900001 0.16500001
3.4300001 2.4130001 0.16599999
3.3959999 2.4000001 0.16500001
3.381 2.4000001 0.164
3.382 2.4119999 0.164
3.3599999 2.4070001 0.163
3.332 2.3970001 0.162
3.3699999 2.4349999 0.164
3.3610001 2.438 0.164
3.3510001 2.4419999 0.164
5.8670001 -3.48 0.31200001
5.869 -3.464 0.31200001
5.8559999 -3.4400001 0.31200001
5.882 -3.438 0.31299999
5.8699999 -3.414 0.31200001
5.8540001 -3.388 0.31099999
5.875 -3.3829999 0.31299999
5.888 -3.3740001 0.31299999
5.8889999 -3.3570001 0.31299999
5.881 -3.336 0.31299999
5.8909998 -3.3239999 0.31299999
5.8860002 -3.3039999 0.31299999
5.8670001 -3.277 0.31200001
5.8870001 -3.2709999 0.31299999
5.881 -3.25 0.31299999
5.8829999 -3.2349999 0.31299999
5.8660002 -3.2079999 0.31200001
5.8740001 -3.1949999 0.31200001
5.8790002 -3.181 0.31200001
5.8569999 -3.152 0.31099999
5.868 -3.141 0.31200001
5.862 -3.1210001 0.31200001
5.862 -3.1040001 0.31099999
5.8709998 -3.0910001 0.31200001
5.8709998 -3.0739999 0.31200001
5.8850002 -3.0639999 0.31299999
5.8649998 -3.0369999 0.31200001
5.848 -3.0109999 0.31099999
5.869 -3.0039999 0.31200001
5.8600001 -2.983 0.31099999
5.862 -2.967 0.31099999
5.8610001 -2.9489999 0.31099999
5.8559999 -2.9289999 0.31099999
5.8579998 -2.914 0.31099999
5.8699999 -2.902 0.31200001
5.8639998 -2.882 0.31099999
5.8439999 -2.855 0.31
5.8509998 -2.8410001 0.31
5.8649998 -2.8310001 0.31099999
5.855 -2.809 0.31099999
5.8470001 -2.7880001 0.31
5.8520002 -2.773 0.31
5.829 -2.7449999 0.30899999
5.8410001 -2.734 0.31
5.8460002 -2.7190001 0.31
5.835 -2.697 0.30899999
5.8330002 -2.6789999 0.30899999
5.8280001 -2.6589999 0.30899999
5.8270001 -2.642 0.30899999
5.8270001 -2.625 0.30899999
5.8340001 -2.6110001 0.30899999
5.8200002 -2.5880001 0.308
5.8270001 -2.5739999 0.30899999
5.8390002 -2.562 0.30899999
5.8340001 -2.543 0.30899999
5.8260002 -2.5220001 0.30899999
5.8280001 -2.506 0.30899999
5.8260002 -2.4879999 0.308
5.8239999 -2.47 0.308
5.8299999 -2.4549999 0.30899999
5.8239999 -2.4360001 0.308
5.8280001 -2.421 0.308
5.823 -2.401 0.308
5.4099998 -2.2149999 0.28600001
5.3660002 -2.181 0.28400001
5.3829999 -2.1719999 0.285
5.4619999 -2.188 0.289
5.7529998 -2.2880001 0.30399999
5.8189998 -2.2969999 0.308
5.816 -2.279 0.30700001
5.8169999 -2.263 0.30700001
5.8309999 -2.2509999 0.308
5.8200002 -2.23 0.308
5.8200002 -2.2130001 0.308
5.8179998 -2.1949999 0.30700001
5.8179998 -2.178 0.30700001
5.8169999 -2.161 0.30700001
5.816 -2.1429999 0.30700001
5.8140001 -2.125 0.30700001
5.7849998 -2.098 0.30500001
5.7379999 -2.0639999 0.303
5.7150002 -2.039 0.30199999
5.7150002 -2.0220001 0.30199999
5.7199998 -2.007 0.30199999
5.717 -1.989 0.30199999
5.7179999 -1.973 0.30199999
5.7069998 -1.9529999 0.301
5.6939998 -1.932 0.30000001
5.665 -1.905 0.29899999
5.6420002 -1.881 0.29699999
5.6529999 -1.868 0.29800001
5.6440001 -1.849 0.29699999
5.6360002 -1.83 0.29699999
5.6350002 -1.813 0.29699999
5.6170001 -1.791 0.296
5.631 -1.779 0.29699999
5.6279998 -1.762 0.296
5.6259999 -1.744 0.296
5.631 -1.73 0.296
5.638 -1.715 0.29699999
5.6399999 -1.7 0.29699999
5.6350002 -1.682 0.29699999
5.6339998 -1.665 0.296
5.6389999 -1.65 0.29699999
5.6290002 -1.631 0.296
5.6409998 -1.618 0.29699999
5.6279998 -1.598 0.296
5.6279998 -1.581 0.296
5.6399999 -1.568 0.296
5.638 -1.552 0.296
5.6279998 -1.5319999 0.296
5.632 -1.517 0.296
5.651 -1.506 0.29699999
5.6550002 -1.49 0.29699999
5.6420002 -1.471 0.296
5.6479998 -1.456 0.29699999
5.6230001 -1.433 0.29499999
5.6339998 -1.42 0.296
5.6259999 -1.401 0.29499999
5.632 -1.386 0.296
5.6329999 -1.37 0.296
5.6339998 -1.354 0.296
5.6259999 -1.336 0.29499999
5.6160002 -1.318 0.29499999
5.6209998 -1.302 0.29499999
5.6240001 -1.2869999 0.29499999
5.6100001 -1.267 0.294
5.6170001 -1.253 0.294
5.6129999 -1.2359999 0.294
5.618 -1.22 0.294
5.6059999 -1.202 0.294
5.6100001 -1.186 0.294
5.6129999 -1.171 0.294
5.6149998 -1.155 0.294
5.6040001 -1.136 0.29300001
5.6160002 -1.123 0.294
5.6040001 -1.104 0.29300001
5.599 -1.087 0.29300001
5.5949998 -1.0700001 0.29300001
5.5910001 -1.053 0.292
5.5949998 -1.038 0.29300001
5.5949998 -1.022 0.29300001
5.5929999 -1.005 0.292
5.5890002 -0.98799998 0.292
5.5900002 -0.972 0.292
5.5949998 -0.95700002 0.292
5.5809999 -0.93900001 0.29100001
5.5999999 -0.926 0.292
5.6020002 -0.91000003 0.29300001
5.5749998 -0.88999999 0.29100001
5.5869999 -0.875 0.292
5.5799999 -0.85799998 0.29100001
5.5689998 -0.83999997 0.29100001
5.579 -0.82599998 0.29100001
5.579 -0.81 0.29100001
5.5840001 -0.79500002 0.29100001
5.5809999 -0.778 0.29100001
5.5879998 -0.76300001 0.29100001
5.5840001 -0.74699998 0.29100001
5.5770001 -0.73000002 0.29100001
4.2459998 -0.54299998 0.221
4.0549998 -0.50700003 0.211
4.0229998 -0.491 0.20900001
4.0190001 -0.479 0.20900001
4.0029998 -0.46599999 0.208
4.0040002 -0.45500001 0.208
3.997 -0.442 0.208
4.0009999 -0.43099999 0.208
4.0100002 -0.421 0.208
3.9960001 -0.40799999 0.208
3.997 -0.39700001 0.208
4.0029998 -0.38600001 0.208
4.007 -0.37400001 0.208
4.0009999 -0.36199999 0.208
4.0019999 -0.35100001 0.208
4.0100002 -0.34 0.208
4.0100002 -0.329 0.208
3.997 -0.31600001 0.207
4.0050001 -0.30500001 0.208
4.0120001 -0.29499999 0.208
4.007 -0.28299999 0.208
4.0209999 -0.27200001 0.208
3.9949999 -0.259 0.207
4.0089998 -0.248 0.208
4.0019999 -0.236 0.207
4.0110002 -0.22499999 0.208
3.994 -0.213 0.207
4.0120001 -0.20299999 0.208
4.013 -0.191 0.208
4.013 -0.18000001 0.208
4.0289998 -0.169 0.208
4.02 -0.15700001 0.208
4.0209999 -0.145 0.208
4.0300002 -0.134 0.208
4.0430002 -0.123 0.20900001
4.0440001 -0.112 0.20900001
4.0650001 -0.101 0.20999999
4.0669999 -0.089000002 0.20999999
4.073 -0.077 0.20999999
4.0879998 -0.066 0.211
4.0890002 -0.054000001 0.211
4.099 -0.043000001 0.212
4.1020002 -0.030999999 0.212
4.1100001 -0.018999999 0.212
4.1170001 -0.0080000004 0.212
4.132 0.003 0.213
4.131 0.015 0.213
4.1459999 0.027000001 0.214
4.1589999 0.039000001 0.214
4.1669998 0.050999999 0.215
4.1599998 0.063000001 0.214
4.1869998 0.075000003 0.21600001
4.158 0.086999997 0.214
4.1810002 0.098999999 0.215
4.1950002 0.111 0.21600001
4.2010002 0.124 0.21600001
4.2140002 0.13600001 0.21699999
4.243 0.149 0.21799999
4.2490001 0.161 0.219
4.2859998 0.175 0.22
4.3010001 0.18799999 0.221
4.3340001 0.20200001 0.223
3.9679999 0.037 0.177
3.9649999 0.041000001 0.177
3.9679999 0.045000002 0.177
3.961 0.048 0.177
3.967 0.052000001 0.177
3.961 0.056000002 0.177
3.9530001 0.059999999 0.176
3.941 0.064000003 0.176
3.9549999 0.068999998 0.176
3.937 0.072999999 0.175
3.941 0.077 0.175
3.9400001 0.082000002 0.175
3.947 0.086000003 0.175
3.947 0.090999998 0.175
3.9519999 0.096000001 0.176
3.954 0.101 0.176
3.954 0.106 0.175
3.967 0.112 0.176
4 0.118 0.177
4.0229998 0.124 0.178
4.0409999 0.13 0.17900001
4.073 0.13699999 0.18000001
4.0879998 0.14300001 0.18099999
4.1160002 0.15000001 0.182
4.1149998 0.156 0.182
4.0939999 0.162 0.18099999
4.0689998 0.167 0.18000001
4.0539999 0.17200001 0.17900001
4.0190001 0.177 0.178
3.997 0.183 0.177
3.9719999 0.18799999 0.176
3.9330001 0.192 0.17399999
3.9159999 0.198 0.17299999
3.8959999 0.20299999 0.17200001
3.881 0.20900001 0.171
3.881 0.21600001 0.171
3.8829999 0.223 0.171
3.8740001 0.229 0.171
3.8800001 0.236 0.171
3.865 0.242 0.171
3.865 0.25 0.17
3.8699999 0.257 0.171
3.872 0.264 0.171
3.8629999 0.271 0.17
3.8540001 0.278 0.17
3.8640001 0.28600001 0.17
3.855 0.29300001 0.17
3.855 0.30000001 0.17
3.862 0.30899999 0.17
3.8529999 0.31600001 0.17
3.8469999 0.32300001 0.17
3.849 0.331 0.17
3.852 0.33899999 0.17
3.8570001 0.34799999 0.17
3.8499999 0.35600001 0.17
3.8440001 0.36300001 0.169
3.848 0.37200001 0.17
3.8469999 0.38 0.17
3.8340001 0.38699999 0.169
3.839 0.396 0.169
3.8380001 0.405 0.169
3.8410001 0.414 0.169
3.8380001 0.42199999 0.169
3.836 0.43099999 0.169
3.836 0.43900001 0.169
3.8340001 0.44800001 0.169
3.8310001 0.45699999 0.169
3.832 0.46599999 0.169
3.8299999 0.47499999 0.169
3.8210001 0.48300001 0.169
3.8280001 0.493 0.169
3.822 0.50199997 0.169
3.826 0.51200002 0.169
3.839 0.523 0.17
3.878 0.53799999 0.17200001
3.9560001 0.55900002 0.175
3.9949999 0.574 0.177
4.0089998 0.58700001 0.178
4.0999999 0.61000001 0.182
4.1659999 0.63099998 0.185
4.2909999 0.66100001 0.19
4.289 0.67199999 0.19
5.3699999 0.85600001 0.23800001
5.3660002 0.86900002 0.23800001
5.375 0.88499999 0.23899999
5.362 0.89700001 0.23800001
5.3590002 0.912 0.23800001
5.3629999 0.92699999 0.23899999
5.3559999 0.94 0.23800001
5.3579998 0.95499998 0.23800001
5.3569999 0.97000003 0.23899999
5.3470001 0.98299998 0.23800001
5.3579998 1 0.23899999
5.355 1.015 0.23899999
5.3460002 1.028 0.23899999
5.3460002 1.059 0.23899999
5.3429999 1.074 0.23899999
5.3470001 1.09 0.23899999
5.3429999 1.105 0.23899999
5.3410001 1.12 0.23899999
5.3379998 1.135 0.23899999
5.342 1.152 0.23899999
5.3449998 1.169 0.23999999
5.3280001 1.181 0.23899999
5.3319998 1.198 0.23899999
5.3270001 1.2130001 0.23899999
5.3309999 1.2309999 0.23999999
5.3330002 1.247 0.23999999
5.316 1.26 0.23899999
5.3270001 1.279 0.23999999
5.322 1.294 0.23999999
5.3179998 1.3099999 0.23999999
5.323 1.3279999 0.23999999
5.3140001 1.3430001 0.23999999
5.3189998 1.3609999 0.23999999
5.3169999 1.377 0.23999999
5.3249998 1.397 0.241
5.3210001 1.413 0.241
5.302 1.425 0.23999999
5.3119998 1.4450001 0.241
5.3070002 1.461 0.241
5.303 1.477 0.241
5.3039999 1.495 0.241
5.3000002 1.512 0.241
5.303 1.53 0.241
5.2979999 1.5470001 0.241
5.2989998 1.5650001 0.242
5.2940001 1.581 0.242
5.296 1.6 0.242
5.2909999 1.6160001 0.242
5.2849998 1.633 0.242
5.2800002 1.65 0.242
5.2880001 1.671 0.242
5.2779999 1.686 0.242
5.2779999 1.704 0.242
5.2849998 1.725 0.243
5.2789998 1.742 0.243
5.2789998 1.76 0.243
5.2729998 1.777 0.243
5.2750001 1.7970001 0.243
5.2680001 1.813 0.243
5.2639999 1.831 0.243
5.27 1.852 0.244
5.2610002 1.868 0.244
5.2659998 1.8890001 0.244
5.2600002 1.906 0.244
5.2589998 1.925 0.244
5.2529998 1.942 0.244
5.2579999 1.964 0.245
5.2589998 1.984 0.245
5.2610002 2.0039999 0.245
5.2579999 2.023 0.245
5.2449999 2.0369999 0.245
5.2519999 2.0599999 0.24600001
5.2579999 2.082 0.24600001
5.237 2.0940001 0.24600001
5.243 2.1159999 0.24600001
5.237 2.1340001 0.24600001
5.243 2.1570001 0.24699999
5.2340002 2.1730001 0.24600001
5.237 2.1949999 0.24699999
5.2329998 2.214 0.24699999
5.2379999 2.237 0.248
5.2389998 2.2579999 0.248
5.2350001 2.277 0.248
5.2280002 2.2939999 0.248
5.2270002 2.3150001 0.248
5.2249999 2.335 0.248
5.223 2.355 0.249
5.2210002 2.375 0.249
5.2129998 2.3929999 0.249
5.2049999 2.4100001 0.249
5.21 2.434 0.249
5.1890001 2.4449999 0.249
5.1370001 2.4419999 0.24600001
5.0869999 2.4389999 0.244
5.0289998 2.4319999 0.242
4.9790001 2.4289999 0.23999999
4.9250002 2.4230001 0.237
4.882 2.4219999 0.236
4.8340001 2.4189999 0.234
4.7810001 2.4119999 0.23100001
4.73 2.4070001 0.229
4.677 2.3989999 0.227
4.6360002 2.398 0.22499999
4.6149998 2.4070001 0.22499999
4.631 2.4349999 0.226
4.6589999 2.47 0.227
4.7410002 2.5339999 0.23199999
4.7789998 2.576 0.234
4.79 2.602 0.235
4.7940001 2.625 0.235
4.783 2.6400001 0.235
4.7969999 2.6689999 0.236
4.783 2.6830001 0.236
4.777 2.7 0.236
4.789 2.7279999 0.237
4.7859998 2.7479999 0.237
4.7740002 2.763 0.237
4.7680001 2.78 0.237
3.743 2.2 0.186
3.6719999 2.174 0.183
3.6760001 2.1930001 0.183
3.6289999 2.1819999 0.18099999
3.5810001 2.1689999 0.17900001
3.55 2.1670001 0.178
3.5079999 2.158 0.176
3.483 2.158 0.175
3.47 2.1659999 0.175
3.4349999 2.1600001 0.17299999
3.427 2.1719999 0.17299999
3.408 2.1760001 0.17200001
3.3729999 2.1689999 0.171
3.359 2.175 0.17
3.346 2.1830001 0.17
3.3329999 2.191 0.17
3.3210001 2.198 0.169
3.3069999 2.2049999 0.169
3.2950001 2.2119999 0.169
3.2869999 2.223 0.168
3.273 2.2290001 0.168
3.2620001 2.2379999 0.168
5.5580001 -3.651 0.31299999
5.5710001 -3.625 0.31400001
5.5949998 -3.6059999 0.315
5.6100001 -3.5810001 0.315
5.6129999 -3.549 0.315
5.6420002 -3.533 0.31600001
5.6570001 -3.5090001 0.317
5.6719999 -3.4849999 0.31799999
5.6810002 -3.457 0.31799999
5.6929998 -3.4319999 0.31799999
5.698 -3.401 0.31799999
5.704 -3.3729999 0.31900001
5.7199998 -3.3499999 0.31900001
5.7270002 -3.322 0.31900001
5.7329998 -3.293 0.31900001
5.7540002 -3.2739999 0.31999999
5.744 -3.2360001 0.31999999
5.744 -3.2049999 0.31900001
5.75 -3.178 0.31999999
5.75 -3.1470001 0.31900001
5.783 -3.1340001 0.32100001
5.7849998 -3.105 0.32100001
5.7880001 -3.0769999 0.32100001
5.7880001 -3.0469999 0.32100001
5.7849998 -3.016 0.31999999
5.7989998 -2.994 0.32100001
5.7979999 -2.964 0.32100001
5.8099999 -2.941 0.32100001
5.8080001 -2.9119999 0.32100001
5.8140001 -2.8859999 0.32100001
5.8140001 -2.858 0.32100001
5.8169999 -2.8310001 0.32100001
5.809 -2.799 0.31999999
5.8189998 -2.776 0.31999999
5.8189998 -2.7490001 0.31999999
5.8270001 -2.7249999 0.32100001
5.8340001 -2.701 0.32100001
5.823 -2.6689999 0.31999999
5.8200002 -2.641 0.31999999
5.8150001 -2.6129999 0.31900001
5.8280001 -2.592 0.31999999
5.8270001 -2.5650001 0.31999999
5.8330002 -2.5420001 0.31999999
5.829 -2.5150001 0.31900001
5.8299999 -2.49 0.31900001
5.8340001 -2.4660001 0.31900001
5.835 -2.441 0.31900001
5.8130002 -2.4070001 0.31799999
5.8270001 -2.388 0.31799999
5.822 -2.362 0.31799999
5.48 -2.2 0.29899999
5.4229999 -2.155 0.296
5.6750002 -2.2309999 0.31
5.8080001 -2.26 0.317
5.816 -2.2390001 0.317
5.8319998 -2.2219999 0.31799999
5.8179998 -2.1930001 0.317
5.822 -2.171 0.317
5.8270001 -2.1500001 0.317
5.8210001 -2.125 0.317
5.816 -2.0999999 0.31600001
5.79 -2.0680001 0.315
5.7280002 -2.0239999 0.31099999
5.7210002 -2 0.31099999
5.7199998 -1.978 0.31099999
5.7210002 -1.957 0.31099999
5.7150002 -1.933 0.31
5.6680002 -1.896 0.30700001
5.6539998 -1.87 0.30700001
5.638 -1.845 0.30599999
5.6440001 -1.826 0.30599999
5.6300001 -1.801 0.30500001
5.6160002 -1.776 0.30399999
5.6279998 -1.76 0.30500001
5.6350002 -1.742 0.30500001
5.632 -1.721 0.30500001
5.6300001 -1.701 0.30500001
5.6300001 -1.681 0.30399999
5.6269999 -1.661 0.30399999
5.6399999 -1.645 0.30500001
5.6389999 -1.626 0.30500001
5.6350002 -1.605 0.30399999
5.6350002 -1.586 0.30399999
5.6170001 -1.563 0.303
5.638 -1.55 0.30399999
5.6230001 -1.527 0.303
5.6339998 -1.511 0.30399999
5.632 -1.492 0.30399999
5.6259999 -1.473 0.303
5.6259999 -1.455 0.303
5.625 -1.436 0.303
5.619 -1.4170001 0.303
5.6259999 -1.401 0.303
5.6170001 -1.381 0.30199999
5.6269999 -1.3660001 0.303
5.6160002 -1.346 0.30199999
5.618 -1.329 0.30199999
5.612 -1.3099999 0.30199999
5.6079998 -1.2920001 0.30199999
5.6040001 -1.274 0.301
5.6079998 -1.258 0.301
5.612 -1.243 0.30199999
5.6009998 -1.224 0.301
5.6100001 -1.209 0.301
5.6069999 -1.192 0.301
5.605 -1.175 0.301
5.599 -1.158 0.301
5.5960002 -1.141 0.30000001
5.5939999 -1.125 0.30000001
5.6030002 -1.1109999 0.301
5.5910001 -1.092 0.30000001
5.586 -1.076 0.30000001
5.5890002 -1.061 0.30000001
5.585 -1.045 0.30000001
5.5960002 -1.031 0.30000001
5.599 -1.017 0.30000001
5.5939999 -1 0.30000001
5.5890002 -0.98500001 0.30000001
5.592 -0.97000003 0.30000001
5.5869999 -0.954 0.29899999
5.5970001 -0.94099998 0.30000001
5.5970001 -0.92699999 0.30000001
5.5879998 -0.91000003 0.29899999
5.5869999 -0.89600003 0.29899999
5.5910001 -0.88200003 0.29899999
5.5879998 -0.86699998 0.29899999
5.5879998 -0.85299999 0.29899999
5.592 -0.83899999 0.29899999
5.585 -0.824 0.29899999
5.5809999 -0.81 0.29899999
5.5900002 -0.79699999 0.29899999
5.5830002 -0.78299999 0.29899999
5.5879998 -0.76999998 0.29899999
5.5799999 -0.755 0.29899999
5.5900002 -0.74299997 0.29899999
5.5780001 -0.72799999 0.29800001
5.5739999 -0.71399999 0.29800001
5.5900002 -0.70300001 0.29899999
4.27 -0.52700001 0.228
4.1020002 -0.49599999 0.219
4.0450001 -0.47999999 0.21600001
4.0209999 -0.46799999 0.215
4.013 -0.458 0.214
4.0139999 -0.449 0.214
3.993 -0.43700001 0.213
4.0089998 -0.43000001 0.214
4.0100002 -0.421 0.214
4.0029998 -0.41100001 0.214
4.0110002 -0.403 0.214
4.0120001 -0.39500001 0.214
3.9979999 -0.38499999 0.214
4.0110002 -0.377 0.214
4.007 -0.368 0.214
4.007 -0.36000001 0.214
4.0009999 -0.35100001 0.214
4.0079999 -0.34299999 0.214
4.0009999 -0.33399999 0.214
4.0040002 -0.32600001 0.214
4.0190001 -0.31900001 0.215
4.0050001 -0.30899999 0.214
4.0050001 -0.301 0.214
4.0190001 -0.294 0.215
4.0139999 -0.28600001 0.214
4.0139999 -0.278 0.214
4.0079999 -0.27000001 0.214
4.0079999 -0.26199999 0.214
4.0149999 -0.25400001 0.214
4.0009999 -0.24600001 0.214
4.0170002 -0.23899999 0.215
4.0019999 -0.23 0.214
4.0110002 -0.223 0.214
4.006 -0.21600001 0.214
4.0050001 -0.208 0.214
4.027 -0.20200001 0.215
4.0040002 -0.193 0.214
4.0120001 -0.186 0.214
4.02 -0.17900001 0.215
4.013 -0.17200001 0.214
4.02 -0.16500001 0.215
4.0209999 -0.15800001 0.215
4.0149999 -0.15099999 0.215
4.026 -0.14399999 0.215
4.0209999 -0.13699999 0.215
4.0279999 -0.13 0.215
4.0300002 -0.123 0.215
4.0300002 -0.116 0.215
4.0359998 -0.11 0.21600001
4.0450001 -0.103 0.21600001
4.052 -0.097000003 0.21699999
4.059 -0.090000004 0.21699999
4.0669999 -0.083999999 0.21799999
4.0710001 -0.077 0.21799999
4.0739999 -0.071000002 0.21799999
4.0879998 -0.064999998 0.219
4.1009998 -0.057999998 0.219
4.1009998 -0.052000001 0.22
4.092 -0.046 0.219
4.1100001 -0.039000001 0.22
4.1030002 -0.033 0.22
4.131 -0.027000001 0.221
4.1389999 -0.021 0.222
4.1440001 -0.015 0.222
4.131 -0.0089999996 0.221
4.1789999 -0.003 0.22400001
4.1880002 0.0020000001 0.22400001
4.1750002 0.0080000004 0.22400001
4.1989999 0.014 0.22499999
4.1939998 0.02 0.22499999
4.1999998 0.026000001 0.22499999
4.23 0.032000002 0.227
4.2389998 0.037999999 0.227
4.2379999 0.044 0.227
4.2589998 0.050000001 0.228
4.2709999 0.056000002 0.229
4.3109999 0.061999999 0.23100001
4.381 0.068999998 0.235
4.1160002 0.057999998 0.19499999
4.158 0.066 0.197
4.158 0.074000001 0.197
4.171 0.082000002 0.197
4.2119999 0.090000004 0.199
4.2329998 0.098999999 0.2
4.2649999 0.107 0.20200001
4.3470001 0.118 0.205
5.8080001 0.169 0.27500001
5.8039999 0.18000001 0.27399999
5.7800002 0.19 0.273
5.7940001 0.20200001 0.27399999
5.7859998 0.214 0.273
4.2909999 0.167 0.20200001
4.3140001 0.177 0.204
4.2909999 0.185 0.20200001
4.29 0.19400001 0.20200001
4.2420001 0.2 0.2
4.1869998 0.207 0.197
4.1329999 0.213 0.19499999
4.099 0.22 0.193
4.0780001 0.228 0.192
4.0689998 0.236 0.192
4.0710001 0.245 0.192
4.053 0.25299999 0.191
4.046 0.26199999 0.191
4.0479999 0.271 0.191
4.0409999 0.28 0.19
4.039 0.289 0.19
4.0190001 0.29699999 0.189
4.0180001 0.30700001 0.189
4.0100002 0.315 0.189
4.0019999 0.324 0.18799999
4.0079999 0.33500001 0.189
3.9790001 0.34200001 0.18700001
3.967 0.34999999 0.18700001
3.931 0.35699999 0.185
3.8970001 0.36300001 0.183
3.8629999 0.37 0.182
3.8410001 0.377 0.18099999
3.8399999 0.38699999 0.18099999
3.839 0.396 0.18099999
3.8380001 0.40599999 0.18099999
3.8369999 0.41600001 0.18099999
3.8280001 0.42500001 0.18000001
3.835 0.435 0.18099999
3.8329999 0.44499999 0.18099999
3.832 0.45500001 0.18099999
3.8310001 0.465 0.18099999
3.8269999 0.47499999 0.18000001
3.836 0.486 0.18099999
3.8210001 0.495 0.18000001
3.8180001 0.505 0.18000001
3.819 0.51499999 0.18000001
3.8329999 0.52700001 0.18099999
3.848 0.54000002 0.182
3.915 0.56 0.185
4.0009999 0.58399999 0.189
3.9990001 0.59500003 0.189
4.125 0.625 0.19499999
4.217 0.65100002 0.199
4.2969999 0.67500001 0.20299999
5.3670001 0.85900003 0.25400001
5.3649998 0.87400001 0.25400001
5.3649998 0.889 0.25400001
5.3600001 0.90399998 0.25400001
5.362 0.92000002 0.25400001
5.355 0.93400002 0.25400001
5.3600001 0.95099998 0.25400001
5.3579998 0.96600002 0.25400001
5.3460002 0.98000002 0.25299999
5.3600001 0.99800003 0.25400001
5.3429999 1.011 0.25299999
5.3530002 1.029 0.25400001
5.3470001 1.043 0.25400001
5.3470001 1.0599999 0.25400001
5.3400002 1.074 0.25400001
5.3449998 1.092 0.25400001
5.3429999 1.107 0.25400001
5.3449998 1.124 0.25400001
5.342 1.14 0.25400001
5.3379998 1.156 0.25400001
5.3369999 1.1720001 0.25400001
5.3400002 1.189 0.255
5.342 1.206 0.255
5.3270001 1.22 0.25400001
5.3299999 1.237 0.25400001
5.3319998 1.2539999 0.255
5.3270001 1.27 0.255
5.3260002 1.2869999 0.255
5.3200002 1.302 0.25400001
5.3189998 1.319 0.255
5.3179998 1.336 0.255
5.3140001 1.352 0.255
5.3130002 1.369 0.255
5.3140001 1.386 0.255
5.3239999 1.406 0.255
5.3049998 1.418 0.255
5.3070002 1.436 0.255
5.309 1.454 0.255
5.3039999 1.47 0.255
5.302 1.487 0.255
5.2950001 1.503 0.255
5.3039999 1.523 0.25600001
5.3000002 1.539 0.25600001
5.3070002 1.559 0.25600001
5.2989998 1.574 0.25600001
5.2979999 1.591 0.25600001
5.2919998 1.607 0.25600001
5.296 1.627 0.25600001
5.2880001 1.642 0.25600001
5.2880001 1.66 0.25600001
5.2859998 1.677 0.25600001
5.2810001 1.693 0.25600001
5.2779999 1.711 0.25600001
5.2820001 1.73 0.257
5.2729998 1.745 0.25600001
5.277 1.765 0.257
5.2740002 1.7819999 0.257
5.2690001 1.798 0.257
5.2680001 1.816 0.257
5.2649999 1.8329999 0.257
5.263 1.851 0.257
5.2649999 1.87 0.257
5.2550001 1.885 0.257
5.2589998 1.904 0.257
5.2620001 1.924 0.25799999
5.2600002 1.941 0.25799999
5.2589998 1.96 0.25799999
5.2529998 1.976 0.25799999
5.2470002 1.992 0.25799999
5.2550001 2.0139999 0.259
5.2480001 2.03 0.25799999
5.2480001 2.0480001 0.259
5.2550001 2.0699999 0.259
5.243 2.0829999 0.259
5.2399998 2.1010001 0.259
5.2350001 2.118 0.259
5.2410002 2.1389999 0.259
5.2389998 2.1570001 0.25999999
5.2329998 2.1730001 0.25999999
5.2259998 2.1889999 0.259
5.2220001 2.2060001 0.259
5.2270002 2.227 0.25999999
5.217 2.2420001 0.25999999
5.2129998 2.2590001 0.25999999
5.2189999 2.28 0.25999999
5.224 2.3010001 0.26100001
5.217 2.3169999 0.26100001
5.2129998 2.3340001 0.26100001
5.2080002 2.3510001 0.26100001
5.2090001 2.3699999 0.26100001
5.2010002 2.385 0.26100001
5.1999998 2.4030001 0.26100001
5.2020001 2.4230001 0.26100001
5.204 2.4430001 0.26199999
5.1859999 2.454 0.26100001
5.1459999 2.454 0.259
5.1020002 2.451 0.257
5.0650001 2.4519999 0.25600001
5.0089998 2.4430001 0.25299999
4.9590001 2.437 0.25099999
4.9159999 2.434 0.249
4.8699999 2.428 0.24699999
4.835 2.4289999 0.24600001
4.7779999 2.418 0.243
4.7459998 2.4189999 0.242
4.691 2.408 0.23899999
4.6659999 2.4119999 0.23800001
4.6350002 2.4130001 0.237
4.6220002 2.4230001 0.236
4.6339998 2.4460001 0.237
4.6329999 2.4630001 0.237
4.6370001 2.4820001 0.23800001
4.6300001 2.4949999 0.23800001
4.6300001 2.5120001 0.23800001
4.6209998 2.5239999 0.23800001
4.6079998 2.5339999 0.237
4.6129999 2.553 0.23800001
4.6009998 2.563 0.23800001
4.5939999 2.576 0.237
4.5900002 2.5910001 0.23800001
4.586 2.605 0.23800001
4.5910001 2.6240001 0.23800001
4.5840001 2.6370001 0.23800001
4.5819998 2.652 0.23800001
4.5799999 2.668 0.23800001
4.5669999 2.677 0.23800001
4.5830002 2.7030001 0.23899999
4.5770001 2.7160001 0.23899999
4.5739999 2.73 0.23899999
4.5679998 2.743 0.23899999
4.5669999 2.7590001 0.23899999
4.5710001 2.7780001 0.23999999
4.5689998 2.793 0.23999999
4.5619998 2.8039999 0.23999999
4.5689998 2.825 0.241
4.5640001 2.8380001 0.241
4.5630002 2.8540001 0.241
4.5609999 2.868 0.241
4.5599999 2.8840001 0.241
4.5580001 2.8989999 0.242
4.5640001 2.918 0.242
4.5609999 2.9330001 0.242
4.5539999 2.944 0.242
4.5580001 2.9619999 0.243
4.5560002 2.9760001 0.243
4.5609999 2.9960001 0.244
4.5809999 3.0239999 0.245
4.632 3.0739999 0.248
4.7779999 3.187 0.25600001
5.0799999 3.4059999 0.273
3.6619999 2.4679999 0.197
3.579 2.4230001 0.192
3.5899999 2.4549999 0.19400001
3.5869999 2.4649999 0.19400001
3.5239999 2.4330001 0.19
3.5120001 2.4360001 0.19
3.4790001 2.425 0.189
3.4909999 2.4449999 0.189
3.48 2.448 0.189
3.4579999 2.444 0.18799999
3.448 2.448 0.18799999
3.414 2.4349999 0.186
3.398 2.434 0.186
3.3959999 2.4430001 0.186
3.415 2.4679999 0.18700001
3.3940001 2.4630001 0.186
3.388 2.4690001 0.186
5.8569999 -3.477 0.33899999
5.8779998 -3.4719999 0.34
5.8790002 -3.4560001 0.34
5.8660002 -3.431 0.33899999
5.8709998 -3.4170001 0.33899999
5.875 -3.4030001 0.34
5.8590002 -3.3770001 0.33899999
5.8850002 -3.375 0.34
5.8839998 -3.3570001 0.34
5.881 -3.3380001 0.34
5.8759999 -3.3180001 0.34
5.8839998 -3.306 0.34
5.8720002 -3.2820001 0.33899999
5.8709998 -3.2650001 0.33899999
5.8790002 -3.2520001 0.34
5.8670001 -3.2279999 0.33899999
5.8699999 -3.2130001 0.33899999
5.8769999 -3.1989999 0.33899999
5.869 -3.178 0.33899999
5.8720002 -3.1630001 0.33899999
5.8709998 -3.145 0.33899999
5.8340001 -3.108 0.33700001
5.8299999 -3.089 0.33700001
5.842 -3.0780001 0.33700001
5.8499999 -3.0650001 0.338
5.8629999 -3.0550001 0.338
5.8639998 -3.0380001 0.338
5.8520002 -3.0150001 0.338
5.8530002 -2.9990001 0.338
5.8600001 -2.9849999 0.338
5.8470001 -2.961 0.33700001
5.848 -2.9449999 0.33700001
5.855 -2.931 0.338
5.848 -2.9100001 0.33700001
5.8499999 -2.8940001 0.33700001
5.849 -2.8759999 0.33700001
5.8449998 -2.8570001 0.33700001
5.8449998 -2.8399999 0.33700001
5.8600001 -2.8299999 0.338
5.8509998 -2.809 0.33700001
5.8369999 -2.7850001 0.336
5.8460002 -2.7720001 0.33700001
5.8270001 -2.7460001 0.336
5.8379998 -2.734 0.336
5.8390002 -2.7179999 0.336
5.836 -2.6989999 0.336
5.8390002 -2.684 0.336
5.8260002 -2.6600001 0.33500001
5.8309999 -2.645 0.336
5.8260002 -2.6259999 0.33500001
5.8179998 -2.605 0.33500001
5.8270001 -2.592 0.33500001
5.8260002 -2.575 0.33500001
5.8179998 -2.5539999 0.33500001
5.8319998 -2.543 0.33500001
5.8109999 -2.517 0.33399999
5.8179998 -2.503 0.33500001
5.8239999 -2.4890001 0.33500001
5.8080001 -2.4649999 0.33399999
5.816 -2.451 0.33399999
5.8309999 -2.4400001 0.33500001
5.823 -2.4200001 0.33500001
5.8200002 -2.402 0.33399999
5.8189998 -2.3840001 0.33399999
5.8070002 -2.362 0.33399999
5.7979999 -2.3410001 0.333
5.8119998 -2.3299999 0.33399999
5.8179998 -2.3150001 0.33399999
5.8150001 -2.2969999 0.33399999
5.8169999 -2.2809999 0.33399999
5.8169999 -2.2639999 0.33399999
5.8150001 -2.2460001 0.33399999
5.8130002 -2.2279999 0.333
5.8179998 -2.2130001 0.33399999
5.8239999 -2.198 0.33399999
5.809 -2.1760001 0.333
5.809 -2.1589999 0.333
5.8070002 -2.141 0.333
5.7919998 -2.118 0.33199999
5.7509999 -2.086 0.33000001
5.7210002 -2.059 0.32800001
5.7150002 -2.04 0.32699999
5.698 -2.017 0.32600001
5.704 -2.003 0.32699999
5.7179999 -1.9910001 0.32699999
5.7059999 -1.97 0.32699999
5.6939998 -1.949 0.32600001
5.664 -1.9220001 0.324
5.6420002 -1.898 0.32300001
5.6490002 -1.8839999 0.32300001
5.6389999 -1.865 0.32300001
5.6370001 -1.847 0.322
5.6409998 -1.832 0.32300001
5.6199999 -1.809 0.32100001
5.6240001 -1.794 0.322
5.6230001 -1.777 0.32100001
5.6339998 -1.7640001 0.322
5.6279998 -1.7460001 0.322
5.6290002 -1.73 0.322
5.6339998 -1.715 0.322
5.6329999 -1.698 0.322
5.6290002 -1.681 0.32100001
5.6389999 -1.6670001 0.322
5.631 -1.648 0.322
5.6360002 -1.633 0.322
5.631 -1.6160001 0.32100001
5.6389999 -1.601 0.322
5.632 -1.5829999 0.32100001
5.6329999 -1.567 0.32100001
5.6290002 -1.55 0.32100001
5.6360002 -1.535 0.32100001
5.6370001 -1.5190001 0.32100001
5.6329999 -1.501 0.32100001
5.6389999 -1.487 0.32100001
5.6290002 -1.4680001 0.32100001
5.6350002 -1.4529999 0.32100001
5.6300001 -1.4349999 0.32100001
5.6409998 -1.4220001 0.32100001
5.6300001 -1.403 0.32100001
5.6339998 -1.387 0.32100001
5.638 -1.372 0.32100001
5.6290002 -1.353 0.31999999
5.6240001 -1.336 0.31999999
5.6279998 -1.3200001 0.31999999
5.6110001 -1.3 0.31900001
5.6220002 -1.2869999 0.31999999
5.6199999 -1.27 0.31999999
5.6069999 -1.251 0.31900001
5.612 -1.2359999 0.31900001
5.6160002 -1.22 0.31900001
5.6170001 -1.204 0.31900001
5.5999999 -1.184 0.31799999
5.6020002 -1.168 0.31799999
5.6079998 -1.154 0.31900001
5.5970001 -1.135 0.31799999
5.6199999 -1.124 0.31900001
5.6100001 -1.105 0.31799999
5.5949998 -1.086 0.31799999
5.5949998 -1.0700001 0.317
5.5890002 -1.053 0.317
5.585 -1.036 0.317
5.5949998 -1.022 0.317
5.585 -1.0039999 0.317
5.5799999 -0.98699999 0.31600001
5.592 -0.97299999 0.317
5.585 -0.95499998 0.317
5.5819998 -0.93900001 0.31600001
5.5869999 -0.92299998 0.31600001
5.5929999 -0.90799999 0.317
5.5809999 -0.88999999 0.31600001
5.585 -0.875 0.31600001
5.5799999 -0.85799998 0.31600001
5.5749998 -0.84100002 0.31600001
5.585 -0.82700002 0.31600001
5.5799999 -0.81 0.31600001
5.5739999 -0.79299998 0.315
5.586 -0.77899998 0.31600001
5.5700002 -0.75999999 0.315
5.5749998 -0.745 0.315
5.5770001 -0.72899997 0.315
4.323 -0.55299997 0.244
4.092 -0.51099998 0.23100001
4.0310001 -0.49200001 0.228
4.0240002 -0.47999999 0.227
4.0040002 -0.46599999 0.226
4.0050001 -0.45500001 0.226
4.007 -0.44299999 0.226
4.006 -0.43200001 0.226
4.0009999 -0.41999999 0.226
3.9949999 -0.40799999 0.22499999
4.0089998 -0.39700001 0.226
3.9979999 -0.38499999 0.22499999
3.9990001 -0.373 0.22499999
4.007 -0.36300001 0.226
4.0009999 -0.35100001 0.22499999
4.0029998 -0.33899999 0.22499999
4.0029998 -0.32800001 0.22499999
3.9949999 -0.31600001 0.22499999
3.997 -0.30399999 0.22499999
4.006 -0.294 0.22499999
4.006 -0.28200001 0.22499999
3.9990001 -0.27000001 0.22499999
3.9960001 -0.259 0.22499999
4.0079999 -0.248 0.22499999
3.994 -0.236 0.22400001
4.0100002 -0.22499999 0.22499999
4.0100002 -0.214 0.22499999
4.0050001 -0.20200001 0.22499999
4.0120001 -0.191 0.22499999
4.0120001 -0.17900001 0.22499999
4.013 -0.168 0.22499999
4.013 -0.156 0.22499999
4.02 -0.145 0.22499999
4.0289998 -0.134 0.226
4.0349998 -0.122 0.226
4.0570002 -0.111 0.227
4.0580001 -0.1 0.227
4.0489998 -0.088 0.227
4.0640001 -0.077 0.228
4.0879998 -0.064999998 0.229
4.0949998 -0.054000001 0.229
4.0949998 -0.041999999 0.229
4.1030002 -0.029999999 0.23
4.1030002 -0.018999999 0.23
4.1160002 -0.0070000002 0.23
4.131 0.0040000002 0.23100001
4.1459999 0.016000001 0.23199999
4.1430001 0.028000001 0.23199999
4.152 0.039999999 0.23199999
4.1669998 0.052000001 0.233
4.1589999 0.063000001 0.23199999
4.1869998 0.075999998 0.234
4.1739998 0.088 0.233
4.1869998 0.1 0.234
4.2150002 0.113 0.235
4.1999998 0.124 0.234
4.2280002 0.13699999 0.236
4.2329998 0.149 0.236
4.263 0.163 0.23800001
4.2979999 0.176 0.23999999
4.3189998 0.19 0.241
4.3540001 0.204 0.243
3.967 0.037999999 0.19599999
3.967 0.041999999 0.19599999
3.964 0.045000002 0.19599999
3.954 0.048999999 0.19499999
3.954 0.052999999 0.19499999
3.967 0.057 0.19599999
3.96 0.061000001 0.19499999
3.9460001 0.064999998 0.19400001
3.954 0.068999998 0.19499999
3.9400001 0.072999999 0.19400001
3.9400001 0.078000002 0.19400001
3.9400001 0.082000002 0.19400001
3.9360001 0.086999997 0.19400001
3.9330001 0.092 0.193
3.9330001 0.096000001 0.193
3.9389999 0.102 0.193
3.9330001 0.106 0.193
3.9230001 0.111 0.193
3.9260001 0.116 0.193
3.9260001 0.122 0.193
3.9260001 0.127 0.192
3.937 0.133 0.193
3.9230001 0.138 0.192
3.925 0.14399999 0.192
3.931 0.15000001 0.193
3.931 0.156 0.192
3.9300001 0.162 0.192
3.925 0.167 0.192
3.9100001 0.17299999 0.191
3.9030001 0.17900001 0.191
3.8959999 0.185 0.191
3.8940001 0.191 0.19
3.8870001 0.197 0.19
3.8870001 0.204 0.19
3.8870001 0.20999999 0.19
3.8800001 0.21600001 0.19
3.8800001 0.223 0.19
3.8729999 0.23 0.189
3.8729999 0.236 0.189
3.8640001 0.243 0.189
3.8640001 0.25 0.189
3.8629999 0.257 0.189
3.865 0.264 0.189
3.862 0.271 0.189
3.8640001 0.27900001 0.189
3.855 0.28600001 0.18799999
3.8629999 0.294 0.189
3.8510001 0.301 0.18799999
3.8599999 0.30899999 0.18799999
3.8529999 0.31600001 0.18799999
3.852 0.324 0.18799999
3.852 0.33199999 0.18799999
3.8469999 0.33899999 0.18799999
3.8429999 0.347 0.18799999
3.842 0.35499999 0.18799999
3.849 0.36399999 0.18799999
3.8410001 0.37200001 0.18799999
3.8369999 0.38 0.18700001
3.8329999 0.38800001 0.18700001
3.8380001 0.39700001 0.18799999
3.845 0.40599999 0.18799999
3.8369999 0.414 0.18799999
3.836 0.42199999 0.18799999
3.835 0.43099999 0.18799999
3.826 0.43900001 0.18700001
3.8329999 0.44800001 0.18799999
3.826 0.45699999 0.18700001
3.832 0.46599999 0.18799999
3.8239999 0.47400001 0.18700001
3.835 0.48500001 0.18799999
3.8269999 0.493 0.18700001
3.826 0.50300002 0.18700001
3.823 0.51200002 0.18700001
3.8299999 0.52200001 0.18799999
3.862 0.53600001 0.189
3.9549999 0.55900002 0.19400001
4.0479999 0.58200002 0.199
4.0700002 0.59600002 0.2
4.119 0.61400002 0.20200001
4.1659999 0.63099998 0.205
4.1630001 0.64200002 0.205
4.1350002 0.648 0.20299999
4.1750002 0.66500002 0.205
4.237 0.69800001 0.20900001
4.2090001 0.70499998 0.207
5.3579998 0.912 0.264
5.3559999 0.926 0.264
5.3610001 0.94099998 0.26499999
5.3649998 0.95700002 0.26499999
5.3559999 0.97000003 0.26499999
5.3530002 0.98500001 0.26499999
5.3559999 1 0.26499999
5.3540001 1.015 0.26499999
5.3449998 1.028 0.26499999
5.349 1.044 0.26499999
5.3449998 1.059 0.26499999
5.3429999 1.074 0.26499999
5.3390002 1.089 0.26499999
5.3429999 1.105 0.26499999
5.3369999 1.12 0.26499999
5.3439999 1.137 0.266
5.3330002 1.151 0.26499999
5.336 1.1670001 0.26499999
5.3340001 1.183 0.266
5.3309999 1.198 0.266
5.3270001 1.214 0.266
5.3270001 1.23 0.266
5.3200002 1.245 0.266
5.322 1.261 0.266
5.3249998 1.279 0.266
5.322 1.294 0.266
5.323 1.311 0.266
5.3140001 1.326 0.266
5.316 1.3430001 0.266
5.3119998 1.359 0.266
5.3150001 1.377 0.26699999
5.3210001 1.396 0.26699999
5.3200002 1.4119999 0.26699999
5.3080001 1.427 0.26699999
5.3049998 1.443 0.26699999
5.3140001 1.4630001 0.26800001
5.316 1.4809999 0.26800001
5.303 1.495 0.26800001
5.2989998 1.511 0.26800001
5.2880001 1.526 0.26699999
5.303 1.548 0.26800001
5.296 1.564 0.26800001
5.2989998 1.5829999 0.26899999
5.2940001 1.6 0.26899999
5.289 1.6160001 0.26899999
5.2919998 1.635 0.26899999
5.2789998 1.649 0.26800001
5.2870002 1.67 0.26899999
5.2740002 1.684 0.26899999
5.277 1.704 0.26899999
5.277 1.722 0.26899999
5.2750001 1.74 0.27000001
5.2859998 1.762 0.27000001
5.2719998 1.777 0.27000001
5.2690001 1.794 0.27000001
5.2750001 1.8150001 0.271
5.277 1.835 0.271
5.2690001 1.851 0.271
5.27 1.8710001 0.271
5.27 1.89 0.271
5.256 1.905 0.271
5.2600002 1.925 0.27200001
5.257 1.944 0.27200001
5.257 1.9630001 0.27200001
5.2579999 1.983 0.27200001
5.257 2.003 0.273
5.257 2.0220001 0.273
5.2509999 2.039 0.273
5.257 2.062 0.273
5.25 2.079 0.273
5.244 2.0969999 0.273
5.2449999 2.1170001 0.27399999
5.2410002 2.1359999 0.27399999
5.2410002 2.1559999 0.27399999
5.2410002 2.1760001 0.27399999
5.2379999 2.1960001 0.27500001
5.2290001 2.2119999 0.27500001
5.23 2.233 0.27500001
5.23 2.2539999 0.27500001
5.2340002 2.276 0.27599999
5.2259998 2.2939999 0.27599999
5.2319999 2.3169999 0.27599999
5.224 2.3340001 0.27599999
5.2160001 2.352 0.27599999
5.2140002 2.372 0.27599999
5.2119999 2.392 0.27700001
5.2119999 2.4130001 0.27700001
5.2080002 2.4330001 0.27700001
5.1880002 2.4449999 0.27599999
5.131 2.4389999 0.27399999
5.079 2.4349999 0.271
5.013 2.425 0.26800001
4.9650002 2.4219999 0.266
4.9060001 2.4130001 0.26300001
4.869 2.4159999 0.26199999
4.8249998 2.414 0.25999999
4.777 2.4100001 0.257
4.724 2.4030001 0.255
4.6669998 2.3940001 0.252
4.6300001 2.395 0.25
4.6269999 2.4130001 0.25099999
4.6539998 2.447 0.252
4.7069998 2.4949999 0.25600001
4.783 2.556 0.25999999
4.7919998 2.582 0.26100001
4.8010001 2.608 0.26199999
4.803 2.6300001 0.26199999
4.7839999 2.641 0.26199999
4.7909999 2.6659999 0.26300001
4.8000002 2.6919999 0.26300001
4.7909999 2.7079999 0.26300001
4.7839999 2.7260001 0.26300001
4.7849998 2.7479999 0.264
4.7870002 2.77 0.264
4.79 2.793 0.26499999
3.714 2.1830001 0.206
3.698 2.1900001 0.205
3.6589999 2.1830001 0.20299999
3.6099999 2.171 0.20100001
3.573 2.165 0.199
3.5380001 2.1600001 0.197
3.5139999 2.161 0.19599999
3.494 2.165 0.19599999
3.467 2.164 0.19400001
3.4519999 2.171 0.19400001
3.4319999 2.175 0.193
3.3989999 2.1700001 0.192
3.378 2.1719999 0.191
3.3670001 2.181 0.19
3.3570001 2.191 0.19
3.3380001 2.194 0.189
3.3199999 2.198 0.189
3.3010001 2.201 0.18799999
3.2969999 2.214 0.18799999
3.2869999 2.223 0.18799999
3.2739999 2.23 0.18700001
3.257 2.234 0.18700001
5.5549998 -3.6489999 0.33899999
5.579 -3.6289999 0.34
5.5869999 -3.5999999 0.34
5.6139998 -3.5829999 0.34200001
5.6199999 -3.553 0.34200001
5.6459999 -3.5350001 0.34299999
5.6500001 -3.5039999 0.34299999
5.6700001 -3.483 0.34400001
5.6799998 -3.4560001 0.34400001
5.6880002 -3.427 0.34400001
5.7010002 -3.4030001 0.345
5.711 -3.3759999 0.345
5.711 -3.3440001 0.345
5.7259998 -3.3199999 0.34599999
5.7340002 -3.293 0.34599999
5.7459998 -3.2679999 0.34599999
5.7540002 -3.2409999 0.347
5.743 -3.204 0.34599999
5.756 -3.1800001 0.34599999
5.744 -3.1429999 0.345
5.7740002 -3.1289999 0.347
5.7940001 -3.1099999 0.34799999
5.7750001 -3.069 0.347
5.7940001 -3.049 0.347
5.8000002 -3.023 0.34799999
5.7909999 -2.9890001 0.347
5.7979999 -2.9630001 0.347
5.8080001 -2.9400001 0.347
5.8070002 -2.911 0.347
5.8070002 -2.882 0.347
5.8210001 -2.8610001 0.34799999
5.8099999 -2.8269999 0.347
5.816 -2.802 0.347
5.8189998 -2.776 0.347
5.823 -2.75 0.347
5.8280001 -2.7249999 0.347
5.8249998 -2.697 0.347
5.8140001 -2.665 0.34599999
5.8189998 -2.6400001 0.34599999
5.829 -2.618 0.34599999
5.8239999 -2.5899999 0.34599999
5.823 -2.563 0.34599999
5.822 -2.5369999 0.345
5.8280001 -2.5139999 0.34599999
5.8239999 -2.487 0.345
5.8189998 -2.4590001 0.345
5.8280001 -2.438 0.345
5.8249998 -2.4119999 0.345
5.8319998 -2.3900001 0.345
5.829 -2.3640001 0.345
5.829 -2.3399999 0.345
5.8260002 -2.3139999 0.34400001
5.8130002 -2.2850001 0.34299999
5.8150001 -2.2620001 0.34299999
5.822 -2.2409999 0.34400001
5.822 -2.217 0.34299999
5.8319998 -2.198 0.34400001
5.8239999 -2.1719999 0.34299999
5.8060002 -2.142 0.34200001
5.8210001 -2.125 0.34299999
5.8060002 -2.096 0.34200001
5.7550001 -2.056 0.33899999
5.7160001 -2.02 0.336
5.7210002 -2 0.336
5.7150002 -1.976 0.336
5.7199998 -1.956 0.336
5.6939998 -1.926 0.33399999
5.6560001 -1.892 0.33199999
5.645 -1.867 0.331
5.6370001 -1.844 0.331
5.631 -1.821 0.33000001
5.6230001 -1.798 0.33000001
5.6110001 -1.774 0.329
5.6269999 -1.7589999 0.33000001
5.632 -1.7410001 0.33000001
5.6290002 -1.72 0.33000001
5.6290002 -1.7 0.329
5.6339998 -1.682 0.33000001
5.6339998 -1.663 0.33000001
5.6389999 -1.645 0.33000001
5.6300001 -1.623 0.329
5.6350002 -1.605 0.329
5.6370001 -1.587 0.329
5.619 -1.563 0.32800001
5.6370001 -1.549 0.329
5.625 -1.527 0.32800001
5.6259999 -1.5089999 0.32800001
5.6220002 -1.49 0.32800001
5.6209998 -1.471 0.32800001
5.645 -1.459 0.329
5.6729999 -1.448 0.331
5.6459999 -1.424 0.329
5.6160002 -1.398 0.32699999
5.6220002 -1.382 0.32699999
5.6170001 -1.363 0.32699999
5.6059999 -1.3430001 0.32600001
5.6199999 -1.329 0.32699999
5.6100001 -1.3099999 0.32600001
5.599 -1.29 0.32600001
5.6030002 -1.274 0.32600001
5.599 -1.256 0.32600001
5.5960002 -1.239 0.32499999
5.605 -1.224 0.32600001
5.6030002 -1.2079999 0.32600001
5.5999999 -1.1900001 0.32499999
5.5999999 -1.174 0.32499999
5.599 -1.158 0.32499999
5.586 -1.1390001 0.324
5.598 -1.126 0.32499999
5.5949998 -1.109 0.32499999
5.592 -1.0930001 0.32499999
5.5929999 -1.077 0.32499999
5.5869999 -1.061 0.324
5.5840001 -1.045 0.324
5.5949998 -1.031 0.32499999
5.5960002 -1.016 0.32499999
5.5780001 -0.99800003 0.32300001
5.586 -0.98400003 0.324
5.592 -0.97000003 0.324
5.5929999 -0.95499998 0.324
5.5960002 -0.94099998 0.324
5.5900002 -0.92500001 0.324
5.5949998 -0.912 0.324
5.5970001 -0.89700001 0.324
5.599 -0.88300002 0.324
5.5770001 -0.866 0.32300001
5.5879998 -0.85299999 0.324
5.5819998 -0.838 0.32300001
5.572 -0.82300001 0.32300001
5.5739999 -0.80900002 0.32300001
5.5879998 -0.79699999 0.32300001
5.585 -0.78299999 0.32300001
5.5770001 -0.76800001 0.32300001
5.5879998 -0.75599998 0.32300001
5.5830002 -0.74199998 0.32300001
5.5819998 -0.72799999 0.32300001
5.579 -0.71499997 0.32300001
5.5770001 -0.70099998 0.32300001
4.3119998 -0.53200001 0.249
4.1290002 -0.5 0.23899999
4.0570002 -0.48100001 0.235
4.0250001 -0.46799999 0.233
4.0110002 -0.45699999 0.23199999
4.013 -0.449 0.23199999
3.9990001 -0.43799999 0.23100001
4.006 -0.43000001 0.23100001
4.0089998 -0.421 0.23199999
4.0079999 -0.412 0.23199999
4.0110002 -0.403 0.23199999
4.0110002 -0.39500001 0.23199999
4.0029998 -0.38499999 0.23100001
4.0110002 -0.377 0.23199999
4.006 -0.368 0.23100001
4.007 -0.36000001 0.23100001
4.007 -0.35100001 0.23100001
3.9990001 -0.34200001 0.23100001
4.0089998 -0.33500001 0.23199999
4.0009999 -0.32600001 0.23100001
4.0100002 -0.31799999 0.23199999
3.9979999 -0.30899999 0.23100001
4.0170002 -0.30199999 0.23199999
4.006 -0.29300001 0.23100001
4.006 -0.285 0.23100001
4.007 -0.278 0.23100001
4.0009999 -0.26899999 0.23100001
4.007 -0.26199999 0.23100001
4.0089998 -0.25400001 0.23199999
3.994 -0.245 0.23100001
4.0009999 -0.23800001 0.23100001
4.0089998 -0.23100001 0.23199999
4.0050001 -0.223 0.23100001
4.0040002 -0.21600001 0.23100001
3.993 -0.207 0.23100001
4.0050001 -0.20100001 0.23100001
4.0110002 -0.19400001 0.23199999
4.0120001 -0.186 0.23199999
4.0120001 -0.17900001 0.23199999
4.0149999 -0.17200001 0.23199999
4.0120001 -0.16500001 0.23199999
4.02 -0.15800001 0.23199999
4.02 -0.15099999 0.23199999
4.013 -0.14300001 0.23199999
4.013 -0.13699999 0.23199999
4.0139999 -0.13 0.23199999
4.0289998 -0.123 0.233
4.0209999 -0.116 0.23199999
4.0349998 -0.11 0.233
4.033 -0.103 0.233
4.0580001 -0.097000003 0.235
4.0430002 -0.090000004 0.234
4.0640001 -0.083999999 0.235
4.072 -0.077 0.236
4.0700002 -0.071000002 0.235
4.072 -0.064000003 0.236
4.0929999 -0.057999998 0.237
4.0999999 -0.052000001 0.237
4.0939999 -0.046 0.237
4.099 -0.039000001 0.237
4.1230001 -0.033 0.23899999
4.1290002 -0.027000001 0.23899999
4.1300001 -0.021 0.23899999
4.131 -0.015 0.23899999
4.1430001 -0.0089999996 0.23999999
4.1719999 -0.003 0.242
4.1810002 0.0020000001 0.242
4.178 0.0080000004 0.242
4.1950002 0.014 0.243
4.2020001 0.02 0.244
4.2010002 0.026000001 0.243
4.223 0.032000002 0.245
4.244 0.037999999 0.24600001
4.2290001 0.044 0.245
4.2649999 0.050000001 0.24699999
4.2729998 0.056000002 0.248
4.309 0.061999999 0.25
4.3410001 0.068000004 0.252
4.4289999 0.075000003 0.257
4.1030002 0.059 0.214
4.1160002 0.066 0.214
4.1370001 0.074000001 0.215
4.1399999 0.082000002 0.215
4.1490002 0.089000002 0.21600001
4.1430001 0.097000003 0.215
4.1570001 0.105 0.21600001
4.1560001 0.113 0.21600001
4.1799998 0.122 0.21699999
4.1560001 0.12899999 0.21600001
4.1690001 0.138 0.21699999
4.1700001 0.146 0.21699999
4.1469998 0.154 0.215
4.1409998 0.162 0.215
4.1459999 0.17 0.215
4.1269999 0.178 0.214
4.1129999 0.186 0.213
4.105 0.19400001 0.213
4.105 0.20299999 0.213
4.079 0.20999999 0.212
4.0770001 0.219 0.211
4.0689998 0.228 0.211
4.0549998 0.236 0.20999999
4.04 0.244 0.20900001
4.04 0.25299999 0.20900001
4.04 0.26199999 0.20900001
4.026 0.27000001 0.20900001
4.026 0.28 0.20900001
4.0079999 0.287 0.208
4.0100002 0.29699999 0.208
4.0089998 0.30599999 0.208
3.99 0.31400001 0.207
4.0019999 0.32499999 0.207
3.994 0.33399999 0.207
3.973 0.34200001 0.206
3.9519999 0.34900001 0.205
3.924 0.35600001 0.20299999
3.875 0.36199999 0.20100001
3.859 0.37 0.2
3.8410001 0.377 0.199
3.839 0.38699999 0.199
3.832 0.396 0.199
3.8369999 0.40599999 0.199
3.8369999 0.41600001 0.199
3.835 0.426 0.199
3.826 0.435 0.198
3.8269999 0.44499999 0.199
3.832 0.45500001 0.199
3.8310001 0.465 0.199
3.823 0.47499999 0.198
3.829 0.486 0.199
3.8199999 0.495 0.198
3.825 0.50599998 0.199
3.8269999 0.51599997 0.199
3.829 0.52700001 0.199
3.8540001 0.54100001 0.2
3.941 0.56400001 0.205
4.0739999 0.59500003 0.212
4.1199999 0.61299998 0.214
4.164 0.63099998 0.21699999
4.1750002 0.64399999 0.21699999
4.0879998 0.64300001 0.213
4.092 0.65499997 0.213
4.198 0.68400002 0.219
5.3559999 0.91900003 0.28
5.3610001 0.935 0.28
5.3569999 0.94999999 0.28
5.3559999 0.96600002 0.28
5.3530002 0.98100001 0.28
5.3559999 0.99699998 0.28
5.3530002 1.013 0.28
5.3509998 1.028 0.28
5.3410001 1.043 0.28
5.3470001 1.0599999 0.28
5.342 1.075 0.28
5.3379998 1.09 0.28
5.342 1.107 0.28
5.3379998 1.123 0.28
5.3429999 1.14 0.28
5.3379998 1.156 0.28
5.3340001 1.171 0.28
5.3309999 1.187 0.28
5.342 1.206 0.28099999
5.3340001 1.221 0.28099999
5.3280001 1.237 0.28
5.3239999 1.252 0.28
5.3260002 1.27 0.28099999
5.323 1.286 0.28099999
5.3150001 1.301 0.28
5.3210001 1.319 0.28099999
5.3189998 1.336 0.28099999
5.316 1.352 0.28099999
5.322 1.3710001 0.28099999
5.3099999 1.385 0.28099999
5.3200002 1.405 0.28200001
5.316 1.421 0.28200001
5.2979999 1.434 0.28099999
5.3080001 1.454 0.28200001
5.309 1.471 0.28200001
5.2979999 1.4859999 0.28099999
5.2940001 1.502 0.28099999
5.2979999 1.521 0.28200001
5.2979999 1.539 0.28200001
5.3000002 1.557 0.28200001
5.2940001 1.573 0.28200001
5.296 1.591 0.28200001
5.2909999 1.607 0.28200001
5.2919998 1.625 0.28299999
5.2919998 1.643 0.28299999
5.29 1.66 0.28299999
5.2849998 1.677 0.28299999
5.2789998 1.693 0.28299999
5.2859998 1.7130001 0.28299999
5.2670002 1.725 0.28299999
5.276 1.7460001 0.28299999
5.27 1.762 0.28299999
5.2620001 1.778 0.28299999
5.2670002 1.7970001 0.28299999
5.2670002 1.816 0.28400001
5.2740002 1.836 0.28400001
5.256 1.848 0.28299999
5.2620001 1.869 0.28400001
5.2579999 1.886 0.28400001
5.25 1.901 0.28400001
5.2589998 1.923 0.285
5.2519999 1.939 0.28400001
5.2470002 1.955 0.28400001
5.2519999 1.976 0.285
5.256 1.9960001 0.285
