# .PCD v0.7 - Point Cloud Data file format
VERSION 0.7
FIELDS x y z
SIZE 4 4 4
TYPE F F F
COUNT 1 1 1
WIDTH 1685
HEIGHT 1
VIEWPOINT 0 0 0 1 0 0 0
POINTS 1685
DATA ascii
3.892 0.491 -0.026000001
3.891 0.50199997 -0.026000001
3.8900001 0.51200002 -0.026000001
3.895 0.52399999 -0.026000001
3.8870001 0.53299999 -0.026000001
3.898 0.54500002 -0.026000001
3.8970001 0.55599999 -0.026000001
3.9360001 0.57300001 -0.027000001
4.1009998 0.60799998 -0.028000001
4.1760001 0.63099998 -0.028999999
4.2280002 0.65100002 -0.028999999
4.2670002 0.66900003 -0.028999999
5.3940001 0.861 -0.037
5.3940001 0.87699997 -0.037
5.3909998 0.89200002 -0.037999999
5.3870001 0.90700001 -0.037999999
5.3839998 0.92199999 -0.037999999
5.3889999 0.93900001 -0.037999999
5.3889999 0.95499998 -0.037999999
5.3759999 0.96799999 -0.037999999
5.381 0.98500001 -0.037999999
5.3850002 1.002 -0.037999999
5.381 1.017 -0.039000001
5.375 1.0319999 -0.039000001
5.375 1.048 -0.039000001
5.3730001 1.064 -0.039000001
5.369 1.08 -0.039000001
5.3800001 1.098 -0.039000001
5.3769999 1.114 -0.039000001
5.3600001 1.127 -0.039000001
5.3699999 1.146 -0.039000001
5.3670001 1.1619999 -0.039999999
5.3639998 1.178 -0.039999999
5.3600001 1.194 -0.039999999
5.3559999 1.21 -0.039999999
5.3590002 1.227 -0.039999999
5.3610001 1.244 -0.039999999
5.3509998 1.2589999 -0.039999999
5.3499999 1.276 -0.039999999
5.349 1.293 -0.041000001
5.342 1.308 -0.041000001
5.3410001 1.325 -0.041000001
5.3499999 1.344 -0.041000001
5.3460002 1.36 -0.041000001
5.342 1.377 -0.041000001
5.3340001 1.392 -0.041000001
5.342 1.411 -0.041000001
5.3429999 1.429 -0.041999999
5.3379998 1.4450001 -0.041999999
5.3400002 1.4630001 -0.041999999
5.3299999 1.478 -0.041999999
5.3330002 1.497 -0.041999999
5.329 1.513 -0.041999999
5.3299999 1.531 -0.041999999
5.3249998 1.5470001 -0.041999999
5.3179998 1.563 -0.043000001
5.3150001 1.58 -0.043000001
5.323 1.6 -0.043000001
5.3179998 1.617 -0.043000001
5.3130002 1.633 -0.043000001
5.3189998 1.653 -0.043000001
5.316 1.67 -0.043000001
5.3109999 1.687 -0.044
5.3060002 1.7029999 -0.044
5.3060002 1.721 -0.044
5.3070002 1.74 -0.044
5.296 1.755 -0.044
5.296 1.773 -0.044
5.296 1.791 -0.044
5.2930002 1.808 -0.045000002
5.2930002 1.827 -0.045000002
5.2870002 1.8430001 -0.045000002
5.2870002 1.8609999 -0.045000002
5.2820001 1.878 -0.045000002
5.2839999 1.897 -0.045000002
5.29 1.918 -0.045000002
5.2839999 1.934 -0.046
5.2839999 1.9529999 -0.046
5.283 1.971 -0.046
5.2789998 1.988 -0.046
5.2729998 2.0039999 -0.046
5.2719998 2.023 -0.046
5.2659998 2.039 -0.046
5.2789998 2.063 -0.046999998
5.2709999 2.0780001 -0.046999998
5.2719998 2.098 -0.046999998
5.2600002 2.112 -0.046999998
5.2659998 2.1329999 -0.046999998
5.2589998 2.1489999 -0.046999998
5.2649999 2.1700001 -0.048
5.2620001 2.188 -0.048
5.2519999 2.2019999 -0.048
5.2449999 2.2179999 -0.048
5.25 2.24 -0.048
5.244 2.256 -0.048
5.2480001 2.276 -0.048
5.244 2.293 -0.048999999
5.2420001 2.312 -0.048999999
5.2399998 2.3299999 -0.048999999
5.2410002 2.349 -0.048999999
5.2340002 2.365 -0.048999999
5.2319999 2.3829999 -0.048999999
5.25 2.411 -0.050000001
5.2550001 2.4319999 -0.050000001
5.3540001 2.517 -0.050999999
5.4169998 2.566 -0.052000001
5.447 2.5999999 -0.052000001
5.4260001 2.6099999 -0.052000001
5.5970001 2.7119999 -0.054000001
5.849 -3.441 0.037999999
5.8509998 -3.4260001 0.037999999
5.869 -3.4200001 0.037999999
5.8660002 -3.402 0.037999999
5.8730001 -3.3889999 0.037999999
5.8699999 -3.3710001 0.037999999
5.849 -3.342 0.037999999
5.8720002 -3.3380001 0.037999999
5.8779998 -3.325 0.037999999
5.8720002 -3.3050001 0.037999999
5.8909998 -3.299 0.037999999
5.8790002 -3.276 0.037999999
5.8709998 -3.2539999 0.037999999
5.8870001 -3.2460001 0.039000001
5.882 -3.227 0.039000001
5.8839998 -3.211 0.039000001
5.8769999 -3.1900001 0.039000001
5.8800001 -3.175 0.039000001
5.8969998 -3.168 0.039000001
5.8860002 -3.145 0.039000001
5.8850002 -3.1270001 0.039000001
5.875 -3.105 0.039000001
5.8850002 -3.0929999 0.039000001
5.8940001 -3.082 0.039000001
5.8829999 -3.059 0.039000001
5.888 -3.0439999 0.039000001
5.8959999 -3.0320001 0.039000001
5.8670001 -3 0.039000001
5.8909998 -2.9949999 0.039000001
5.8850002 -2.9749999 0.039000001
5.881 -2.9560001 0.039000001
5.8779998 -2.938 0.039000001
5.881 -2.9219999 0.039000001
5.8800001 -2.905 0.039000001
5.881 -2.888 0.039000001
5.8850002 -2.8729999 0.039000001
5.8740001 -2.8510001 0.039000001
5.8829999 -2.839 0.039999999
5.8940001 -2.8269999 0.039999999
5.8800001 -2.803 0.039999999
5.8800001 -2.786 0.039999999
5.875 -2.767 0.039999999
5.8530002 -2.7390001 0.039999999
5.869 -2.73 0.039999999
5.882 -2.7190001 0.039999999
5.8600001 -2.6919999 0.039999999
5.2940001 -2.4159999 0.035999998
5.2080002 -2.362 0.035
5.1760001 -2.3329999 0.035
5.1550002 -2.3080001 0.035
5.1630001 -2.2969999 0.035
5.1849999 -2.2920001 0.035
5.165 -2.2679999 0.035
5.158 -2.25 0.035
5.1500001 -2.2309999 0.035
5.1539998 -2.2190001 0.035
5.1869998 -2.2179999 0.035
5.2639999 -2.2349999 0.035999998
5.3169999 -2.2420001 0.035999998
5.3540001 -2.243 0.037
5.3600001 -2.23 0.037
5.3330002 -2.2030001 0.037
5.3200002 -2.1819999 0.037
5.3299999 -2.171 0.037
5.362 -2.168 0.037
5.4320002 -2.181 0.037999999
5.6929998 -2.2690001 0.039000001
5.8410001 -2.312 0.039999999
5.8439999 -2.2950001 0.041000001
5.428 -2.1170001 0.037999999
5.323 -2.0599999 0.037
5.3390002 -2.0510001 0.037
5.4549999 -2.0799999 0.037999999
5.8330002 -2.207 0.041000001
5.8499999 -2.197 0.041000001
5.8520002 -2.1800001 0.041000001
5.849 -2.1619999 0.041000001
5.8439999 -2.1440001 0.041000001
5.8390002 -2.125 0.041000001
5.8379998 -2.108 0.041000001
5.816 -2.0829999 0.041000001
5.7690001 -2.049 0.039999999
5.7579999 -2.029 0.039999999
5.7519999 -2.01 0.039999999
5.7490001 -1.992 0.039999999
5.744 -1.974 0.039999999
5.7470002 -1.9579999 0.039999999
5.7379999 -1.939 0.039999999
5.723 -1.9170001 0.039999999
5.6929998 -1.891 0.039999999
5.6729999 -1.868 0.039999999
5.6760001 -1.852 0.039999999
5.6739998 -1.835 0.039999999
5.671 -1.818 0.039999999
5.6630001 -1.799 0.039999999
5.6430001 -1.776 0.039999999
5.645 -1.761 0.039999999
5.6469998 -1.745 0.039999999
5.6539998 -1.7309999 0.039999999
5.6589999 -1.716 0.039999999
5.6690001 -1.7029999 0.039999999
5.6680002 -1.686 0.039999999
5.671 -1.671 0.041000001
5.6700001 -1.654 0.041000001
5.6669998 -1.637 0.041000001
5.6700001 -1.6210001 0.041000001
5.6680002 -1.605 0.041000001
5.6729999 -1.59 0.041000001
5.6690001 -1.572 0.041000001
5.6680002 -1.5549999 0.041000001
5.6719999 -1.54 0.041000001
5.6609998 -1.521 0.041000001
5.665 -1.506 0.041000001
5.6630001 -1.489 0.041000001
5.6680002 -1.474 0.041000001
5.6659999 -1.457 0.041000001
5.6599998 -1.439 0.041000001
5.6529999 -1.4220001 0.041000001
5.6469998 -1.404 0.041000001
5.6599998 -1.391 0.041000001
5.6669998 -1.376 0.041000001
5.6589999 -1.358 0.041000001
5.652 -1.34 0.041000001
5.645 -1.322 0.041000001
5.6430001 -1.306 0.041000001
5.6539998 -1.2920001 0.041000001
5.6479998 -1.274 0.041000001
5.645 -1.257 0.041000001
5.6490002 -1.242 0.041000001
5.6459999 -1.225 0.041000001
5.6430001 -1.209 0.041000001
5.6459999 -1.193 0.041000001
5.6339998 -1.174 0.041000001
5.6459999 -1.161 0.041000001
5.6409998 -1.143 0.041000001
5.6360002 -1.126 0.041000001
5.6409998 -1.1109999 0.041000001
5.6290002 -1.0930001 0.041000001
5.632 -1.077 0.041000001
5.6269999 -1.0599999 0.041000001
5.638 -1.046 0.041999999
5.6269999 -1.028 0.041000001
5.6329999 -1.013 0.041999999
5.6259999 -0.99599999 0.041999999
5.6209998 -0.97899997 0.041000001
5.6230001 -0.963 0.041999999
5.6129999 -0.94499999 0.041999999
5.619 -0.93000001 0.041999999
5.618 -0.91399997 0.041999999
5.6059999 -0.89600003 0.041999999
5.6209998 -0.88200003 0.041999999
5.632 -0.86799997 0.041999999
5.6079998 -0.84799999 0.041999999
5.6079998 -0.83200002 0.041999999
5.5999999 -0.815 0.041999999
5.612 -0.801 0.041999999
5.6230001 -0.78600001 0.041999999
5.6020002 -0.76800001 0.041999999
5.6059999 -0.75199997 0.041999999
5.6110001 -0.73699999 0.041999999
5.6160002 -0.72100002 0.041999999
4.3520002 -0.54699999 0.032000002
4.2540002 -0.52200001 0.032000002
4.086 -0.49000001 0.029999999
4.0229998 -0.47099999 0.029999999
4.0170002 -0.45899999 0.029999999
4.0100002 -0.44600001 0.029999999
4.0180001 -0.43599999 0.029999999
4.0279999 -0.426 0.029999999
4.0170002 -0.41299999 0.029999999
4.0149999 -0.40099999 0.029999999
4.0219998 -0.391 0.029999999
4.0139999 -0.37799999 0.029999999
4.0250001 -0.368 0.029999999
4.0190001 -0.35600001 0.029999999
4.02 -0.345 0.029999999
4.0149999 -0.333 0.029999999
4.0219998 -0.322 0.029999999
4.0310001 -0.31099999 0.029999999
4.0229998 -0.29899999 0.029999999
4.0180001 -0.287 0.029999999
4.0170002 -0.27599999 0.029999999
4.0229998 -0.26499999 0.029999999
4.033 -0.25400001 0.029999999
4.0279999 -0.242 0.029999999
4.0289998 -0.23100001 0.029999999
4.0289998 -0.219 0.029999999
4.0409999 -0.20900001 0.030999999
4.0370002 -0.197 0.030999999
4.0430002 -0.186 0.030999999
4.053 -0.175 0.030999999
4.0469999 -0.163 0.030999999
4.053 -0.152 0.030999999
4.0689998 -0.141 0.030999999
4.0630002 -0.12899999 0.030999999
4.0689998 -0.118 0.030999999
4.0840001 -0.106 0.030999999
4.0819998 -0.094999999 0.030999999
4.0999999 -0.083999999 0.030999999
4.1059999 -0.071999997 0.030999999
4.1129999 -0.061000001 0.030999999
4.1129999 -0.048999999 0.030999999
4.1329999 -0.037 0.032000002
4.1430001 -0.026000001 0.032000002
4.151 -0.014 0.032000002
4.1719999 -0.0020000001 0.032000002
4.1700001 0.0089999996 0.032000002
4.1789999 0.021 0.032000002
4.2080002 0.033 0.032000002
4.2150002 0.045000002 0.032000002
4.1989999 0.056000002 0.032000002
4.2420001 0.068999998 0.033
4.2150002 0.081 0.032000002
4.2199998 0.093000002 0.032000002
4.283 0.106 0.033
4.277 0.118 0.033
4.276 0.13 0.033
4.302 0.14300001 0.033
4.355 0.15800001 0.034000002
4.3829999 0.171 0.034000002
4.395 0.184 0.034000002
4.0110002 0.028000001 -0.014
4.0190001 0.032000002 -0.014
4.0110002 0.035999998 -0.014
4.0110002 0.039999999 -0.014
4.0040002 0.043000001 -0.014
4.0100002 0.048 -0.014
4.0050001 0.052000001 -0.014
4.0050001 0.056000002 -0.014
4.0050001 0.061000001 -0.014
3.9979999 0.064999998 -0.014
3.9979999 0.07 -0.014
4.0040002 0.075000003 -0.014
3.9920001 0.079000004 -0.014
3.987 0.083999999 -0.014
3.9909999 0.089000002 -0.014
3.983 0.093999997 -0.014
3.983 0.098999999 -0.014
3.9760001 0.104 -0.014
3.9760001 0.11 -0.014
3.977 0.115 -0.014
3.977 0.121 -0.014
3.961 0.126 -0.014
3.948 0.131 -0.015
3.9549999 0.13699999 -0.015
3.961 0.14399999 -0.015
3.9549999 0.149 -0.015
3.96 0.156 -0.015
3.947 0.161 -0.015
3.947 0.168 -0.015
3.948 0.17399999 -0.015
3.938 0.18000001 -0.015
3.947 0.18700001 -0.015
3.938 0.193 -0.015
3.9449999 0.2 -0.015
3.9330001 0.206 -0.015
3.931 0.213 -0.015
3.944 0.221 -0.015
3.9319999 0.227 -0.015
3.9189999 0.233 -0.015
3.931 0.241 -0.015
3.9159999 0.248 -0.015
3.9219999 0.255 -0.016000001
3.915 0.26199999 -0.016000001
3.921 0.27000001 -0.016000001
3.9289999 0.278 -0.016000001
3.9130001 0.285 -0.016000001
3.918 0.29300001 -0.016000001
3.9119999 0.30000001 -0.016000001
3.9089999 0.308 -0.016000001
3.911 0.31600001 -0.016000001
3.9100001 0.324 -0.016000001
3.9089999 0.33199999 -0.016000001
3.9089999 0.34 -0.016000001
3.9089999 0.34900001 -0.016000001
3.9070001 0.35699999 -0.016000001
3.895 0.36399999 -0.016000001
3.9059999 0.37400001 -0.016000001
3.8989999 0.382 -0.017000001
3.8959999 0.38999999 -0.017000001
3.8970001 0.39899999 -0.017000001
3.8940001 0.40700001 -0.017000001
3.901 0.417 -0.017000001
3.8940001 0.42500001 -0.017000001
3.8870001 0.433 -0.017000001
3.8970001 0.45300001 -0.017000001
3.8959999 0.46200001 -0.017000001
3.8889999 0.47 -0.017000001
3.8859999 0.479 -0.017000001
3.8929999 0.48899999 -0.017000001
3.892 0.49900001 -0.017000001
3.8840001 0.50700003 -0.017000001
3.875 0.51599997 -0.017999999
3.882 0.52600002 -0.017999999
3.881 0.53600001 -0.017999999
3.885 0.546 -0.017999999
3.925 0.56199998 -0.017999999
4.0170002 0.58600003 -0.018999999
4.1490002 0.616 -0.018999999
4.1760001 0.63 -0.018999999
4.1799998 0.64200002 -0.02
4.2259998 0.66000003 -0.02
4.2919998 0.68199998 -0.02
5.3920002 0.87099999 -0.026000001
5.3839998 0.884 -0.026000001
5.3899999 0.89999998 -0.026000001
5.3850002 0.91399997 -0.026000001
5.3829999 0.92799997 -0.026000001
5.3800001 0.94300002 -0.026000001
5.3860002 0.958 -0.026000001
5.3740001 0.97100002 -0.026000001
5.3800001 0.98799998 -0.027000001
5.3779998 1.002 -0.027000001
5.3670001 1.016 -0.027000001
5.3720002 1.0319999 -0.027000001
5.369 1.0470001 -0.027000001
5.3730001 1.063 -0.027000001
5.3629999 1.077 -0.027000001
5.3670001 1.0930001 -0.027000001
5.3629999 1.108 -0.027000001
5.3600001 1.123 -0.027000001
5.3639998 1.14 -0.028000001
5.3540001 1.154 -0.028000001
5.3629999 1.1720001 -0.028000001
5.3470001 1.1849999 -0.028000001
5.3499999 1.202 -0.028000001
5.3540001 1.219 -0.028000001
5.3509998 1.235 -0.028000001
5.3470001 1.25 -0.028000001
5.349 1.267 -0.028000001
5.3379998 1.281 -0.028999999
5.342 1.299 -0.028999999
5.3390002 1.3150001 -0.028999999
5.3400002 1.332 -0.028999999
5.342 1.35 -0.028999999
5.3379998 1.3660001 -0.028999999
5.336 1.383 -0.028999999
5.3379998 1.4 -0.028999999
5.3309999 1.416 -0.028999999
5.335 1.434 -0.029999999
5.3280001 1.45 -0.029999999
5.3270001 1.467 -0.029999999
5.3280001 1.485 -0.029999999
5.3179998 1.5 -0.029999999
5.3189998 1.518 -0.029999999
5.3109999 1.533 -0.029999999
5.323 1.5549999 -0.029999999
5.3179998 1.571 -0.030999999
5.3109999 1.587 -0.030999999
5.3080001 1.605 -0.030999999
5.309 1.623 -0.030999999
5.3039999 1.64 -0.030999999
5.3049998 1.659 -0.030999999
5.3070002 1.678 -0.030999999
5.3080001 1.696 -0.030999999
5.302 1.7130001 -0.032000002
5.303 1.732 -0.032000002
5.2979999 1.749 -0.032000002
5.2940001 1.767 -0.032000002
5.2919998 1.785 -0.032000002
5.3000002 1.807 -0.032000002
5.2940001 1.824 -0.032000002
5.2950001 1.8430001 -0.032000002
5.283 1.858 -0.032000002
5.2880001 1.8789999 -0.033
5.2880001 1.898 -0.033
5.276 1.914 -0.033
5.2839999 1.936 -0.033
5.2820001 1.955 -0.033
5.2820001 1.975 -0.033
5.2779999 1.993 -0.033
5.283 2.0139999 -0.034000002
5.277 2.0320001 -0.034000002
5.2639999 2.0469999 -0.034000002
5.2690001 2.069 -0.034000002
5.2690001 2.089 -0.034000002
5.2740002 2.1110001 -0.034000002
5.2670002 2.1289999 -0.034000002
5.2659998 2.148 -0.035
5.2659998 2.1689999 -0.035
5.2649999 2.1889999 -0.035
5.2639999 2.2090001 -0.035
5.2579999 2.227 -0.035
5.2480001 2.243 -0.035
5.2490001 2.2639999 -0.035
5.2529998 2.2869999 -0.035
5.244 2.3039999 -0.035999998
5.2449999 2.325 -0.035999998
5.2540002 2.3510001 -0.035999998
5.2540002 2.372 -0.035999998
5.2750001 2.402 -0.035999998
5.2989998 2.4349999 -0.037
5.3639998 2.487 -0.037
5.4159999 2.533 -0.037999999
5.4460001 2.569 -0.037999999
5.5170002 2.6259999 -0.039000001
5.5339999 2.6559999 -0.039000001
3.704 2.1949999 -0.028999999
3.6389999 2.1730001 -0.028999999
3.5999999 2.1670001 -0.028999999
3.563 2.161 -0.028000001
3.546 2.1659999 -0.028000001
3.5039999 2.1570001 -0.028000001
3.484 2.161 -0.028000001
3.4649999 2.165 -0.028000001
3.4419999 2.1670001 -0.028000001
3.4460001 2.1849999 -0.028000001
3.421 2.1849999 -0.028000001
3.391 2.1819999 -0.028000001
3.3840001 2.1930001 -0.028000001
3.3759999 2.2049999 -0.028000001
3.358 2.2090001 -0.028000001
3.3510001 2.22 -0.028000001
3.332 2.223 -0.028000001
3.3239999 2.234 -0.028000001
3.306 2.2379999 -0.028000001
3.299 2.2479999 -0.028000001
5.5830002 -3.6800001 0.050000001
5.599 -3.6559999 0.050000001
5.6090002 -3.6270001 0.050000001
5.6389999 -3.6110001 0.050000001
5.6399999 -3.5780001 0.050000001
5.6700001 -3.562 0.050999999
5.6890001 -3.54 0.050999999
5.6929998 -3.5090001 0.050999999
5.7059999 -3.483 0.050999999
5.7160001 -3.4560001 0.050999999
5.7220001 -3.4260001 0.050999999
5.7389998 -3.4030001 0.050999999
5.7480001 -3.3759999 0.050999999
5.7490001 -3.3440001 0.052000001
5.763 -3.3199999 0.052000001
5.7800002 -3.2980001 0.052000001
5.7849998 -3.2690001 0.052000001
5.7789998 -3.234 0.052000001
5.7989998 -3.214 0.052000001
5.7919998 -3.1789999 0.052000001
5.8099999 -3.158 0.052000001
5.8249998 -3.135 0.052000001
5.8249998 -3.105 0.052000001
5.8319998 -3.079 0.052000001
5.8309999 -3.0480001 0.052000001
5.8299999 -3.017 0.052000001
5.836 -2.9909999 0.052000001
5.8410001 -2.964 0.052000001
5.8460002 -2.938 0.052999999
5.8509998 -2.911 0.052999999
5.848 -2.881 0.052999999
5.8559999 -2.8570001 0.052999999
5.848 -2.825 0.052999999
5.8540001 -2.8 0.052999999
5.862 -2.776 0.052999999
5.8670001 -2.75 0.052999999
5.8639998 -2.7219999 0.052999999
5.8610001 -2.6930001 0.052999999
5.8629999 -2.6670001 0.052999999
5.2540002 -2.3659999 0.046999998
5.1999998 -2.3180001 0.046999998
5.1750002 -2.283 0.046999998
5.1950002 -2.2690001 0.046999998
5.1900001 -2.244 0.046999998
5.1669998 -2.211 0.046999998
5.1750002 -2.1919999 0.046999998
5.223 -2.1900001 0.046999998
5.3099999 -2.2030001 0.048
5.3660002 -2.204 0.048
5.3460002 -2.1719999 0.048
5.3319998 -2.145 0.048
5.3559999 -2.132 0.048
5.448 -2.1459999 0.048999999
5.836 -2.2739999 0.052999999
5.8449998 -2.2539999 0.052999999
5.3429999 -2.039 0.048
5.3109999 -2.0050001 0.048
5.6399999 -2.1070001 0.050999999
5.8499999 -2.1619999 0.052999999
5.849 -2.1389999 0.052999999
5.8499999 -2.1159999 0.052999999
5.8379998 -2.089 0.052999999
5.8109999 -2.0569999 0.052999999
5.7649999 -2.0179999 0.052000001
5.7490001 -1.9910001 0.052000001
5.7470002 -1.9680001 0.052000001
5.756 -1.95 0.052000001
5.7350001 -1.921 0.052000001
5.684 -1.883 0.052000001
5.6810002 -1.8609999 0.052000001
5.671 -1.837 0.052000001
5.665 -1.814 0.052000001
5.6570001 -1.791 0.052000001
5.6370001 -1.765 0.050999999
5.6420002 -1.7460001 0.050999999
5.6479998 -1.728 0.052000001
5.6659999 -1.7130001 0.052000001
5.665 -1.693 0.052000001
5.664 -1.673 0.052000001
5.6690001 -1.655 0.052000001
5.6700001 -1.636 0.052000001
5.665 -1.615 0.052000001
5.665 -1.596 0.052000001
5.6469998 -1.572 0.052000001
5.6539998 -1.5549999 0.052000001
5.6500001 -1.535 0.052000001
5.6550002 -1.518 0.052000001
5.6459999 -1.497 0.052000001
5.6560001 -1.4809999 0.052000001
5.6550002 -1.4630001 0.052000001
5.6409998 -1.441 0.052000001
5.6430001 -1.424 0.052000001
5.6469998 -1.406 0.052000001
5.6389999 -1.387 0.052000001
5.6490002 -1.372 0.052000001
5.645 -1.353 0.052000001
5.6490002 -1.337 0.052000001
5.6399999 -1.317 0.052000001
5.6300001 -1.2970001 0.052000001
5.6329999 -1.281 0.052000001
5.6399999 -1.266 0.052000001
5.6339998 -1.247 0.052000001
5.6370001 -1.2309999 0.052000001
5.6329999 -1.214 0.052000001
5.6360002 -1.198 0.052000001
5.6220002 -1.179 0.052000001
5.6279998 -1.164 0.052000001
5.619 -1.145 0.052000001
5.619 -1.1289999 0.052000001
5.638 -1.117 0.052000001
5.619 -1.097 0.052000001
5.6160002 -1.081 0.052000001
5.6199999 -1.066 0.052000001
5.6079998 -1.048 0.052000001
5.625 -1.036 0.052000001
5.618 -1.0190001 0.052000001
5.6240001 -1.005 0.052000001
5.619 -0.98900002 0.052000001
5.6129999 -0.97299999 0.052000001
5.6090002 -0.95700002 0.052000001
5.6090002 -0.94199997 0.052000001
5.6069999 -0.92699999 0.052000001
5.6160002 -0.91399997 0.052000001
5.6209998 -0.89999998 0.052000001
5.6149998 -0.88499999 0.052000001
5.6160002 -0.87 0.052000001
5.612 -0.85500002 0.052000001
5.6069999 -0.83999997 0.052000001
5.6020002 -0.82599998 0.052000001
5.6040001 -0.81199998 0.052000001
5.6040001 -0.79799998 0.052000001
5.6090002 -0.78500003 0.052000001
5.6040001 -0.76999998 0.052000001
5.6079998 -0.75700003 0.052000001
5.6069999 -0.74299997 0.052000001
5.6129999 -0.73100001 0.052999999
5.618 -0.71799999 0.052999999
5.6040001 -0.70300001 0.052000001
5.612 -0.69099998 0.052999999
4.4120002 -0.53200001 0.041000001
4.2210002 -0.49900001 0.039000001
4.0939999 -0.47499999 0.037999999
4.0440001 -0.46000001 0.037999999
4.0240002 -0.44800001 0.037999999
4.0190001 -0.43900001 0.037999999
4.0229998 -0.43000001 0.037999999
4.0279999 -0.42199999 0.037999999
4.02 -0.412 0.037999999
4.0209999 -0.403 0.037999999
4.0240002 -0.39399999 0.037999999
4.0250001 -0.38600001 0.037999999
4.039 -0.37799999 0.037999999
4.033 -0.36899999 0.037999999
4.0190001 -0.359 0.037999999
4.013 -0.34999999 0.037999999
4.0209999 -0.34200001 0.037999999
4.0289998 -0.33500001 0.037999999
4.0149999 -0.32499999 0.037999999
4.0289998 -0.31799999 0.037999999
4.0159998 -0.30899999 0.037999999
4.0229998 -0.301 0.037999999
4.039 -0.294 0.037999999
4.033 -0.28600001 0.037999999
4.026 -0.27700001 0.037999999
4.0250001 -0.26899999 0.037999999
4.0380001 -0.26199999 0.037999999
4.026 -0.25299999 0.037999999
4.027 -0.24600001 0.037999999
4.0339999 -0.23800001 0.037999999
4.0370002 -0.23100001 0.037999999
4.0409999 -0.223 0.037999999
4.0380001 -0.215 0.037999999
4.0229998 -0.207 0.037999999
4.0380001 -0.2 0.037999999
4.0450001 -0.193 0.037999999
4.052 -0.186 0.039000001
4.0450001 -0.17900001 0.039000001
4.0380001 -0.171 0.037999999
4.0380001 -0.164 0.037999999
4.046 -0.15700001 0.039000001
4.0359998 -0.149 0.037999999
4.0469999 -0.14300001 0.039000001
4.0469999 -0.13600001 0.039000001
4.0479999 -0.12899999 0.039000001
4.0539999 -0.122 0.039000001
4.0539999 -0.115 0.039000001
4.0549998 -0.108 0.039000001
4.0549998 -0.102 0.039000001
4.0840001 -0.096000001 0.039000001
4.099 -0.089000002 0.039000001
4.0869999 -0.082000002 0.039000001
4.1069999 -0.075999998 0.039000001
4.1129999 -0.07 0.039000001
4.1129999 -0.063000001 0.039999999
4.1279998 -0.057 0.039999999
4.1339998 -0.050000001 0.039999999
4.1420002 -0.044 0.039999999
4.151 -0.037999999 0.039999999
4.1570001 -0.032000002 0.039999999
4.1570001 -0.025 0.039999999
4.1479998 -0.018999999 0.039999999
4.1570001 -0.013 0.039999999
4.164 -0.0070000002 0.039999999
4.1849999 -0.001 0.039999999
4.1999998 0.0040000002 0.041000001
4.1880002 0.0099999998 0.041000001
4.2059999 0.016000001 0.041000001
4.2059999 0.022 0.041000001
4.2210002 0.028000001 0.041000001
4.2360001 0.034000002 0.041000001
4.2350001 0.039999999 0.041000001
4.25 0.046 0.041000001
4.2649999 0.052000001 0.041000001
4.2859998 0.057999998 0.041999999
4.3070002 0.064000003 0.041999999
4.3010001 0.07 0.041999999
4.342 0.075999998 0.041999999
4.434 0.082999997 0.043000001
4.1690001 0.052999999 -0.003
4.2090001 0.061000001 -0.003
4.2150002 0.068999998 -0.003
4.217 0.077 -0.003
4.223 0.085000001 -0.003
4.2189999 0.092 -0.003
4.2160001 0.1 -0.003
4.2160001 0.109 -0.0040000002
4.2220001 0.117 -0.0040000002
4.2220001 0.125 -0.0040000002
4.2150002 0.133 -0.0040000002
4.2340002 0.142 -0.0040000002
4.2220001 0.15099999 -0.0040000002
4.2199998 0.15899999 -0.0040000002
4.2199998 0.168 -0.0040000002
4.2140002 0.176 -0.0040000002
4.1929998 0.184 -0.0040000002
4.2020001 0.19400001 -0.0040000002
4.1919999 0.20200001 -0.0040000002
4.191 0.211 -0.0040000002
4.1620002 0.219 -0.0040000002
4.1550002 0.228 -0.0040000002
4.1570001 0.237 -0.0049999999
4.1539998 0.24600001 -0.0049999999
4.1539998 0.25600001 -0.0049999999
4.1609998 0.266 -0.0049999999
4.1669998 0.27599999 -0.0049999999
4.1539998 0.28400001 -0.0049999999
4.151 0.294 -0.0049999999
4.1290002 0.30199999 -0.0049999999
4.119 0.31099999 -0.0049999999
4.0939999 0.31900001 -0.0049999999
4.0999999 0.329 -0.0049999999
4.0929999 0.338 -0.0049999999
4.072 0.347 -0.0049999999
4.0609999 0.35600001 -0.0049999999
4.0149999 0.361 -0.0049999999
3.9619999 0.366 -0.0049999999
3.9330001 0.37400001 -0.0049999999
3.9119999 0.382 -0.0049999999
3.8929999 0.38999999 -0.0049999999
3.895 0.40000001 -0.0060000001
3.891 0.40900001 -0.0060000001
3.8870001 0.419 -0.0060000001
3.8859999 0.42899999 -0.0060000001
3.891 0.44 -0.0060000001
3.8970001 0.45100001 -0.0060000001
3.8959999 0.461 -0.0060000001
3.908 0.472 -0.0060000001
3.895 0.48100001 -0.0060000001
3.8929999 0.49200001 -0.0060000001
3.891 0.50199997 -0.0060000001
3.8759999 0.50999999 -0.0060000001
3.8889999 0.523 -0.0060000001
3.881 0.53200001 -0.0060000001
3.8870001 0.54400003 -0.0060000001
3.8840001 0.55400002 -0.0070000002
3.904 0.56800002 -0.0070000002
3.9820001 0.59100002 -0.0070000002
4.1350002 0.625 -0.0070000002
4.1929998 0.64600003 -0.0070000002
4.2410002 0.66500002 -0.0080000004
4.277 0.68300003 -0.0080000004
5.3790002 0.87400001 -0.0099999998
5.3909998 0.89200002 -0.0099999998
5.3800001 0.90600002 -0.0099999998
5.3779998 0.921 -0.0099999998
5.381 0.93699998 -0.0099999998
5.3870001 0.954 -0.011
5.3839998 0.96899998 -0.011
5.381 0.98500001 -0.011
5.3779998 1 -0.011
5.382 1.017 -0.011
5.3660002 1.03 -0.011
5.3759999 1.048 -0.011
5.3629999 1.062 -0.011
5.3699999 1.08 -0.011
5.3660002 1.095 -0.011
5.3629999 1.1109999 -0.012
5.3600001 1.127 -0.012
5.3559999 1.143 -0.012
5.3590002 1.16 -0.012
5.3470001 1.174 -0.012
5.3600001 1.193 -0.012
5.3569999 1.209 -0.012
5.342 1.223 -0.012
5.3559999 1.243 -0.012
5.3509998 1.2589999 -0.013
5.348 1.275 -0.013
5.3499999 1.293 -0.013
5.3470001 1.309 -0.013
5.342 1.325 -0.013
5.3439999 1.3430001 -0.013
5.3340001 1.357 -0.013
5.3439999 1.377 -0.013
5.329 1.39 -0.013
5.335 1.409 -0.014
5.3369999 1.427 -0.014
5.3330002 1.444 -0.014
5.335 1.462 -0.014
5.3299999 1.478 -0.014
5.3260002 1.494 -0.014
5.3260002 1.512 -0.014
5.322 1.529 -0.014
5.3249998 1.5470001 -0.014
5.3200002 1.564 -0.015
5.3150001 1.58 -0.015
5.309 1.596 -0.015
5.3109999 1.615 -0.015
5.3070002 1.631 -0.015
5.3080001 1.649 -0.015
5.3099999 1.668 -0.015
5.309 1.686 -0.015
5.3070002 1.7029999 -0.015
5.3130002 1.723 -0.016000001
5.3010001 1.738 -0.016000001
5.296 1.7539999 -0.016000001
5.2969999 1.773 -0.016000001
5.2930002 1.79 -0.016000001
5.3000002 1.8099999 -0.016000001
5.2930002 1.826 -0.016000001
5.2940001 1.845 -0.016000001
5.2909999 1.862 -0.017000001
5.29 1.88 -0.017000001
5.296 1.901 -0.017000001
5.2820001 1.915 -0.017000001
5.2849998 1.934 -0.017000001
5.2750001 1.949 -0.017000001
5.2859998 1.972 -0.017000001
5.2789998 1.988 -0.017000001
5.2729998 2.0039999 -0.017000001
5.2729998 2.023 -0.017999999
5.2719998 2.0409999 -0.017999999
5.2670002 2.0580001 -0.017999999
5.2659998 2.076 -0.017999999
5.2789998 2.0999999 -0.017999999
5.2670002 2.1140001 -0.017999999
5.2709999 2.1340001 -0.017999999
5.2589998 2.1489999 -0.017999999
5.2659998 2.1700001 -0.018999999
5.2649999 2.188 -0.018999999
5.2579999 2.204 -0.018999999
5.244 2.217 -0.018999999
5.2509999 2.2390001 -0.018999999
5.244 2.2550001 -0.018999999
5.25 2.277 -0.018999999
5.2490001 2.296 -0.02
5.2480001 2.3139999 -0.02
5.2649999 2.3410001 -0.02
3.4430001 1.543 -0.013
3.29 1.4859999 -0.012
5.3239999 2.425 -0.02
5.3740001 2.467 -0.021
5.4159999 2.506 -0.021
5.4569998 2.5450001 -0.021
5.5120001 2.5899999 -0.022
5.132 2.7119999 -0.022
5.0209999 2.671 -0.022
5.855 -3.448 0.066
5.868 -3.4389999 0.066
5.8699999 -3.4230001 0.066
5.8850002 -3.415 0.066
5.8699999 -3.3900001 0.066
5.8850002 -3.382 0.066
5.8660002 -3.3540001 0.066
5.8800001 -3.345 0.066
5.8800001 -3.329 0.066
5.8759999 -3.3099999 0.066
5.8959999 -3.3039999 0.066
5.8860002 -3.2820001 0.066
5.8800001 -3.2620001 0.066
5.8860002 -3.2479999 0.066
5.8959999 -3.237 0.067000002
5.888 -3.2160001 0.066
5.8870001 -3.198 0.067000002
5.8959999 -3.1860001 0.067000002
5.8899999 -3.1659999 0.067000002
5.8969998 -3.1530001 0.067000002
5.8860002 -3.1300001 0.067000002
5.8790002 -3.1099999 0.067000002
5.9000001 -3.1029999 0.067000002
5.8889999 -3.0810001 0.067000002
5.8800001 -3.059 0.067000002
5.902 -3.0539999 0.067000002
5.901 -3.036 0.067000002
5.8699999 -3.0039999 0.067000002
5.882 -2.993 0.067000002
5.8839998 -2.977 0.067000002
5.8839998 -2.9590001 0.067000002
5.8850002 -2.9430001 0.067000002
5.8839998 -2.9260001 0.067000002
5.888 -2.911 0.067000002
5.8920002 -2.8959999 0.067000002
5.8850002 -2.875 0.067000002
5.8649998 -2.848 0.067000002
5.8800001 -2.839 0.067000002
5.888 -2.826 0.067000002
5.8870001 -2.8080001 0.067000002
5.881 -2.7880001 0.067000002
5.8860002 -2.7739999 0.067000002
5.855 -2.7420001 0.067000002
5.8660002 -2.73 0.067000002
5.875 -2.717 0.067000002
5.8740001 -2.7 0.067000002
5.8800001 -2.6860001 0.067000002
5.875 -2.6670001 0.067000002
5.8709998 -2.6470001 0.067000002
5.434 -2.4349999 0.061999999
5.368 -2.3900001 0.061999999
5.3969998 -2.3870001 0.061999999
5.3940001 -2.3699999 0.061999999
5.3449998 -2.3329999 0.061000001
5.3140001 -2.3039999 0.061000001
5.2779999 -2.273 0.061000001
5.2839999 -2.26 0.061000001
5.3169999 -2.2590001 0.061000001
5.3569999 -2.26 0.061999999
5.3870001 -2.2579999 0.061999999
5.3670001 -2.234 0.061999999
5.369 -2.2190001 0.061999999
5.3699999 -2.204 0.061999999
5.381 -2.1930001 0.061999999
5.4029999 -2.1860001 0.061999999
5.4749999 -2.1989999 0.063000001
5.7729998 -2.302 0.067000002
5.8439999 -2.3139999 0.068000004
5.8429999 -2.296 0.068000004
5.8499999 -2.2820001 0.068000004
5.3730001 -2.0810001 0.061999999
5.3379998 -2.052 0.061999999
5.3720002 -2.049 0.061999999
5.7979999 -2.1949999 0.067000002
5.8569999 -2.2 0.068000004
5.8429999 -2.178 0.068000004
5.8499999 -2.1630001 0.068000004
5.8330002 -2.1400001 0.068000004
5.8379998 -2.125 0.068000004
5.8379998 -2.108 0.068000004
5.8239999 -2.086 0.068000004
5.7779999 -2.053 0.067000002
5.7519999 -2.027 0.067000002
5.7420001 -2.007 0.067000002
5.7420001 -1.9910001 0.067000002
5.7410002 -1.974 0.067000002
5.7519999 -1.961 0.067000002
5.744 -1.941 0.067000002
5.7350001 -1.9220001 0.067000002
5.6999998 -1.8940001 0.067000002
5.6849999 -1.872 0.066
5.678 -1.854 0.066
5.6799998 -1.8380001 0.066
5.6620002 -1.816 0.066
5.6690001 -1.801 0.066
5.6599998 -1.7819999 0.066
5.6469998 -1.762 0.066
5.6550002 -1.748 0.066
5.6599998 -1.733 0.066
5.652 -1.714 0.066
5.6690001 -1.7029999 0.067000002
5.6589999 -1.684 0.066
5.6719999 -1.671 0.067000002
5.671 -1.655 0.067000002
5.6659999 -1.637 0.067000002
5.678 -1.624 0.067000002
5.665 -1.604 0.067000002
5.6669998 -1.5880001 0.067000002
5.6630001 -1.571 0.067000002
5.6609998 -1.554 0.067000002
5.671 -1.541 0.067000002
5.6669998 -1.523 0.067000002
5.665 -1.506 0.067000002
5.6630001 -1.49 0.067000002
5.6669998 -1.474 0.067000002
5.6630001 -1.457 0.067000002
5.658 -1.439 0.067000002
5.658 -1.423 0.067000002
5.6529999 -1.405 0.067000002
5.6599998 -1.391 0.067000002
5.6609998 -1.375 0.067000002
5.651 -1.3559999 0.067000002
5.6560001 -1.341 0.067000002
5.651 -1.324 0.067000002
5.6560001 -1.309 0.067000002
5.6459999 -1.29 0.067000002
5.6360002 -1.272 0.067000002
5.6529999 -1.2589999 0.067000002
5.658 -1.244 0.067000002
5.6389999 -1.224 0.067000002
5.6420002 -1.2079999 0.067000002
5.6350002 -1.191 0.067000002
5.6350002 -1.175 0.067000002
5.6490002 -1.161 0.067000002
5.6409998 -1.1440001 0.067000002
5.6360002 -1.126 0.067000002
5.638 -1.1109999 0.067000002
5.6350002 -1.094 0.067000002
5.632 -1.077 0.067000002
5.6269999 -1.0599999 0.067000002
5.632 -1.045 0.067000002
5.6259999 -1.028 0.067000002
5.6230001 -1.011 0.067000002
5.6240001 -0.995 0.067000002
5.6220002 -0.97899997 0.067000002
5.625 -0.963 0.067000002
5.5929999 -0.94199997 0.067000002
5.6160002 -0.93000001 0.067000002
5.618 -0.91399997 0.067000002
5.6209998 -0.898 0.067000002
5.6149998 -0.88099998 0.067000002
5.6079998 -0.86400002 0.067000002
5.605 -0.84799999 0.067000002
5.6100001 -0.83200002 0.067000002
5.6100001 -0.81599998 0.067000002
5.605 -0.80000001 0.067000002
5.599 -0.78299999 0.067000002
5.6110001 -0.76800001 0.067000002
5.6059999 -0.75199997 0.067000002
5.5999999 -0.73500001 0.067000002
5.6100001 -0.72000003 0.067000002
5.6059999 -0.704 0.067000002
4.1830001 -0.51300001 0.050000001
4.0539999 -0.486 0.048999999
4.0139999 -0.47 0.048
4.0229998 -0.45899999 0.048
4.0100002 -0.44600001 0.048
4.02 -0.43599999 0.048
4.0190001 -0.42399999 0.048
4.013 -0.412 0.048
4.0289998 -0.40200001 0.048
4.0089998 -0.389 0.048
4.0250001 -0.37900001 0.048
4.0170002 -0.36700001 0.048
4.0250001 -0.35600001 0.048
4.013 -0.34400001 0.048
4.0209999 -0.333 0.048
4.013 -0.32100001 0.048
4.0139999 -0.31 0.048
4.0170002 -0.29800001 0.048
4.0250001 -0.287 0.048
4.0320001 -0.27700001 0.048999999
4.0250001 -0.26499999 0.048
4.0300002 -0.25299999 0.048999999
4.027 -0.242 0.048
4.0370002 -0.23100001 0.048999999
4.0349998 -0.219 0.048999999
4.0359998 -0.208 0.048999999
4.0359998 -0.19599999 0.048999999
4.039 -0.185 0.048999999
4.0370002 -0.17399999 0.048999999
4.0609999 -0.163 0.048999999
4.053 -0.15099999 0.048999999
4.0679998 -0.14 0.048999999
4.0900002 -0.12899999 0.048999999
4.1129999 -0.118 0.050000001
4.1409998 -0.107 0.050000001
4.1420002 -0.096000001 0.050000001
4.1690001 -0.083999999 0.050000001
4.1849999 -0.072999999 0.050999999
4.1700001 -0.061000001 0.050000001
4.1719999 -0.048999999 0.050000001
4.1700001 -0.037 0.050000001
4.158 -0.025 0.050000001
4.1570001 -0.013 0.050000001
4.164 -0.0020000001 0.050000001
4.1849999 0.0089999996 0.050999999
4.1849999 0.021 0.050999999
4.2030001 0.033 0.050999999
4.2140002 0.045000002 0.050999999
4.2059999 0.057 0.050999999
4.2290001 0.07 0.050999999
4.2129998 0.081 0.050999999
4.2189999 0.093000002 0.050999999
4.256 0.106 0.052000001
4.27 0.119 0.052000001
4.2909999 0.132 0.052000001
4.3330002 0.145 0.052999999
4.3499999 0.15800001 0.052999999
4.3959999 0.17200001 0.052999999
4.4359999 0.18700001 0.054000001
4.0190001 0.028999999 0.0049999999
4.0019999 0.033 0.0049999999
4.0190001 0.037 0.0049999999
4.0110002 0.041000001 0.0049999999
4.013 0.045000002 0.0049999999
4.0190001 0.048999999 0.0049999999
4.0040002 0.052999999 0.0049999999
4.0050001 0.057 0.0049999999
4.0040002 0.061999999 0.0049999999
3.9979999 0.066 0.0049999999
4.0040002 0.071000002 0.0049999999
3.993 0.075000003 0.0049999999
3.9979999 0.079999998 0.0049999999
3.99 0.085000001 0.0049999999
3.9909999 0.090000004 0.0040000002
3.983 0.094999999 0.0040000002
3.983 0.1 0.0040000002
3.9909999 0.106 0.0040000002
3.977 0.111 0.0040000002
3.9760001 0.116 0.0040000002
3.97 0.121 0.0040000002
3.961 0.127 0.0040000002
3.961 0.133 0.0040000002
3.9690001 0.139 0.0040000002
3.9549999 0.14399999 0.0040000002
3.9549999 0.15000001 0.0040000002
3.9619999 0.156 0.0040000002
3.947 0.162 0.0040000002
3.954 0.169 0.0040000002
3.948 0.175 0.0040000002
3.9460001 0.18099999 0.003
3.937 0.18700001 0.003
3.9400001 0.19400001 0.003
3.9449999 0.20100001 0.003
3.931 0.207 0.003
3.931 0.214 0.003
3.9300001 0.221 0.003
3.924 0.227 0.003
3.9159999 0.234 0.003
3.9289999 0.242 0.003
3.9159999 0.248 0.003
3.927 0.25600001 0.003
3.915 0.26300001 0.003
3.914 0.27000001 0.003
3.914 0.278 0.003
3.914 0.285 0.003
3.9130001 0.29300001 0.003
3.9119999 0.301 0.0020000001
3.911 0.30899999 0.0020000001
3.911 0.317 0.0020000001
3.9100001 0.32499999 0.0020000001
3.9089999 0.333 0.0020000001
3.9030001 0.34 0.0020000001
3.9000001 0.34799999 0.0020000001
3.908 0.35699999 0.0020000001
3.898 0.36500001 0.0020000001
3.9059999 0.37400001 0.0020000001
3.8989999 0.382 0.0020000001
3.8900001 0.38999999 0.0020000001
3.9030001 0.40000001 0.0020000001
3.8959999 0.40799999 0.0020000001
3.901 0.417 0.0020000001
3.9000001 0.426 0.0020000001
3.8989999 0.435 0.001
3.8989999 0.44400001 0.001
3.8970001 0.45300001 0.001
3.8959999 0.46200001 0.001
3.8870001 0.47 0.001
3.895 0.47999999 0.001
3.8929999 0.49000001 0.001
3.892 0.49900001 0.001
3.881 0.50700003 0.001
3.875 0.51599997 0.001
3.8889999 0.528 0.001
3.8789999 0.53600001 0.001
3.9059999 0.55000001 0.001
3.947 0.565 0.001
4.0910001 0.597 0.001
4.178 0.62 0.001
4.23 0.639 0.001
4.2750001 0.65700001 0.001
4.3280001 0.676 -0
5.395 0.85699999 0.001
5.381 0.87 0.001
5.3740001 0.88300002 -0
5.388 0.89999998 -0
5.3839998 0.91399997 -0
5.3850002 0.92900002 -0
5.3800001 0.94300002 -0
5.3709998 0.95599997 -0
5.375 0.972 -0
5.3800001 0.98799998 -0
5.3720002 1.001 -0
5.369 1.016 -0
5.3639998 1.031 -0
5.369 1.0470001 -0
5.3600001 1.061 -0
5.3569999 1.076 -0
5.3600001 1.092 -0
5.3569999 1.107 -0
5.3600001 1.123 -0
5.369 1.141 -0
5.3600001 1.155 -0
5.3569999 1.171 -0
5.3509998 1.186 -0
5.3649998 1.205 -0
5.3540001 1.219 -0.001
5.3509998 1.235 -0.001
5.3470001 1.25 -0.001
5.3429999 1.266 -0.001
5.3460002 1.283 -0.001
5.342 1.299 -0.001
5.3439999 1.316 -0.001
5.3400002 1.332 -0.001
5.3439999 1.35 -0.001
5.3319998 1.364 -0.001
5.342 1.3839999 -0.001
5.3239999 1.397 -0.0020000001
5.3280001 1.415 -0.0020000001
5.3270001 1.432 -0.0020000001
5.3249998 1.449 -0.0020000001
5.3260002 1.467 -0.0020000001
5.323 1.483 -0.0020000001
5.3239999 1.501 -0.0020000001
5.3309999 1.521 -0.0020000001
5.322 1.536 -0.0020000001
5.323 1.5549999 -0.0020000001
5.3119998 1.569 -0.003
5.3130002 1.5880001 -0.003
5.3150001 1.6059999 -0.003
5.316 1.625 -0.003
5.3070002 1.64 -0.003
5.2989998 1.6569999 -0.003
5.3060002 1.677 -0.003
5.3049998 1.6950001 -0.003
5.2969999 1.711 -0.003
5.2919998 1.728 -0.003
5.2969999 1.749 -0.003
5.2930002 1.766 -0.0040000002
5.3060002 1.789 -0.0040000002
5.3010001 1.807 -0.0040000002
5.2909999 1.822 -0.0040000002
5.2940001 1.842 -0.0040000002
5.2950001 1.862 -0.0040000002
5.2800002 1.876 -0.0040000002
5.296 1.901 -0.0040000002
5.2779999 1.914 -0.0040000002
5.2839999 1.936 -0.0040000002
5.283 1.955 -0.0049999999
5.2820001 1.974 -0.0049999999
5.2779999 1.992 -0.0049999999
5.2719998 2.01 -0.0049999999
5.2820001 2.0339999 -0.0049999999
5.276 2.0510001 -0.0049999999
5.276 2.0710001 -0.0049999999
5.2639999 2.086 -0.0049999999
5.263 2.1059999 -0.0049999999
5.2620001 2.1259999 -0.0049999999
5.2610002 2.1459999 -0.0060000001
5.2589998 2.165 -0.0060000001
5.2589998 2.1860001 -0.0060000001
5.2490001 2.2019999 -0.0060000001
5.2579999 2.227 -0.0060000001
5.2509999 2.244 -0.0060000001
5.2550001 2.267 -0.0060000001
5.2659998 2.2920001 -0.0060000001
5.2940001 2.3469999 -0.0070000002
5.335 2.3859999 -0.0070000002
5.3899999 2.4330001 -0.0070000002
5.4419999 2.4779999 -0.0070000002
5.461 2.5090001 -0.0070000002
5.4879999 2.543 -0.0070000002
5.6170001 2.6259999 -0.0080000004
5.5770001 -3.675 0.077
5.6059999 -3.658 0.077
5.6090002 -3.6259999 0.077
5.632 -3.605 0.077
5.6350002 -3.573 0.077
5.6750002 -3.5639999 0.078000002
5.6960001 -3.543 0.078000002
5.698 -3.5109999 0.078000002
5.7080002 -3.483 0.078000002
5.7179999 -3.4560001 0.078000002
5.7259998 -3.427 0.079000004
5.7340002 -3.3989999 0.079000004
5.743 -3.372 0.079000004
5.756 -3.3469999 0.079000004
5.757 -3.3150001 0.079000004
5.7779999 -3.296 0.079000004
5.7789998 -3.2639999 0.079000004
5.776 -3.2309999 0.079000004
5.7919998 -3.2090001 0.079000004
5.79 -3.1760001 0.079000004
5.8049998 -3.154 0.079000004
5.8260002 -3.135 0.079999998
5.8200002 -3.1010001 0.079999998
5.8319998 -3.0769999 0.079999998
5.823 -3.043 0.079999998
5.8309999 -3.017 0.079999998
5.8429999 -2.994 0.079999998
5.835 -2.96 0.079999998
5.8390002 -2.934 0.079999998
5.8540001 -2.9119999 0.079999998
5.8509998 -2.882 0.079999998
5.849 -2.8529999 0.079999998
5.8379998 -2.819 0.079999998
5.8649998 -2.8039999 0.079999998
5.8699999 -2.7780001 0.079999998
5.8540001 -2.743 0.079999998
5.8639998 -2.721 0.079999998
5.8740001 -2.698 0.079999998
5.8590002 -2.664 0.079999998
5.8699999 -2.642 0.079999998
5.8660002 -2.6140001 0.079999998
5.3769999 -2.372 0.072999999
5.3660002 -2.3429999 0.072999999
5.3940001 -2.3310001 0.074000001
5.3449998 -2.2869999 0.072999999
5.2859998 -2.2390001 0.071999997
5.2950001 -2.2190001 0.071999997
5.3759999 -2.23 0.072999999
5.402 -2.2179999 0.074000001
5.3629999 -2.1789999 0.072999999
5.3909998 -2.168 0.074000001
5.427 -2.1600001 0.074000001
5.5209999 -2.174 0.075000003
5.8499999 -2.28 0.079999998
5.8559999 -2.2579999 0.079999998
5.5050001 -2.0999999 0.075000003
5.3509998 -2.02 0.072999999
5.4790001 -2.046 0.075000003
5.849 -2.161 0.079999998
5.8460002 -2.1370001 0.079999998
5.8509998 -2.1159999 0.079999998
5.8429999 -2.0899999 0.079999998
5.8080001 -2.0550001 0.079000004
5.7639999 -2.017 0.079000004
5.7480001 -1.99 0.079000004
5.75 -1.969 0.079000004
5.75 -1.947 0.079000004
5.7350001 -1.921 0.078000002
5.6950002 -1.886 0.078000002
5.6719999 -1.858 0.078000002
5.6729999 -1.837 0.078000002
5.665 -1.814 0.077
5.6570001 -1.791 0.077
5.6630001 -1.772 0.077
5.6479998 -1.748 0.077
5.6479998 -1.727 0.077
5.6529999 -1.709 0.077
5.6570001 -1.691 0.077
5.6560001 -1.671 0.077
5.6620002 -1.653 0.077
5.6539998 -1.631 0.077
5.6659999 -1.615 0.078000002
5.664 -1.596 0.078000002
5.6550002 -1.574 0.077
5.658 -1.556 0.077
5.651 -1.535 0.077
5.6490002 -1.516 0.077
5.6490002 -1.498 0.077
5.6440001 -1.478 0.077
5.6459999 -1.46 0.077
5.645 -1.442 0.077
5.6420002 -1.423 0.077
5.6420002 -1.405 0.077
5.6370001 -1.386 0.077
5.652 -1.372 0.078000002
5.645 -1.353 0.077
5.6490002 -1.336 0.077
5.638 -1.317 0.077
5.6290002 -1.2970001 0.077
5.6389999 -1.2819999 0.077
5.6370001 -1.265 0.077
5.6329999 -1.247 0.077
5.6440001 -1.233 0.078000002
5.6329999 -1.214 0.077
5.6329999 -1.197 0.077
5.6329999 -1.181 0.077
5.6300001 -1.164 0.077
5.625 -1.147 0.077
5.6279998 -1.131 0.077
5.6269999 -1.115 0.077
5.6199999 -1.098 0.077
5.6170001 -1.081 0.077
5.6110001 -1.064 0.077
5.6209998 -1.051 0.077
5.6209998 -1.035 0.077
5.6129999 -1.0190001 0.077
5.6090002 -1.003 0.077
5.612 -0.98799998 0.077
5.6139998 -0.97299999 0.077
5.6059999 -0.95700002 0.077
5.6110001 -0.94300002 0.077
5.6100001 -0.92799997 0.077
5.6160002 -0.91399997 0.077
5.605 -0.898 0.077
5.6139998 -0.88499999 0.077
5.6020002 -0.86799997 0.077
5.6069999 -0.85500002 0.077
5.6139998 -0.84200001 0.077
5.6009998 -0.82599998 0.077
5.6030002 -0.81199998 0.077
5.6199999 -0.80000001 0.078000002
5.5929999 -0.78299999 0.077
5.6090002 -0.77100003 0.078000002
5.612 -0.75800002 0.078000002
5.6079998 -0.74400002 0.078000002
5.5999999 -0.72899997 0.077
5.598 -0.71600002 0.077
5.6100001 -0.704 0.078000002
5.6139998 -0.69099998 0.078000002
4.329 -0.523 0.059999999
4.164 -0.493 0.057999998
4.0580001 -0.47099999 0.056000002
4.0300002 -0.458 0.056000002
4.0240002 -0.449 0.056000002
4.0170002 -0.43900001 0.056000002
4.026 -0.43099999 0.056000002
4.0190001 -0.421 0.056000002
4.02 -0.412 0.056000002
4.0209999 -0.403 0.056000002
4.0209999 -0.39399999 0.056000002
4.0229998 -0.38600001 0.056000002
4.0170002 -0.377 0.056000002
4.026 -0.36899999 0.056000002
4.027 -0.36000001 0.056000002
4.0370002 -0.35299999 0.056000002
4.026 -0.34299999 0.056000002
4.0289998 -0.33500001 0.056000002
4.0219998 -0.32600001 0.056000002
4.0289998 -0.31799999 0.056000002
4.0219998 -0.30899999 0.056000002
4.0240002 -0.301 0.056000002
4.0300002 -0.294 0.056000002
4.0180001 -0.285 0.056000002
4.0339999 -0.278 0.056000002
4.0250001 -0.26899999 0.056000002
4.027 -0.26100001 0.056000002
4.026 -0.25400001 0.056000002
4.0209999 -0.245 0.056000002
4.0339999 -0.23800001 0.056000002
4.0300002 -0.23100001 0.056000002
4.0349998 -0.223 0.056000002
4.0349998 -0.21600001 0.056000002
4.0359998 -0.208 0.056000002
4.0359998 -0.20100001 0.056000002
4.0209999 -0.192 0.056000002
4.052 -0.18700001 0.057
4.039 -0.17900001 0.056000002
4.0450001 -0.17200001 0.057
4.0469999 -0.164 0.057
4.0349998 -0.15700001 0.056000002
4.0380001 -0.15000001 0.056000002
4.0539999 -0.14300001 0.057
4.0539999 -0.13600001 0.057
4.0539999 -0.12899999 0.057
4.0539999 -0.122 0.057
4.0770001 -0.116 0.057
4.0840001 -0.11 0.057
4.099 -0.103 0.057
4.1420002 -0.097000003 0.057999998
4.1659999 -0.090999998 0.057999998
4.243 -0.086000003 0.059999999
4.3060002 -0.079999998 0.059999999
4.3410001 -0.074000001 0.061000001
4.3990002 -0.068000004 0.061999999
4.4559999 -0.061999999 0.063000001
4.4369998 -0.055 0.061999999
4.3709998 -0.046999998 0.061999999
4.336 -0.039999999 0.061000001
4.3070002 -0.033 0.061000001
4.2600002 -0.026000001 0.059999999
4.2290001 -0.02 0.059999999
4.2059999 -0.013 0.059
4.1929998 -0.0070000002 0.059
4.1849999 -0.001 0.059
4.2030001 0.0040000002 0.059
4.1929998 0.0099999998 0.059
4.2290001 0.016000001 0.059999999
4.2210002 0.022 0.059999999
4.2140002 0.028000001 0.059999999
4.2410002 0.034000002 0.059999999
4.25 0.039999999 0.059999999
4.244 0.046 0.059999999
4.25 0.050999999 0.059999999
4.2779999 0.057999998 0.061000001
4.2870002 0.063000001 0.061000001
4.2979999 0.068999998 0.061000001
4.3280001 0.075000003 0.061000001
4.3850002 0.082000002 0.061999999
4.1690001 0.054000001 0.017000001
4.1820002 0.061000001 0.017000001
4.1960001 0.068999998 0.017000001
4.2090001 0.077 0.017000001
4.2150002 0.085000001 0.016000001
4.2080002 0.093000002 0.016000001
4.2080002 0.101 0.016000001
4.2220001 0.109 0.016000001
4.2080002 0.117 0.016000001
4.2160001 0.126 0.016000001
4.2210002 0.134 0.016000001
4.2150002 0.142 0.016000001
4.2280002 0.15099999 0.016000001
4.2059999 0.15899999 0.016000001
4.1999998 0.168 0.016000001
4.2059999 0.177 0.016000001
4.184 0.185 0.016000001
4.2049999 0.19400001 0.016000001
4.177 0.20200001 0.015
4.177 0.211 0.015
4.1700001 0.22 0.015
4.1609998 0.229 0.015
4.1630001 0.23800001 0.015
4.1620002 0.24699999 0.015
4.1620002 0.25600001 0.015
4.1609998 0.266 0.015
4.152 0.27500001 0.015
4.1389999 0.28400001 0.015
4.1440001 0.294 0.015
4.1170001 0.301 0.014
4.1160002 0.31099999 0.014
4.1090002 0.31999999 0.014
4.0939999 0.329 0.014
4.086 0.338 0.014
4.0599999 0.34599999 0.014
4.0310001 0.35299999 0.014
3.9760001 0.35800001 0.014
3.934 0.36399999 0.013
3.9130001 0.37200001 0.013
3.905 0.38100001 0.013
3.8900001 0.389 0.013
3.8970001 0.40000001 0.013
3.888 0.40900001 0.013
3.8870001 0.419 0.013
3.9000001 0.43099999 0.013
3.8929999 0.44 0.013
3.8970001 0.45100001 0.013
3.8959999 0.461 0.013
3.895 0.47099999 0.013
3.888 0.48100001 0.012
3.8929999 0.49200001 0.012
3.8789999 0.5 0.012
3.8900001 0.51200002 0.012
3.8889999 0.523 0.012
3.8870001 0.53299999 0.012
3.8859999 0.54400003 0.012
3.911 0.55800003 0.012
3.964 0.57700002 0.012
4.1300001 0.61299998 0.013
4.2069998 0.63599998 0.013
4.2550001 0.65499997 0.013
4.322 0.67799997 0.013
5.3870001 0.86000001 0.016000001
5.3850002 0.875 0.016000001
5.3889999 0.89200002 0.016000001
5.3889999 0.90700001 0.016000001
5.381 0.92199999 0.016000001
5.3829999 0.93800002 0.016000001
5.381 0.95300001 0.016000001
5.3779998 0.96799999 0.016000001
5.375 0.98400003 0.016000001
5.3779998 1 0.015
5.375 1.016 0.015
5.3720002 1.031 0.015
5.369 1.0470001 0.015
5.3720002 1.064 0.015
5.3629999 1.0779999 0.015
5.3660002 1.095 0.015
5.3569999 1.11 0.015
5.3600001 1.127 0.015
5.3569999 1.143 0.015
5.3590002 1.16 0.015
5.3579998 1.176 0.014
5.3520002 1.192 0.014
5.3579998 1.21 0.014
5.3449998 1.224 0.014
5.3470001 1.2410001 0.014
5.3569999 1.26 0.014
5.3540001 1.276 0.014
5.3499999 1.293 0.014
5.3460002 1.308 0.014
5.3449998 1.325 0.014
5.3390002 1.341 0.014
5.3400002 1.359 0.013
5.336 1.375 0.013
5.3319998 1.391 0.013
5.3410001 1.411 0.013
5.3309999 1.426 0.013
5.3270001 1.442 0.013
5.3280001 1.46 0.013
5.3249998 1.476 0.013
5.323 1.493 0.013
5.3210001 1.511 0.013
5.322 1.529 0.012
5.3249998 1.5470001 0.012
5.3130002 1.561 0.012
5.3099999 1.5779999 0.012
5.316 1.598 0.012
5.3119998 1.615 0.012
5.3049998 1.63 0.012
5.3080001 1.649 0.012
5.303 1.666 0.012
5.3000002 1.683 0.012
5.2979999 1.7 0.012
5.3010001 1.719 0.011
5.302 1.738 0.011
5.296 1.7539999 0.011
5.2969999 1.772 0.011
5.2909999 1.789 0.011
5.2989998 1.8099999 0.011
5.2940001 1.826 0.011
5.29 1.8430001 0.011
5.283 1.859 0.011
5.283 1.877 0.011
5.2839999 1.897 0.011
5.2779999 1.913 0.0099999998
5.276 1.931 0.0099999998
5.2719998 1.948 0.0099999998
5.2779999 1.9680001 0.0099999998
5.2719998 1.985 0.0099999998
5.2719998 2.003 0.0099999998
5.2729998 2.0220001 0.0099999998
5.2589998 2.036 0.0099999998
5.2670002 2.0569999 0.0099999998
5.2600002 2.0739999 0.0099999998
5.2600002 2.092 0.0089999996
5.2589998 2.1099999 0.0089999996
5.2540002 2.1270001 0.0089999996
5.2540002 2.1459999 0.0089999996
5.2519999 2.164 0.0089999996
5.2519999 2.1830001 0.0089999996
5.2519999 2.2019999 0.0089999996
5.2579999 2.223 0.0089999996
5.2639999 2.244 0.0089999996
3.5969999 1.5470001 0.0060000001
3.4300001 1.487 0.0049999999
3.346 1.4630001 0.0049999999
3.266 1.4400001 0.0049999999
5.4089999 2.404 0.0080000004
5.4390001 2.437 0.0080000004
5.5009999 2.4849999 0.0080000004
5.4899998 2.5 0.0080000004
5.5229998 2.5350001 0.0080000004
5.4889998 2.539 0.0080000004
5.5440001 2.585 0.0080000004
5.4990001 2.5840001 0.0080000004
5.5120001 2.6099999 0.0080000004
5.5409999 2.704 0.0070000002
5.4710002 2.6900001 0.0070000002
5.427 2.6889999 0.0070000002
5.3280001 2.6589999 0.0070000002
5.2220001 2.625 0.0070000002
5.1059999 2.586 0.0060000001
5.0019999 2.5510001 0.0060000001
4.8959999 2.5150001 0.0060000001
4.816 2.4909999 0.0060000001
4.7420001 2.471 0.0060000001
4.717 2.474 0.0049999999
4.704 2.4849999 0.0049999999
4.6919999 2.4960001 0.0049999999
4.6950002 2.5150001 0.0049999999
