# .PCD v0.7 - Point Cloud Data file format
VERSION 0.7
FIELDS x y z
SIZE 4 4 4
TYPE F F F
COUNT 1 1 1
WIDTH 1786
HEIGHT 1
VIEWPOINT 0 0 0 1 0 0 0
POINTS 1786
DATA ascii
5.4200001 -1.5470001 -0.15000001
5.4029999 -1.524 -0.15000001
5.4120002 -1.508 -0.15000001
4.0370002 -1.1109999 -0.112
4.2810001 -1.164 -0.118
4.0609999 -1.0779999 -0.112
3.9100001 -1.025 -0.108
3.8670001 -1.001 -0.107
3.8699999 -0.98900002 -0.107
3.8640001 -0.97500002 -0.106
3.868 -0.96399999 -0.106
3.8729999 -0.95300001 -0.106
3.8729999 -0.94099998 -0.106
3.875 -0.92900002 -0.106
3.872 -0.91600001 -0.106
3.882 -0.90700001 -0.106
3.8710001 -0.89200002 -0.106
3.8740001 -0.88099998 -0.106
3.872 -0.86900002 -0.106
3.8710001 -0.85699999 -0.106
3.881 -0.84799999 -0.106
3.8670001 -0.833 -0.106
3.8840001 -0.82499999 -0.106
3.8800001 -0.81300002 -0.106
3.882 -0.80199999 -0.106
3.885 -0.792 -0.106
3.8789999 -0.77899998 -0.106
3.8829999 -0.76899999 -0.106
3.895 -0.75999999 -0.106
3.8789999 -0.74599999 -0.105
3.881 -0.736 -0.105
3.882 -0.72500002 -0.105
3.891 -0.71600002 -0.106
3.8929999 -0.70499998 -0.106
3.9089999 -0.69800001 -0.106
3.9189999 -0.68900001 -0.106
3.941 -0.68199998 -0.107
3.95 -0.67299998 -0.107
3.9519999 -0.66299999 -0.107
3.9549999 -0.653 -0.107
3.9549999 -0.64300001 -0.107
3.948 -0.63099998 -0.107
3.967 -0.62400001 -0.107
3.957 -0.61199999 -0.107
3.9630001 -0.60299999 -0.107
3.9630001 -0.59299999 -0.107
3.957 -0.58200002 -0.107
3.9660001 -0.57300001 -0.107
3.9579999 -0.56199998 -0.107
3.948 -0.551 -0.106
3.9189999 -0.537 -0.105
3.9059999 -0.52600002 -0.105
3.901 -0.51599997 -0.105
3.9170001 -0.50800002 -0.105
3.911 -0.498 -0.105
3.9070001 -0.48800001 -0.105
3.921 -0.48100001 -0.105
3.9219999 -0.472 -0.105
3.9230001 -0.46200001 -0.105
3.918 -0.45300001 -0.105
3.925 -0.44400001 -0.105
3.902 -0.433 -0.104
3.9200001 -0.426 -0.105
3.925 -0.41800001 -0.105
3.937 -0.41 -0.105
3.9530001 -0.403 -0.106
3.9719999 -0.396 -0.106
3.9809999 -0.38800001 -0.106
3.9879999 -0.38 -0.106
3.9960001 -0.37200001 -0.107
3.9990001 -0.36399999 -0.107
3.9849999 -0.354 -0.106
4 -0.347 -0.107
4.0019999 -0.338 -0.107
3.993 -0.329 -0.106
3.994 -0.32100001 -0.106
3.9890001 -0.31200001 -0.106
3.9949999 -0.30500001 -0.106
4.0040002 -0.29699999 -0.106
3.99 -0.28799999 -0.106
3.9909999 -0.28 -0.106
3.9860001 -0.27200001 -0.106
3.9619999 -0.26199999 -0.105
3.947 -0.25299999 -0.105
3.9560001 -0.24600001 -0.105
3.964 -0.23899999 -0.105
3.957 -0.23100001 -0.105
3.9519999 -0.223 -0.105
3.964 -0.21600001 -0.105
3.9660001 -0.20900001 -0.105
3.96 -0.20100001 -0.105
3.9590001 -0.19400001 -0.105
3.954 -0.186 -0.105
3.967 -0.17900001 -0.105
3.967 -0.17200001 -0.105
3.983 -0.16599999 -0.105
3.983 -0.15899999 -0.105
3.9820001 -0.15099999 -0.105
3.98 -0.14399999 -0.105
3.984 -0.13699999 -0.105
3.984 -0.13 -0.105
3.984 -0.124 -0.105
3.984 -0.117 -0.105
3.997 -0.11 -0.105
3.9849999 -0.103 -0.105
4.0079999 -0.097000003 -0.106
4.0139999 -0.090999998 -0.106
4.0139999 -0.083999999 -0.106
4.0359998 -0.078000002 -0.106
4.0289998 -0.071000002 -0.106
4.0209999 -0.064999998 -0.106
4.0300002 -0.057999998 -0.106
4.0510001 -0.052000001 -0.107
4.0580001 -0.046 -0.107
4.0640001 -0.039999999 -0.107
4.072 -0.034000002 -0.107
4.079 -0.027000001 -0.107
4.0869999 -0.021 -0.108
4.1020002 -0.015 -0.108
4.1079998 -0.0089999996 -0.108
4.0929999 -0.003 -0.108
4.1149998 0.0020000001 -0.108
4.1290002 0.0080000004 -0.109
4.1259999 0.014 -0.108
4.1589999 0.02 -0.109
4.1570001 0.026000001 -0.109
4.165 0.032000002 -0.109
4.1950002 0.037999999 -0.11
4.2010002 0.044 -0.11
4.223 0.050000001 -0.111
4.2740002 0.056000002 -0.112
5.79 0.067000002 -0.241
5.829 0.078000002 -0.243
5.8509998 0.089000002 -0.244
5.8499999 0.1 -0.244
5.8559999 0.111 -0.244
5.934 0.124 -0.24699999
5.9250002 0.13500001 -0.24699999
5.9780002 0.148 -0.249
5.9549999 0.219 -0.249
5.8740001 0.229 -0.24600001
5.783 0.237 -0.242
5.7709999 0.249 -0.242
5.7670002 0.26100001 -0.242
5.7839999 0.27500001 -0.243
5.7550001 0.28600001 -0.242
5.7649999 0.29899999 -0.242
5.7540002 0.31099999 -0.242
5.7540002 0.324 -0.242
5.7389998 0.336 -0.242
5.7309999 0.34900001 -0.241
5.7389998 0.36300001 -0.242
5.723 0.375 -0.241
5.7160001 0.38800001 -0.241
5.7069998 0.40000001 -0.241
5.6929998 0.41299999 -0.241
5.6919999 0.426 -0.241
5.6830001 0.43900001 -0.241
5.6459999 0.44999999 -0.23899999
5.6389999 0.463 -0.23899999
5.605 0.47400001 -0.23800001
5.552 0.484 -0.236
5.4949999 0.49200001 -0.234
5.4660001 0.50300002 -0.233
5.4510002 0.51599997 -0.23199999
5.4429998 0.52899998 -0.23199999
5.4390001 0.542 -0.23199999
5.4349999 0.55599999 -0.23199999
5.4460001 0.57099998 -0.233
5.4380002 0.58399999 -0.233
5.4429998 0.59899998 -0.233
5.4320002 0.61199999 -0.233
5.441 0.62800002 -0.233
5.4380002 0.64200002 -0.233
5.4359999 0.65600002 -0.234
5.448 0.67199999 -0.234
5.4439998 0.68599999 -0.234
5.4439998 0.70099998 -0.235
5.441 0.71600002 -0.235
5.441 0.73000002 -0.235
5.4390001 0.745 -0.235
5.4450002 0.76099998 -0.236
5.4489999 0.77700001 -0.236
5.427 0.78899997 -0.235
5.4369998 0.80599999 -0.236
5.441 0.82200003 -0.236
5.4349999 0.83700001 -0.236
5.4359999 0.852 -0.237
5.4310002 0.86699998 -0.237
5.4460001 0.88499999 -0.23800001
5.4419999 0.89999998 -0.23800001
5.4380002 0.91500002 -0.23800001
5.4439998 0.93199998 -0.23800001
5.4380002 0.94700003 -0.23800001
5.4439998 0.96499997 -0.23899999
5.4499998 0.98199999 -0.23899999
5.448 0.99699998 -0.23999999
5.4510002 1.0140001 -0.23999999
5.4439998 1.029 -0.23999999
5.4450002 1.046 -0.23999999
5.4549999 1.0650001 -0.241
5.4590001 1.082 -0.241
5.4559999 1.098 -0.242
5.4429998 1.112 -0.241
5.4549999 1.131 -0.242
5.4520001 1.147 -0.242
5.4450002 1.163 -0.242
5.4580002 1.183 -0.243
5.4549999 1.199 -0.243
5.4510002 1.215 -0.244
5.448 1.2309999 -0.244
5.454 1.25 -0.244
5.4530001 1.267 -0.245
5.448 1.283 -0.245
5.4530001 1.302 -0.245
5.4559999 1.3200001 -0.24600001
5.4510002 1.336 -0.24600001
5.447 1.353 -0.24600001
5.454 1.372 -0.24699999
5.4510002 1.3890001 -0.24699999
5.46 1.409 -0.248
5.4590001 1.426 -0.248
5.4660001 1.446 -0.248
5.4590001 1.462 -0.249
5.4489999 1.477 -0.248
5.4520001 1.4960001 -0.249
5.4590001 1.516 -0.25
5.4549999 1.533 -0.25
5.448 1.549 -0.25
5.4590001 1.571 -0.25099999
5.467 1.591 -0.25099999
5.4530001 1.6059999 -0.25099999
5.4569998 1.625 -0.252
5.4569998 1.643 -0.252
5.4580002 1.6619999 -0.252
5.4549999 1.6799999 -0.25299999
5.4770002 1.705 -0.25400001
5.5019999 1.7309999 -0.25600001
3.6670001 1.166 -0.17
3.566 1.146 -0.16599999
3.483 1.132 -0.162
3.402 1.117 -0.15899999
3.411 1.215 -0.161
3.5309999 1.27 -0.167
4.9419999 1.795 -0.235
4.8969998 1.796 -0.233
4.8730001 1.804 -0.23199999
4.8499999 1.812 -0.23100001
4.862 1.834 -0.23199999
4.8639998 1.852 -0.233
4.8559999 1.8660001 -0.233
4.8629999 1.886 -0.234
4.8569999 1.901 -0.234
4.8629999 1.921 -0.234
4.8449998 1.931 -0.234
4.8590002 1.954 -0.235
4.9180002 1.995 -0.23800001
5.1680002 2.1159999 -0.25099999
5.309 2.4230001 -0.264
5.1209998 2.355 -0.255
4.9990001 2.3169999 -0.249
4.9109998 2.2950001 -0.245
4.8740001 2.2950001 -0.244
4.8800001 2.316 -0.244
4.8769999 2.332 -0.245
4.8909998 2.3570001 -0.24600001
4.8899999 2.3740001 -0.24600001
4.8909998 2.392 -0.24699999
4.8940001 2.4119999 -0.24699999
4.8959999 2.431 -0.248
4.8959999 2.4489999 -0.248
4.8889999 2.4630001 -0.248
4.895 2.484 -0.249
4.9060001 2.507 -0.25
4.901 2.523 -0.25
4.908 2.5450001 -0.25099999
3.888 2.03 -0.199
3.809 2.0020001 -0.19599999
3.79 2.007 -0.19499999
3.7679999 2.0090001 -0.19400001
3.7679999 2.0220001 -0.19499999
3.75 2.026 -0.19400001
3.7379999 2.033 -0.19400001
3.7379999 2.0469999 -0.19400001
3.7160001 2.0480001 -0.193
3.698 2.052 -0.193
3.6860001 2.059 -0.193
3.678 2.0680001 -0.192
3.6930001 2.0899999 -0.19400001
3.675 2.0929999 -0.193
3.658 2.096 -0.193
3.622 2.089 -0.191
3.6070001 2.0940001 -0.191
3.6040001 2.105 -0.191
3.602 2.1159999 -0.191
3.599 2.128 -0.191
3.5929999 2.1370001 -0.191
3.6010001 2.154 -0.192
3.5999999 2.1670001 -0.192
3.599 2.1789999 -0.193
3.619 2.204 -0.19400001
3.6240001 2.22 -0.19499999
3.6129999 2.2260001 -0.19499999
3.6059999 2.2349999 -0.19499999
3.6140001 2.253 -0.19599999
3.631 2.276 -0.197
3.641 2.2950001 -0.198
3.6340001 2.303 -0.198
3.6459999 2.3239999 -0.199
3.625 2.323 -0.198
3.618 2.3310001 -0.198
3.635 2.3540001 -0.199
3.6400001 2.3699999 -0.2
3.6570001 2.3940001 -0.20100001
3.641 2.3959999 -0.20100001
3.6059999 2.385 -0.199
3.6170001 2.405 -0.2
3.635 2.4300001 -0.20200001
3.6800001 2.4719999 -0.205
3.7409999 2.5250001 -0.20900001
4.4910002 3.0469999 -0.25099999
4.4060001 3.0039999 -0.24699999
4.3699999 2.994 -0.245
4.3579998 3 -0.245
4.3559999 3.013 -0.245
4.3499999 3.023 -0.245
4.3610001 3.0450001 -0.24699999
4.3590002 3.0580001 -0.24699999
4.3520002 3.0669999 -0.24699999
4.355 3.0829999 -0.248
4.3610001 3.1010001 -0.249
4.355 3.1099999 -0.249
4.348 3.119 -0.249
4.3590002 3.141 -0.25
4.3639998 3.158 -0.25099999
4.3850002 3.1860001 -0.252
4.3899999 3.2030001 -0.25299999
5.3920002 -3.154 -0.146
5.3889999 -3.138 -0.146
5.3850002 -3.1199999 -0.146
5.3889999 -3.108 -0.146
5.3920002 -3.0940001 -0.146
5.3909998 -3.079 -0.146
5.3899999 -3.063 -0.146
5.3670001 -3.0350001 -0.145
5.348 -3.0090001 -0.14399999
5.3299999 -2.984 -0.14399999
5.3239999 -2.9660001 -0.14399999
5.3140001 -2.9449999 -0.14300001
5.3060002 -2.925 -0.14300001
5.3080001 -2.9119999 -0.14300001
5.3119998 -2.8989999 -0.14300001
5.3000002 -2.8770001 -0.14300001
5.2909999 -2.858 -0.142
5.2940001 -2.8440001 -0.142
5.3130002 -2.8399999 -0.14300001
5.3309999 -2.8340001 -0.14300001
5.3239999 -2.8150001 -0.14300001
5.3169999 -2.796 -0.142
5.2909999 -2.7679999 -0.142
5.2870002 -2.75 -0.141
5.2919998 -2.7379999 -0.142
5.2909999 -2.723 -0.141
5.2839999 -2.704 -0.141
5.2969999 -2.6960001 -0.141
5.2849998 -2.675 -0.141
5.2909999 -2.6619999 -0.141
5.2839999 -2.6440001 -0.141
5.2789998 -2.6259999 -0.141
5.2690001 -2.6059999 -0.14
5.2690001 -2.5910001 -0.14
5.283 -2.5829999 -0.14
5.2820001 -2.5669999 -0.14
5.29 -2.556 -0.141
5.3060002 -2.549 -0.141
5.309 -2.5350001 -0.141
5.3239999 -2.527 -0.141
5.3169999 -2.5079999 -0.141
5.3200002 -2.494 -0.141
5.3299999 -2.484 -0.141
5.3200002 -2.464 -0.141
5.3280001 -2.4530001 -0.141
5.3270001 -2.437 -0.141
5.3379998 -2.4260001 -0.141
5.3319998 -2.408 -0.141
5.3299999 -2.392 -0.141
5.336 -2.3800001 -0.141
5.335 -2.3640001 -0.141
5.3379998 -2.3499999 -0.14
5.3390002 -2.335 -0.14
5.3369999 -2.319 -0.14
5.3449998 -2.3069999 -0.14
5.3509998 -2.2939999 -0.14
5.3559999 -2.2809999 -0.141
5.355 -2.2650001 -0.14
5.3400002 -2.243 -0.14
5.3520002 -2.233 -0.14
5.3590002 -2.221 -0.14
5.3559999 -2.204 -0.14
5.349 -2.1860001 -0.14
5.3670001 -2.178 -0.14
5.3600001 -2.1600001 -0.14
5.3649998 -2.1459999 -0.14
5.3559999 -2.1270001 -0.14
5.3769999 -2.1199999 -0.14
5.369 -2.102 -0.14
5.3740001 -2.0880001 -0.14
5.3779998 -2.0739999 -0.14
5.382 -2.0599999 -0.14
5.3759999 -2.043 -0.14
5.3709998 -2.0250001 -0.139
5.3720002 -2.01 -0.139
5.3779998 -1.997 -0.139
5.3800001 -1.982 -0.139
5.3870001 -1.969 -0.14
5.3889999 -1.955 -0.14
5.3839998 -1.937 -0.139
5.3889999 -1.924 -0.139
5.3930001 -1.91 -0.139
5.3979998 -1.896 -0.139
5.395 -1.8789999 -0.139
5.408 -1.869 -0.139
5.4000001 -1.85 -0.139
5.3920002 -1.832 -0.139
5.3959999 -1.818 -0.139
5.3969998 -1.803 -0.139
5.4029999 -1.789 -0.139
5.4099998 -1.776 -0.139
5.4070001 -1.76 -0.139
5.4039998 -1.743 -0.139
5.4000001 -1.727 -0.138
5.408 -1.7130001 -0.139
5.4120002 -1.699 -0.139
5.415 -1.6849999 -0.139
5.4130001 -1.669 -0.138
5.402 -1.65 -0.138
5.4099998 -1.637 -0.138
5.4120002 -1.622 -0.138
5.415 -1.607 -0.138
5.414 -1.591 -0.138
5.4089999 -1.575 -0.138
5.414 -1.561 -0.138
5.427 -1.549 -0.138
5.4250002 -1.533 -0.138
5.427 -1.517 -0.138
5.415 -1.499 -0.138
5.4219999 -1.485 -0.138
5.4260001 -1.471 -0.138
4.1199999 -1.105 -0.104
4.0609999 -1.077 -0.103
4.256 -1.117 -0.108
4.1529999 -1.066 -0.105
3.9679999 -1.008 -0.1
3.901 -0.97899997 -0.097999997
3.8740001 -0.96100003 -0.097999997
3.8710001 -0.94999999 -0.097999997
3.8740001 -0.93900001 -0.097999997
3.8699999 -0.92699999 -0.097000003
3.872 -0.917 -0.097000003
3.8800001 -0.90799999 -0.097000003
3.8840001 -0.89700001 -0.097999997
3.8789999 -0.88499999 -0.097000003
3.882 -0.875 -0.097000003
3.8900001 -0.866 -0.097000003
3.8789999 -0.852 -0.097000003
3.881 -0.84200001 -0.097000003
3.885 -0.83099997 -0.097000003
3.8800001 -0.81900001 -0.097000003
3.8900001 -0.81 -0.097000003
3.8870001 -0.79900002 -0.097000003
3.892 -0.78899997 -0.097000003
3.8870001 -0.77700001 -0.097000003
3.8840001 -0.76499999 -0.097000003
3.892 -0.755 -0.097000003
3.8889999 -0.74400002 -0.097000003
3.8900001 -0.73299998 -0.097000003
3.8900001 -0.722 -0.097000003
3.8859999 -0.70999998 -0.096000001
3.888 -0.699 -0.096000001
3.8870001 -0.68800002 -0.096000001
3.9000001 -0.67900002 -0.097000003
3.9159999 -0.671 -0.097000003
3.9389999 -0.66399997 -0.097000003
3.947 -0.65399998 -0.097999997
3.9489999 -0.64300001 -0.097999997
3.9590001 -0.63300002 -0.097999997
3.967 -0.62300003 -0.097999997
3.9530001 -0.61000001 -0.097999997
3.9489999 -0.59799999 -0.097000003
3.9549999 -0.588 -0.097000003
3.9579999 -0.57700002 -0.097000003
3.961 -0.56599998 -0.097000003
3.9560001 -0.55400002 -0.097000003
3.914 -0.537 -0.096000001
3.8989999 -0.52399999 -0.096000001
3.904 -0.514 -0.096000001
3.911 -0.50400001 -0.096000001
3.9119999 -0.493 -0.096000001
3.914 -0.48199999 -0.096000001
3.921 -0.472 -0.096000001
3.9100001 -0.45899999 -0.096000001
3.918 -0.449 -0.096000001
3.9489999 -0.44100001 -0.096000001
3.9630001 -0.43200001 -0.097000003
3.9760001 -0.42199999 -0.097000003
3.9790001 -0.41100001 -0.097000003
3.987 -0.40099999 -0.097000003
3.9879999 -0.389 -0.097000003
3.9909999 -0.37799999 -0.097000003
3.987 -0.36700001 -0.097000003
3.9909999 -0.35600001 -0.097000003
3.994 -0.345 -0.097000003
3.9779999 -0.33199999 -0.097000003
3.9660001 -0.31999999 -0.096000001
3.95 -0.30700001 -0.096000001
3.9530001 -0.29699999 -0.096000001
3.948 -0.285 -0.096000001
3.9619999 -0.27500001 -0.096000001
3.95 -0.26300001 -0.094999999
3.948 -0.252 -0.094999999
3.9489999 -0.23999999 -0.094999999
3.9590001 -0.23 -0.094999999
3.967 -0.219 -0.096000001
3.974 -0.208 -0.096000001
3.98 -0.197 -0.096000001
3.9820001 -0.186 -0.096000001
3.9820001 -0.175 -0.096000001
3.9979999 -0.164 -0.096000001
3.9979999 -0.153 -0.096000001
4.0050001 -0.142 -0.096000001
4.013 -0.131 -0.096000001
4.0209999 -0.12 -0.096000001
4.027 -0.109 -0.096000001
4.0359998 -0.097000003 -0.097000003
4.033 -0.086000003 -0.096000001
4.0580001 -0.075000003 -0.097000003
4.066 -0.064000003 -0.097000003
4.0869999 -0.052999999 -0.097000003
4.0929999 -0.041000001 -0.097999997
4.0929999 -0.028999999 -0.097000003
4.1079998 -0.017999999 -0.097999997
4.1230001 -0.0060000001 -0.097999997
4.1290002 0.0040000002 -0.097999997
4.1360002 0.016000001 -0.097999997
4.1690001 0.028000001 -0.098999999
4.1869998 0.039999999 -0.098999999
4.1799998 0.052000001 -0.098999999
4.244 0.064000003 -0.101
4.316 0.078000002 -0.102
5.6739998 0.028999999 -0.221
5.6739998 0.034000002 -0.221
5.6739998 0.039999999 -0.221
5.6669998 0.046 -0.221
5.665 0.050999999 -0.221
5.6609998 0.057 -0.221
5.6529999 0.063000001 -0.22
5.6550002 0.07 -0.22
5.6409998 0.075999998 -0.22
5.6430001 0.082000002 -0.22
5.6329999 0.089000002 -0.22
5.6300001 0.096000001 -0.22
4.5149999 0.082000002 -0.176
4.4819999 0.086999997 -0.175
4.5349998 0.093999997 -0.177
4.467 0.098999999 -0.17399999
4.4180002 0.103 -0.17299999
4.4120002 0.109 -0.17200001
4.3850002 0.115 -0.171
4.3629999 0.12 -0.171
4.3569999 0.126 -0.17
4.3239999 0.131 -0.169
4.3429999 0.138 -0.17
4.3639998 0.146 -0.171
4.3979998 0.153 -0.17200001
5.494 0.2 -0.215
5.4770002 0.208 -0.215
5.4720001 0.21699999 -0.215
5.4720001 0.226 -0.215
5.4679999 0.234 -0.215
5.4650002 0.243 -0.215
5.4580002 0.252 -0.215
5.4569998 0.26100001 -0.215
5.4580002 0.271 -0.215
5.4559999 0.28 -0.215
5.4499998 0.289 -0.215
5.4530001 0.29899999 -0.215
5.454 0.30899999 -0.215
5.454 0.31900001 -0.215
5.4530001 0.329 -0.21600001
5.4530001 0.33899999 -0.21600001
5.4439998 0.34900001 -0.215
5.4510002 0.36000001 -0.21600001
5.4510002 0.37099999 -0.21600001
5.441 0.38100001 -0.21600001
5.4429998 0.39199999 -0.21600001
5.4419999 0.40200001 -0.21600001
5.441 0.41299999 -0.21600001
5.447 0.42500001 -0.21699999
5.447 0.43599999 -0.21699999
5.4369998 0.44600001 -0.21699999
5.4380002 0.458 -0.21699999
5.4429998 0.47 -0.21699999
5.4419999 0.48100001 -0.21699999
5.441 0.493 -0.21699999
5.4400001 0.505 -0.21799999
5.4359999 0.51599997 -0.21799999
5.4429998 0.52899998 -0.21799999
5.4359999 0.54100001 -0.21799999
5.4320002 0.55199999 -0.21799999
5.4400001 0.56599998 -0.219
5.447 0.579 -0.219
5.4310002 0.58999997 -0.219
5.4429998 0.60399997 -0.219
5.441 0.616 -0.219
5.4400001 0.62900001 -0.22
5.4369998 0.64200002 -0.22
5.4369998 0.65499997 -0.22
5.4369998 0.66799998 -0.22
5.4310002 0.68000001 -0.22
5.4320002 0.69400001 -0.22
5.4390001 0.708 -0.221
5.428 0.72000003 -0.221
5.4400001 0.736 -0.221
5.4419999 0.75 -0.222
5.4369998 0.76300001 -0.222
5.4330001 0.77600002 -0.222
5.4330001 0.79000002 -0.222
5.4460001 0.80599999 -0.223
5.4349999 0.81900001 -0.222
5.4390001 0.83399999 -0.223
5.4419999 0.84899998 -0.223
5.4349999 0.86199999 -0.223
5.4330001 0.87599999 -0.223
5.4390001 0.89200002 -0.22400001
5.4419999 0.90700001 -0.22400001
5.4390001 0.92199999 -0.22400001
5.4369998 0.93599999 -0.22499999
5.441 0.95200002 -0.22499999
5.4439998 0.96799999 -0.22499999
5.4499998 0.98400003 -0.226
5.4439998 0.99900001 -0.226
5.4439998 1.0140001 -0.226
5.448 1.03 -0.227
5.4450002 1.046 -0.227
5.4419999 1.061 -0.227
5.4439998 1.077 -0.227
5.4419999 1.092 -0.228
5.447 1.109 -0.228
5.4419999 1.124 -0.228
5.4460001 1.142 -0.229
5.4499998 1.159 -0.229
5.447 1.174 -0.229
5.4429998 1.1900001 -0.23
5.4450002 1.207 -0.23
5.4499998 1.225 -0.23
5.4439998 1.24 -0.23100001
5.4549999 1.2589999 -0.23100001
5.4510002 1.275 -0.23100001
5.448 1.291 -0.23199999
5.4569998 1.311 -0.23199999
5.4559999 1.3279999 -0.233
5.4489999 1.3430001 -0.233
5.4450002 1.36 -0.233
5.447 1.378 -0.233
5.4569998 1.398 -0.234
5.447 1.413 -0.234
5.4489999 1.431 -0.234
5.4510002 1.449 -0.235
5.4460001 1.465 -0.235
5.441 1.482 -0.235
5.4400001 1.5 -0.235
5.4520001 1.521 -0.236
5.4530001 1.54 -0.237
5.4489999 1.557 -0.237
5.4499998 1.575 -0.237
5.4419999 1.592 -0.237
5.448 1.612 -0.23800001
5.4489999 1.631 -0.23800001
5.4499998 1.65 -0.23899999
5.4450002 1.6670001 -0.23899999
5.4510002 1.688 -0.23999999
5.448 1.705 -0.23999999
5.4749999 1.733 -0.242
3.7360001 1.196 -0.16500001
3.582 1.159 -0.15800001
5.2090001 1.854 -0.234
5.039 1.812 -0.227
4.9489999 1.798 -0.223
4.9109998 1.802 -0.222
4.8730001 1.806 -0.221
4.8670001 1.822 -0.221
4.8660002 1.84 -0.221
4.862 1.857 -0.221
4.8540001 1.872 -0.221
4.862 1.8940001 -0.222
4.855 1.909 -0.222
4.855 1.928 -0.223
4.8720002 1.954 -0.22400001
4.9629998 2.0090001 -0.228
5.237 2.368 -0.24699999
5.0929999 2.3239999 -0.23999999
4.9489999 2.2780001 -0.234
4.8920002 2.2720001 -0.23199999
4.882 2.2869999 -0.23199999
4.888 2.3099999 -0.23199999
4.9060001 2.339 -0.234
4.9039998 2.358 -0.234
4.902 2.378 -0.235
4.8990002 2.3959999 -0.235
4.9050002 2.4200001 -0.236
4.902 2.4389999 -0.236
4.9039998 2.461 -0.237
4.9109998 2.4849999 -0.237
4.9039998 2.5020001 -0.23800001
3.9849999 2.05 -0.193
3.826 1.985 -0.186
3.8239999 2 -0.186
3.8199999 2.0139999 -0.186
3.9089999 2.0780001 -0.191
3.7060001 2.184 -0.186
3.6900001 2.191 -0.186
3.632 2.1730001 -0.184
3.5680001 2.151 -0.18099999
3.5280001 2.1429999 -0.17900001
3.5020001 2.1440001 -0.178
3.454 2.1300001 -0.176
3.457 2.148 -0.177
3.447 2.158 -0.177
3.4219999 2.158 -0.176
3.4130001 2.168 -0.176
3.4360001 2.1989999 -0.177
3.503 2.2590001 -0.18099999
4.6719999 3.0339999 -0.242
4.651 3.0420001 -0.242
4.632 3.052 -0.241
4.6240001 3.069 -0.241
4.6069999 3.079 -0.241
4.599 3.096 -0.241
4.5830002 3.1070001 -0.241
4.573 3.122 -0.241
4.5630002 3.1370001 -0.241
4.5320001 3.1389999 -0.23999999
4.5300002 3.1589999 -0.23999999
3.9130001 2.747 -0.208
3.8940001 2.753 -0.208
3.8440001 2.737 -0.205
4.46 3.197 -0.23899999
3.7869999 2.734 -0.20299999
5.131 -3.3940001 -0.12899999
5.1459999 -3.3710001 -0.12899999
5.1729999 -3.3559999 -0.12899999
5.1810002 -3.329 -0.13
5.2020001 -3.3099999 -0.13
5.217 -3.2880001 -0.13
5.23 -3.2650001 -0.13
5.2350001 -3.237 -0.13
5.2350001 -3.2060001 -0.13
5.2160001 -3.1630001 -0.12899999
5.2189999 -3.135 -0.12899999
5.2119999 -3.1010001 -0.12899999
5.2129998 -3.0710001 -0.12899999
5.2150002 -3.043 -0.12899999
5.2189999 -3.016 -0.12899999
5.2090001 -2.98 -0.12800001
5.2030001 -2.948 -0.12800001
5.2290001 -2.934 -0.12800001
5.2509999 -2.9189999 -0.12899999
5.2709999 -2.901 -0.12899999
5.2509999 -2.862 -0.12800001
5.244 -2.8299999 -0.12800001
5.2379999 -2.799 -0.12800001
5.2480001 -2.7780001 -0.12800001
5.244 -2.7490001 -0.12800001
5.2449999 -2.7219999 -0.127
5.2680001 -2.707 -0.12800001
5.2610002 -2.677 -0.12800001
5.2639999 -2.652 -0.127
5.2550001 -2.622 -0.127
5.2459998 -2.5910001 -0.127
5.2620001 -2.5739999 -0.127
5.2909999 -2.562 -0.12800001
5.303 -2.5420001 -0.12800001
5.3060002 -2.5179999 -0.12800001
5.3150001 -2.4979999 -0.12800001
5.3189998 -2.474 -0.12800001
5.3150001 -2.448 -0.127
5.3239999 -2.427 -0.12800001
5.322 -2.402 -0.127
5.335 -2.3829999 -0.12800001
5.3379998 -2.3610001 -0.127
5.3379998 -2.3369999 -0.127
5.342 -2.3150001 -0.127
5.3520002 -2.2950001 -0.127
5.3530002 -2.2720001 -0.127
5.3559999 -2.25 -0.127
5.3540001 -2.2260001 -0.127
5.3649998 -2.207 -0.127
5.3670001 -2.1860001 -0.127
5.368 -2.1630001 -0.127
5.3610001 -2.138 -0.127
5.3720002 -2.1199999 -0.127
5.3829999 -2.102 -0.127
5.382 -2.079 -0.127
5.3839998 -2.0580001 -0.127
5.3860002 -2.0369999 -0.127
5.381 -2.013 -0.126
5.388 -1.995 -0.127
5.3839998 -1.972 -0.126
5.3870001 -1.952 -0.126
5.3940001 -1.933 -0.126
5.381 -1.9069999 -0.126
5.3930001 -1.891 -0.126
5.3979998 -1.872 -0.126
5.4070001 -1.854 -0.126
5.4050002 -1.8329999 -0.126
5.3959999 -1.8099999 -0.126
5.4039998 -1.793 -0.126
5.3959999 -1.77 -0.125
5.3959999 -1.75 -0.125
5.408 -1.734 -0.126
5.3959999 -1.711 -0.125
5.4060001 -1.694 -0.125
5.4029999 -1.674 -0.125
5.4099998 -1.6569999 -0.125
5.408 -1.637 -0.125
5.3979998 -1.615 -0.125
5.4060001 -1.599 -0.125
5.4159999 -1.5829999 -0.125
5.401 -1.5599999 -0.124
5.427 -1.549 -0.125
5.408 -1.525 -0.124
5.4159999 -1.5089999 -0.125
4.0479999 -1.114 -0.093000002
4.1240001 -1.1210001 -0.094999999
4.1620002 -1.104 -0.094999999
3.9389999 -1.0319999 -0.090000004
3.8740001 -1.003 -0.089000002
3.8610001 -0.98699999 -0.088
3.865 -0.97500002 -0.088
3.8710001 -0.96499997 -0.088
3.8699999 -0.95200002 -0.088
3.8710001 -0.94 -0.088
3.8699999 -0.92799997 -0.088
3.872 -0.91600001 -0.088
3.872 -0.90399998 -0.088
3.8699999 -0.89200002 -0.088
3.8699999 -0.88 -0.088
3.875 -0.87 -0.088
3.8710001 -0.85699999 -0.088
3.882 -0.84799999 -0.088
3.8840001 -0.83700001 -0.088
3.885 -0.82499999 -0.088
3.881 -0.81300002 -0.088
3.8770001 -0.801 -0.088
3.885 -0.792 -0.088
3.8789999 -0.77899998 -0.088
3.881 -0.76899999 -0.088
3.885 -0.75800002 -0.088
3.8789999 -0.74599999 -0.086999997
3.8870001 -0.73699999 -0.088
3.891 -0.727 -0.088
3.9000001 -0.71799999 -0.088
3.8929999 -0.70599997 -0.086999997
3.918 -0.69999999 -0.088
3.9489999 -0.69400001 -0.089000002
3.951 -0.68400002 -0.089000002
3.9489999 -0.67299998 -0.089000002
3.954 -0.66299999 -0.089000002
3.948 -0.65200001 -0.088
3.9560001 -0.64300001 -0.089000002
3.9660001 -0.634 -0.089000002
3.9619999 -0.62300003 -0.089000002
3.9679999 -0.61400002 -0.089000002
3.9549999 -0.602 -0.088
3.957 -0.59200001 -0.088
3.9579999 -0.58200002 -0.088
3.957 -0.57200003 -0.088
3.961 -0.56300002 -0.088
3.9619999 -0.55299997 -0.088
3.937 -0.54000002 -0.088
3.908 -0.52600002 -0.086999997
3.9089999 -0.51700002 -0.086999997
3.911 -0.50800002 -0.086999997
3.904 -0.49700001 -0.086999997
3.9130001 -0.48899999 -0.086999997
3.921 -0.48100001 -0.086999997
3.915 -0.47099999 -0.086999997
3.9230001 -0.463 -0.086999997
3.9170001 -0.45300001 -0.086999997
3.9100001 -0.44299999 -0.086999997
3.9189999 -0.435 -0.086999997
3.927 -0.42699999 -0.086999997
3.9489999 -0.421 -0.086999997
3.98 -0.41499999 -0.088
3.9809999 -0.40599999 -0.088
3.9809999 -0.39700001 -0.088
3.9990001 -0.38999999 -0.088
3.9890001 -0.38100001 -0.088
3.9979999 -0.373 -0.088
3.9909999 -0.36300001 -0.088
4 -0.35600001 -0.088
4.0009999 -0.347 -0.088
4.0009999 -0.33899999 -0.088
3.994 -0.33000001 -0.088
3.9890001 -0.32100001 -0.088
3.9949999 -0.31299999 -0.088
3.9990001 -0.30500001 -0.088
4.0019999 -0.29699999 -0.088
4.0050001 -0.289 -0.088
3.9920001 -0.28 -0.088
3.9909999 -0.27200001 -0.088
3.9690001 -0.26300001 -0.086999997
3.95 -0.25400001 -0.086999997
3.9489999 -0.24600001 -0.086999997
3.951 -0.23899999 -0.086999997
3.95 -0.23100001 -0.086999997
3.9579999 -0.22400001 -0.086999997
3.96 -0.21600001 -0.086999997
3.9590001 -0.20900001 -0.086999997
3.951 -0.20100001 -0.086000003
3.96 -0.19400001 -0.086999997
3.967 -0.18700001 -0.086999997
3.967 -0.18000001 -0.086999997
3.9679999 -0.17299999 -0.086999997
3.97 -0.16599999 -0.086999997
3.9760001 -0.15899999 -0.086999997
3.9690001 -0.15099999 -0.086999997
3.984 -0.145 -0.086999997
3.9920001 -0.138 -0.086999997
3.977 -0.131 -0.086999997
3.9849999 -0.124 -0.086999997
3.994 -0.118 -0.086999997
3.993 -0.111 -0.086999997
3.9990001 -0.104 -0.086999997
3.9990001 -0.097000003 -0.086999997
4.0139999 -0.090999998 -0.086999997
4.0300002 -0.085000001 -0.088
4.0149999 -0.078000002 -0.086999997
4.0300002 -0.071999997 -0.088
4.0219998 -0.064999998 -0.088
4.0279999 -0.059 -0.088
4.0419998 -0.052999999 -0.088
4.0510001 -0.046 -0.088
4.0640001 -0.039999999 -0.088
4.079 -0.034000002 -0.089000002
4.073 -0.028000001 -0.088
4.0939999 -0.022 -0.089000002
4.0869999 -0.016000001 -0.089000002
4.1160002 -0.0099999998 -0.089000002
4.1009998 -0.003 -0.089000002
4.1240001 0.0020000001 -0.089000002
4.1300001 0.0080000004 -0.090000004
4.1290002 0.014 -0.090000004
4.1570001 0.02 -0.090000004
4.1589999 0.025 -0.090000004
4.1719999 0.030999999 -0.090000004
4.1919999 0.037 -0.090999998
4.2010002 0.043000001 -0.090999998
4.244 0.048999999 -0.092
4.2740002 0.056000002 -0.093000002
5.7360001 0.067000002 -0.208
5.783 0.078000002 -0.20999999
5.7909999 0.089000002 -0.211
5.803 0.1 -0.211
5.8330002 0.111 -0.212
5.8439999 0.123 -0.213
5.8769999 0.13500001 -0.214
5.8499999 0.145 -0.213
5.8559999 0.15700001 -0.214
5.8790002 0.169 -0.215
5.8829999 0.18099999 -0.215
5.822 0.191 -0.213
5.8070002 0.20299999 -0.212
5.7940001 0.214 -0.212
5.8060002 0.227 -0.213
5.7589998 0.237 -0.211
5.7719998 0.25 -0.212
5.7709999 0.26199999 -0.212
5.77 0.27500001 -0.212
5.7589998 0.287 -0.212
5.756 0.29899999 -0.212
5.75 0.31200001 -0.212
5.7399998 0.324 -0.211
5.7399998 0.33700001 -0.211
5.7259998 0.34900001 -0.211
5.717 0.36199999 -0.211
5.7210002 0.375 -0.211
5.7290001 0.389 -0.212
5.7020001 0.40000001 -0.211
5.6859999 0.41299999 -0.20999999
5.6799998 0.426 -0.20999999
5.664 0.43799999 -0.20999999
5.6500001 0.45100001 -0.20999999
5.6290002 0.463 -0.20900001
5.592 0.47400001 -0.208
5.539 0.48300001 -0.206
5.4959998 0.493 -0.205
5.4619999 0.50300002 -0.20299999
5.4390001 0.51499999 -0.20299999
5.4349999 0.528 -0.20299999
5.4369998 0.542 -0.20299999
5.4349999 0.55599999 -0.20299999
5.434 0.56999999 -0.20299999
5.4390001 0.58499998 -0.204
5.4439998 0.59899998 -0.204
5.4439998 0.61400002 -0.204
5.4320002 0.62699997 -0.204
5.4390001 0.64200002 -0.205
5.4369998 0.65600002 -0.205
5.4369998 0.671 -0.205
5.4419999 0.68599999 -0.205
5.4369998 0.69999999 -0.205
5.4359999 0.71499997 -0.205
5.428 0.72899997 -0.205
5.441 0.74599999 -0.206
5.4390001 0.75999999 -0.206
5.427 0.77399999 -0.206
5.4400001 0.79100001 -0.207
5.4460001 0.80699998 -0.207
5.4390001 0.82200003 -0.207
5.441 0.83700001 -0.207
5.4450002 0.85399997 -0.208
5.4429998 0.86900002 -0.208
5.4400001 0.884 -0.208
5.4419999 0.89999998 -0.208
5.448 0.917 -0.20900001
5.441 0.93199998 -0.20900001
5.4359999 0.94700003 -0.20900001
5.448 0.96499997 -0.20999999
5.4429998 0.98000002 -0.20999999
5.4419999 0.99599999 -0.20999999
5.4450002 1.013 -0.20999999
5.4489999 1.03 -0.211
5.4460001 1.046 -0.211
5.4419999 1.062 -0.211
5.4530001 1.081 -0.212
5.4510002 1.097 -0.212
5.447 1.113 -0.212
5.4549999 1.131 -0.213
5.4400001 1.145 -0.212
5.4499998 1.163 -0.213
5.454 1.181 -0.213
5.4419999 1.196 -0.213
5.4450002 1.2130001 -0.214
5.4489999 1.2309999 -0.214
5.4520001 1.249 -0.214
5.4530001 1.267 -0.215
5.4429998 1.2819999 -0.215
5.454 1.302 -0.215
5.4419999 1.316 -0.215
5.4520001 1.336 -0.21600001
5.448 1.353 -0.21600001
5.4580002 1.373 -0.21699999
5.4520001 1.3890001 -0.21699999
5.448 1.405 -0.21699999
5.4510002 1.424 -0.21699999
5.4499998 1.442 -0.21799999
5.4549999 1.461 -0.21799999
5.4439998 1.476 -0.21799999
5.4359999 1.492 -0.21799999
5.4489999 1.513 -0.219
5.4590001 1.534 -0.22
5.4520001 1.55 -0.22
5.4530001 1.568 -0.22
5.4450002 1.584 -0.22
5.4510002 1.604 -0.221
5.4530001 1.623 -0.221
5.4530001 1.642 -0.221
5.447 1.658 -0.222
5.448 1.677 -0.222
5.4569998 1.698 -0.223
5.473 1.722 -0.22400001
5.5560002 1.767 -0.227
3.579 1.15 -0.147
3.5239999 1.145 -0.145
3.4159999 1.1210001 -0.14
3.404 1.2 -0.141
3.4000001 1.211 -0.141
3.464 1.2460001 -0.14399999
4.9549999 1.799 -0.207
4.9050002 1.798 -0.205
4.868 1.801 -0.204
4.849 1.812 -0.204
4.855 1.831 -0.204
4.8629999 1.851 -0.205
4.8559999 1.8660001 -0.205
4.8590002 1.8839999 -0.205
4.8590002 1.902 -0.206
4.8410001 1.9119999 -0.205
4.8530002 1.934 -0.206
4.8579998 1.9529999 -0.207
4.9109998 1.992 -0.20900001
5.2069998 2.131 -0.223
5.2459998 2.3929999 -0.23
5.0939999 2.342 -0.223
4.9569998 2.2980001 -0.21799999
4.895 2.2869999 -0.215
4.8800001 2.2969999 -0.215
4.8740001 2.312 -0.215
4.8730001 2.329 -0.21600001
4.8969998 2.359 -0.21699999
4.8909998 2.3740001 -0.21699999
4.902 2.3970001 -0.21799999
4.8990002 2.4130001 -0.21799999
4.9050002 2.434 -0.219
4.9050002 2.4519999 -0.219
4.901 2.4690001 -0.22
4.8959999 2.484 -0.22
4.9000001 2.5039999 -0.22
4.9000001 2.5220001 -0.221
3.9419999 2.043 -0.178
3.8440001 2.006 -0.17399999
3.8039999 1.999 -0.17200001
3.776 1.998 -0.171
3.7639999 2.006 -0.171
3.7579999 2.016 -0.171
3.7309999 2.016 -0.17
3.7279999 2.0280001 -0.171
3.71 2.0309999 -0.17
3.6930001 2.0350001 -0.17
3.687 2.046 -0.17
3.6800001 2.0550001 -0.17
3.681 2.069 -0.17
3.665 2.073 -0.17
3.6340001 2.069 -0.169
3.622 2.075 -0.168
3.612 2.0829999 -0.168
3.6059999 2.092 -0.168
3.586 2.0929999 -0.168
3.595 2.1110001 -0.168
3.589 2.1210001 -0.168
3.589 2.1340001 -0.169
3.589 2.1470001 -0.169
3.5929999 2.1619999 -0.17
3.595 2.1760001 -0.17
3.6070001 2.1960001 -0.171
3.6140001 2.2130001 -0.17200001
3.618 2.2290001 -0.17200001
3.6259999 2.247 -0.17299999
3.625 2.2590001 -0.17299999
3.6370001 2.279 -0.17399999
3.6370001 2.2920001 -0.175
3.6359999 2.3039999 -0.175
3.625 2.3099999 -0.175
3.631 2.326 -0.175
3.642 2.346 -0.176
3.6359999 2.355 -0.176
3.6429999 2.372 -0.177
3.645 2.385 -0.177
3.6300001 2.388 -0.177
3.6129999 2.3889999 -0.177
3.652 2.428 -0.17900001
3.6470001 2.437 -0.17900001
3.6819999 2.4719999 -0.18099999
4.454 3.006 -0.22
4.3969998 2.9820001 -0.21699999
4.368 2.977 -0.21600001
4.3499999 2.9790001 -0.21600001
4.3429999 2.9890001 -0.21600001
4.348 3.006 -0.21699999
4.329 3.0079999 -0.21600001
4.3200002 3.016 -0.21600001
4.3330002 3.0380001 -0.21699999
4.3260002 3.0480001 -0.21699999
4.3369999 3.069 -0.21799999
4.3299999 3.0780001 -0.21799999
4.3200002 3.0840001 -0.21799999
4.323 3.0999999 -0.219
4.3330002 3.1210001 -0.22
4.3270001 3.1300001 -0.22
4.3200002 3.138 -0.22
4.3340001 3.1619999 -0.221
5.3759999 -3.148 -0.12
5.3850002 -3.138 -0.12
5.381 -3.1210001 -0.119
5.3909998 -3.1110001 -0.12
5.3860002 -3.0929999 -0.119
5.3870001 -3.079 -0.119
5.368 -3.053 -0.119
5.3520002 -3.029 -0.118
5.3369999 -3.0050001 -0.118
5.3169999 -2.9790001 -0.118
5.3150001 -2.9630001 -0.117
5.3119998 -2.9460001 -0.117
5.3179998 -2.9349999 -0.117
5.3179998 -2.9200001 -0.117
5.3130002 -2.901 -0.117
5.3099999 -2.885 -0.117
5.3109999 -2.8710001 -0.117
5.309 -2.855 -0.117
5.3109999 -2.8410001 -0.117
5.3179998 -2.829 -0.117
5.3260002 -2.8180001 -0.117
5.3109999 -2.7950001 -0.116
5.2940001 -2.7709999 -0.116
5.2859998 -2.7520001 -0.116
5.2849998 -2.7360001 -0.116
5.283 -2.72 -0.116
5.2909999 -2.7090001 -0.116
5.2950001 -2.6960001 -0.116
5.2839999 -2.6760001 -0.115
5.2849998 -2.661 -0.115
5.2680001 -2.6370001 -0.115
5.277 -2.6270001 -0.115
5.2680001 -2.6070001 -0.115
5.277 -2.5969999 -0.115
5.2750001 -2.5810001 -0.115
5.283 -2.5699999 -0.115
5.2930002 -2.559 -0.115
5.2979999 -2.546 -0.115
5.3119998 -2.5380001 -0.115
5.3239999 -2.529 -0.115
5.3179998 -2.5109999 -0.115
5.323 -2.497 -0.115
5.322 -2.4820001 -0.115
5.322 -2.467 -0.115
5.3280001 -2.454 -0.115
5.3270001 -2.438 -0.115
5.3260002 -2.4230001 -0.115
5.329 -2.4089999 -0.115
5.3379998 -2.3970001 -0.115
5.3309999 -2.3789999 -0.115
5.335 -2.365 -0.115
5.3410001 -2.3529999 -0.115
5.3340001 -2.3340001 -0.115
5.3390002 -2.3210001 -0.115
5.348 -2.3099999 -0.115
5.3509998 -2.2950001 -0.115
5.342 -2.277 -0.114
5.3499999 -2.2639999 -0.115
5.3530002 -2.25 -0.115
5.3530002 -2.2349999 -0.114
5.3590002 -2.2219999 -0.114
5.3499999 -2.2030001 -0.114
5.3530002 -2.1889999 -0.114
5.3610001 -2.177 -0.114
5.3610001 -2.161 -0.114
5.3649998 -2.148 -0.114
5.3590002 -2.1289999 -0.114
5.3649998 -2.1159999 -0.114
5.362 -2.0999999 -0.114
5.3730001 -2.089 -0.114
5.3800001 -2.076 -0.114
5.3769999 -2.0599999 -0.114
5.3839998 -2.0469999 -0.114
5.381 -2.03 -0.114
5.3779998 -2.013 -0.114
5.3769999 -1.998 -0.114
5.3829999 -1.984 -0.114
5.3800001 -1.9680001 -0.114
5.3790002 -1.952 -0.113
5.381 -1.937 -0.113
5.3889999 -1.925 -0.114
5.381 -1.9069999 -0.113
5.3870001 -1.893 -0.113
5.3969998 -1.881 -0.113
5.3930001 -1.864 -0.113
5.3990002 -1.851 -0.113
5.3909998 -1.8329999 -0.113
5.3930001 -1.818 -0.113
5.401 -1.8049999 -0.113
5.401 -1.789 -0.113
5.3969998 -1.772 -0.113
5.3930001 -1.756 -0.113
5.4060001 -1.744 -0.113
5.402 -1.728 -0.113
5.3979998 -1.711 -0.113
5.4109998 -1.699 -0.113
5.408 -1.683 -0.113
5.414 -1.669 -0.113
5.4109998 -1.653 -0.113
5.4159999 -1.6390001 -0.113
5.4120002 -1.622 -0.112
5.4039998 -1.604 -0.112
5.4050002 -1.589 -0.112
5.4120002 -1.576 -0.112
5.414 -1.561 -0.112
5.421 -1.5470001 -0.112
5.4099998 -1.529 -0.112
5.421 -1.516 -0.112
5.4180002 -1.5 -0.112
5.4180002 -1.484 -0.112
4.1459999 -1.124 -0.085000001
4.0669999 -1.091 -0.083999999
4.1690001 -1.1059999 -0.086000003
5.4229999 -1.424 -0.112
5.4190001 -1.4069999 -0.111
4.0560002 -1.0420001 -0.082999997
3.921 -0.99599999 -0.079999998
3.8770001 -0.97399998 -0.079000004
3.862 -0.95899999 -0.079000004
3.8710001 -0.94999999 -0.079000004
3.8740001 -0.94 -0.079000004
3.8699999 -0.92799997 -0.079000004
3.872 -0.917 -0.079000004
3.882 -0.90799999 -0.079000004
3.8840001 -0.898 -0.079000004
3.8740001 -0.884 -0.079000004
3.8740001 -0.87300003 -0.079000004
3.8770001 -0.86299998 -0.079000004
3.8789999 -0.852 -0.079000004
3.8840001 -0.84200001 -0.079000004
3.8770001 -0.82999998 -0.079000004
3.8710001 -0.81699997 -0.079000004
3.881 -0.80900002 -0.079000004
3.8900001 -0.79900002 -0.079000004
3.8889999 -0.78799999 -0.079000004
3.895 -0.778 -0.079000004
3.8840001 -0.76499999 -0.078000002
3.8840001 -0.75400001 -0.078000002
3.888 -0.74400002 -0.078000002
3.8900001 -0.73299998 -0.078000002
3.8840001 -0.72100002 -0.078000002
3.888 -0.70999998 -0.078000002
3.888 -0.699 -0.078000002
3.898 -0.69 -0.078000002
3.9219999 -0.68300003 -0.079000004
3.9649999 -0.67900002 -0.079999998
3.9660001 -0.66799998 -0.079999998
3.9760001 -0.65899998 -0.079999998
3.97 -0.64600003 -0.079999998
3.9809999 -0.63700002 -0.079999998
3.974 -0.62400001 -0.079000004
3.954 -0.61000001 -0.079000004
3.97 -0.60100001 -0.079000004
3.9719999 -0.58999997 -0.079000004
3.9690001 -0.57800001 -0.079000004
3.967 -0.56699997 -0.079000004
3.948 -0.55299997 -0.079000004
3.9219999 -0.53799999 -0.078000002
3.9100001 -0.52499998 -0.078000002
3.911 -0.51499999 -0.078000002
3.911 -0.50400001 -0.078000002
3.9130001 -0.493 -0.078000002
3.914 -0.48199999 -0.078000002
3.9219999 -0.472 -0.078000002
3.914 -0.45899999 -0.077
3.954 -0.45300001 -0.078000002
3.977 -0.44400001 -0.079000004
3.977 -0.433 -0.079000004
3.9779999 -0.42199999 -0.079000004
3.9809999 -0.41100001 -0.079000004
3.9879999 -0.40000001 -0.079000004
3.9890001 -0.389 -0.079000004
3.983 -0.377 -0.078000002
3.9909999 -0.36700001 -0.078000002
3.9860001 -0.35499999 -0.078000002
3.993 -0.34400001 -0.078000002
3.987 -0.333 -0.078000002
3.974 -0.31999999 -0.078000002
3.947 -0.30700001 -0.077
3.9430001 -0.29499999 -0.077
3.954 -0.285 -0.077
3.9549999 -0.27399999 -0.077
3.9419999 -0.26199999 -0.077
3.9489999 -0.25099999 -0.077
3.9579999 -0.241 -0.077
3.9590001 -0.229 -0.077
3.9660001 -0.219 -0.077
3.974 -0.208 -0.077
3.9749999 -0.197 -0.077
3.973 -0.185 -0.077
3.9909999 -0.175 -0.077
3.983 -0.163 -0.077
3.9979999 -0.153 -0.077
4.013 -0.142 -0.078000002
4.0139999 -0.13 -0.078000002
4.027 -0.119 -0.078000002
4.0209999 -0.108 -0.078000002
4.0359998 -0.097000003 -0.078000002
4.0430002 -0.086000003 -0.078000002
4.0549998 -0.074000001 -0.078000002
4.0580001 -0.063000001 -0.078000002
4.0640001 -0.052000001 -0.078000002
4.073 -0.039999999 -0.078000002
4.0879998 -0.028999999 -0.079000004
4.1059999 -0.017000001 -0.079000004
4.1220002 -0.0060000001 -0.079000004
4.1160002 0.0049999999 -0.079000004
4.1300001 0.017000001 -0.079000004
4.1659999 0.028000001 -0.079999998
4.1729999 0.039999999 -0.079999998
4.1589999 0.052000001 -0.079999998
4.2080002 0.064000003 -0.079999998
4.2309999 0.077 -0.081
4.4029999 0.092 -0.083999999
5.6560001 0.035999998 -0.191
5.6420002 0.041000001 -0.19
5.6329999 0.046999998 -0.19
5.6420002 0.052999999 -0.191
5.632 0.059 -0.19
5.6350002 0.064999998 -0.19
5.6259999 0.071000002 -0.19
5.6139998 0.077 -0.19
5.6059999 0.082999997 -0.19
5.6139998 0.090000004 -0.19
5.6129999 0.097000003 -0.19
5.605 0.104 -0.19
5.6129999 0.111 -0.19
5.599 0.118 -0.19
5.599 0.125 -0.19
4.6919999 0.111 -0.15899999
4.5840001 0.115 -0.155
4.5089998 0.119 -0.153
4.5900002 0.127 -0.156
4.5349998 0.132 -0.154
4.5349998 0.139 -0.154
4.5120001 0.145 -0.153
5.5009999 0.185 -0.18700001
5.4949999 0.193 -0.18700001
5.4759998 0.20100001 -0.186
5.473 0.20900001 -0.186
5.4640002 0.21699999 -0.186
5.467 0.226 -0.186
5.4660001 0.235 -0.186
5.4590001 0.244 -0.186
5.4580002 0.25299999 -0.186
5.4640002 0.26300001 -0.18700001
5.4580002 0.27200001 -0.18700001
5.4569998 0.28099999 -0.18700001
5.4580002 0.29100001 -0.18700001
5.4559999 0.30000001 -0.18700001
5.4559999 0.31 -0.18700001
5.4549999 0.31999999 -0.18700001
5.448 0.33000001 -0.18700001
5.454 0.34 -0.18700001
5.4390001 0.34999999 -0.18700001
5.4439998 0.36000001 -0.18700001
5.4460001 0.37099999 -0.18700001
5.4429998 0.382 -0.18799999
5.4359999 0.39199999 -0.18700001
5.441 0.403 -0.18799999
5.4369998 0.414 -0.18799999
5.4419999 0.42500001 -0.18799999
5.441 0.43599999 -0.18799999
5.4380002 0.447 -0.18799999
5.4390001 0.45899999 -0.18799999
5.427 0.46900001 -0.18799999
5.4429998 0.48199999 -0.189
5.434 0.493 -0.189
5.441 0.50599998 -0.189
5.4400001 0.51700002 -0.189
5.4349999 0.52899998 -0.189
5.4369998 0.54100001 -0.19
5.4310002 0.55299997 -0.19
5.4349999 0.56599998 -0.19
5.448 0.579 -0.19
5.4349999 0.59100002 -0.19
5.4439998 0.60399997 -0.191
5.4349999 0.616 -0.191
5.4349999 0.62900001 -0.191
5.4390001 0.64200002 -0.191
5.4380002 0.65499997 -0.191
5.4359999 0.66799998 -0.191
5.4369998 0.68099999 -0.192
5.4349999 0.69499999 -0.192
5.4330001 0.708 -0.192
5.434 0.722 -0.192
5.441 0.736 -0.193
5.4310002 0.74800003 -0.192
5.4380002 0.76300001 -0.193
5.4429998 0.778 -0.193
5.434 0.79100001 -0.193
5.4390001 0.80500001 -0.19400001
5.4310002 0.81800002 -0.19400001
5.4400001 0.83399999 -0.19400001
5.4400001 0.84899998 -0.19400001
5.4349999 0.86199999 -0.19400001
5.434 0.87699997 -0.19499999
5.4390001 0.89200002 -0.19499999
5.4429998 0.90799999 -0.19499999
5.441 0.92199999 -0.19599999
5.441 0.93699998 -0.19599999
5.4349999 0.95099998 -0.19599999
5.4310002 0.96600002 -0.19599999
5.4390001 0.98199999 -0.19599999
5.4419999 0.99800003 -0.197
5.4400001 1.0140001 -0.197
5.4359999 1.028 -0.197
5.448 1.046 -0.198
5.4429998 1.061 -0.198
5.4400001 1.076 -0.198
5.4510002 1.094 -0.199
5.448 1.11 -0.199
5.4450002 1.125 -0.199
5.447 1.142 -0.199
5.4510002 1.159 -0.2
5.4530001 1.175 -0.2
5.4439998 1.1900001 -0.2
5.4369998 1.205 -0.2
5.4510002 1.225 -0.20100001
5.448 1.2410001 -0.20100001
5.448 1.257 -0.20100001
5.4460001 1.274 -0.20200001
5.448 1.291 -0.20200001
5.4510002 1.309 -0.20200001
5.447 1.325 -0.20299999
5.448 1.3430001 -0.20299999
5.447 1.36 -0.20299999
5.448 1.378 -0.204
5.4510002 1.396 -0.204
5.461 1.416 -0.205
5.448 1.4299999 -0.205
5.4510002 1.449 -0.205
5.4439998 1.465 -0.205
5.4419999 1.482 -0.205
5.4520001 1.503 -0.206
5.4489999 1.52 -0.206
5.4489999 1.538 -0.207
5.4499998 1.557 -0.207
5.4450002 1.574 -0.207
5.454 1.595 -0.208
5.4460001 1.6109999 -0.208
5.4419999 1.628 -0.208
5.4530001 1.65 -0.20900001
5.4460001 1.6670001 -0.20900001
5.447 1.686 -0.20900001
5.461 1.709 -0.20999999
5.4889998 1.737 -0.212
5.6389999 1.824 -0.21799999
5.7379999 1.877 -0.222
5.2020001 1.851 -0.204
5.0380001 1.811 -0.198
4.9419999 1.795 -0.19499999
4.9039998 1.799 -0.19400001
4.8670001 1.804 -0.193
4.8610001 1.8200001 -0.193
4.8499999 1.8329999 -0.193
4.849 1.852 -0.193
4.8579998 1.873 -0.19400001
4.8569999 1.891 -0.19400001
4.8559999 1.909 -0.19400001
4.8499999 1.925 -0.19400001
4.8569999 1.947 -0.19499999
4.9289999 1.995 -0.198
5.2849998 2.1589999 -0.213
5.1570001 2.352 -0.213
5.0120001 2.306 -0.207
4.9099998 2.28 -0.204
4.8850002 2.2880001 -0.20299999
4.8800001 2.306 -0.20299999
4.8889999 2.3299999 -0.204
4.8930001 2.352 -0.205
4.9029999 2.378 -0.205
4.895 2.3940001 -0.206
4.8969998 2.415 -0.206
4.8979998 2.4360001 -0.206
4.902 2.4590001 -0.207
4.9000001 2.4790001 -0.207
4.8969998 2.4979999 -0.208
4.9039998 2.5220001 -0.208
3.9070001 2.026 -0.16599999
3.8329999 2.0039999 -0.164
3.826 2.017 -0.164
3.8310001 2.036 -0.164
3.8900001 2.0840001 -0.167
3.744 2.2049999 -0.16500001
3.7019999 2.198 -0.164
3.6300001 2.1719999 -0.161
3.585 2.1600001 -0.15899999
3.5339999 2.1459999 -0.15700001
3.503 2.1440001 -0.156
3.467 2.138 -0.155
3.448 2.142 -0.155
3.4389999 2.152 -0.154
3.4230001 2.158 -0.154
3.4159999 2.1689999 -0.154
3.4189999 2.188 -0.155
3.4419999 2.2179999 -0.156
3.552 2.306 -0.161
4.6300001 3.0280001 -0.211
4.6129999 3.039 -0.211
4.598 3.05 -0.211
4.5819998 3.062 -0.20999999
4.5749998 3.079 -0.211
4.5619998 3.092 -0.211
4.5450001 3.1029999 -0.20999999
4.52 3.1070001 -0.20999999
4.5089998 3.122 -0.20999999
4.5040002 3.1400001 -0.20999999
4.4840002 3.148 -0.20900001
4.4660001 3.1570001 -0.20900001
4.4629998 3.177 -0.20900001
4.4460001 3.1860001 -0.20900001
4.4130001 3.1849999 -0.208
5.1269999 -3.3889999 -0.103
5.1490002 -3.3710001 -0.104
5.1739998 -3.355 -0.104
5.1830001 -3.329 -0.104
5.2030001 -3.3099999 -0.104
5.1999998 -3.276 -0.104
5.2069998 -3.2490001 -0.104
5.197 -3.2119999 -0.104
5.1939998 -3.1789999 -0.103
5.1999998 -3.152 -0.103
5.2020001 -3.1229999 -0.103
5.2080002 -3.0969999 -0.103
5.2090001 -3.0669999 -0.103
5.2090001 -3.0369999 -0.103
5.2160001 -3.0120001 -0.103
5.223 -2.987 -0.103
5.2150002 -2.954 -0.103
5.2420001 -2.9400001 -0.103
5.2680001 -2.927 -0.103
5.2459998 -2.8859999 -0.103
5.2389998 -2.8540001 -0.103
5.2319999 -2.822 -0.102
5.2379999 -2.7980001 -0.102
5.2420001 -2.773 -0.102
5.2420001 -2.7460001 -0.102
5.2509999 -2.724 -0.102
5.257 -2.7 -0.102
5.2540002 -2.6719999 -0.102
5.2449999 -2.641 -0.102
5.25 -2.618 -0.102
5.2600002 -2.5969999 -0.102
5.2579999 -2.5699999 -0.102
5.2859998 -2.5580001 -0.102
5.3010001 -2.54 -0.102
5.3000002 -2.5150001 -0.102
5.3099999 -2.494 -0.102
5.309 -2.4690001 -0.102
5.3150001 -2.447 -0.102
5.316 -2.4230001 -0.102
5.3340001 -2.4059999 -0.102
5.336 -2.3829999 -0.102
5.3390002 -2.3599999 -0.102
5.3340001 -2.3340001 -0.102
5.3280001 -2.3080001 -0.101
5.3449998 -2.2909999 -0.102
5.3530002 -2.2720001 -0.102
5.3559999 -2.2490001 -0.102
5.3509998 -2.224 -0.101
5.3559999 -2.2030001 -0.101
5.3670001 -2.1849999 -0.102
5.369 -2.1630001 -0.101
5.3629999 -2.138 -0.101
5.3639998 -2.1159999 -0.101
5.3730001 -2.0969999 -0.101
5.3790002 -2.0780001 -0.101
5.3790002 -2.056 -0.101
5.3720002 -2.0309999 -0.101
5.3870001 -2.0150001 -0.101
5.3769999 -1.99 -0.101
5.388 -1.973 -0.101
5.3860002 -1.951 -0.101
5.3870001 -1.9299999 -0.101
5.3870001 -1.909 -0.101
5.402 -1.8940001 -0.101
5.3930001 -1.87 -0.1
5.395 -1.85 -0.1
5.4070001 -1.834 -0.101
5.3990002 -1.811 -0.1
5.3990002 -1.791 -0.1
5.3969998 -1.77 -0.1
5.3940001 -1.749 -0.1
5.401 -1.7309999 -0.1
5.401 -1.712 -0.1
5.3979998 -1.691 -0.1
5.4050002 -1.674 -0.1
5.3969998 -1.653 -0.1
5.408 -1.637 -0.1
5.401 -1.6160001 -0.098999999
5.4029999 -1.598 -0.098999999
5.4169998 -1.5829999 -0.1
5.402 -1.5599999 -0.098999999
5.421 -1.5470001 -0.098999999
5.4039998 -1.524 -0.098999999
5.408 -1.506 -0.098999999
4.0780001 -1.122 -0.075000003
4.1939998 -1.14 -0.077
4.1669998 -1.105 -0.075999998
3.9809999 -1.043 -0.071999997
3.888 -1.006 -0.071000002
3.8629999 -0.98699999 -0.07
3.8659999 -0.97500002 -0.07
3.869 -0.96399999 -0.07
3.8699999 -0.95200002 -0.07
3.8740001 -0.94099998 -0.07
3.8699999 -0.92799997 -0.07
3.8729999 -0.91600001 -0.07
3.875 -0.90499997 -0.07
3.8699999 -0.89200002 -0.07
3.8729999 -0.88099998 -0.07
3.875 -0.87 -0.07
3.865 -0.85600001 -0.07
3.8729999 -0.84600002 -0.07
3.882 -0.83600003 -0.07
3.8789999 -0.824 -0.07
3.875 -0.81199998 -0.07
3.8770001 -0.801 -0.07
3.8710001 -0.78899997 -0.068999998
3.875 -0.77899998 -0.068999998
3.8889999 -0.76999998 -0.07
3.885 -0.75800002 -0.07
3.888 -0.74800003 -0.07
3.888 -0.73699999 -0.07
3.8829999 -0.72500002 -0.068999998
3.8859999 -0.71499997 -0.068999998
3.8929999 -0.70599997 -0.068999998
3.8970001 -0.69599998 -0.068999998
3.9400001 -0.69300002 -0.07
4.0159998 -0.69499999 -0.071999997
4.0279999 -0.68699998 -0.071999997
4.0289998 -0.676 -0.071999997
4.0190001 -0.66399997 -0.071000002
4.02 -0.653 -0.071000002
4.0229998 -0.64300001 -0.071000002
4.0229998 -0.63300002 -0.071000002
4.026 -0.62300003 -0.071000002
4.013 -0.611 -0.071000002
4.007 -0.60000002 -0.071000002
4.0040002 -0.58899999 -0.071000002
4.0019999 -0.579 -0.071000002
4.0040002 -0.56900001 -0.071000002
3.99 -0.55699998 -0.07
3.95 -0.542 -0.07
3.9100001 -0.52700001 -0.068999998
3.911 -0.51700002 -0.068999998
3.9119999 -0.50800002 -0.068999998
3.904 -0.498 -0.068999998
3.914 -0.49000001 -0.068999998
3.915 -0.47999999 -0.068999998
3.9159999 -0.47099999 -0.068999998
3.9170001 -0.46200001 -0.068999998
3.918 -0.45300001 -0.068999998
3.9189999 -0.44400001 -0.068999998
3.9089999 -0.43399999 -0.068999998
3.9360001 -0.428 -0.068999998
3.9779999 -0.42399999 -0.07
3.9860001 -0.41600001 -0.07
3.9949999 -0.40799999 -0.07
3.99 -0.398 -0.07
3.997 -0.38999999 -0.07
3.99 -0.38100001 -0.07
4.0050001 -0.37400001 -0.07
4 -0.36500001 -0.07
3.9979999 -0.35600001 -0.07
3.993 -0.347 -0.07
4.0019999 -0.33899999 -0.07
3.987 -0.33000001 -0.068999998
3.9949999 -0.322 -0.07
4.0019999 -0.31400001 -0.07
3.9960001 -0.30500001 -0.07
4.0050001 -0.29800001 -0.07
4.0050001 -0.28999999 -0.07
4.006 -0.28200001 -0.07
4.0050001 -0.27399999 -0.07
3.971 -0.264 -0.068999998
3.9489999 -0.25400001 -0.068999998
3.951 -0.24699999 -0.068999998
3.944 -0.23899999 -0.068000004
3.961 -0.23199999 -0.068999998
3.9530001 -0.22400001 -0.068000004
3.9679999 -0.21699999 -0.068999998
3.9660001 -0.20999999 -0.068999998
3.9690001 -0.20200001 -0.068999998
3.964 -0.19499999 -0.068999998
3.961 -0.18700001 -0.068999998
3.9760001 -0.18099999 -0.068999998
3.9760001 -0.17299999 -0.068999998
3.97 -0.16599999 -0.068999998
3.9690001 -0.15899999 -0.068999998
3.9690001 -0.152 -0.068999998
3.977 -0.145 -0.068999998
3.984 -0.138 -0.068999998
3.9779999 -0.131 -0.068999998
3.993 -0.125 -0.068999998
3.993 -0.118 -0.068999998
3.9990001 -0.111 -0.068999998
4 -0.105 -0.068999998
4.007 -0.097999997 -0.068999998
4.006 -0.090999998 -0.068999998
4.0149999 -0.085000001 -0.068999998
4.0279999 -0.079000004 -0.068999998
4.0300002 -0.071999997 -0.068999998
4.0370002 -0.066 -0.068999998
4.0359998 -0.059 -0.068999998
4.052 -0.052999999 -0.07
4.0640001 -0.046999998 -0.07
4.0669999 -0.041000001 -0.07
4.073 -0.035 -0.07
4.0890002 -0.028000001 -0.07
4.0939999 -0.022 -0.07
4.1069999 -0.016000001 -0.07
4.1009998 -0.0099999998 -0.07
