# .PCD v0.7 - Point Cloud Data file format
VERSION 0.7
FIELDS x y z
SIZE 4 4 4
TYPE F F F
COUNT 1 1 1
WIDTH 1931
HEIGHT 1
VIEWPOINT 0 0 0 1 0 0 0
POINTS 1931
DATA ascii
28.264 13.377 0.81699997
15.459 8.8380003 0.456
15.385 8.8509998 0.45500001
15.446 8.9420004 0.45699999
43.882999 -20.631001 1.727
43.974998 -20.546 1.73
44.16 -20.503 1.738
18.819 -4.197 0.73500001
18.667999 -4.1090002 0.72899997
18.725 -4.0669999 0.73100001
16.389 0.145 0.5
16.362 0.15899999 0.49900001
16.341 0.17399999 0.498
16.385 0.19 0.49900001
16.337999 0.206 0.49700001
16.358 0.223 0.498
16.370001 0.23999999 0.498
16.327 0.257 0.49599999
16.365999 0.27500001 0.49700001
16.354 0.29300001 0.49599999
16.375 0.31200001 0.49700001
16.360001 0.331 0.49599999
16.427 0.352 0.498
16.437 0.37200001 0.498
16.424 0.39199999 0.49700001
16.257 1.136 0.486
16.190001 1.163 0.484
16.125999 1.189 0.48199999
16.091999 1.219 0.48100001
16.054001 1.247 0.47999999
16.038 1.278 0.479
16.021 1.309 0.479
15.992 1.34 0.47799999
15.998 1.373 0.47799999
15.999 1.406 0.47799999
15.993 1.4400001 0.477
16.039 1.478 0.479
10.15 0.95700002 0.303
16.034 1.512 0.479
10.001 0.96399999 0.29800001
16.027 1.546 0.47799999
9.9420004 0.98000002 0.296
16.073999 1.585 0.47999999
9.8690004 0.995 0.294
16.125 1.626 0.48100001
9.8070002 1.01 0.292
9.7559996 1.027 0.29100001
9.7069998 1.044 0.289
9.665 1.061 0.28799999
9.6610003 1.0829999 0.28799999
9.6330004 1.102 0.287
9.6289997 1.124 0.287
9.6070004 1.1440001 0.28600001
9.5970001 1.166 0.28600001
9.5909996 1.188 0.28600001
9.585 1.21 0.28600001
9.5760002 1.232 0.28600001
9.5670004 1.255 0.285
9.5629997 1.278 0.285
9.5810003 1.304 0.28600001
9.5909996 1.329 0.28600001
9.5749998 1.351 0.28600001
9.5719995 1.375 0.28600001
9.5670004 1.399 0.285
9.5679998 1.423 0.285
9.5670004 1.448 0.28600001
9.5810003 1.475 0.28600001
9.6800003 1.516 0.289
27.257999 4.2690001 0.815
27.211 4.3340001 0.81300002
27.201 4.4050002 0.81300002
27.148001 4.4689999 0.81199998
27.165001 4.5450001 0.81199998
27.097 4.6069999 0.81099999
27.080999 4.678 0.81
27.098 4.7550001 0.81099999
27.145 4.8379998 0.81300002
27.132 4.9120002 0.81199998
27.216 5.0029998 0.815
27.249001 5.086 0.81599998
27.424 5.1960001 0.82200003
27.875999 5.3610001 0.83600003
34.778 7.5009999 1.046
34.682999 7.585 1.043
34.653 7.6830001 1.043
34.695 7.7969999 1.044
34.492001 7.9619999 1.039
34.597 8.0930004 1.043
34.433998 8.2679996 1.039
34.583 8.4119997 1.044
34.400002 8.4750004 1.039
30.705999 7.6620002 0.92799997
34.451 8.5970001 1.041
30.426001 7.6890001 0.92000002
34.441002 8.7030001 1.041
30.583 7.8260002 0.92500001
34.234001 8.7600002 1.035
34.243999 8.8719997 1.036
34.195 8.9700003 1.035
34.162998 9.0719995 1.035
34.103001 9.1669998 1.033
34.012001 9.2539997 1.031
34.119999 9.3950005 1.035
34.026001 9.4809999 1.033
34.016998 9.7049999 1.034
33.984001 9.809 1.033
33.922001 9.9049997 1.0319999
33.887001 10.009 1.0319999
30.277 9.2519999 0.92299998
30.297001 9.3629999 0.92500001
33.52 10.707 1.025
33.553001 10.835 1.027
33.467999 10.926 1.025
33.428001 11.03 1.025
33.314999 11.111 1.022
33.387001 11.254 1.025
33.362 11.365 1.025
33.431 11.509 1.028
33.240002 11.563 1.023
33.263 11.691 1.024
33.199001 11.79 1.023
29.308001 10.515 0.90399998
33.208 11.914 1.024
29.381001 10.649 0.90700001
33.069 11.985 1.021
33.076 12.11 1.022
32.946999 12.184 1.0190001
33.016998 12.333 1.022
32.933998 12.425 1.02
32.874001 12.525 1.0190001
32.844002 12.637 1.0190001
32.803001 12.745 1.018
32.870998 12.896 1.021
32.674999 12.944 1.016
32.742001 13.095 1.0190001
28.895 11.891 0.90200001
28.792 11.96 0.89999998
32.484001 13.62 1.016
32.505001 13.756 1.018
32.198002 14.782 1.017
31.965 14.805 1.011
28.278 13.213 0.89499998
28.326 13.351 0.898
31.879999 15.158 1.011
31.867001 15.283 1.012
31.826 15.395 1.012
31.681 15.457 1.008
31.686001 15.591 1.01
31.715 15.739 1.012
31.627001 15.827 1.01
31.641001 15.968 1.012
31.457001 16.007999 1.007
15.432 8.8620005 0.50300002
15.301 8.8559999 0.49900001
15.344 8.9490004 0.50099999
27.219999 16.368999 0.89399999
27.247999 16.511 0.89700001
13.99 8.8000002 0.463
13.913 8.816 0.461
13.886 8.8640003 0.461
13.874 8.9219999 0.461
13.972 9.0500002 0.465
39.463001 -23.577 1.658
39.748001 -23.518999 1.669
39.803001 -23.326 1.67
39.900002 -23.159 1.673
40.137001 -23.073 1.682
40.290001 -22.938999 1.687
40.410999 -22.785999 1.691
40.594002 -22.669001 1.698
40.605 -22.457001 1.697
40.896999 -22.4 1.7079999
41.504002 -21.865 1.73
41.702999 -21.756001 1.737
41.931 -21.662001 1.745
41.991001 -21.481001 1.747
42.292999 -21.424 1.758
42.632 -21.174999 1.771
42.769001 -21.034 1.775
42.888 -20.885 1.779
43.108002 -20.785 1.788
43.223 -20.635 1.7920001
43.484001 -20.554001 1.801
43.597 -20.403 1.8049999
43.862999 -20.323 1.8150001
44.043999 -20.202999 1.822
44.231998 -20.087 1.829
46.618999 -18.921 1.919
46.653999 -18.74 1.919
18.645 -4.2969999 0.75700003
18.642 -4.2399998 0.75700003
16.299 0.226 0.54000002
16.357 0.25600001 0.542
16.395 0.28600001 0.54299998
16.447001 0.317 0.54500002
16.686001 0.352 0.55199999
16.440001 1.175 0.54000002
16.207001 1.196 0.53200001
16.132 1.228 0.52999997
16.105 1.2640001 0.52899998
16.042 1.298 0.52600002
16.011999 1.334 0.52499998
15.94 1.3660001 0.523
15.964 1.4069999 0.52399999
15.987 1.449 0.52399999
15.972 1.487 0.52399999
16.000999 1.529 0.52499998
10.197 1 0.33399999
16.011999 1.5700001 0.52499998
10.043 1.01 0.329
16.011 1.6109999 0.52499998
9.9230003 1.023 0.32499999
16.025 1.653 0.52499998
9.8409996 1.04 0.322
16.086 1.7 0.52700001
9.7740002 1.058 0.31999999
9.7360001 1.079 0.31900001
9.6820002 1.098 0.317
9.6440001 1.119 0.31600001
9.6219997 1.142 0.315
9.6099997 1.166 0.315
9.599 1.1900001 0.31400001
9.5930004 1.215 0.31400001
9.5860004 1.24 0.31400001
9.559 1.262 0.31299999
9.5550003 1.288 0.31299999
9.5699997 1.316 0.31299999
9.5690002 1.342 0.31299999
9.5439997 1.365 0.31299999
9.559 1.3940001 0.31299999
9.5699997 1.4220001 0.31299999
9.5509996 1.446 0.31299999
9.5469999 1.473 0.31299999
9.5909996 1.506 0.31400001
9.7399998 1.558 0.31900001
27.365999 4.3769999 0.898
27.355 4.4530001 0.89700001
27.474001 4.552 0.90100002
27.202 4.585 0.89300001
27.238001 4.671 0.89399999
27.246 4.7509999 0.89399999
27.17 4.8179998 0.89200002
27.188999 4.901 0.89300001
27.223 4.987 0.89399999
27.323 5.0869999 0.89700001
27.58 5.217 0.90600002
34.782001 7.316 1.145
34.764999 7.4190001 1.1440001
34.660999 7.5040002 1.141
34.655998 7.6100001 1.141
34.721001 7.7329998 1.1440001
34.602001 7.8140001 1.14
34.494999 7.8979998 1.137
34.438 8.1020002 1.136
34.549999 8.2370005 1.14
34.535999 8.3439999 1.14
34.387001 8.4169998 1.135
30.514 7.5669999 1.008
34.432999 8.5389996 1.137
30.51 7.664 1.008
34.307999 8.7279997 1.1339999
34.259998 8.8260002 1.133
34.181 8.9169998 1.131
34.199001 9.0319996 1.132
34.049 9.1040001 1.127
34.041 9.3249998 1.128
33.915001 9.4020004 1.124
34.029999 9.5450001 1.128
34.008999 9.6520004 1.128
33.928001 9.7410002 1.126
33.852001 9.8319998 1.124
33.792999 9.9280005 1.122
30.402 9.2370005 1.011
30.525 9.3769999 1.016
33.478001 10.853 1.117
33.476002 10.967 1.118
33.398998 11.056 1.1160001
33.396 11.17 1.1160001
33.337002 11.265 1.115
33.368999 11.391 1.1160001
33.206001 11.565 1.112
33.224998 11.687 1.114
29.422001 10.451 0.98699999
29.346001 10.527 0.98500001
32.974998 11.944 1.107
32.985001 12.063 1.108
33.066002 12.209 1.112
33.011002 12.42 1.1109999
32.895 12.493 1.108
32.785 12.567 1.105
28.848 11.879 0.97799999
32.576 13.414 1.104
28.761999 11.947 0.97500002
32.564999 13.527 1.104
32.483002 13.609 1.102
32.337002 13.664 1.098
32.327999 14.009 1.1
32.285999 14.107 1.1
32.247002 14.324 1.1
32.252998 14.443 1.101
32.185001 14.529 1.1
28.386 13.33 0.97399998
28.306 13.395 0.972
31.729 15.478 1.0930001
31.797001 15.627 1.096
31.657 15.674 1.092
31.658001 15.906 1.094
31.544001 15.964 1.091
15.518 8.8710003 0.546
15.388 8.8529997 0.542
15.395 8.9119997 0.542
15.542 9.0539999 0.54799998
43.5 -20.718 1.9119999
43.615002 -20.645 1.9170001
44.249001 -20.427999 1.944
44.282001 -20.313999 1.9450001
18.716 -4.1739998 0.815
18.67 -4.1100001 0.81300002
16.329 0.148 0.57599998
16.424 0.163 0.57999998
16.393999 0.178 0.57800001
16.358 0.19400001 0.57599998
16.351999 0.20999999 0.57599998
16.337999 0.226 0.57499999
16.398001 0.244 0.57700002
16.409 0.26100001 0.57700002
16.381001 0.27900001 0.57499999
16.323999 0.296 0.57300001
16.405001 0.31600001 0.57599998
16.427999 0.33500001 0.57599998
16.473 0.35600001 0.57700002
16.674999 0.38 0.58399999
16.41 1.149 0.56900001
16.216999 1.1670001 0.56199998
16.146 1.193 0.56
16.091999 1.22 0.55800003
16.072001 1.251 0.55699998
16.004 1.277 0.55500001
15.991 1.309 0.55400002
16.002001 1.342 0.55500001
16.002001 1.375 0.55400002
15.993 1.408 0.55400002
15.999 1.442 0.55400002
15.996 1.475 0.55400002
10.236 0.96600002 0.354
16.007999 1.511 0.55500001
10.222 0.98699999 0.354
16.035999 1.548 0.55599999
10.019 0.98900002 0.347
16.003 1.58 0.55400002
9.8780003 0.99699998 0.34200001
16.051001 1.62 0.55599999
9.8149996 1.012 0.34
16.197001 1.67 0.56099999
9.7709999 1.029 0.338
9.7119999 1.045 0.336
9.7139997 1.067 0.336
9.6820002 1.086 0.33500001
9.6540003 1.105 0.33399999
9.6210003 1.124 0.333
9.6149998 1.146 0.333
9.5979996 1.1670001 0.33199999
9.5979996 1.1900001 0.33199999
9.566 1.209 0.331
9.5679998 1.232 0.33199999
9.5679998 1.255 0.33199999
9.5629997 1.278 0.331
9.5799999 1.304 0.33199999
9.5769997 1.3279999 0.33199999
9.5790005 1.352 0.33199999
9.559 1.374 0.33199999
9.5699997 1.4 0.33199999
9.566 1.424 0.33199999
9.5710001 1.449 0.33199999
9.5819998 1.476 0.333
9.665 1.5140001 0.336
9.835 1.567 0.34200001
34.838001 7.5149999 1.22
34.669998 7.5830002 1.215
34.696999 7.6929998 1.216
34.578999 7.7719998 1.2130001
34.612 7.8839998 1.214
34.563 7.9790001 1.2130001
34.636002 8.1020002 1.216
34.707001 8.2259998 1.22
34.438 8.2690001 1.211
34.356998 8.3570004 1.209
34.395 8.474 1.211
34.477001 8.6029997 1.214
30.495001 7.7059999 1.075
34.331001 8.6759996 1.21
30.452 7.7919998 1.074
34.298 8.7770004 1.209
34.230999 8.8690004 1.2079999
34.159 8.9610004 1.206
34.036999 9.1490002 1.2029999
34.069 9.2690001 1.205
34.103001 9.3900003 1.207
34.108002 9.5039997 1.2079999
33.957001 9.5740004 1.2029999
33.896 9.6700001 1.202
34 9.8129997 1.207
33.759998 9.8579998 1.199
33.756001 9.9700003 1.2
33.717999 10.074 1.199
33.722 10.19 1.2
30.42 9.2959995 1.0829999
33.852001 10.344 1.206
30.26 9.3509998 1.0779999
33.641998 10.396 1.199
33.703999 10.532 1.202
33.630001 10.625 1.2
33.568001 10.722 1.199
33.521999 10.943 1.199
33.431 11.031 1.197
33.325001 11.114 1.194
33.243 11.563 1.1950001
33.299 11.703 1.198
29.462 10.462 1.061
33.208 11.792 1.196
29.315001 10.517 1.057
33.237999 11.924 1.198
33.081001 11.989 1.194
33.014999 12.087 1.192
33.007 12.206 1.193
32.931999 12.423 1.193
32.769001 12.484 1.188
32.787998 12.615 1.1900001
32.784 12.737 1.191
32.817001 12.874 1.193
32.757 12.975 1.192
32.618 13.17 1.189
28.993999 11.819 1.058
32.556999 13.271 1.188
28.802 11.852 1.052
32.605999 13.417 1.191
32.036999 14.577 1.184
32.063999 14.72 1.187
28.438 13.171 1.054
31.985001 14.813 1.1849999
28.316 13.23 1.05
31.849001 15.537 1.188
31.691999 15.593 1.184
31.722 15.741 1.186
31.658001 15.842 1.1849999
31.487 16.023001 1.182
31.517 16.172001 1.1849999
27.944 14.698 1.054
27.827 14.756 1.051
31.153999 17.336 1.186
31.028999 17.403999 1.183
30.986 17.517 1.183
15.684 8.9359999 0.59899998
15.402 8.8439999 0.58899999
15.376 8.8979998 0.58899999
13.922 8.757 0.542
13.918 8.8199997 0.54299998
13.933 8.8940001 0.54400003
13.842 8.901 0.54100001
13.885 8.9940004 0.54400003
13.852 9.0380001 0.54299998
13.782 9.0579996 0.54100001
39.540001 -23.617001 1.845
39.598 -23.424 1.847
39.814999 -23.327999 1.8559999
40.014999 -23.219999 1.864
40.122002 -23.058001 1.867
40.286999 -22.931 1.874
40.459 -22.808001 1.881
40.587002 -22.66 1.885
40.775002 -22.545 1.893
41.548 -21.882 1.923
41.731998 -21.766001 1.9299999
41.986 -21.474001 1.9400001
42.172001 -21.358 1.947
42.824001 -21.056999 1.974
42.917999 -20.896 1.977
43.015999 -20.737 1.9809999
43.319 -20.677 1.994
43.433998 -20.525999 1.998
43.655998 -20.426001 2.007
43.944 -20.357 2.0190001
44.117001 -20.233 2.026
44.243 -20.087999 2.0309999
18.691 -4.3080001 0.84100002
18.681 -4.2490001 0.84100002
16.374001 0.229 0.62099999
16.485001 0.25999999 0.625
16.332001 1.168 0.61500001
16.183001 1.1950001 0.60900003
16.132 1.23 0.60699999
16.072001 1.263 0.60500002
16.025 1.298 0.60299999
16.014999 1.335 0.602
15.987 1.372 0.60100001
15.976 1.41 0.60100001
15.969 1.448 0.60000002
15.966 1.487 0.60000002
15.995 1.53 0.60100001
15.997 1.5700001 0.60100001
10.006 1.007 0.37599999
15.99 1.61 0.60100001
9.9540005 1.027 0.37400001
16.009001 1.652 0.602
9.8459997 1.041 0.37
16.098 1.702 0.60500002
9.7709999 1.058 0.36700001
9.7299995 1.079 0.366
9.6999998 1.101 0.36500001
9.6859999 1.125 0.36399999
9.6350002 1.1440001 0.36199999
9.6169996 1.1670001 0.361
9.6029997 1.191 0.361
9.6029997 1.217 0.361
9.5869999 1.2410001 0.36000001
9.5719995 1.265 0.36000001
9.5539999 1.288 0.359
9.5649996 1.316 0.36000001
9.5649996 1.342 0.36000001
9.5539999 1.367 0.359
9.5609999 1.3940001 0.36000001
9.5570002 1.421 0.359
9.5469999 1.446 0.359
9.5539999 1.474 0.359
9.5979996 1.508 0.361
9.7880001 1.566 0.368
9.8970003 1.6109999 0.373
34.844002 7.4369998 1.319
34.84 7.5430002 1.319
34.73 7.6269999 1.316
34.629002 7.7129998 1.312
34.542999 7.8010001 1.309
34.575001 7.9169998 1.311
34.507999 8.0100002 1.309
34.542 8.1269999 1.311
34.526001 8.2320004 1.311
34.493999 8.3339996 1.3099999
34.347 8.408 1.3049999
30.671 7.6059999 1.166
34.383999 8.5270004 1.307
30.471001 7.6539998 1.159
30.497999 7.7589998 1.16
34.293999 8.835 1.3049999
34.219002 8.927 1.303
34.152 9.0200005 1.301
34.165001 9.1350002 1.302
34.078999 9.2229996 1.3
33.963001 9.3030005 1.296
34.027 9.4320002 1.299
33.949001 9.5229998 1.2970001
33.978001 9.6429996 1.298
33.992001 9.7600002 1.299
33.841 9.8290005 1.294
33.790001 9.927 1.293
33.737 10.024 1.2920001
33.771 10.261 1.295
33.671001 10.343 1.291
33.624001 10.443 1.29
33.644001 10.563 1.2920001
33.457001 10.618 1.285
33.429001 10.723 1.285
33.570999 10.883 1.291
33.384998 11.28 1.2869999
33.278999 11.359 1.284
33.247002 11.579 1.285
33.234001 11.69 1.285
29.444 10.459 1.1390001
29.296 10.508 1.1339999
29.472 10.675 1.142
32.993 12.181 1.28
32.912998 12.267 1.278
32.917 12.385 1.279
32.914001 12.499 1.28
32.800999 12.572 1.276
32.918999 12.734 1.2819999
32.745998 12.783 1.276
32.798 12.92 1.279
28.865999 11.886 1.13
28.822001 11.971 1.1289999
32.535999 13.631 1.276
32.428001 13.702 1.273
32.376999 13.797 1.272
32.264 13.864 1.268
32.291 13.993 1.27
32.327 14.125 1.273
32.192001 14.182 1.2690001
28.275999 13.278 1.122
28.323 13.403 1.125
31.864 15.427 1.2690001
31.789 15.507 1.267
27.948 14.756 1.126
27.882 14.823 1.124
13.654 9.1999998 0.57499999
13.669 9.2550001 0.57599998
42.265999 -21.377001 2.053
42.292999 -21.268 2.0539999
42.533001 -21.264 2.066
42.584999 -21.166 2.0680001
42.750999 -21.124001 2.076
42.771999 -21.009001 2.0769999
43.612999 -20.657 2.1170001
43.733002 -20.586 2.122
43.828999 -20.503 2.1270001
43.994999 -20.452 2.135
44.228001 -20.431 2.1459999
42.93 -14.936 2.0739999
42.891998 -14.798 2.072
42.950001 -14.693 2.0739999
42.695999 -13.859 2.0599999
42.761002 -13.756 2.063
18.66 -4.1620002 0.89600003
18.702999 -4.118 0.898
16.32 0.15099999 0.65399998
16.282 0.16599999 0.65200001
16.334999 0.18099999 0.65399998
16.323 0.197 0.653
16.32 0.213 0.65200001
16.337999 0.229 0.653
16.268999 0.245 0.64999998
16.343 0.264 0.65200001
16.316 0.28099999 0.65100002
16.316 0.29899999 0.64999998
16.378 0.31900001 0.653
16.378 0.338 0.65200001
16.365999 0.35699999 0.65100002
16.431 0.37799999 0.65399998
16.503 0.40000001 0.65600002
16.450001 1.123 0.64899999
16.284 1.142 0.64200002
16.212999 1.168 0.639
16.146 1.1950001 0.63700002
16.127001 1.225 0.63599998
16.048 1.251 0.63300002
16.021 1.28 0.63200003
16.014999 1.312 0.63099998
16.004 1.344 0.63099998
16.000999 1.377 0.63099998
15.98 1.408 0.63
15.978 1.441 0.63
15.969 1.474 0.63
15.989 1.51 0.63
10.13 0.97899997 0.39899999
15.99 1.545 0.63
9.9499998 0.98299998 0.39199999
15.988 1.58 0.63
9.8780003 0.99699998 0.389
16.028999 1.619 0.63200003
9.8129997 1.013 0.38699999
16.243999 1.677 0.64099997
9.7379999 1.027 0.384
9.7329998 1.048 0.384
9.7150002 1.068 0.38299999
9.6870003 1.087 0.382
9.6599998 1.107 0.38100001
9.6330004 1.126 0.38
9.632 1.149 0.38
9.625 1.171 0.38
9.6110001 1.192 0.37900001
9.5959997 1.2130001 0.37900001
9.5810003 1.234 0.37799999
9.5629997 1.255 0.377
9.5760002 1.281 0.37799999
9.5839996 1.3049999 0.37799999
9.5679998 1.327 0.37799999
9.5559998 1.35 0.37799999
9.5600004 1.374 0.37799999
9.5710001 1.4 0.37799999
9.573 1.425 0.37900001
9.6219997 1.4579999 0.38100001
9.8000002 1.51 0.38800001
34.867001 7.2119999 1.391
34.797001 7.3000002 1.3890001
34.748001 7.3930001 1.388
34.671001 7.48 1.385
34.687 7.5869999 1.387
34.716999 7.698 1.3890001
34.630001 7.7839999 1.386
34.599998 7.882 1.386
34.514999 7.9679999 1.383
34.563999 8.0860004 1.386
34.397999 8.2600002 1.381
34.438999 8.3780003 1.383
30.615999 7.6399999 1.2309999
34.313999 8.5629997 1.38
30.457001 7.697 1.225
34.271999 8.6610003 1.3789999
34.437 8.8129997 1.387
34.176998 8.8559999 1.377
34.237999 8.9820004 1.38
34.125 9.0620003 1.377
34.112 9.1689997 1.377
34.035 9.2600002 1.375
34.002998 9.3629999 1.375
34.035999 9.4840002 1.377
33.986 9.5830002 1.376
33.91 9.6739998 1.374
34.025002 9.8210001 1.38
33.812 9.8730001 1.372
33.768002 10.088 1.372
33.782001 10.208 1.374
33.693001 10.296 1.3710001
33.630001 10.508 1.3710001
33.511002 10.587 1.367
33.483002 10.695 1.367
33.497002 10.817 1.369
33.469002 10.925 1.369
33.313 10.992 1.364
33.389 11.135 1.368
33.349998 11.241 1.368
33.276001 11.454 1.367
33.154999 11.532 1.364
33.047001 11.614 1.36
29.417 10.446 1.212
33.043999 11.733 1.362
29.318001 10.518 1.209
29.555 10.711 1.22
33.077 12.109 1.367
33.057999 12.224 1.367
33.030998 12.337 1.368
32.923 12.419 1.364
32.784 12.49 1.36
32.806 12.621 1.362
32.757999 12.726 1.362
32.784 12.861 1.364
32.747002 12.971 1.364
32.702 13.203 1.365
32.5 13.247 1.358
28.771999 11.839 1.204
32.597 13.413 1.364
28.907 12.006 1.211
32.466 13.485 1.36
32.513 13.631 1.363
32.384998 13.704 1.359
32.403999 13.839 1.362
32.326 13.933 1.36
32.354 14.073 1.362
32.237999 14.151 1.359
32.125 14.358 1.358
32.155998 14.501 1.36
32.154999 14.631 1.362
32.058998 14.717 1.36
32.022999 14.83 1.36
28.329 13.235 1.204
28.298 13.337 1.204
31.948999 15.189 1.362
31.709999 15.206 1.353
31.867001 15.413 1.3609999
31.747 15.487 1.358
31.723 15.608 1.359
31.667999 15.846 1.36
31.528999 15.91 1.3559999
31.323999 16.34 1.354
31.304001 16.464001 1.355
31.193001 16.947001 1.357
31.24 17.108999 1.3609999
31.091 17.164 1.357
31.075001 17.292 1.358
27.291 16.410999 1.21
27.174999 16.466 1.207
14.065 8.7159996 0.62699997
14 8.7410002 0.625
13.91 8.7489996 0.62199998
13.823 8.7589998 0.61900002
13.798 8.8079996 0.61900002
13.802 8.875 0.62
13.75 8.9069996 0.61900002
13.738 8.9639997 0.61900002
13.692 8.9989996 0.61799997
13.692 9.0640001 0.61900002
13.816 9.2119999 0.62599999
39.452999 -23.785999 2.026
39.603001 -23.648001 2.0320001
39.764999 -23.518 2.039
39.834 -23.333 2.0409999
39.997002 -23.204 2.0480001
40.238998 -23.121 2.059
40.331001 -22.951 2.062
40.763 -22.753 2.082
40.856998 -22.584999 2.085
41.057999 -22.478001 2.0940001
41.186001 -22.33 2.099
41.334 -22.193001 2.105
41.613998 -21.913 2.1170001
41.761002 -21.775999 2.1229999
41.831001 -21.601 2.1259999
42.25 -21.604 2.1459999
42.215 -21.375999 2.1429999
42.419998 -21.268999 2.152
42.612999 -21.157 2.1600001
42.853001 -21.066999 2.171
42.776001 -20.823 2.1659999
43.312 -20.875999 2.1919999
43.318001 -20.672001 2.191
43.512001 -20.559 2.2
43.669998 -20.429001 2.207
43.952 -20.357 2.22
44.097 -20.219999 2.2260001
44.271 -20.097 2.234
43.021999 -14.717 2.1459999
43.044998 -14.563 2.1470001
43.116001 -14.426 2.1489999
41.240002 -10.141 2.0409999
41.278 -10.021 2.043
18.771999 -4.3270001 0.92799997
18.66 -4.244 0.92199999
18.802 -4.2199998 0.92900002
40.882 -9.0550003 2.02
40.881001 -8.9329996 2.02
40.18 -7.0799999 1.9809999
40.040001 -6.948 1.973
39.271999 -4.4819999 1.932
39.257999 -4.3909998 1.931
16.33 0.23100001 0.69700003
16.398001 0.26100001 0.69999999
16.542 0.29300001 0.70599997
16.632 0.32499999 0.70899999
36.602001 2.3699999 1.553
16.462999 1.103 0.69800001
36.734001 2.4630001 1.559
16.304001 1.13 0.69199997
16.174 1.159 0.68599999
16.149 1.194 0.685
16.128 1.2309999 0.68400002
16.065001 1.2640001 0.68099999
16.021 1.299 0.67900002
16.014999 1.337 0.67900002
16.006001 1.375 0.67900002
15.975 1.411 0.67699999
15.977 1.45 0.67699999
15.968 1.489 0.67699999
15.986 1.53 0.67799997
10.074 0.98900002 0.42699999
15.975 1.569 0.67699999
9.9709997 1.0039999 0.42300001
15.965 1.608 0.67699999
9.8940001 1.022 0.419
15.959 1.648 0.67699999
9.7869997 1.036 0.41499999
16.187 1.7130001 0.68599999
9.7559996 1.057 0.41299999
9.6929998 1.076 0.41100001
9.6879997 1.1 0.41100001
9.6689997 1.123 0.41
9.6429996 1.146 0.40900001
9.6370001 1.17 0.40900001
9.6309996 1.1950001 0.40799999
9.618 1.219 0.40799999
9.5939999 1.242 0.40700001
9.5819998 1.266 0.40599999
9.5670004 1.29 0.40599999
9.5670004 1.317 0.40599999
9.5559998 1.341 0.40599999
9.5539999 1.367 0.405
9.5710001 1.396 0.40599999
9.5609999 1.4220001 0.40599999
9.5889997 1.4529999 0.40700001
9.6859999 1.495 0.41100001
34.890999 7.1269999 1.4910001
34.810001 7.217 1.488
34.835999 7.329 1.489
34.623001 7.3899999 1.4809999
34.777 7.5310001 1.488
34.641998 7.6079998 1.483
34.52 7.6890001 1.478
34.542999 7.802 1.48
34.540001 7.9089999 1.48
34.544998 8.0190001 1.4809999
34.467999 8.1099997 1.479
34.418999 8.2069998 1.477
34.494999 8.3339996 1.4809999
34.330002 8.4040003 1.475
34.240002 8.4910002 1.472
34.314999 8.6199999 1.476
34.266998 8.8280001 1.475
34.201 8.9219999 1.473
34.299 9.059 1.478
34.132 9.1260004 1.471
33.997002 9.2010002 1.466
34.16 9.3570004 1.474
34.015999 9.4289999 1.469
34.013 9.5410004 1.47
33.986 9.6450005 1.469
33.877998 9.8389997 1.466
33.790001 9.927 1.4630001
33.790001 10.039 1.464
33.752998 10.142 1.4630001
33.838001 10.281 1.4680001
33.653999 10.338 1.461
33.632 10.445 1.461
33.672001 10.571 1.464
33.665001 10.683 1.464
33.41 11.174 1.4579999
33.296001 11.25 1.454
33.290001 11.363 1.455
33.273998 11.472 1.455
33.18 11.555 1.452
33.222 11.685 1.455
33.002998 12.069 1.45
33.071999 12.21 1.454
32.932999 12.274 1.449
32.816002 12.346 1.4450001
32.860001 12.478 1.448
32.752998 13.018 1.449
32.582001 13.066 1.443
32.563999 13.175 1.443
32.647999 13.326 1.448
28.944 11.918 1.285
32.570999 13.411 1.446
28.813 11.967 1.28
32.509998 13.502 1.444
32.446999 13.592 1.443
32.495998 13.73 1.446
32.331001 14.009 1.443
32.289001 14.108 1.442
13.682 9.1260004 0.65499997
13.698 9.1829996 0.65600002
13.676 9.2150002 0.65600002
13.653 9.2449999 0.65600002
13.689 9.316 0.65799999
13.605 9.3039999 0.65499997
42.855999 -20.938999 2.277
43.053001 -20.909 2.2869999
43.681 -20.575001 2.3199999
43.667 -20.440001 2.319
43.890999 -20.417 2.3299999
44.117001 -20.392 2.342
43.283001 -16.204 2.289
43.387001 -16.115999 2.2939999
42.834999 -15.035 2.263
42.848999 -14.914 2.2639999
42.965 -14.829 2.2690001
43.07 -14.74 2.2750001
42.021999 -12.422 2.214
42.069 -12.313 2.2160001
42.125999 -12.207 2.2190001
41.305 -10.051 2.1700001
41.227001 -9.9130001 2.1659999
41.324001 -9.8170004 2.1700001
41.490002 -9.7360001 2.1789999
18.796 -4.2470002 0.986
18.684999 -4.1680002 0.98000002
18.757999 -4.1300001 0.98400003
40.451 -7.9720001 2.1199999
40.307999 -7.8280001 2.112
40.286999 -7.0110002 2.108
40.046001 -6.8530002 2.095
39.369999 -5.605 2.056
39.341 -5.4879999 2.0539999
39.410999 -5.3839998 2.0569999
39.535999 -5.2880001 2.063
39.166 -4.7880001 2.0420001
39.213001 -4.6820002 2.0439999
39.067001 -4.552 2.036
38.998001 -4.4320002 2.0320001
39.014999 -4.322 2.033
38.501999 -3.4920001 2.0039999
38.611 -3.391 2.0090001
16.346001 0.155 0.73299998
16.316999 0.17 0.73100001
16.305 0.185 0.73000002
16.311001 0.2 0.73000002
16.319 0.21600001 0.73000002
16.326 0.233 0.73000002
16.309999 0.249 0.72899997
16.349001 0.26699999 0.73000002
16.348 0.285 0.73000002
16.368 0.303 0.73000002
16.408001 0.32300001 0.73199999
16.469999 0.34299999 0.73400003
16.577 0.36500001 0.73799998
16.479 1.096 0.72799999
16.277 1.113 0.71899998
16.202999 1.1390001 0.71600002
16.162001 1.1670001 0.71399999
16.129999 1.1950001 0.713
16.073 1.223 0.70999998
16.069 1.2539999 0.70999998
16.040001 1.284 0.70899999
16.01 1.314 0.70700002
16 1.345 0.70700002
15.993 1.378 0.70700002
15.972 1.409 0.70599997
16.007 1.446 0.70700002
15.993 1.478 0.70700002
15.984 1.512 0.70599997
10.099 0.977 0.44600001
15.979 1.546 0.70599997
9.9779997 0.98699999 0.44100001
15.997 1.582 0.70700002
9.8809996 0.99900001 0.43700001
16.065001 1.624 0.70999998
9.802 1.012 0.433
9.7670002 1.031 0.43200001
9.7410002 1.05 0.43099999
9.7220001 1.0700001 0.43000001
9.6899996 1.089 0.428
9.6759996 1.109 0.428
9.665 1.131 0.42699999
9.6479998 1.151 0.42699999
9.6269999 1.1720001 0.426
9.6260004 1.194 0.426
9.6070004 1.215 0.42500001
9.6059999 1.238 0.42500001
9.5909996 1.26 0.42500001
9.585 1.283 0.42500001
9.5839996 1.306 0.42500001
9.5780001 1.329 0.42399999
9.5699997 1.352 0.42399999
9.5670004 1.376 0.42399999
9.5690002 1.401 0.42399999
9.5979996 1.4299999 0.426
9.6820002 1.467 0.43000001
34.771999 7.296 1.559
34.681 7.3800001 1.556
34.674 7.4809999 1.556
34.68 7.586 1.557
34.672001 7.6890001 1.558
34.691002 7.7979999 1.5599999
34.550999 7.8720002 1.554
34.474998 7.96 1.552
34.428001 8.1610003 1.552
34.425999 8.2670002 1.553
34.405998 8.3699999 1.553
34.393002 8.4750004 1.553
34.320999 8.5649996 1.551
34.275002 8.6619997 1.55
34.313 8.7810001 1.553
34.173 8.8549995 1.5470001
34.363998 9.0150003 1.557
34.127998 9.0629997 1.548
34.132 9.1750002 1.549
33.952999 9.2379999 1.5420001
33.990002 9.3599997 1.545
33.971001 9.4659996 1.545
33.941002 9.5699997 1.545
33.860001 9.6599998 1.543
33.834999 9.7659998 1.543
33.848 9.8830004 1.544
33.769001 9.974 1.5420001
33.931 10.137 1.551
33.731998 10.193 1.543
33.657001 10.285 1.541
33.542999 10.481 1.538
33.575001 10.607 1.541
33.458 10.687 1.5369999
33.471001 10.808 1.539
33.397999 10.902 1.5369999
33.346001 11.003 1.536
33.34 11.119 1.5369999
33.268002 11.332 1.5369999
33.129002 11.404 1.5319999
33.186001 11.543 1.536
33.099998 11.633 1.533
33.032001 11.729 1.5319999
33.144001 11.89 1.539
33.016998 11.965 1.534
33.073002 12.107 1.538
33.014 12.208 1.5369999
32.987 12.443 1.539
32.817001 12.502 1.533
32.765999 12.605 1.5319999
32.751999 12.724 1.533
32.712002 12.957 1.534
32.650002 13.057 1.533
32.542 13.138 1.53
32.546001 13.265 1.5319999
32.495998 13.37 1.531
32.485001 13.492 1.5319999
32.457001 13.607 1.533
32.339001 13.684 1.529
32.41 13.841 1.534
32.150002 14.24 1.529
32.158001 14.373 1.531
32.063999 14.589 1.531
32.002998 14.691 1.53
32.113998 14.872 1.5369999
31.893 15.161 1.5319999
31.851 15.273 1.5319999
31.778 15.369 1.53
31.591 15.411 1.523
31.708 15.6 1.531
31.566999 16.063 1.5319999
31.438999 16.131001 1.528
30.899 18.02 1.5369999
30.790001 18.094999 1.534
13.875 8.6630001 0.69999999
13.864 8.7200003 0.69999999
13.812 8.7519999 0.699
13.823 8.8240004 0.69999999
13.762 8.849 0.69800001
13.745 8.9029999 0.699
13.727 8.9569998 0.699
13.668 8.9829998 0.69700003
13.678 9.0550003 0.699
13.702 9.1359997 0.70099998
39.459 -24.013 2.211
39.481998 -23.798 2.211
39.624001 -23.655001 2.217
39.689999 -23.468 2.2190001
39.902 -23.367001 2.2290001
40.191002 -23.311001 2.244
40.18 -23.080999 2.2420001
40.383999 -22.976 2.2520001
40.483002 -22.811001 2.256
40.667 -22.694 2.2639999
41.268002 -22.153 2.2920001
41.459 -22.041 2.3010001
41.557999 -21.879 2.3050001
41.882 -21.834999 2.3210001
41.941002 -21.653999 2.323
42.191002 -21.57 2.336
42.291 -21.41 2.3399999
42.459 -21.285 2.348
42.782001 -21.237 2.3640001
42.818001 -21.046 2.365
42.967999 -20.912001 2.372
43.192001 -20.813999 2.3829999
43.452 -20.733 2.3959999
43.542999 -20.57 2.4000001
43.756001 -20.466 2.4100001
43.999001 -20.375 2.4219999
44.116001 -20.226 2.427
42.889 -14.832 2.332
42.948002 -14.69 2.3340001
43.117001 -14.586 2.3429999
42.653999 -13.646 2.3139999
42.606998 -13.477 2.3099999
42.125999 -12.291 2.279
42.298 -12.196 2.2880001
41.234001 -10.011 2.223
41.282001 -9.8940001 2.2249999
18.75 -4.322 1.01
18.649 -4.2420001 1.0039999
18.784 -4.2160001 1.011
40.312 -7.993 2.1659999
40.299 -7.8769999 2.165
40.403 -7.7839999 2.171
40.338001 -7.6589999 2.1670001
40.408001 -7.5609999 2.1700001
40.166 -7.0780001 2.1559999
40.131001 -6.9640002 2.154
39.48 -5.5359998 2.1159999
39.268002 -5.4099998 2.1040001
16.367001 0.234 0.77600002
16.490999 0.26499999 0.78200001
16.757999 0.29899999 0.79400003
37.209999 1.0829999 1.761
37.099998 1.152 1.756
37.028 1.222 1.752
36.953999 1.293 1.748
37.248001 1.378 1.762
36.848999 1.9809999 1.74
36.757999 2.056 1.7359999
36.604 2.2920001 1.728
36.605 2.3740001 1.728
16.292999 1.169 0.76899999
16.191 1.199 0.764
16.132 1.232 0.76099998
16.039 1.263 0.75599998
16.048 1.302 0.75700003
16.028999 1.339 0.75599998
15.99 1.375 0.75400001
15.996 1.414 0.75400001
15.974 1.451 0.75300002
15.949 1.488 0.75199997
15.974 1.53 0.75300002
15.969 1.5700001 0.75300002
10.043 1.012 0.47400001
15.968 1.61 0.75300002
9.9700003 1.03 0.47
15.988 1.652 0.75400001
9.8710003 1.045 0.46599999
16.065001 1.701 0.75800002
9.8030005 1.063 0.46200001
9.7449999 1.082 0.46000001
9.7150002 1.104 0.458
9.6859999 1.126 0.45699999
9.6350002 1.145 0.45500001
9.6470003 1.1720001 0.45500001
9.6370001 1.196 0.45500001
9.6169996 1.22 0.454
9.6149998 1.245 0.454
9.5889997 1.268 0.45300001
9.5819998 1.293 0.45300001
9.5869999 1.3200001 0.45300001
9.5810003 1.345 0.45300001
9.559 1.369 0.45199999
9.5649996 1.396 0.45199999
9.5649996 1.423 0.45199999
9.5979996 1.455 0.454
9.7370005 1.503 0.461
10.057 1.581 0.47600001
34.804001 7.1100001 1.6569999
34.824001 7.2210002 1.659
34.785 7.3189998 1.658
34.727001 7.4130001 1.656
34.665001 7.507 1.653
34.740002 7.631 1.658
34.588001 7.7049999 1.651
34.618 7.8189998 1.653
34.469002 7.8930001 1.647
34.473999 8.0030003 1.648
34.505001 8.1190004 1.65
34.400002 8.2030001 1.646
34.425999 8.3179998 1.648
34.327999 8.4040003 1.6440001
34.244999 8.493 1.641
34.335999 8.6260004 1.647
34.236 8.71 1.643
34.133999 8.7939997 1.6390001
34.186001 8.9189997 1.642
34.097 9.0059996 1.6390001
34.049999 9.1049995 1.637
34.083 9.2250004 1.64
34.016998 9.3179998 1.638
34.044998 9.4379997 1.64
34.028 9.5450001 1.64
33.813 9.7089996 1.632
33.824001 9.8240004 1.6339999
33.694 9.8979998 1.628
33.723 10.02 1.631
33.609001 10.098 1.626
33.594002 10.207 1.627
33.604 10.323 1.628
33.660999 10.454 1.632
33.509998 10.521 1.626
33.493999 10.743 1.627
33.473999 10.851 1.628
33.41 10.944 1.626
33.431999 11.066 1.628
33.333 11.148 1.624
33.191002 11.214 1.619
33.313999 11.371 1.626
33.131001 11.423 1.618
33.146999 11.543 1.62
33.227001 11.686 1.625
33.075001 11.979 1.622
33.009998 12.071 1.62
32.875999 12.137 1.615
32.945 12.279 1.619
32.659 13.097 1.6160001
32.608002 13.193 1.615
32.536999 13.397 1.615
32.459999 13.481 1.612
32.423 13.582 1.612
32.382999 13.682 1.6109999
13.719 9.0109997 0.73400003
13.749 9.0780001 0.736
13.816 9.1689997 0.741
13.644 9.1009998 0.73199999
43.678001 -20.586 2.5190001
43.841 -20.535 2.5280001
44.046001 -20.502001 2.54
42.797001 -15.028 2.454
42.839001 -14.917 2.4560001
42.972 -14.838 2.464
42.952999 -14.706 2.4619999
41.978001 -12.413 2.4000001
42.060001 -12.314 2.404
42.138 -12.214 2.408
41.230999 -10.035 2.3499999
41.185001 -9.9049997 2.3469999
41.299999 -9.8120003 2.3529999
18.774 -4.243 1.069
18.648001 -4.1599998 1.061
18.747999 -4.1279998 1.067
40.467999 -7.7420001 2.299
40.345001 -7.6020002 2.2920001
40.455002 -7.506 2.2980001
39.485001 -5.7329998 2.2360001
39.346001 -5.5999999 2.2279999
39.297001 -5.48 2.2249999
39.195 -4.677 2.2160001
39.139999 -4.5580001 2.2119999
39.195999 -4.4520001 2.2149999
39.075001 -4.3260002 2.2079999
39.051998 -4.211 2.2060001
38.292999 -2.2620001 2.155
38.362 -2.1559999 2.1589999
16.353001 0.15899999 0.81
16.327999 0.17299999 0.80900002
16.337 0.189 0.80900002
16.368999 0.204 0.81
16.298 0.219 0.80599999
16.365999 0.237 0.80900002
16.372999 0.25400001 0.80900002
16.381001 0.271 0.80900002
16.399 0.289 0.80900002
16.482 0.30899999 0.81300002
16.487 0.32699999 0.81300002
36.978001 1.469 1.8150001
36.966 1.524 1.813
36.921001 1.579 1.811
36.799999 1.632 1.8049999
36.756001 1.688 1.802
36.667999 1.743 1.7970001
36.706001 1.804 1.799
36.608002 1.86 1.794
36.585999 1.92 1.7920001
36.583 1.982 1.7920001
36.979 2.0669999 1.811
36.757 2.118 1.8
36.615002 2.3729999 1.7920001
36.556999 2.4360001 1.789
36.665001 2.5120001 1.795
16.393 1.154 0.80199999
36.57 2.575 1.79
16.242001 1.174 0.79500002
16.165001 1.2 0.79100001
16.141001 1.23 0.79000002
16.103001 1.258 0.78799999
16.073999 1.288 0.78600001
16.027 1.317 0.78399998
16.042 1.351 0.78500003
16.016001 1.381 0.78399998
15.997 1.413 0.78299999
15.997 1.446 0.78299999
15.986 1.479 0.78200001
15.973 1.512 0.78200001
15.998 1.549 0.78299999
10.177 1.007 0.498
15.994 1.5829999 0.78299999
10.027 1.0140001 0.491
16.042999 1.623 0.78600001
35.992001 3.642 1.763
9.9329996 1.027 0.486
16.316999 1.687 0.79900002
35.890999 3.7119999 1.758
9.8590002 1.041 0.48300001
35.895 3.7920001 1.7589999
9.7880001 1.056 0.479
9.7530003 1.074 0.47799999
9.7030001 1.091 0.47499999
9.7030001 1.113 0.47499999
9.6780005 1.133 0.47400001
9.6569996 1.153 0.47299999
9.6370001 1.173 0.472
9.6420002 1.197 0.47299999
9.6219997 1.2180001 0.472
9.6029997 1.239 0.47099999
9.6149998 1.2640001 0.472
9.5950003 1.285 0.47099999
9.5939999 1.308 0.47099999
9.6029997 1.3329999 0.472
9.5860004 1.355 0.47099999
9.5670004 1.377 0.47
9.5970001 1.405 0.472
35.550999 5.2069998 1.749
9.6780005 1.442 0.47600001
35.299 5.2610002 1.737
9.9119997 1.503 0.48800001
35.354 5.3600001 1.7410001
28.862 4.4510002 1.421
35.389 5.4580002 1.743
28.853001 4.5250001 1.4220001
28.837999 4.599 1.421
28.657 4.6459999 1.413
28.687 4.7280002 1.415
28.724001 4.8109999 1.418
28.690001 4.8829999 1.416
28.577999 4.9419999 1.4119999
28.618 5.027 1.414
28.556 5.0949998 1.4119999
28.531 5.1690001 1.411
28.473 5.2379999 1.409
28.532 5.329 1.413
34.914001 6.8189998 1.7309999
34.727001 6.8829999 1.723
34.709999 6.98 1.723
34.722 7.0830002 1.725
34.73 7.1859999 1.726
34.653999 7.2719998 1.723
34.727001 7.3899999 1.728
34.555 7.4569998 1.72
34.581001 7.566 1.723
34.527 7.658 1.721
34.422001 7.7389998 1.717
34.446999 7.849 1.719
34.386002 7.9400001 1.717
34.396999 8.0480003 1.719
34.388 8.1520004 1.72
34.363998 8.2530003 1.72
34.217999 8.3249998 1.714
34.282001 8.448 1.7180001
34.194 8.5340004 1.715
34.169998 8.6370001 1.715
34.067001 8.7189999 1.711
34.077999 8.8310003 1.7130001
34.056999 8.9350004 1.7130001
33.983002 9.0249996 1.711
33.990002 9.1379995 1.712
33.928001 9.2320004 1.711
33.953999 9.3500004 1.7130001
33.955002 9.4619999 1.715
33.849998 9.5450001 1.711
33.743 9.6269999 1.707
33.790001 9.7530003 1.711
33.726002 9.8479996 1.709
33.820999 9.9899998 1.715
33.660999 10.057 1.7079999
33.567001 10.143 1.705
33.591999 10.265 1.7079999
33.570999 10.374 1.7079999
33.509998 10.471 1.707
33.481998 10.578 1.707
33.550999 10.717 1.712
33.429001 10.795 1.707
33.376999 10.895 1.706
33.345001 11.002 1.706
33.271 11.096 1.704
33.243 11.205 1.704
33.213001 11.313 1.705
33.207001 11.43 1.706
33.113998 11.518 1.7029999
33.126999 11.642 1.705
33.035 11.73 1.702
33.039001 11.852 1.704
32.856998 11.907 1.697
32.949001 12.062 1.7029999
32.984001 12.197 1.707
32.877998 12.279 1.7029999
32.865002 12.397 1.704
32.905998 12.536 1.7079999
32.747002 12.598 1.702
32.800999 12.743 1.707
32.646999 12.931 1.702
32.620998 13.045 1.7029999
32.632999 13.175 1.706
32.551998 13.268 1.7029999
32.492001 13.369 1.702
32.382999 13.45 1.698
32.418999 13.591 1.702
32.395 13.708 1.7029999
32.321999 13.804 1.701
32.257 13.903 1.7
32.209999 14.01 1.7
32.209999 14.138 1.702
32.078999 14.337 1.699
32.083 14.468 1.701
32.014999 14.566 1.7
32.015999 14.696 1.702
32.000999 14.82 1.7029999
31.958 14.93 1.7029999
31.891001 15.029 1.702
31.715 15.471 1.702
31.74 15.616 1.705
31.615999 15.687 1.701
31.546 15.785 1.7
31.521 15.905 1.701
31.478001 16.017 1.701
31.437 16.129999 1.701
31.476 16.284 1.705
31.346001 16.486 1.7029999
31.437 16.669001 1.71
31.396999 16.784 1.711
31.228001 17.101999 1.709
31.033001 17.131001 1.701
30.922001 17.48 1.702
30.912001 17.612 1.705
13.901 8.7440004 0.78200001
13.793 8.7410002 0.77700001
13.815 8.8190002 0.77999997
13.794 8.8699999 0.77999997
13.772 8.9209995 0.77999997
13.782 8.993 0.78200001
13.812 9.0780001 0.78500003
13.855 9.1719999 0.78899997
39.678001 -23.455999 2.402
39.923 -23.375 2.415
40.305 -23.148001 2.4349999
40.365002 -22.959999 2.437
40.514 -22.823999 2.444
40.748001 -22.735001 2.4560001
40.870998 -22.584 2.4619999
41.259998 -22.361 2.4820001
41.292999 -22.163 2.483
41.618999 -22.121 2.5009999
41.561001 -21.875999 2.4949999
41.970001 -21.664 2.517
42.105999 -21.523001 2.523
42.414001 -21.469 2.54
42.717999 -21.201 2.556
43.014999 -21.139 2.572
43.011002 -20.93 2.5699999
43.194 -20.811001 2.579
43.41 -20.709 2.5910001
43.591 -20.59 2.5999999
43.835999 -20.5 2.6140001
44.055 -20.398001 2.625
44.136002 -20.232 2.6289999
42.918999 -14.84 2.5250001
42.964001 -14.694 2.527
43.09 -14.576 2.5339999
42.113998 -12.724 2.4679999
41.952 -12.528 2.457
42.042999 -12.41 2.4619999
42.158001 -12.299 2.4679999
41.166 -10.122 2.401
41.283001 -10.022 2.4070001
18.782 -4.329 1.094
18.627001 -4.237 1.085
18.756001 -4.21 1.092
40.321999 -7.7690001 2.3429999
40.377998 -7.6669998 2.346
39.325001 -5.5149999 2.279
39.362 -5.4239998 2.2809999
39.092999 -3.937 2.263
39.091 -3.8510001 2.263
37.249001 0.53899997 1.944
37.289001 0.60500002 1.9450001
37.325001 0.67299998 1.947
37.188 1.087 1.936
36.965 1.152 1.924
36.803001 1.22 1.915
36.726002 1.29 1.911
36.73 1.363 1.911
36.679001 1.436 1.908
36.639 1.5089999 1.905
36.582001 1.582 1.902
36.596001 1.659 1.903
36.581001 1.7359999 1.902
36.566002 1.812 1.901
36.618999 1.8940001 1.903
36.632999 1.973 1.904
36.723999 2.0580001 1.908
36.756001 2.141 1.91
36.693001 2.2190001 1.906
36.673 2.3 1.905
36.662998 2.382 1.904
36.714001 2.4679999 1.9069999
36.641998 2.5480001 1.903
16.282 1.169 0.84500003
36.525002 2.6240001 1.897
16.177 1.2 0.83999997
36.657001 2.7190001 1.904
16.107 1.232 0.83600003
16.098 1.2690001 0.83600003
16.056 1.304 0.83399999
16.042999 1.342 0.833
15.999 1.377 0.83099997
15.995 1.415 0.83099997
16.000999 1.455 0.83099997
15.964 1.4910001 0.829
15.963 1.53 0.829
15.972 1.571 0.82999998
16.004 1.615 0.83099997
9.9729996 1.031 0.51800001
16.031 1.658 0.833
35.918999 3.7149999 1.867
9.9379997 1.053 0.51599997
35.742001 3.7880001 1.858
9.8290005 1.067 0.51099998
35.745998 3.8800001 1.858
9.7840004 1.087 0.50800002
35.841 3.983 1.863
9.7340002 1.107 0.50599998
9.6949997 1.128 0.50400001
9.6949997 1.153 0.50400001
9.6850004 1.177 0.50300002
9.6619997 1.2 0.50199997
9.6440001 1.224 0.50199997
9.6160002 1.2460001 0.5
9.6099997 1.271 0.5
9.5889997 1.294 0.49900001
9.5880003 1.321 0.49900001
9.5869999 1.347 0.49900001
9.599 1.375 0.5
9.5860004 1.4 0.49900001
35.466999 5.1789999 1.849
9.6300001 1.433 0.50199997
35.349998 5.2610002 1.8430001
9.7880001 1.484 0.50999999
35.237 5.3429999 1.8380001
10.032 1.549 0.523
35.202 5.4369998 1.836
35.249001 5.5440001 1.839
35.229 5.6409998 1.839
35.388 5.7670002 1.848
35.514 5.8899999 1.855
35.271999 5.9510002 1.8430001
28.691 4.9239998 1.499
35.289001 6.0560002 1.844
28.683001 5.006 1.5
35.067001 6.1199999 1.8329999
28.695 5.092 1.501
34.893002 6.1919999 1.825
34.869999 6.29 1.824
28.622 5.2470002 1.498
34.800999 6.3800001 1.822
28.59 5.3260002 1.497
34.785999 6.4809999 1.821
29.075001 5.5029998 1.523
34.752998 6.5780001 1.8200001
34.738998 6.6789999 1.8200001
34.716999 6.7789998 1.8200001
34.625999 6.8649998 1.816
34.610001 6.967 1.816
34.573002 7.0640001 1.8150001
34.497002 7.1539998 1.812
34.499001 7.2600002 1.813
34.481998 7.362 1.812
34.418999 7.4549999 1.8099999
34.359001 7.5479999 1.808
34.330002 7.6479998 1.807
34.294998 7.7470002 1.806
34.261002 7.8470001 1.8049999
34.220001 7.9450002 1.804
34.199001 8.0480003 1.804
34.178001 8.151 1.804
34.105999 8.2419996 1.801
34.053001 8.3369999 1.799
34.033001 8.441 1.799
33.978001 8.5360003 1.7970001
33.944 8.6370001 1.7970001
33.863998 8.7259998 1.793
33.861 8.8339996 1.794
33.823002 8.934 1.793
33.780998 9.033 1.7920001
33.747002 9.1339998 1.7920001
33.714001 9.2360001 1.791
33.723 9.349 1.793
33.639 9.4359999 1.789
33.601002 9.5369997 1.788
33.626999 9.6549997 1.791
33.526001 9.7379999 1.7869999
33.515999 9.8470001 1.7869999
33.514 9.9580002 1.789
33.400002 10.036 1.784
33.374001 10.14 1.784
33.367001 10.25 1.784
33.334999 10.353 1.784
33.332001 10.465 1.785
33.254002 10.553 1.7819999
33.178001 10.642 1.78
33.207001 10.764 1.7819999
33.133999 10.854 1.78
33.105999 10.958 1.78
33.061001 11.057 1.779
33 11.15 1.777
32.951 11.247 1.776
32.886002 11.339 1.774
32.894001 11.455 1.775
32.882999 11.566 1.776
32.859001 11.671 1.776
32.834 11.777 1.777
32.755001 11.863 1.774
32.716 11.963 1.773
32.692001 12.069 1.773
32.720001 12.194 1.776
32.689999 12.298 1.776
32.604 12.381 1.773
32.605 12.497 1.775
32.561001 12.595 1.774
32.541 12.702 1.774
32.477001 12.793 1.773
32.477001 12.908 1.774
32.438999 13.009 1.774
32.410999 13.113 1.774
32.362 13.209 1.773
32.346001 13.318 1.774
32.362999 13.441 1.776
32.207001 13.492 1.7690001
32.152 13.584 1.768
32.237 13.736 1.774
32.174999 13.825 1.773
32.207001 13.955 1.776
32.077999 14.015 1.771
32.064999 14.125 1.772
32.146999 14.278 1.778
31.971001 14.315 1.77
31.961 14.426 1.772
31.882999 14.507 1.7690001
31.955 14.656 1.775
31.896999 14.745 1.773
31.816 14.939 1.773
31.778999 15.038 1.772
31.681 15.453 1.775
31.667 15.562 1.776
31.662001 15.675 1.777
31.462999 16.267 1.778
31.403999 16.351 1.777
31.400999 16.464001 1.779
43.700001 -20.610001 2.7190001
43.914001 -20.582001 2.7320001
43.387001 -16.513 2.688
43.312 -16.357 2.6830001
42.757999 -15.021 2.645
42.810001 -14.913 2.648
42.886002 -14.815 2.652
41.983002 -12.418 2.5880001
42.049 -12.315 2.592
41.720001 -11.368 2.569
41.674999 -11.235 2.5650001
41.221001 -9.915 2.533
41.238998 -9.8000002 2.533
41.419998 -9.7220001 2.5439999
18.865999 -4.2639999 1.158
18.679001 -4.1680002 1.146
18.754999 -4.1300001 1.151
40.306999 -7.5949998 2.4679999
40.394001 -7.494 2.473
39.956001 -6.4910002 2.4419999
40.067001 -6.3930001 2.448
39.738998 -5.7690001 2.4260001
39.348999 -5.599 2.402
39.111 -4.552 2.3829999
39.115002 -4.4400001 2.382
39.012001 -4.316 2.375
39.087002 -4.2119999 2.3800001
38.259998 -2.256 2.3199999
38.244999 -2.1459999 2.319
38.264 -2.0369999 2.3199999
16.482 0.164 0.89499998
16.427999 0.178 0.89099997
16.488001 0.19400001 0.89399999
16.42 0.20900001 0.88999999
16.450001 0.22499999 0.89099997
16.441 0.241 0.88999999
16.488001 0.259 0.89200002
16.451 0.27500001 0.88999999
16.514 0.294 0.89300001
16.664 0.315 0.90100002
16.568001 0.33199999 0.89499998
16.649 0.35299999 0.89899999
36.776001 1.4119999 1.978
36.808998 1.4680001 1.98
36.749001 1.521 1.976
36.678001 1.574 1.972
36.647999 1.63 1.97
36.650002 1.688 1.969
36.616001 1.745 1.967
36.629002 1.806 1.9680001
36.596001 1.864 1.966
36.701 1.931 1.971
36.833 2 1.978
36.811001 2.062 1.976
36.91 2.132 1.982
36.615002 2.4449999 1.965
36.681 2.517 1.969
16.447001 1.16 0.88200003
36.509998 2.575 1.959
16.277 1.179 0.87300003
36.467999 2.641 1.957
16.209 1.205 0.87
36.598999 2.721 1.964
16.15 1.232 0.866
16.105 1.26 0.86400002
16.083 1.291 0.86299998
16.049 1.3200001 0.861
16.052 1.353 0.861
16.051001 1.386 0.861
16.021 1.4170001 0.86000001
16.028999 1.451 0.86000001
16.025999 1.484 0.86000001
16.024 1.518 0.86000001
16.082001 1.559 0.86400002
16.216999 1.607 0.87099999
35.82 3.55 1.924
35.776001 3.6240001 1.9220001
10.062 1.041 0.54000002
35.729 3.698 1.92
9.9650002 1.053 0.53500003
35.665001 3.7709999 1.9170001
9.8610001 1.064 0.52999997
35.688999 3.8540001 1.918
9.7770004 1.0779999 0.52499998
35.695999 3.9360001 1.919
9.7390003 1.096 0.523
36.006001 4.052 1.936
9.7229996 1.1160001 0.523
9.6960001 1.136 0.52100003
9.6789999 1.156 0.52100003
9.6630001 1.177 0.51999998
9.6520004 1.199 0.51899999
9.6289997 1.219 0.51800001
9.6160002 1.2410001 0.51800001
9.6099997 1.2640001 0.51800001
9.6289997 1.29 0.51899999
9.6040001 1.3099999 0.51800001
35.688 4.8699999 1.924
9.6540003 1.341 0.51999998
35.495998 4.9320002 1.915
9.6590004 1.3660001 0.52100003
35.443001 5.013 1.913
9.7159996 1.399 0.52399999
35.361 5.0910001 1.909
9.9040003 1.451 0.53399998
35.325001 5.1760001 1.908
35.297001 5.263 1.9069999
35.252998 5.3470001 1.905
35.245998 5.4380002 1.905
35.273998 5.5339999 1.908
35.238998 5.6220002 1.9069999
35.41 5.743 1.9170001
35.259998 5.8130002 1.909
35.195999 5.8969998 1.9069999
35.151001 5.9840002 1.905
34.923 6.0409999 1.8940001
34.814999 6.1170001 1.8890001
34.743999 6.1999998 1.886
34.722 6.2930002 1.886
34.688 6.3829999 1.885
34.658001 6.4749999 1.8839999
34.625 6.5669999 1.883
34.668999 6.6739998 1.887
34.659 6.7709999 1.887
34.791 6.8969998 1.896
34.698002 6.9780002 1.892
34.625 7.0640001 1.8890001
34.598999 7.1599998 1.8890001
34.523998 7.2459998 1.886
34.530998 7.3499999 1.887
34.445999 7.434 1.8839999
34.410999 7.5300002 1.883
34.394001 7.6290002 1.883
34.341 7.7210002 1.882
34.306999 7.8179998 1.881
34.240002 7.9070001 1.8789999
34.233002 8.0109997 1.88
34.119999 8.0900002 1.875
34.203999 8.2159996 1.881
34.095001 8.2959995 1.876
34.039001 8.3889999 1.874
34.02 8.4910002 1.875
33.896999 8.5679998 1.869
33.811001 8.6540003 1.8660001
33.806 8.7609997 1.867
33.75 8.8549995 1.8660001
33.691002 8.948 1.864
33.668999 9.052 1.864
33.715 9.1739998 1.868
33.721001 9.2860003 1.87
33.681 9.3859997 1.869
33.662998 9.4919996 1.87
33.576 9.5799999 1.867
33.556 9.6859999 1.867
33.523998 9.79 1.867
33.479 9.8889999 1.8660001
33.451 9.9940004 1.8660001
33.390999 10.09 1.865
33.348 10.191 1.864
33.264999 10.28 1.8609999
33.290001 10.402 1.864
33.252998 10.506 1.864
33.158001 10.591 1.86
33.154999 10.706 1.862
33.077999 10.798 1.859
33.014999 10.894 1.858
32.953999 10.99 1.8559999
32.898998 11.089 1.855
32.873001 11.198 1.855
32.847 11.307 1.8559999
32.731998 11.385 1.851
32.773998 11.518 1.855
32.765999 11.634 1.857
32.730999 11.741 1.857
32.700001 11.85 1.857
32.626999 11.944 1.855
32.599998 12.054 1.855
32.543999 12.155 1.854
32.478001 12.251 1.853
32.483002 12.374 1.855
32.466999 12.49 1.8559999
32.415001 12.593 1.855
32.334999 12.684 1.853
32.314999 12.799 1.854
32.278 12.908 1.854
32.303001 13.042 1.858
32.187 13.119 1.853
32.133999 13.222 1.852
32.099998 13.332 1.853
32.068001 13.444 1.853
32.066002 13.568 1.855
32.007999 13.67 1.854
31.997 13.791 1.8559999
31.972 13.907 1.857
31.903 14.003 1.855
31.856001 14.11 1.855
31.822001 14.222 1.855
31.783001 14.332 1.855
31.775999 14.457 1.857
31.752001 14.575 1.858
31.728001 14.693 1.859
31.702 14.81 1.86
31.614 14.899 1.857
31.594999 15.02 1.859
31.487 15.099 1.855
31.495001 15.233 1.858
31.457001 15.345 1.858
31.461 15.479 1.8609999
31.389 15.574 1.859
31.333 15.679 1.859
31.301001 15.794 1.86
31.233999 15.893 1.858
31.231001 16.024 1.8609999
31.222 16.153 1.863
31.224001 16.288 1.8660001
31.188 16.403 1.8660001
31.142 16.513 1.8660001
31.075001 16.612 1.865
31.09 16.754999 1.869
30.992001 16.837 1.865
31.062 17.011 1.873
31.02 17.125 1.873
30.976 17.237 1.873
30.927999 17.347 1.873
30.819 17.423 1.869
30.872 17.59 1.875
30.841999 17.711 1.877
30.746 17.792999 1.874
14.016 8.882 0.87099999
13.99 8.9309998 0.87099999
13.86 8.9130001 0.86400002
13.824 8.9549999 0.86299998
13.836 9.0290003 0.86500001
13.815 9.0810003 0.866
13.906 9.2069998 0.87300003
40.254002 -23.115 2.6170001
40.248001 -22.889 2.615
41.596001 -21.891001 2.688
41.780998 -21.775 2.698
41.93 -21.639999 2.7060001
42.122002 -21.528 2.717
42.299999 -21.408001 2.7260001
42.500999 -21.299 2.7379999
42.598999 -21.139 2.7420001
42.776001 -21.018999 2.7520001
43.014 -20.927999 2.766
43.264 -20.841999 2.78
43.626999 -20.603001 2.8
43.629002 -20.4 2.799
