# .PCD v0.7 - Point Cloud Data file format
VERSION 0.7
FIELDS x y z
SIZE 4 4 4
TYPE F F F
COUNT 1 1 1
WIDTH 1813
HEIGHT 1
VIEWPOINT 0 0 0 1 0 0 0
POINTS 1813
DATA ascii
36.187 2.612 6.033
36.259998 2.7 6.046
41.526001 3.381 6.928
41.341999 3.464 6.8990002
35.785 3.0829999 5.973
41.362999 3.5639999 6.9039998
35.715 3.1619999 5.9629998
35.666 3.244 5.9559999
35.617001 3.326 5.9499998
35.577 3.4089999 5.9450002
35.527 3.4909999 5.9380002
35.486 3.575 5.9330001
35.453999 3.6600001 5.9289999
35.532001 3.757 5.9439998
35.812 3.8770001 5.993
41.477001 4.4910002 6.941
41.341 4.5809999 6.921
41.167999 4.6669998 6.8940001
41.257 4.783 6.9120002
35.679001 4.2290001 5.9790001
41.210999 4.8850002 6.9070001
35.492001 4.2989998 5.9499998
35.323002 4.3720002 5.9239998
35.310001 4.4629998 5.9239998
35.242001 4.5479999 5.9159999
35.233002 4.6409998 5.9159999
35.185001 4.7290001 5.9109998
35.116001 4.8140001 5.902
35.176998 4.9180002 5.915
35.195999 5.0170002 5.921
35.181999 5.1110001 5.921
35.167999 5.2059999 5.9219999
35.030998 5.283 5.902
34.937 5.3660002 5.8889999
34.842999 5.4489999 5.8759999
34.699001 5.5240002 5.855
34.686001 5.6199999 5.8559999
34.632999 5.71 5.8499999
34.602001 5.8039999 5.848
34.563 5.8969998 5.8449998
34.556999 5.9949999 5.8470001
34.636002 6.1090002 5.8639998
34.66 6.2140002 5.8709998
34.578999 6.3010001 5.8610001
34.577 6.402 5.8639998
34.478001 6.4850001 5.8509998
34.415001 6.5749998 5.8439999
34.407001 6.6760001 5.8470001
34.327999 6.7639999 5.8369999
34.359001 6.8730001 5.8460002
34.282001 6.961 5.8369999
34.256001 7.059 5.8369999
34.210999 7.1539998 5.8330002
34.108002 7.2360001 5.8200002
34.081001 7.335 5.8189998
34.07 7.4380002 5.8210001
33.987999 7.5240002 5.8119998
33.912998 7.6129999 5.803
33.910999 7.7179999 5.8070002
33.868 7.8140001 5.8039999
33.813 7.9070001 5.7989998
33.763 8.0019999 5.7950001
33.752998 8.1059999 5.7979999
33.710999 8.2030001 5.7950001
33.640999 8.2930002 5.7880001
33.664001 8.4060001 5.7969999
33.669998 8.5150003 5.802
33.636002 8.6140003 5.8010001
33.583 8.7089996 5.7969999
33.554001 8.8100004 5.7969999
33.521 8.9099998 5.796
33.507 9.0150003 5.7989998
33.442001 9.1070004 5.7930002
33.370998 9.1969995 5.7859998
33.356998 9.3030005 5.7880001
33.323002 9.4029999 5.7880001
33.299 9.5059996 5.789
33.178001 9.5819998 5.7729998
33.098999 9.6689997 5.7639999
33.088001 9.776 5.7680001
33.056999 9.8769999 5.7680001
32.995998 9.9700003 5.763
32.987 10.078 5.7670002
32.977001 10.186 5.7709999
32.973 10.296 5.776
32.908001 10.387 5.77
32.849998 10.481 5.7659998
32.888 10.605 5.7779999
32.834999 10.7 5.7750001
32.839001 10.814 5.7810001
32.764999 10.902 5.7740002
32.726002 11.002 5.7729998
32.676998 11.098 5.7709999
32.653999 11.203 5.7729998
32.611 11.301 5.7709999
32.595001 11.409 5.7750001
32.541 11.503 5.7709999
32.537998 11.616 5.777
32.462002 11.702 5.77
32.417999 11.8 5.7680001
32.300999 11.871 5.7540002
32.219002 11.954 5.7459998
32.174 12.051 5.744
32.132999 12.149 5.744
32.118 12.257 5.7470002
32.067001 12.352 5.7449999
32.091 12.475 5.756
32.148998 12.612 5.7729998
32.098999 12.707 5.7709999
32.09 12.818 5.776
32.042999 12.914 5.7740002
32.021 13.02 5.7779999
31.954 13.107 5.7719998
31.951 13.221 5.7789998
31.912001 13.32 5.7789998
31.853001 13.41 5.7750001
31.802 13.504 5.7729998
31.766001 13.603 5.7740002
31.754 13.713 5.7789998
31.693001 13.802 5.7750001
31.683001 13.912 5.7800002
31.67 14.022 5.7849998
31.587999 14.101 5.7779999
31.51 14.181 5.7709999
31.389999 14.242 5.757
31.348 14.337 5.756
31.264 14.413 5.7480001
31.249001 14.521 5.7529998
31.226999 14.625 5.757
31.186001 14.72 5.757
31.247 14.863 5.776
31.304001 15.005 5.7940001
31.236 15.088 5.789
31.231001 15.2 5.796
31.16 15.28 5.7909999
31.134001 15.382 5.7940001
31.1 15.48 5.796
31.09 15.59 5.802
31.055 15.687 5.803
31.039 15.793 5.8080001
30.952 15.863 5.8000002
30.931 15.967 5.8039999
30.879 16.054001 5.803
30.882999 16.17 5.8119998
30.818001 16.25 5.8080001
30.82 16.365 5.816
30.759001 16.445999 5.8130002
30.739 16.549 5.8179998
30.594999 16.584 5.7989998
30.500999 16.646 5.789
30.448999 16.73 5.7880001
30.391001 16.811001 5.7849998
30.405001 16.93 5.7969999
30.356001 17.014999 5.796
30.367001 17.132999 5.8060002
30.440001 17.285999 5.829
30.365 17.355 5.823
30.422001 17.5 5.8429999
30.364 17.577999 5.8400002
30.313 17.66 5.8390002
30.349001 17.792 5.855
30.289 17.868 5.8530002
30.221001 17.938 5.848
30.195 18.033001 5.8520002
30.167 18.125999 5.8559999
30.17 18.238001 5.8649998
30.101 18.306 5.8610001
30.084999 18.406 5.8670001
30.031 18.481001 5.8649998
29.992001 18.566 5.8670001
29.966 18.658001 5.8709998
29.943001 18.752001 5.875
29.91 18.837999 5.8779998
29.896 18.937 5.8839998
29.903 19.049 5.895
29.823 19.104 5.888
29.681999 19.120001 5.8699999
29.694 19.233 5.882
29.561001 19.252001 5.8639998
29.57 19.362 5.875
29.530001 19.440001 5.8769999
29.447001 19.489 5.8699999
29.452 19.596001 5.8800001
29.474001 19.712999 5.8940001
42.626999 -16.032 7.2779999
42.748001 -15.948 7.296
42.800999 -15.839 7.3039999
42.665001 -15.66 7.2789998
41.889999 -13.238 7.1149998
41.854 -13.102 7.1069999
41.473999 -11.868 7.026
41.638 -11.791 7.052
41.196999 -10.93 6.9660001
40.938 -10.739 6.921
41.092999 -10.658 6.9450002
41.133999 -10.546 6.9499998
18.690001 -4.237 3.1489999
18.646999 -4.1719999 3.141
18.798 -4.1500001 3.165
40.119999 -8.5019999 6.7509999
40.091999 -8.3769999 6.744
40.402 -8.323 6.7940001
38.943001 -5.2690001 6.5040002
38.935001 -5.1539998 6.5009999
38.964001 -5.0430002 6.5040002
38.405998 -3.957 6.3940001
38.341 -3.8380001 6.381
36.407001 1.956 6.1240001
36.403 2.016 6.1240001
36.365002 2.0739999 6.118
36.248001 2.128 6.098
36.269001 2.1919999 6.1020002
36.206001 2.25 6.092
36.189999 2.312 6.0900002
36.132 2.3729999 6.0809999
36.151001 2.4389999 6.085
36.208 2.5090001 6.0949998
36.155998 2.5710001 6.0879998
36.380001 2.655 6.1259999
36.000999 2.973 6.0679998
35.777 3.026 6.0320001
35.702999 3.0910001 6.0209999
35.634998 3.1570001 6.0110002
35.601002 3.227 6.007
35.612 3.302 6.0110002
35.573002 3.3729999 6.006
35.536999 3.444 6.0019999
35.562 3.5220001 6.0079999
35.594002 3.602 6.0149999
35.687 3.6889999 6.033
35.84 3.783 6.0609999
41.445 4.375 7.0089998
41.375 4.4590001 7
41.290001 4.5409999 6.9879999
41.237 4.6279998 6.9819999
41.291 4.7280002 6.994
35.625 4.1609998 6.0359998
41.330002 4.8270001 7.0029998
35.443001 4.2210002 6.0079999
35.361 4.2940001 5.9970002
35.327999 4.3720002 5.994
35.25 4.4460001 5.9840002
35.256001 4.5310001 5.987
35.215 4.6100001 5.9829998
35.188 4.6919999 5.9819999
35.181999 4.777 5.9840002
35.193001 4.8649998 5.9889998
35.221001 4.9559999 5.9970002
35.235001 5.046 6.0019999
35.248001 5.1360002 6.0079999
35.202 5.2189999 6.0029998
35.152 5.3010001 5.9990001
34.863998 5.3470001 5.9530001
34.744999 5.4190001 5.9359999
34.699001 5.5019999 5.9320002
34.683998 5.5900002 5.9330001
34.626999 5.6729999 5.927
34.594002 5.7589998 5.9250002
34.581001 5.8499999 5.927
34.556 5.9390001 5.927
34.623001 6.0440001 5.9419999
34.805 6.171 5.9770002
34.539001 6.6040001 5.9530001
34.466 6.6869998 5.9450002
34.403999 6.7740002 5.9390001
34.335999 6.8590002 5.9320002
34.325001 6.9549999 5.9349999
34.271 7.0440001 5.9299998
34.233002 7.1360002 5.928
34.242001 7.2379999 5.9349999
34.236 7.3379998 5.9390001
34.326 7.4590001 5.9590001
39.872002 8.665 6.9219999
34.333 7.5640001 5.9660001
39.819 8.7720003 6.9190001
34.244999 7.6469998 5.9559999
39.804001 8.8879995 6.9219999
34.212002 7.743 5.9549999
39.764 9 6.9219999
34.006001 7.8000002 5.9250002
33.791 7.8530002 5.8920002
33.768002 7.9520001 5.8940001
33.707001 8.0410004 5.888
33.696999 8.1440001 5.8920002
33.662998 8.2399998 5.8920002
33.615002 8.3339996 5.8889999
33.651001 8.4490004 5.901
33.743 8.5790005 5.9229999
33.723 8.6809998 5.9250002
33.75 8.7959995 5.9359999
33.692001 8.8900003 5.9320002
33.599998 8.974 5.9219999
33.547001 9.0690002 5.9180002
33.438 9.1490002 5.9050002
33.418999 9.2530003 5.908
33.377998 9.3520002 5.9070001
33.316002 9.4449997 5.902
33.285999 9.5469999 5.9029999
33.237 9.6450005 5.901
33.208 9.7480001 5.9029999
33.195 9.8559999 5.9070001
33.077 9.9329996 5.8920002
33.115002 10.058 5.9060001
33.037998 10.148 5.8990002
32.921001 10.225 5.8850002
32.852001 10.317 5.8790002
32.816002 10.42 5.8800001
32.799999 10.53 5.8839998
32.745998 10.627 5.881
32.737 10.74 5.8870001
32.745998 10.858 5.895
32.719002 10.966 5.8979998
32.696999 11.075 5.901
32.624001 11.168 5.895
32.619999 11.284 5.902
32.521999 11.367 5.8920002
32.521 11.485 5.8990002
32.452999 11.58 5.8940001
32.417 11.686 5.895
32.373001 11.789 5.895
32.314999 11.888 5.8920002
32.263 11.988 5.8899999
32.198002 12.084 5.8860002
32.154999 12.189 5.8870001
32.122002 12.297 5.8889999
32.068001 12.398 5.8870001
32.066002 12.519 5.8940001
32.005001 12.617 5.8909998
31.982 12.73 5.895
31.937 12.835 5.895
31.899 12.943 5.8969998
31.889999 13.063 5.9029999
31.882999 13.184 5.9109998
31.823 13.283 5.908
31.775999 13.388 5.908
31.733999 13.496 5.9089999
31.718 13.614 5.914
31.627001 13.701 5.9060001
31.622999 13.825 5.914
31.534 13.913 5.9060001
31.52 14.033 5.9130001
31.434 14.122 5.9060001
31.378 14.224 5.9039998
31.322001 14.326 5.9029999
31.268999 14.429 5.902
31.232 14.54 5.9039998
31.231001 14.668 5.9130001
31.219999 14.792 5.9200001
31.177 14.901 5.9219999
31.158001 15.022 5.927
31.059999 15.104 5.9180002
31.077 15.243 5.9310002
31.028 15.35 5.9320002
31.01 15.472 5.9380002
30.995001 15.596 5.9450002
30.954 15.708 5.947
30.906 15.816 5.947
30.863001 15.926 5.9489999
30.832001 16.042999 5.9530001
30.759001 16.138 5.9489999
30.736 16.26 5.9549999
30.709 16.379 5.96
30.615 16.462999 5.9520001
30.525 16.549 5.9439998
30.476 16.657 5.9450002
30.406 16.753 5.9419999
30.354 16.858999 5.9419999
30.351 16.993 5.9520001
30.318001 17.111 5.9559999
30.294001 17.233 5.9619999
30.250999 17.344999 5.9640002
30.233999 17.472 5.9720001
30.216999 17.599001 5.9790001
30.184 17.718 5.9840002
30.135 17.827 5.9850001
30.134001 17.965 5.9959998
30.054001 18.056 5.9910002
30.056 18.195999 6.0029998
29.962 18.278 5.9949999
29.910999 18.386 5.9959998
29.891001 18.514 6.0029998
29.830999 18.615999 6.0029998
29.798 18.736 6.007
29.745001 18.843 6.0079999
29.681 18.944 6.007
29.643999 19.061001 6.0110002
29.558001 19.146 6.0050001
29.542999 19.278 6.0139999
29.451 19.360001 6.007
29.374001 19.451 6.0029998
29.32 19.556999 6.0040002
29.211 19.625999 5.993
29.162001 19.736 5.9949999
29.125999 19.854 6
29.091 19.972 6.0040002
29.030001 20.073 6.0040002
28.989 20.188 6.0079999
29.009001 20.346001 6.0240002
29.048 20.517 6.0440001
42.589001 -14.901 7.2729998
42.388 -14.669 7.2360001
41.971001 -13.438 7.1430001
42.011002 -13.299 7.1469998
40.910999 -10.718 6.9190001
41.141998 -10.646 6.9559999
40.688 -9.7580004 6.8660002
40.678001 -9.6289997 6.862
18.83 -4.4000001 3.175
18.672001 -4.3060002 3.148
18.722 -4.2600002 3.155
40.298 -8.9289999 6.7880001
40.224998 -8.7930002 6.7740002
40.145 -8.6569996 6.7589998
39.949001 -7.6960001 6.7119999
39.741001 -7.5450001 6.6760001
39.778999 -7.441 6.6810002
39.362999 -6.6170001 6.6009998
39.287998 -6.5 6.5869999
39.273998 -6.2919998 6.5819998
39.231998 -6.184 6.5739999
39.292999 -6.092 6.5830002
39.423 -6.0110002 6.6030002
39.008999 -5.171 6.5250001
39.012001 -5.0770001 6.5250001
39.049 -4.9879999 6.5300002
39.022999 -4.8909998 6.5250001
38.848999 -4.777 6.4949999
38.539001 -3.855 6.4349999
38.577 -3.7739999 6.441
36.619999 0.66500002 6.2870002
36.595001 0.72799999 6.2820001
36.568001 0.792 6.276
36.551998 0.85600001 6.2729998
36.558998 0.92199999 6.2729998
36.557999 0.98900002 6.2719998
36.556 1.056 6.2719998
36.615002 1.126 6.2810001
36.785 1.201 6.3099999
36.394001 1.915 6.244
36.290001 1.9859999 6.2259998
36.263 2.062 6.2220001
36.224998 2.138 6.2160001
36.214001 2.2160001 6.2150002
36.164001 2.2920001 6.2069998
36.106998 2.368 6.198
36.136002 2.45 6.204
36.091999 2.5280001 6.198
36.143002 2.6140001 6.2069998
41.562 3.2920001 7.1420002
41.441002 3.3800001 7.1230001
41.366001 3.471 7.112
35.672001 3.0780001 6.1339998
41.445999 3.576 7.1269999
35.678001 3.1630001 6.1360002
35.59 3.2409999 6.1230001
35.618 3.3299999 6.1290002
35.528999 3.408 6.1160002
35.528999 3.4960001 6.118
35.500999 3.5810001 6.1149998
35.537998 3.6730001 6.1230001
35.675999 3.777 6.1490002
35.799999 3.8800001 6.1719999
41.415001 4.4889998 7.1399999
41.323002 4.5840001 7.1269999
41.259998 4.6820002 7.118
41.133999 4.7740002 7.099
41.237999 4.8930001 7.1199999
35.421001 4.2950001 6.118
35.339001 4.3779998 6.1059999
35.271 4.4619999 6.0970001
35.25 4.553 6.0960002
35.202 4.6409998 6.0900002
35.185001 4.7329998 6.0900002
35.146 4.822 6.086
35.179001 4.9219999 6.0939999
35.192001 5.02 6.099
35.236 5.1230001 6.1100001
35.208 5.2160001 6.1079998
35.181999 5.3099999 6.1059999
35.064999 5.3899999 6.0890002
34.793999 5.4450002 6.0450001
34.723 5.5320001 6.0359998
34.675999 5.6230001 6.0310001
34.627998 5.7129998 6.026
34.587002 5.8049998 6.0219998
34.548 5.8979998 6.0190001
34.537998 5.9959998 6.0209999
34.620998 6.1110001 6.039
34.854 6.2529998 6.0830002
40.571999 7.3979998 7.085
40.504002 7.5040002 7.0780001
34.581001 6.6110001 6.0500002
34.442001 6.6869998 6.0300002
34.387001 6.7789998 6.0240002
34.341999 6.8730001 6.02
34.313 6.9710002 6.0190001
34.251999 7.0619998 6.013
34.242001 7.164 6.0149999
34.217999 7.2639999 6.0149999
34.367001 7.401 6.046
39.862 8.7060003 7.0170002
39.737 8.802 7.0009999
39.749001 8.9280005 7.0079999
34.021999 7.7470002 6.0029998
39.743 9.0500002 7.0120001
33.833 7.8099999 5.974
33.790001 7.9060001 5.9710002
33.714001 7.994 5.9619999
33.699001 8.0970001 5.9640002
33.650002 8.1920004 5.96
33.615002 8.29 5.9590001
33.672001 8.4119997 5.974
33.862999 8.5679998 6.013
38.901001 9.967 6.9130001
33.870998 8.7880001 6.0240002
38.813999 10.07 6.9039998
33.909 8.9069996 6.0359998
38.826 10.199 6.9109998
33.710999 8.9650002 6.006
33.528 9.0249996 5.9790001
33.476002 9.1199999 5.9749999
33.449001 9.2229996 5.9749999
33.397999 9.3179998 5.9710002
33.353001 9.415 5.9689999
33.341 9.5220003 5.9720001
33.314999 9.625 5.973
33.382 9.7559996 5.9910002
33.499001 9.9020004 6.0170002
38.410999 11.354 6.8990002
33.380001 9.9779997 6.0009999
38.408001 11.481 6.9050002
33.403999 10.097 6.0120001
33.115002 10.121 5.9650002
32.924999 10.175 5.9369998
32.874001 10.27 5.934
32.827999 10.367 5.9310002
32.801998 10.47 5.9320002
32.743 10.563 5.928
32.741001 10.674 5.9330001
32.750999 10.789 5.941
32.957001 10.971 5.9850001
32.950001 11.082 5.9899998
32.830002 11.155 5.974
32.751999 11.241 5.9660001
32.716 11.342 5.9660001
32.611 11.42 5.954
32.561001 11.515 5.9510002
32.512001 11.612 5.948
32.492001 11.718 5.9510002
32.418999 11.806 5.9450002
32.410999 11.917 5.9499998
32.438 12.041 5.961
32.397999 12.14 5.961
32.365002 12.242 5.961
32.361 12.355 5.967
32.291 12.443 5.9619999
32.109001 12.487 5.9349999
31.976999 12.55 5.9169998
31.972 12.662 5.9229999
31.905001 12.749 5.9180002
31.865 12.847 5.9180002
31.851 12.956 5.9219999
31.872999 13.079 5.9330001
32.035 13.261 5.9710002
32 13.362 5.9720001
31.905001 13.437 5.961
31.899 13.55 5.967
31.819 13.632 5.96
31.754 13.719 5.9549999
31.669001 13.797 5.947
31.639999 13.9 5.9489999
31.612 14.002 5.9510002
31.566 14.097 5.9499998
31.537001 14.199 5.9520001
31.540001 14.316 5.961
31.490999 14.408 5.9590001
31.511 14.533 5.9710002
31.462999 14.626 5.9699998
31.416 14.72 5.9689999
31.32 14.79 5.9580002
31.156 14.826 5.9349999
31.115 14.921 5.9349999
31.059999 15.009 5.9330001
31.035999 15.112 5.9359999
31.028 15.222 5.9429998
30.997999 15.322 5.9450002
31.087999 15.481 5.9710002
31.169001 15.637 5.9949999
36.179001 18.15 6.9580002
31.031 15.682 5.9759998
36.080002 18.233 6.9489999
31.09 15.826 5.9959998
36.087002 18.370001 6.96
31.084 15.938 6.0029998
30.907 15.962 5.9770002
30.893 16.069 5.9829998
30.823999 16.146999 5.9780002
30.801001 16.247999 5.9819999
30.764999 16.343 5.9840002
30.733 16.440001 5.9860001
30.705 16.538 5.9889998
30.757 16.68 6.0079999
30.777 16.805 6.0209999
30.778999 16.919001 6.0300002
30.705999 16.993 6.0250001
30.622999 17.059999 6.0170002
30.544001 17.129 6.0110002
30.375999 17.146 5.9860001
30.318001 17.225 5.9840002
30.226 17.284 5.9749999
30.249001 17.409 5.9879999
30.205999 17.495001 5.9879999
30.155001 17.576 5.987
30.150999 17.684999 5.9959998
30.184 17.815001 6.0110002
30.455999 18.086 6.0749998
30.386999 18.157 6.0700002
30.336 18.237 6.0689998
30.188999 18.368999 6.059
30.106001 18.427999 6.0510001
30.004999 18.475 6.04
29.955999 18.552999 6.04
29.950001 18.658001 6.0479999
29.903999 18.737 6.0479999
29.858 18.816 6.0479999
29.844 18.914 6.0549998
29.829 19.011999 6.0609999
29.791 19.094 6.0630002
41.825001 -13.223 7.2979999
41.950001 -13.137 7.3179998
41.056 -11.017 7.1329999
41.049 -10.893 7.1300001
40.689999 -9.7089996 7.0500002
40.747002 -9.6020002 7.0580001
40.691002 -9.4680004 7.0469999
40.737 -9.3570004 7.053
18.749001 -4.2509999 3.2449999
18.68 -4.1799998 3.2320001
18.874001 -4.1669998 3.2650001
40.119999 -8.5019999 6.934
40.228001 -8.4060001 6.9510002
40.221001 -8.2860003 6.948
40.391998 -8.2010002 6.9749999
39.763 -7.2509999 6.8530002
39.852001 -7.1500001 6.8670001
39.936001 -7.0469999 6.8790002
38.865002 -4.914 6.6609998
39.248001 -4.8470001 6.7249999
36.662998 1.176 6.3579998
36.679001 1.224 6.3600001
36.599998 1.911 6.3410001
36.476002 1.964 6.3189998
36.369999 2.017 6.3010001
36.319 2.075 6.2930002
36.210999 2.1300001 6.2740002
36.256001 2.194 6.283
36.229 2.2550001 6.2789998
36.206001 2.3169999 6.2750001
36.113998 2.375 6.2600002
36.063 2.4360001 6.2519999
36.166 2.5090001 6.2709999
36.310001 2.585 6.2969999
41.431999 3.3440001 7.1919999
35.979 2.974 6.2459998
41.403 3.4230001 7.1880002
35.752998 3.027 6.2090001
35.652 3.0899999 6.1929998
35.662998 3.1630001 6.1960001
35.571999 3.2279999 6.1820002
35.562 3.3 6.1820002
35.571999 3.375 6.1859999
35.556999 3.4489999 6.1849999
35.571999 3.526 6.1900001
35.567001 3.602 6.191
35.724998 3.6960001 6.2199998
41.429001 4.3759999 7.2160001
41.279999 4.4520001 7.1929998
41.233002 4.539 7.1880002
41.238998 4.632 7.191
41.275002 4.73 7.2010002
35.513 4.151 6.198
35.360001 4.2140002 6.1739998
35.324001 4.2919998 6.1700001
35.314999 4.3740001 6.1719999
35.243 4.448 6.1620002
35.229 4.5300002 6.1620002
35.172001 4.6069999 6.1550002
35.165001 4.6919999 6.1570001
35.167 4.7779999 6.1609998
35.227001 4.8720002 6.1739998
35.268002 4.9660001 6.1849999
35.242001 5.0500002 6.184
35.183998 5.1300001 6.177
35.199001 5.2210002 6.1830001
35.056 5.289 6.1620002
34.776001 5.336 6.1160002
34.721001 5.4180002 6.1100001
34.688999 5.5029998 6.1079998
34.623001 5.5840001 6.0999999
34.612 5.6729999 6.1020002
34.582001 5.7600002 6.1009998
34.554001 5.848 6.0999999
34.568001 5.9439998 6.1069999
34.674 6.0560002 6.1300001
34.876999 6.1859999 6.1700001
34.726002 6.5450001 6.1609998
34.515999 6.6020002 6.1279998
34.395 6.677 6.1110001
34.368999 6.77 6.1110001
34.326 6.8600001 6.1090002
34.313 6.9559999 6.1110001
34.247002 7.0419998 6.1040001
34.261002 7.145 6.112
34.231998 7.2399998 6.112
34.294998 7.3540001 6.1279998
39.806 8.6540003 7.119
39.737 8.7580004 7.1129999
39.703999 8.8699999 7.1129999
39.674 8.9829998 7.1139998
33.950001 7.79 6.0929999
39.826 9.1379995 7.1469998
33.821999 7.8639998 6.0749998
33.715 7.9429998 6.0619998
33.724998 8.0489998 6.0689998
33.668999 8.1400003 6.0650001
33.659 8.243 6.0689998
33.624001 8.3400002 6.0679998
33.616001 8.4440002 6.073
33.876999 8.6169996 6.1259999
38.889 10.015 7.039
38.783001 10.112 7.027
38.75 10.228 7.0279999
33.716 9.0089998 6.1209998
38.888 10.39 7.0599999
33.544998 9.0719995 6.0960002
33.460999 9.158 6.0869999
33.428001 9.2589998 6.0879998
33.388 9.3590002 6.0869999
33.328999 9.4519997 6.0830002
33.298 9.5550003 6.0840001
33.298 9.6660004 6.0900002
33.372002 9.8000002 6.1110001
38.529999 11.315 7.0549998
38.285999 11.372 7.0180001
38.294998 11.505 7.0279999
33.472 10.17 6.1500001
38.228001 11.615 7.0240002
33.120998 10.177 6.092
32.917 10.228 6.0619998
32.848999 10.32 6.0560002
32.790001 10.416 6.053
32.75 10.518 6.052
32.719002 10.623 6.0539999
32.706001 10.734 6.059
32.833 10.892 6.0900002
33.140999 11.112 6.1539998
32.882999 11.142 6.1139998
32.952999 11.284 6.1350002
32.729 11.326 6.1009998
32.627998 11.409 6.0890002
32.551998 11.501 6.0830002
32.478001 11.593 6.0770001
32.462002 11.707 6.0819998
32.418999 11.811 6.0819998
32.387001 11.919 6.0840001
32.476002 12.072 6.1090002
32.511002 12.207 6.1240001
32.487999 12.32 6.1269999
37.737999 14.311 7.118
32.348 12.389 6.1090002
37.574001 14.39 7.0960002
32.167999 12.441 6.0840001
31.989 12.494 6.0580001
31.951 12.601 6.059
31.906 12.705 6.059
31.868 12.813 6.0609999
31.823999 12.918 6.0609999
31.889 13.068 6.0819998
32.230999 13.333 6.1560001
37.279999 15.422 7.1199999
32.102001 13.405 6.1399999
37.16 15.518 7.1079998
32.097 13.529 6.1479998
37.136002 15.653 7.1129999
31.906 13.574 6.1199999
31.784 13.648 6.1059999
31.707001 13.742 6.0999999
31.639999 13.839 6.0970001
31.601999 13.948 6.098
31.583 14.067 6.1040001
31.523001 14.168 6.1020002
31.65 14.353 6.1360002
36.901001 16.735001 7.1539998
31.780001 14.541 6.171
36.629002 16.76 7.112
31.601 14.589 6.145
36.644001 16.917 7.1259999
31.532 14.686 6.1409998
31.292999 14.704 6.105
31.174 14.777 6.0910001
31.113001 14.877 6.0890002
31.049 14.976 6.086
30.996 15.08 6.085
30.941999 15.184 6.085
31.042999 15.364 6.1139998
36.243 17.938 7.1389999
31.271999 15.61 6.1700001
36.068001 18.004 7.1160002
31.172001 15.692 6.1599998
36.050999 18.149 7.1240001
31.079 15.778 6.152
35.978001 18.266001 7.1220002
31.079 15.912 6.1620002
36.066002 18.465 7.151
30.909 15.957 6.1389999
30.823 16.046 6.132
30.805 16.17 6.1389999
30.739 16.268999 6.1360002
30.695 16.379999 6.138
30.66 16.495001 6.1420002
30.709999 16.657 6.1620002
30.804001 16.844 6.1919999
37.535 20.525 7.5450001
30.864 17.014 6.2150002
37.455002 20.646999 7.5419998
30.695 17.056999 6.1919999
37.415001 20.791 7.5469999
30.667 17.179001 6.197
37.403999 20.952999 7.559
30.421 17.177 6.158
30.233 17.207001 6.131
30.188 17.316999 6.1329999
30.143999 17.429001 6.1350002
30.107 17.544001 6.1389999
30.058001 17.653 6.1399999
29.993 17.752001 6.138
30.021999 17.907 6.1550002
30.291 18.488001 6.2449999
30.073999 18.496 6.2119999
30.011 18.598 6.211
29.843 18.632999 6.1880002
29.792 18.742001 6.1890001
29.724001 18.84 6.1869998
29.688 18.958 6.191
29.608999 19.049 6.1869998
29.559999 19.159 6.1890001
29.52 19.274 6.1919999
29.51 19.409 6.2020001
29.483999 19.535 6.2090001
29.546 19.719 6.2340002
30.33 20.389999 6.4130001
30.309999 20.524 6.421
30.233 20.620001 6.4180002
30.216 20.757 6.427
42.745998 -15.452 7.507
42.901001 -15.342 7.5310001
42.497002 -14.709 7.4499998
42.381001 -14.509 7.4260001
42.346001 -14.338 7.4169998
42.451 -14.215 7.4320002
41.988998 -13.144 7.3330002
42.018002 -13.003 7.335
41.723999 -12.473 7.2750001
41.699001 -12.321 7.2680001
41.432999 -11.958 7.2160001
41.603001 -11.866 7.243
41.125999 -11.179 7.1500001
41.042999 -11.021 7.1329999
41.116001 -10.907 7.1430001
41.105 -10.77 7.1389999
40.792999 -10.166 7.0749998
40.598999 -9.9899998 7.039
18.802 -4.3930001 3.256
18.635 -4.2969999 3.2260001
18.719999 -4.2600002 3.24
40.113998 -8.7690001 6.9369998
40.145 -8.6569996 6.941
39.955002 -8.4980001 6.9060001
40.188999 -8.4309998 6.9450002
39.006001 -5.2639999 6.7010002
38.948002 -5.1609998 6.6900001
38.933998 -5.0650001 6.6869998
38.973999 -4.9759998 6.6929998
38.813999 -4.8629999 6.664
38.460999 -3.845 6.5949998
38.424999 -3.756 6.5879998
36.575001 0.67000002 6.4640002
36.618 0.73400003 6.4699998
36.570999 0.79699999 6.461
36.605999 0.86299998 6.467
36.529999 0.92699999 6.4530001
36.473999 0.99199998 6.4419999
36.5 1.0599999 6.4460001
36.469002 1.127 6.4400001
36.657001 1.201 6.473
36.682999 1.272 6.4780002
36.433998 1.9220001 6.4349999
36.318001 1.993 6.415
36.280998 2.0680001 6.4089999
36.143002 2.138 6.3850002
36.194 2.2190001 6.395
36.147999 2.2950001 6.3870001
36.132 2.3740001 6.3850002
36.115002 2.4530001 6.3829999
36.125999 2.5350001 6.3860002
36.129002 2.6170001 6.388
36.25 2.7090001 6.4109998
41.338001 3.3759999 7.3150001
41.258999 3.467 7.302
35.854 3.098 6.3470001
35.695999 3.1689999 6.3210001
35.610001 3.247 6.3070002
35.570999 3.3299999 6.302
35.505001 3.4100001 6.2919998
35.469002 3.494 6.2870002
35.497002 3.585 6.2940001
35.522999 3.6760001 6.3010001
35.608002 3.7739999 6.3179998
35.803001 3.885 6.355
41.506001 4.5040002 7.3670001
41.256001 4.5819998 7.3249998
41.254002 4.6869998 7.3270001
41.18 4.7839999 7.3169999
35.580002 4.2259998 6.3239999
41.202999 4.8940001 7.3239999
35.377998 4.2940001 6.2909999
35.299999 4.3769999 6.2789998
35.257 4.4650002 6.2740002
35.237999 4.5549998 6.2729998
35.195 4.6440001 6.2690001
35.143002 4.7309999 6.2620001
35.112 4.822 6.2589998
35.151001 4.9219999 6.2690001
35.215 5.027 6.283
35.192001 5.1209998 6.2820001
35.16 5.2129998 6.2800002
35.187 5.3140001 6.2880001
35.025002 5.388 6.2620001
34.778 5.447 6.2210002
34.668999 5.5279999 6.2049999
34.653 5.6230001 6.2049999
34.594002 5.7119999 6.198
34.589001 5.8099999 6.2010002
34.537998 5.9000001 6.1950002
34.542 6.0009999 6.1999998
34.639999 6.118 6.2210002
34.812 6.25 6.2550001
34.716999 6.539 6.25
34.532001 6.6059999 6.2210002
34.380001 6.6789999 6.197
34.346001 6.7750001 6.1950002
34.311001 6.8709998 6.1929998
34.269001 6.9660001 6.1900001
34.234001 7.0630002 6.1880002
34.223999 7.165 6.1900001
34.237999 7.2719998 6.197
34.352001 7.402 6.2220001
39.828999 8.5819998 7.2140002
39.764 8.6899996 7.2080002
39.745998 8.809 7.21
39.724998 8.927 7.211
33.946999 7.7340002 6.1669998
39.768002 9.0609999 7.2249999
33.811001 7.809 6.1469998
33.771 7.9060001 6.145
33.713001 7.9980001 6.1389999
33.686001 8.0979996 6.1389999
33.667 8.1999998 6.1399999
33.624001 8.2969999 6.1370001
33.676998 8.4169998 6.152
33.904999 8.5830002 6.1989999
38.981998 9.868 7.1269999
38.800999 9.9469995 7.0999999
38.742001 10.057 7.0949998
33.924999 8.9160004 6.2179999
38.743 10.182 7.1009998
33.643002 8.9510002 6.1719999
33.515999 9.026 6.1539998
33.457001 9.1190004 6.1490002
33.423 9.2200003 6.1479998
33.382 9.3179998 6.1459999
33.348 9.4189997 6.145
33.301998 9.5159998 6.1420002
33.333 9.6350002 6.1539998
33.476002 9.7880001 6.1859999
38.423 11.234 7.0999999
38.283001 11.321 7.0809999
38.277 11.447 7.086
33.382999 10.096 6.1859999
38.318001 11.588 7.1009998
33.056999 10.108 6.132
32.917999 10.177 6.112
32.863998 10.271 6.1079998
32.831001 10.372 6.1079998
32.778999 10.467 6.105
32.728001 10.563 6.1009998
32.714001 10.67 6.105
32.804001 10.812 6.1279998
33.051998 11.007 6.1810002
32.867001 11.286 6.1659999
32.683998 11.336 6.138
32.592999 11.418 6.1269999
32.518002 11.505 6.1199999
32.481998 11.606 6.1199999
32.462002 11.712 6.1230001
32.41 11.807 6.1199999
32.387001 11.913 6.1220002
32.435001 12.045 6.138
32.591 12.218 6.1750002
32.584 12.33 6.1810002
37.619999 14.236 7.1360002
32.469002 12.402 6.1659999
37.612999 14.367 7.1430001
32.278 12.443 6.1370001
32.070999 12.478 6.1040001
31.983999 12.558 6.0949998
31.955999 12.661 6.0970001
31.889 12.749 6.0910001
31.849001 12.847 6.0910001
31.837 12.956 6.0960002
31.863001 13.081 6.1090002
32.082001 13.287 6.158
37.386002 15.483 7.1760001
37.185001 15.534 7.1459999
32.099998 13.526 6.177
37.098 15.631 7.138
32.09 13.637 6.1820002
37.122002 15.776 7.152
31.875 13.662 6.1490002
31.738001 13.718 6.1300001
31.677999 13.807 6.1259999
31.639 13.905 6.1259999
31.596001 14.001 6.1259999
31.566999 14.104 6.1279998
31.546 14.209 6.132
31.554001 14.328 6.1409998
31.684999 14.504 6.1750002
36.799999 16.844999 7.1719999
36.66 16.915001 7.1539998
36.602001 17.023001 7.152
31.566 14.796 6.1760001
31.312 14.792 6.1350002
31.118999 14.815 6.105
31.1 14.921 6.1100001
31.058001 15.015 6.1100001
31.014 15.108 6.1090002
31.009001 15.22 6.1170001
30.98 15.32 6.119
31.023001 15.456 6.1360002
36.265999 18.068001 7.1729999
36.039001 18.087999 7.138
36.007999 18.205 7.1420002
35.958 18.313 7.1420002
31.291 16.052 6.224
35.956001 18.445 7.152
30.978001 16.006001 6.1700001
30.874001 16.066 6.158
30.805 16.143999 6.1539998
30.783001 16.246 6.158
30.743 16.339001 6.1589999
30.722 16.441999 6.1630001
30.684 16.535 6.165
30.695999 16.655001 6.1760001
30.884001 16.871 6.223
30.663 17.204 6.2150002
30.440001 17.191 6.1789999
30.294001 17.219999 6.158
30.223 17.291 6.1529999
30.188 17.382 6.1550002
30.173 17.485001 6.1620002
30.139999 17.577 6.164
30.1 17.664 6.165
30.121 17.787001 6.1789999
30.135 18.455999 6.2389998
30.014999 18.490999 6.224
29.943001 18.555 6.2189999
29.914 18.646 6.2220001
29.888 18.737 6.2270002
29.857 18.826 6.23
29.813999 18.905001 6.2309999
29.77 18.985001 6.2309999
29.74 19.072001 6.2350001
29.766001 19.195 6.25
29.83 19.341999 6.2740002
42.367001 -14.29 7.6030002
42.501999 -14.208 7.6259999
41.848999 -13.486 7.5009999
41.944 -13.391 7.5159998
41.872002 -13.243 7.5009999
41.556999 -12.271 7.4299998
41.558998 -12.148 7.4289999
41.465 -11.996 7.4099998
41.027 -10.645 7.3119998
41.120998 -10.547 7.3270001
40.907001 -10.005 7.2810001
40.794998 -9.8570004 7.2589998
40.759998 -9.7270002 7.25
40.729 -9.599 7.243
18.635 -4.2249999 3.3110001
18.658001 -4.1750002 3.3139999
18.729 -4.1360002 3.326
39.874001 -7.2709999 7.0549998
39.717999 -7.125 7.0250001
39.911999 -7.0419998 7.0580001
39.009998 -5.2740002 6.8699999
38.933998 -5.1490002 6.8540001
38.112 -3.026 6.6729999
38.300999 -2.9289999 6.704
38.106998 -2.802 6.6680002
36.562 1.913 6.52
36.359001 1.961 6.4829998
36.328999 2.0179999 6.4780002
36.285 2.076 6.4710002
36.269001 2.1359999 6.4679999
36.179001 2.1930001 6.4530001
36.198002 2.256 6.4569998
36.216999 2.3210001 6.461
36.171001 2.382 6.4530001
36.168999 2.4460001 6.454
36.136002 2.51 6.4489999
36.209 2.5810001 6.4629998
35.804001 2.9630001 6.3979998
35.740002 3.029 6.388
35.695 3.096 6.382
35.657001 3.165 6.3769999
35.609001 3.234 6.3699999
35.578999 3.3050001 6.3660002
35.563 3.378 6.3649998
35.521999 3.4489999 6.3600001
35.426998 3.5150001 6.3449998
35.645 3.6129999 6.3860002
35.658001 3.6919999 6.3909998
41.416 4.2880001 7.4229999
41.317001 4.368 7.408
41.304001 4.4580002 7.408
41.244999 4.5430002 7.4000001
41.254002 4.6370001 7.4050002
35.688 4.092 6.4089999
41.346001 4.7410002 7.4250002
35.464001 4.1479998 6.3709998
35.34 4.2150002 6.3509998
35.321999 4.2950001 6.3509998
35.259998 4.3699999 6.3429999
35.238998 4.4499998 6.342
35.209 4.5310001 6.3400002
35.144001 4.6069999 6.3309999
35.138 4.691 6.3330002
35.132999 4.776 6.335
35.167999 4.8670001 6.3449998
35.237999 4.9640002 6.3610001
35.251999 5.0539999 6.3670001
35.247002 5.1420002 6.3699999
35.199001 5.224 6.3649998
35.132999 5.3039999 6.3569999
34.824001 5.3470001 6.3039999
34.751999 5.4260001 6.2950001
34.705002 5.5089998 6.2909999
34.681999 5.5960002 6.29
34.641998 5.6810002 6.2870002
34.558998 5.7589998 6.276
34.537998 5.848 6.276
34.543999 5.9419999 6.2820001
34.592999 6.0450001 6.2950001
34.694 6.1570001 6.3179998
40.355 7.2729998 7.3540001
40.363998 7.3860002 7.3610001
40.362999 7.4980001 7.3660002
40.337002 7.6059999 7.3670001
34.530998 6.6079998 6.3109999
34.390999 6.6789999 6.29
34.356998 6.7709999 6.289
34.321999 6.862 6.2880001
34.257999 6.948 6.2810001
34.250999 7.046 6.2849998
34.227001 7.1409998 6.2849998
34.209 7.2379999 6.2870002
34.227001 7.3429999 6.296
34.393002 7.4809999 6.3319998
39.910999 8.6809998 7.348
39.73 8.7600002 7.3210001
39.687 8.8699999 7.3189998
39.665001 8.9849997 7.322
33.981998 7.8010001 6.2779999
39.813 9.1389999 7.3559999
33.827 7.868 6.2550001
33.752998 7.9549999 6.2470002
33.716999 8.0509996 6.2459998
33.659 8.1409998 6.2410002
33.633999 8.2399998 6.243
33.620998 8.342 6.2459998
33.578999 8.4379997 6.2449999
33.693001 8.573 6.2719998
33.874001 8.7270002 6.3119998
38.813 10 7.2319999
38.791 10.118 7.2350001
33.976002 8.9720001 6.3439999
38.712002 10.223 7.2280002
33.646999 8.9940004 6.289
38.813999 10.375 7.2540002
33.521999 9.0699997 6.2719998
33.460999 9.1619997 6.2670002
33.398998 9.2550001 6.2620001
33.342999 9.3500004 6.2579999
33.304001 9.4490004 6.257
33.277 9.552 6.2589998
33.272999 9.6630001 6.2649999
33.310001 9.7860003 6.2789998
33.556999 9.9720001 6.3330002
38.323002 11.388 7.2319999
38.262001 11.5 7.2290001
33.242001 10.105 6.2880001
38.296001 11.641 7.244
33.089001 10.171 6.2659998
32.921001 10.233 6.2410002
32.841 10.322 6.2329998
32.776001 10.416 6.2280002
32.759998 10.525 6.2329998
32.715 10.626 6.2319999
32.660999 10.723 6.2290001
32.859001 10.905 6.2750001
33.062 11.09 6.3210001
32.976002 11.297 6.3200002
32.689999 11.317 6.2729998
32.589001 11.4 6.2620001
32.533001 11.499 6.2589998
32.470001 11.595 6.2550001
32.438 11.703 6.257
32.396 11.807 6.257
32.370998 11.918 6.2610002
32.5 12.086 6.2940001
32.573002 12.235 6.3169999
32.555 12.351 6.322
37.585999 14.259 7.2989998
32.380001 12.406 6.296
37.669998 14.433 7.3249998
32.074001 12.41 6.2449999
31.983 12.497 6.2360001
31.934 12.599 6.2350001
31.905001 12.71 6.2379999
31.868999 12.818 6.2399998
31.82 12.921 6.2389998
31.917999 13.085 6.2680001
32.143002 13.303 6.3210001
37.186001 15.39 7.3130002
37.148998 15.52 7.316
32.069 13.523 6.3249998
37.113998 15.651 7.3200002
31.825001 13.546 6.2859998
31.722 13.628 6.2750001
31.656 13.725 6.2709999
31.635 13.843 6.276
31.580999 13.945 6.2750001
31.51 14.041 6.2709999
31.559999 14.191 6.29
36.971001 16.624001 7.369
31.787001 14.422 6.3449998
36.681999 16.643 7.322
36.685001 16.792999 7.3340001
31.653999 14.62 6.3379998
36.612 16.91 7.3309999
31.48 14.669 6.3130002
36.633999 17.07 7.3470001
31.211 14.672 6.2690001
31.127001 14.761 6.2620001
31.082001 14.869 6.263
31.035999 14.977 6.2639999
30.990999 15.085 6.2649999
30.955999 15.198 6.2680001
31.139 15.419 6.3150001
36.140999 17.896 7.3299999
36.036999 17.997 7.3210001
35.995998 18.129999 7.3249998
35.952999 18.261 7.3280001
30.997999 15.878 6.329
30.878 15.949 6.3150001
30.823 16.054001 6.3140001
30.753 16.15 6.3109999
30.729 16.271999 6.3169999
30.695 16.388 6.3200002
30.650999 16.499001 6.322
30.708 16.665001 6.3449998
37.752998 20.488001 7.8010001
30.933001 16.923 6.4029999
37.446999 20.487 7.7509999
37.487 20.674999 7.7729998
30.615 17.158001 6.3709998
30.348 17.143999 6.3260002
30.225 17.211 6.3119998
30.158001 17.309 6.309
30.131001 17.43 6.3150001
30.077 17.535999 6.3150001
30.035999 17.649 6.3179998
30.016001 17.775 6.3260002
30.105 17.966 6.3559999
30.127001 18.539 6.4089999
29.955 18.573 6.3839998
29.827 18.634001 6.369
29.759001 18.732 6.3670001
29.700001 18.834999 6.3660002
29.646 18.941999 6.3670001
29.608999 19.059999 6.3709998
29.518999 19.143 6.3639998
29.518 19.284 6.3769999
29.462999 19.389999 6.3769999
29.507999 19.562 6.3990002
29.805 19.903999 6.4770002
42.794998 -15.64 7.717
42.681999 -15.431 7.6929998
42.262001 -14.312 7.5970001
42.485001 -14.229 7.6339998
18.867001 -4.4089999 3.3529999
18.622 -4.2950001 3.309
18.764 -4.27 3.3329999
39.299999 -6.0910001 6.9390001
39.41 -6.007 6.9569998
38.987 -5.164 6.8730001
38.977001 -5.0689998 6.8699999
38.896 -4.8709998 6.8540001
38.808998 -4.7680001 6.8369999
38.419998 -3.924 6.7610002
38.487999 -3.845 6.7729998
36.588001 0.676 6.652
36.521 0.73799998 6.6389999
36.616001 0.80400002 6.6560001
36.577 0.86799997 6.6479998
36.557999 0.93300003 6.6440001
36.535999 0.99900001 6.6389999
36.580002 1.067 6.6469998
36.557999 1.135 6.6420002
36.730999 1.209 6.6729999
36.806999 1.2819999 6.6869998
36.556 1.857 6.6420002
36.375999 1.924 6.6100001
36.259998 1.994 6.5890002
36.237999 2.0699999 6.586
36.191002 2.145 6.5780001
36.16 2.2219999 6.573
36.101002 2.2969999 6.5630002
36.111 2.378 6.566
36.087002 2.4560001 6.5630002
36.129002 2.54 6.5710001
36.150002 2.6229999 6.5760002
36.457001 2.7290001 6.6329999
35.759998 3.0940001 6.513
35.716999 3.1760001 6.507
35.627998 3.253 6.493
35.573002 3.3340001 6.4840002
35.530998 3.4170001 6.4790001
35.532001 3.5050001 6.48
35.450001 3.5840001 6.4679999
35.465 3.674 6.4720001
35.596001 3.777 6.4980001
35.816002 3.891 6.5409999
41.487 4.507 7.5760002
41.237 4.5840001 7.533
41.167999 4.6820002 7.5229998
41.172001 4.7880001 7.527
41.186001 4.8969998 7.5320001
35.355 4.2950001 6.4679999
41.257999 5.013 7.5479999
35.272999 4.3779998 6.4559999
35.247002 4.467 6.454
35.205002 4.5549998 6.4489999
35.169998 4.645 6.4450002
35.113998 4.7319999 6.4380002
35.084 4.822 6.4349999
35.116001 4.9219999 6.4439998
35.158001 5.0240002 6.4549999
35.188 5.1240001 6.4629998
35.200001 5.223 6.4689999
35.191002 5.3189998 6.4710002
35.07 5.3990002 6.4520001
34.812 5.4569998 6.408
34.695 5.5359998 6.3889999
34.66 5.6279998 6.3860002
34.595001 5.7160001 6.3779998
34.569 5.8099999 6.3769999
34.537998 5.9039998 6.375
34.504002 5.9980001 6.3720002
34.597 6.1139998 6.3930001
34.818001 6.2550001 6.4380002
40.424 7.2620001 7.474
40.299 7.3569999 7.4559999
40.245998 7.4660001 7.4510002
40.198002 7.5760002 7.447
34.550999 6.6139998 6.4039998
34.396999 6.6869998 6.3800001
34.334999 6.777 6.3730001
34.308998 6.875 6.3720002
34.271999 6.9710002 6.3699999
34.210999 7.0619998 6.3629999
34.189999 7.1620002 6.3629999
34.174 7.263 6.3649998
34.250999 7.3839998 6.3839998
39.737999 8.6890001 7.4120002
39.713001 8.8059998 7.4130001
39.674999 8.9209995 7.4109998
34.036999 7.7589998 6.3629999
39.787998 9.0699997 7.4380002
33.852001 7.823 6.3330002
33.736 7.902 6.316
33.723999 8.0050001 6.3189998
33.685001 8.1020002 6.3169999
33.634998 8.1969995 6.3119998
33.630001 8.302 6.3169999
33.653999 8.4160004 6.3260002
33.893002 8.5839996 6.3769999
38.986 9.8739996 7.335
38.837002 9.9610004 7.3130002
38.757 10.065 7.3039999
33.868 8.9049997 6.388
38.749001 10.189 7.309
33.660999 8.96 6.355
33.487999 9.0229998 6.3270001
33.442001 9.1199999 6.3239999
33.370998 9.21 6.3169999
33.366001 9.3179998 6.3210001
33.323002 9.4160004 6.3189998
33.301998 9.5200005 6.3210001
33.290001 9.6269999 6.3239999
33.451 9.7849998 6.3610001
38.308998 11.334 7.2919998
38.305 11.461 7.2979999
33.328999 10.084 6.3559999
38.318001 11.594 7.3080001
33.132999 10.136 6.3249998
38.266998 11.707 7.3049998
32.872002 10.167 6.2810001
32.858002 10.274 6.2849998
32.798 10.367 6.2789998
32.765999 10.468 6.2800002
32.737999 10.571 6.2810001
32.688999 10.667 6.2779999
32.827 10.824 6.3109999
33.124001 11.036 6.3740001
32.874001 11.293 6.3460002
32.664001 11.335 6.3130002
32.567001 11.414 6.3010001
32.504002 11.505 6.2950001
32.465 11.605 6.2950001
32.438999 11.71 6.2969999
32.393002 11.806 6.2950001
32.375 11.914 6.2989998
32.429001 12.048 6.316
32.602001 12.227 6.3569999
32.601002 12.342 6.3639998
37.632999 14.248 7.3470001
32.529999 12.431 6.3579998
37.611 14.372 7.3509998
32.291 12.454 6.3179998
37.637001 14.516 7.3639998
32.050999 12.476 6.2789998
31.945 12.548 6.2649999
31.957001 12.667 6.2750001
31.896 12.757 6.2709999
31.846001 12.851 6.2680001
31.833 12.96 6.2729998
31.868 13.089 6.2880001
32.095001 13.298 6.3400002
37.313999 15.46 7.3709998
37.154999 15.528 7.349
37.101002 15.64 7.348
32.071999 13.636 6.3590002
37.174 15.805 7.3709998
31.829 13.648 6.3189998
31.702 13.709 6.302
31.655001 13.803 6.3000002
31.608 13.898 6.2989998
31.573999 13.998 6.3000002
31.509001 14.084 6.296
31.514999 14.202 6.3049998
31.568001 14.341 6.3239999
31.789 14.558 6.3759999
36.723999 16.818001 7.3660002
36.625 16.907 7.3559999
36.599998 17.030001 7.3610001
31.532 14.787 6.3499999
31.27 14.78 6.3060002
31.129999 14.828 6.2859998
31.073 14.915 6.283
31.056999 15.022 6.2880001
31.007 15.112 6.2870002
30.988001 15.217 6.2909999
30.952 15.313 6.2930002
31.051001 15.477 6.322
36.105999 17.997 7.3509998
36.036999 18.096001 7.3470001
35.999001 18.209 7.3499999
35.93 18.308001 7.3460002
31.004 15.912 6.348
35.983002 18.468 7.3670001
30.931999 15.99 6.342
30.816 16.044001 6.3270001
30.775 16.136 6.3280001
30.73 16.226999 6.3270001
30.716999 16.333 6.3340001
30.677999 16.427 6.335
30.649 16.524 6.3379998
30.707001 16.669001 6.3590002
30.635 17.197001 6.3909998
30.368 17.159 6.3449998
30.313 17.24 6.3429999
30.173 17.271999 6.323
30.177999 17.386 6.3340001
30.156 17.483999 6.3390002
30.132999 17.582001 6.3439999
30.097 17.671 6.3460002
30.219 17.854 6.381
30.296 18.454 6.447
30.183001 18.495001 6.4330001
29.962 18.469 6.3959999
29.907 18.542999 6.3940001
29.888 18.639999 6.4000001
29.860001 18.73 6.4039998
29.816 18.811001 6.4039998
29.782 18.896 6.4070001
29.771999 18.997 6.415
29.743 19.084999 6.4190001
29.846001 19.257999 6.4510002
42.610001 -16.048 7.8730001
42.574001 -15.906 7.8639998
42.16 -14.607 7.77
42.273998 -14.519 7.7880001
41.841999 -13.615 7.697
41.908001 -13.511 7.7069998
41.820999 -13.357 7.6890001
41.847 -13.239 7.6919999
41.459999 -11.998 7.6020002
41.426998 -11.865 7.5939999
41.112999 -10.915 7.5219998
41.053001 -10.777 7.5089998
40.978001 -10.635 7.493
41.083 -10.54 7.5100002
18.73 -4.2480001 3.414
18.639 -4.1719999 3.3970001
40.323002 -8.427 7.3390002
40.168999 -8.276 7.3080001
40.248001 -8.1730003 7.3210001
39.945999 -7.52 7.256
39.808998 -7.3769999 7.2290001
39.139 -5.4039998 7.0739999
39 -5.27 7.046
38.896999 -5.1420002 7.026
38.926998 -5.0310001 7.0289998
38.943001 -4.9190001 7.0300002
36.425999 1.967 6.6820002
36.369999 2.0239999 6.671
36.292999 2.0799999 6.658
36.210999 2.1359999 6.6430001
36.181 2.1960001 6.638
36.174 2.2579999 6.6370001
36.092999 2.316 6.6230001
36.096001 2.3800001 6.625
36.087002 2.444 6.6240001
36.094002 2.51 6.6259999
36.285 2.5899999 6.6620002
35.833 3.039 6.5890002
35.624001 3.0929999 6.552
35.653 3.168 6.559
35.618 3.2379999 6.5539999
35.566002 3.3069999 6.5469999
35.549999 3.3789999 6.546
35.549999 3.454 6.5479999
35.535999 3.529 6.5469999
35.618999 3.6129999 6.5650001
35.740002 3.7030001 6.5890002
41.391998 4.3790002 7.6339998
41.266998 4.4569998 7.6139998
41.199001 4.5419998 7.6040001
41.243999 4.6389999 7.6160002
35.576 4.0819998 6.572
41.269001 4.7360001 7.6240001
35.473999 4.152 6.5560002
41.277 4.8309999 7.6279998
35.280998 4.211 6.5229998
35.271999 4.2919998 6.5240002
35.251999 4.3720002 6.5240002
35.215 4.4499998 6.52
35.148998 4.526 6.5110002
35.138 4.6090002 6.5120001
35.160999 4.697 6.5190001
35.125999 4.7779999 6.5159998
35.181999 4.8720002 6.5300002
35.199001 4.9619999 6.5370002
35.250999 5.0570002 6.5500002
35.201 5.138 6.5440001
35.110001 5.2140002 6.5310001
35.060001 5.296 6.526
34.806999 5.3470001 6.4829998
34.712002 5.4219999 6.4689999
34.667999 5.506 6.4650002
34.66 5.5949998 6.467
34.602001 5.677 6.46
34.584 5.7659998 6.461
34.567001 5.8559999 6.4629998
34.550999 5.947 6.4640002
34.646999 6.0570002 6.4860001
34.851002 6.1880002 6.5289998
40.321999 7.1589999 7.5539999
34.907001 6.2940001 6.5440001
40.279999 7.263 7.552
40.224998 7.3639998 7.5469999
40.161999 7.4640002 7.54
34.772999 6.5599999 6.533
40.178001 7.5799999 7.5489998
34.487999 6.6030002 6.4850001
34.394001 6.6830001 6.4720001
34.320999 6.7659998 6.4629998
34.279999 6.8569999 6.461
34.258999 6.9510002 6.4619999
34.203999 7.04 6.4569998
34.201 7.1389999 6.4619999
34.172001 7.2329998 6.461
34.23 7.3470001 6.4780002
34.542 7.5159998 6.5430002
39.743999 8.6479998 7.5279999
39.759998 8.7709999 7.5370002
39.669998 8.8699999 7.527
34.429001 7.802 6.5380001
39.664001 8.9879999 7.533
33.894001 7.7839999 6.4429998
33.797001 7.8649998 6.4299998
33.743999 7.9559999 6.4260001
33.712002 8.0530005 6.4260001
33.679001 8.1490002 6.4250002
33.640999 8.2449999 6.4239998
33.612 8.3439999 6.4250002
33.653999 8.46 6.4390001
33.806 8.6059999 6.4749999
38.896999 10.026 7.4569998
38.855 10.139 7.4559999
38.779999 10.245 7.4499998
33.646999 8.9980001 6.4699998
33.502998 9.0679998 6.4489999
33.403 9.1499996 6.4369998
33.361 9.2480001 6.4349999
33.334 9.3509998 6.4369998
33.285 9.448 6.4349999
33.241001 9.5459995 6.4330001
33.243999 9.658 6.441
33.403999 9.8170004 6.4790001
38.214001 11.36 7.4200001
38.292999 11.514 7.4439998
33.308998 10.129 6.4819999
38.382999 11.672 7.4699998
33.070999 10.17 6.4439998
32.888 10.228 6.415
32.798 10.313 6.4050002
32.766998 10.417 6.4070001
32.744999 10.525 6.4099998
32.705002 10.627 6.4099998
32.707001 10.743 6.4180002
32.861 10.91 6.4559999
38.167 12.807 7.5079999
38.264999 12.977 7.5370002
32.936001 11.288 6.4949999
38.130001 13.069 7.52
32.685001 11.32 6.454
32.543999 11.389 6.434
32.486 11.487 6.4310002
32.455002 11.595 6.4330001
32.410999 11.698 6.4330001
32.381001 11.807 6.4349999
32.373001 11.924 6.4419999
32.453999 12.075 6.467
32.584 12.245 6.5019999
32.560001 12.358 6.506
37.609001 14.274 7.5149999
32.389 12.415 6.4809999
37.564999 14.399 7.5159998
32.097 12.425 6.4310002
31.999001 12.508 6.4200001
31.938 12.606 6.4169998
31.9 12.714 6.4180002
31.830999 12.809 6.4130001
31.820999 12.928 6.421
31.950001 13.104 6.4559999
32.185001 13.326 6.513
37.166 15.388 7.5209999
37.092999 15.503 7.5170002
37.127998 15.664 7.5349998
31.868999 13.571 6.4770002
37.265999 15.869 7.5739999
31.705 13.627 6.4530001
31.639999 13.725 6.4499998
31.584999 13.827 6.448
31.562 13.944 6.4530001
31.535 14.058 6.4580002
31.528999 14.184 6.4660001
31.714001 14.395 6.5139999
36.695 16.656 7.5380001
36.540001 16.735001 7.5170002
36.539001 16.884001 7.5289998
31.487 14.679 6.4980001
36.603001 17.063999 7.5539999
31.247999 14.696 6.4590001
31.121 14.765 6.4429998
31.084999 14.878 6.4460001
31.025 14.979 6.4439998
30.99 15.092 6.447
30.993 15.223 6.4580002
31.091 15.403 6.4889998
36.143002 17.905001 7.5430002
36.018002 17.996 7.5300002
35.957001 18.118999 7.5300002
35.887001 18.237 7.527
31.038 15.906 6.5209999
36.033001 18.466 7.5710001
30.851 15.943 6.493
30.77 16.034 6.487
30.721001 16.142 6.4879999
30.724001 16.277 6.4990001
30.66 16.378 6.4970002
30.622 16.490999 6.5
30.726999 16.683001 6.5339999
30.665001 17.195 6.5669999
30.355 17.157 6.5120001
30.195 17.202999 6.4889998
30.134001 17.304001 6.4879999
30.115 17.43 6.4959998
30.044001 17.525999 6.4920001
30.041 17.660999 6.5029998
30.006001 17.778999 6.5079999
30.072001 17.955999 6.5339999
29.959 18.586 6.5710001
29.802 18.629 6.5489998
29.714001 18.714001 6.5419998
29.67 18.827 6.5450001
29.591999 18.917999 6.5409999
29.521999 19.014999 6.5380001
29.514999 19.150999 6.5489998
29.488001 19.275999 6.5560002
29.443001 19.388 6.559
29.486 19.559 6.5809999
29.521999 19.726 6.6020002
30.381001 20.448999 6.8080001
30.327 20.561001 6.8099999
30.214001 20.632 6.7979999
30.108999 20.709 6.7880001
30.070999 20.830999 6.7930002
29.1 20.591999 6.6139998
28.863001 20.569 6.5739999
28.794001 20.665001 6.572
28.683001 20.729 6.5599999
28.562 20.785999 6.546
42.771999 -15.803 7.9159999
42.763 -15.631 7.9099998
42.733002 -15.453 7.901
42.473999 -14.546 7.835
42.240002 -14.307 7.789
42.410999 -14.207 7.8169999
41.937 -13.433 7.7160001
41.832001 -13.248 7.6939998
41.959 -13.138 7.7140002
41.522999 -11.987 7.6129999
41.466999 -11.83 7.5999999
41.150002 -10.784 7.5229998
41.203999 -10.665 7.5310001
40.727001 -10.151 7.4359999
40.640999 -10.002 7.4180002
40.672001 -9.882 7.4219999
40.615002 -9.7419996 7.4089999
40.625 -9.6190004 7.4089999
18.791 -4.3909998 3.4260001
18.656 -4.303 3.4000001
18.794001 -4.277 3.424
40.137001 -8.6549997 7.3049998
40.122002 -8.5340004 7.3000002
39.777 -7.6609998 7.2249999
39.681999 -7.5320001 7.2059999
39.734001 -7.4310002 7.2129998
39.715 -7.3179998 7.2080002
39.025002 -5.3590002 7.0580001
39.032001 -5.2639999 7.0580001
39.058998 -5.1719999 7.0619998
36.626999 0.68199998 6.8470001
36.576 0.74400002 6.8369999
36.477001 0.80599999 6.8169999
36.504002 0.87099999 6.822
36.582001 0.93900001 6.836
36.500999 1.003 6.8200002
36.551998 1.072 6.829
36.682999 1.1440001 6.8530002
36.655998 1.212 6.848
36.542999 1.8609999 6.8270001
36.254002 1.9220001 6.7740002
36.231998 1.998 6.77
36.217999 2.0739999 6.7680001
36.214001 2.151 6.7680001
36.099998 2.223 6.7480001
36.088001 2.3010001 6.7459998
36.062 2.3789999 6.7420001
35.984001 2.454 6.7290001
36.019001 2.5369999 6.7360001
36.194 2.631 6.77
41.810001 3.425 7.8270001
41.824001 3.5250001 7.8309999
35.717999 3.095 6.6900001
35.599998 3.1700001 6.6690001
35.611 3.256 6.6729999
35.570999 3.339 6.6669998
35.521999 3.421 6.6599998
35.519001 3.5079999 6.6620002
35.501999 3.5940001 6.6599998
35.479 3.6800001 6.658
35.639999 3.786 6.6900001
35.828999 3.8970001 6.7280002
41.310001 4.493 7.7579999
41.261002 4.592 7.7509999
41.187 4.6890001 7.7399998
41.102001 4.7849998 7.7270002
35.448002 4.2189999 6.6669998
41.141998 4.8959999 7.737
