# .PCD v0.7 - Point Cloud Data file format
VERSION 0.7
FIELDS x y z
SIZE 4 4 4
TYPE F F F
COUNT 1 1 1
WIDTH 1951
HEIGHT 1
VIEWPOINT 0 0 0 1 0 0 0
POINTS 1951
DATA ascii
18.643 -4.2969999 0.75700003
18.712999 -4.257 0.759
16.561001 0.67400002 0.546
16.683001 0.71399999 0.55000001
16.292999 0.73100001 0.537
16.164 0.759 0.53200001
16.200001 0.79500002 0.53299999
16.143 0.82700002 0.53100002
16.136999 0.86199999 0.53100002
16.141001 0.898 0.53100002
16.142 0.93300003 0.53100002
16.162001 0.97000003 0.53100002
16.129 1.005 0.52999997
16.212999 1.0470001 0.53299999
16.318001 1.091 0.53600001
16.451 1.137 0.54000002
15.997 1.2180001 0.52499998
15.758 1.237 0.51700002
15.706 1.27 0.51499999
15.643 1.303 0.51300001
15.569 1.335 0.51099998
15.515 1.368 0.509
15.476 1.402 0.50800002
15.456 1.439 0.50700003
15.45 1.477 0.50700003
15.456 1.516 0.50700003
15.47 1.556 0.50700003
15.495 1.598 0.50800002
15.483 1.636 0.50700003
15.512 1.679 0.50800002
15.676 1.738 0.514
36.161999 4.0089998 1.186
36.032001 4.0879998 1.181
35.998001 4.178 1.1799999
36.063999 4.2810001 1.182
35.907001 4.3569999 1.177
35.958 4.4590001 1.179
35.882999 4.546 1.176
35.853001 4.6389999 1.175
35.775002 4.7259998 1.173
35.854 4.8340001 1.176
27.542999 4.0939999 0.903
27.667999 4.1900001 0.90700001
27.589001 4.256 0.90499997
27.341 4.2950001 0.89700001
27.332001 4.3709998 0.89700001
27.384001 4.4580002 0.898
27.382999 4.5370002 0.898
27.211 4.5869999 0.89300001
27.233 4.6700001 0.89399999
27.278 4.757 0.89499998
27.191999 4.8210001 0.89300001
27.191999 4.901 0.89300001
27.252001 4.993 0.89499998
27.259001 5.0749998 0.89499998
27.525999 5.2059999 0.90399998
27.877001 5.3559999 0.91600001
28.035999 5.4710002 0.921
34.841 7.3280001 1.146
34.75 7.4159999 1.1440001
34.584999 7.4879999 1.1390001
34.645 7.7160001 1.141
34.709999 7.8379998 1.1440001
34.594002 7.921 1.14
34.540001 8.0170002 1.1390001
34.426998 8.2080002 1.136
34.490002 8.3330002 1.138
30.481001 7.559 1.007
30.41 7.638 1.005
34.276001 8.7200003 1.133
34.299 8.8360004 1.1339999
34.237999 8.9320002 1.132
34.176998 9.0270004 1.131
34.147999 9.1300001 1.13
34.130001 9.2370005 1.13
34.167 9.3590002 1.132
33.895 9.3959999 1.123
33.912998 9.5120001 1.124
33.889 9.618 1.124
34.082001 9.7860003 1.131
33.835999 9.9399996 1.124
33.762001 10.031 1.122
33.806 10.158 1.124
33.370998 11.276 1.1160001
33.298 11.366 1.114
33.314999 11.603 1.1160001
33.214001 11.683 1.113
29.409 10.447 0.986
29.326 10.52 0.98400003
33.102001 11.874 1.1109999
33.067001 11.977 1.11
32.830002 12.352 1.105
32.848999 12.475 1.1059999
32.834 12.586 1.107
32.818001 12.696 1.107
32.796001 12.804 1.107
32.734001 12.896 1.105
32.638 13.09 1.104
32.724998 13.241 1.107
28.820999 11.868 0.977
28.792 11.959 0.97600001
32.297001 13.763 1.098
32.437 13.94 1.103
32.317001 14.005 1.1
28.364 13.32 0.97299999
28.242001 13.365 0.97000003
31.693001 15.923 1.096
31.646999 16.016001 1.095
15.569 8.8999996 0.54699999
15.395 8.8570004 0.542
15.401 8.915 0.54299998
42.530998 -21.249001 1.87
42.757999 -21.237 1.88
42.897999 -21.181999 1.886
43.023998 -21.118999 1.892
44.134998 -20.375999 1.939
44.417999 -20.377001 1.951
44.617001 -20.337 1.96
3.9779999 -1.279 0.17399999
3.901 -1.243 0.17
3.8380001 -1.212 0.167
3.8310001 -1.198 0.167
3.7869999 -1.173 0.16500001
3.79 -1.163 0.16500001
3.7709999 -1.147 0.164
3.766 -1.1339999 0.164
3.7880001 -1.064 0.16500001
3.7980001 -1.0549999 0.16500001
3.8139999 -1.049 0.16599999
3.858 -1.028 0.168
3.8670001 -1.0190001 0.168
3.892 -1.0140001 0.169
3.895 -1.003 0.169
3.9389999 -1.003 0.171
4.052 -1.021 0.176
4.2220001 -1.051 0.184
4.2820001 -1.054 0.186
18.733999 -4.178 0.81599998
18.719999 -4.1209998 0.815
16.353001 0.74299997 0.56900001
16.299999 0.76700002 0.56699997
16.219999 0.79000002 0.56400001
16.204 0.81599998 0.56300002
16.188999 0.84200001 0.56300002
16.163 0.86900002 0.56199998
16.167999 0.89700001 0.56199998
16.195 0.926 0.56300002
16.177 0.954 0.56199998
16.202 0.98400003 0.56199998
16.214001 1.015 0.56300002
16.348 1.053 0.56699997
16.479 1.092 0.57200003
15.986 1.181 0.55400002
15.852 1.202 0.55000001
15.753 1.226 0.546
15.692 1.252 0.54400003
15.579 1.275 0.54000002
15.538 1.303 0.53799999
15.505 1.332 0.537
15.478 1.362 0.53600001
15.481 1.395 0.53600001
15.455 1.425 0.53500003
15.475 1.46 0.53600001
15.486 1.495 0.53600001
15.477 1.528 0.53600001
15.466 1.561 0.53600001
15.51 1.6 0.537
15.533 1.637 0.53799999
15.734 1.693 0.54500002
36.028999 3.96 1.249
36.001999 4.04 1.248
36.111 4.2199998 1.252
35.862999 4.2750001 1.243
35.91 4.3660002 1.245
35.834 4.4419999 1.243
36.009998 4.5510001 1.249
35.827 4.6149998 1.243
35.816002 4.7010002 1.242
34.865002 7.5209999 1.221
34.672001 7.5830002 1.215
34.675999 7.6880002 1.215
34.646 7.8920002 1.216
34.605999 7.9889998 1.215
34.539001 8.0799999 1.2130001
34.646 8.2119999 1.217
34.473 8.2779999 1.212
34.390999 8.3649998 1.21
30.427999 7.6890001 1.072
34.330002 8.6750002 1.21
30.48 7.8000002 1.075
34.233002 8.7600002 1.207
34.395 8.9119997 1.2130001
34.234001 8.9799995 1.209
34.105999 9.1680002 1.206
34.058998 9.2659998 1.205
34.027 9.3690004 1.204
34.027 9.4809999 1.205
33.84 9.7670002 1.201
33.853001 9.8850002 1.202
33.890999 10.01 1.204
33.868999 10.118 1.204
33.721001 10.189 1.2
30.521 9.3269997 1.087
30.318001 9.3690004 1.08
33.764999 10.434 1.2029999
33.660999 10.518 1.201
33.539001 10.596 1.197
33.583 10.727 1.2
33.465 10.807 1.196
33.534 10.947 1.2
33.379002 11.014 1.1950001
33.334999 11.118 1.1950001
33.321999 11.232 1.1950001
33.500999 11.412 1.2029999
33.334999 11.475 1.198
33.259998 11.569 1.196
29.482 10.469 1.062
29.278999 10.504 1.0549999
33.050999 11.978 1.193
33.000999 12.082 1.192
32.908001 12.169 1.1900001
32.723999 12.838 1.1900001
32.654999 12.935 1.188
32.487999 13.621 1.189
32.472 13.742 1.1900001
32.358002 13.82 1.187
32.363998 13.95 1.189
32.240002 14.153 1.187
32.223 14.273 1.187
32.196999 14.391 1.188
32.018002 14.698 1.1849999
28.58 13.237 1.059
32.089001 14.862 1.189
28.326 13.235 1.051
27.871 14.659 1.051
27.924999 14.808 1.0549999
31.155001 16.791 1.1799999
31.212 16.957001 1.184
15.407 8.8470001 0.58999997
15.374 8.8970003 0.58899999
30.771999 18.225 1.1849999
30.649 18.291 1.182
39.438999 -23.783001 1.842
39.542 -23.618 1.845
39.562 -23.403 1.845
39.720001 -23.271999 1.851
39.882 -23.142 1.857
40.186001 -23.094999 1.87
40.301998 -22.940001 1.874
40.437 -22.795 1.88
40.639 -22.688999 1.888
40.631001 -22.465 1.886
40.909 -22.400999 1.898
41.248001 -22.368 1.9119999
41.294998 -22.177 1.913
41.655998 -21.940001 1.928
41.674999 -21.736 1.928
42.019001 -21.490999 1.941
42.16 -21.351999 1.947
42.431 -21.278999 1.9579999
42.648998 -21.179001 1.967
42.724998 -21.007999 1.969
43.169998 -20.811001 1.988
43.345001 -20.688999 1.995
43.417999 -20.518 1.997
43.686001 -20.440001 2.0090001
43.928001 -20.349001 2.0190001
43.993999 -20.177 2.0209999
44.195999 -20.066 2.029
3.9820001 -1.274 0.18000001
3.8410001 -1.215 0.17399999
3.8559999 -1.0599999 0.17399999
3.8610001 -1.048 0.17399999
3.8770001 -1.04 0.175
3.931 -1.029 0.177
4.059 -1.049 0.183
4.223 -1.0779999 0.19
18.645 -4.2969999 0.83899999
18.627001 -4.237 0.838
16.343 0.70099998 0.61699998
16.27 0.73199999 0.61400002
16.202 0.76300001 0.611
16.165001 0.796 0.61000001
16.177999 0.83099997 0.61000001
16.167999 0.86500001 0.60900003
16.129 0.89899999 0.60799998
16.157 0.93599999 0.60900003
16.179001 0.97299999 0.60900003
16.201 1.011 0.61000001
16.25 1.051 0.61199999
16.351 1.094 0.616
16.212 1.198 0.61000001
15.976 1.2180001 0.60100001
15.785 1.24 0.59399998
15.682 1.27 0.58999997
15.604 1.301 0.58700001
15.545 1.334 0.58499998
15.5 1.368 0.583
15.478 1.404 0.58200002
15.469 1.441 0.58200002
15.433 1.476 0.57999998
15.44 1.515 0.58099997
15.479 1.558 0.58200002
15.475 1.597 0.58200002
15.458 1.635 0.58099997
15.5 1.679 0.583
15.661 1.737 0.58899999
36.002998 4.276 1.354
35.994999 4.3699999 1.354
35.841 4.447 1.348
35.855 4.5450001 1.349
35.780998 4.631 1.346
35.708 4.7189999 1.344
35.743 4.8200002 1.345
34.914001 7.3439999 1.321
34.862999 7.441 1.3200001
34.757999 7.526 1.316
34.716 7.6240001 1.3150001
34.632 7.7129998 1.312
34.681 7.8319998 1.3150001
34.532001 7.9070001 1.309
34.495998 8.007 1.309
34.535999 8.125 1.311
34.439999 8.3210001 1.308
34.345001 8.4069996 1.3049999
30.700001 7.6129999 1.1670001
34.347 8.5170002 1.306
30.445 7.6469998 1.158
30.577999 7.7789998 1.163
34.220001 8.7060003 1.302
34.256001 8.8249998 1.304
34.161999 8.9119997 1.301
34.229 9.04 1.304
34.141998 9.1289997 1.301
34.103001 9.2290001 1.3
34.147999 9.3540001 1.303
34.048 9.4379997 1.3
33.877998 9.5030003 1.294
34.034 9.6590004 1.3
33.918999 9.7390003 1.2970001
33.869999 9.8369999 1.295
33.771999 9.9209995 1.2920001
33.793999 10.041 1.294
33.842999 10.169 1.2970001
33.757999 10.257 1.294
33.724998 10.36 1.294
33.576 10.428 1.289
33.585999 10.545 1.29
33.528999 10.755 1.289
33.424999 10.835 1.286
33.414001 10.946 1.286
33.431 11.066 1.288
33.384998 11.166 1.2869999
33.337002 11.264 1.286
33.361 11.387 1.2869999
33.240002 11.461 1.284
33.250999 11.58 1.285
33.291 11.709 1.2869999
29.402 10.444 1.138
33.103001 11.758 1.281
29.283001 10.504 1.1339999
29.469 10.674 1.142
33.098999 11.988 1.2819999
32.944 12.048 1.277
33.014 12.189 1.281
32.891998 12.375 1.278
32.894001 12.492 1.279
32.833 12.585 1.278
32.833 12.701 1.279
28.841999 11.876 1.1289999
28.783001 11.955 1.128
32.477001 13.606 1.274
32.418999 13.698 1.272
32.318001 13.771 1.2690001
32.493 13.963 1.277
32.373001 14.028 1.274
32.231998 14.083 1.2690001
32.130001 14.504 1.2690001
32.139 14.624 1.271
28.304001 13.291 1.123
28.309999 13.397 1.124
31.855 15.19 1.266
31.877001 15.317 1.268
31.756001 15.374 1.265
43.778 -20.48 2.1240001
44.117001 -20.509001 2.141
42.821999 -14.899 2.069
42.949001 -14.817 2.0739999
43.048 -14.726 2.079
43.030998 -14.595 2.0780001
4.1139998 -1.323 0.198
3.8440001 -1.225 0.185
3.8139999 -1.205 0.184
3.8150001 -1.194 0.184
3.7920001 -1.175 0.182
3.7750001 -1.159 0.182
3.7780001 -1.149 0.182
3.76 -1.1109999 0.18099999
3.7479999 -1.096 0.18000001
3.7590001 -1.089 0.18099999
3.7820001 -1.084 0.182
3.79 -1.076 0.182
3.809 -1.0700001 0.183
3.826 -1.064 0.184
3.835 -1.0549999 0.184
3.8840001 -1.046 0.186
3.878 -1.033 0.186
3.8659999 -1.0190001 0.186
3.8829999 -1.012 0.186
3.927 -1.012 0.18799999
3.9990001 -1.0190001 0.192
4.1079998 -1.035 0.197
4.1880002 -1.043 0.20100001
4.2810001 -1.054 0.205
18.686001 -4.1680002 0.89700001
18.766001 -4.131 0.90100002
16.483999 0.75199997 0.65200001
16.337 0.77100003 0.64600003
16.256001 0.79400003 0.64300001
16.198 0.81800002 0.63999999
16.183001 0.84399998 0.639
16.181 0.87199998 0.639
16.167 0.89899999 0.639
16.177999 0.92799997 0.639
16.179001 0.95599997 0.639
16.188999 0.986 0.639
16.200001 1.016 0.639
16.32 1.053 0.64399999
16.483 1.094 0.64999998
15.859 1.173 0.625
15.747 1.196 0.62099999
15.689 1.223 0.61900002
15.632 1.249 0.616
15.561 1.275 0.61400002
15.513 1.303 0.61199999
15.504 1.334 0.611
15.499 1.3660001 0.611
15.47 1.396 0.61000001
15.469 1.428 0.61000001
15.464 1.461 0.61000001
15.454 1.493 0.60900003
15.463 1.528 0.61000001
15.466 1.562 0.61000001
15.446 1.594 0.60900003
15.535 1.638 0.61299998
15.893 1.712 0.62699997
35.985001 3.8770001 1.42
36.057999 3.9660001 1.423
35.979 4.2919998 1.42
35.856998 4.362 1.416
35.851002 4.447 1.416
35.866001 4.5349998 1.4170001
35.966 4.6350002 1.421
35.779999 4.698 1.414
35.844002 4.7950001 1.4170001
35.768002 4.8740001 1.414
34.876999 7.2140002 1.391
34.995998 7.342 1.397
34.796001 7.4029999 1.39
34.706001 7.487 1.387
34.730999 7.5970001 1.388
34.578999 7.7719998 1.3839999
34.634998 7.8899999 1.387
34.549 8.1890001 1.386
34.404999 8.2620001 1.381
34.393002 8.3669996 1.381
34.348 8.4630003 1.38
30.612 7.6389999 1.2309999
30.438 7.6919999 1.225
34.307999 8.7799997 1.381
34.287998 8.8839998 1.381
34.183998 8.967 1.378
34.166 9.073 1.378
34.105999 9.1680002 1.377
34.053001 9.2650003 1.376
33.986 9.3579998 1.374
34.032001 9.4829998 1.377
33.912998 9.5620003 1.373
33.952999 9.6859999 1.376
33.907001 9.7860003 1.375
33.896 9.8970003 1.375
33.813999 9.9870005 1.373
33.810001 10.101 1.374
33.576 10.491 1.369
33.543999 10.598 1.369
33.653999 10.749 1.374
33.445999 10.8 1.367
33.453999 10.92 1.369
33.464001 11.042 1.37
33.379002 11.132 1.368
33.291 11.221 1.365
33.32 11.35 1.368
33.202 11.429 1.364
33.188 11.544 1.365
33.158001 11.653 1.365
29.417 10.446 1.212
33.222 11.797 1.369
29.304001 10.513 1.209
33.201 11.91 1.369
32.990002 11.956 1.362
33.021 12.088 1.364
33.026001 12.213 1.3660001
32.924 12.297 1.363
32.879002 12.403 1.363
32.872002 12.647 1.365
32.761002 12.727 1.362
32.519001 13.255 1.359
28.764 11.835 1.2029999
32.57 13.401 1.362
28.827 11.973 1.207
32.456001 13.48 1.359
32.477001 13.616 1.362
32.330002 13.68 1.357
32.334 13.809 1.359
32.122002 14.486 1.359
32.007 14.563 1.3559999
32.084 14.728 1.3609999
31.966 14.804 1.357
28.311001 13.227 1.2029999
31.951 14.927 1.358
28.287001 13.331 1.204
31.962999 15.064 1.36
31.853001 15.143 1.357
31.757 15.228 1.355
31.697001 15.728 1.359
31.627001 15.826 1.358
31.620001 15.956 1.359
31.525999 16.042 1.357
31.469999 16.146999 1.357
31.395 16.242001 1.355
31.375 16.367001 1.3559999
31.440001 16.535999 1.3609999
39.549 -23.844 2.0309999
39.535999 -23.608 2.029
39.591 -23.415001 2.03
39.826 -23.327999 2.0409999
40.050999 -23.235001 2.0510001
40.060001 -23.017 2.05
40.362999 -22.969 2.0639999
40.518002 -22.836 2.0710001
40.646 -22.687 2.076
40.848999 -22.580999 2.085
41.058998 -22.478001 2.0940001
41.296001 -22.173 2.1040001
41.359001 -21.992001 2.105
41.721001 -21.969 2.1229999
41.763 -21.778 2.1229999
42.012001 -21.694 2.135
42.092999 -21.524 2.138
42.280998 -21.409 2.1459999
42.497002 -21.308001 2.1559999
42.553001 -21.127001 2.1570001
42.804001 -21.042999 2.1689999
43.012001 -20.938 2.178
43.325001 -20.882 2.1930001
43.647999 -20.622999 2.207
43.699001 -20.441999 2.2079999
43.932999 -20.348 2.2190001
44.054001 -20.200001 2.224
44.261002 -20.093 2.233
44.952 -19.797001 2.2650001
45.259998 -19.732 2.279
43.013 -14.713 2.1459999
43.053001 -14.566 2.1470001
43.122002 -14.428 2.1500001
4.1459999 -1.341 0.206
4.033 -1.29 0.2
3.848 -1.217 0.191
3.7620001 -1.15 0.18700001
3.767 -1.138 0.18700001
3.7620001 -1.123 0.18700001
3.7449999 -1.105 0.186
3.7650001 -1.098 0.18700001
3.7920001 -1.0930001 0.18799999
3.8039999 -1.084 0.18799999
3.852 -1.071 0.191
3.8900001 -1.069 0.193
3.8800001 -1.054 0.192
3.8759999 -1.04 0.192
3.901 -1.034 0.193
3.9519999 -1.034 0.19499999
4.0580001 -1.049 0.20100001
4.132 -1.0549999 0.204
4.2020001 -1.059 0.208
41.313999 -10.159 2.0450001
41.194 -10.001 2.039
18.729 -4.3169999 0.926
18.621 -4.2350001 0.92000002
18.837 -4.2280002 0.93099999
40.078999 -6.848 1.975
40.027 -6.7340002 1.972
16.459 0.67400002 0.69999999
16.309999 0.70099998 0.69300002
16.257999 0.73299998 0.69099998
16.229 0.76599997 0.68900001
16.167 0.79699999 0.68699998
16.157 0.83200002 0.68599999
16.132 0.86500001 0.685
16.135 0.90100002 0.685
16.146 0.93699998 0.685
16.159 0.97299999 0.68599999
16.162001 1.01 0.68599999
16.261 1.053 0.69
16.389999 1.098 0.69499999
15.905 1.176 0.67400002
15.721 1.2 0.667
15.698 1.235 0.66600001
15.611 1.265 0.662
15.559 1.299 0.66000003
15.517 1.3329999 0.65799999
15.478 1.367 0.65600002
15.457 1.403 0.65499997
15.451 1.441 0.65499997
15.429 1.477 0.65399998
15.45 1.518 0.65499997
15.439 1.5549999 0.65499997
15.424 1.5930001 0.65399998
15.446 1.635 0.65499997
15.512 1.681 0.65799999
35.922001 4.1739998 1.524
35.880001 4.2639999 1.522
35.791 4.348 1.5190001
35.888 4.4549999 1.523
35.858002 4.5469999 1.522
35.731998 4.6269999 1.517
35.740002 4.7249999 1.517
35.740002 4.822 1.517
35.658001 4.908 1.5140001
34.748001 7.204 1.485
34.866001 7.335 1.4910001
34.752998 7.4180002 1.4859999
34.689999 7.5120001 1.484
34.619999 7.6040001 1.482
34.709999 7.7309999 1.4859999
34.598999 7.9229999 1.483
34.527 8.0150003 1.48
34.518002 8.1210003 1.4809999
34.52 8.2309999 1.4809999
34.361 8.302 1.475
34.323002 8.4020004 1.474
34.424999 8.5369997 1.48
34.278 8.6099997 1.474
34.235001 8.71 1.473
34.235001 8.8199997 1.474
34.168999 8.9139996 1.471
34.223999 9.0389996 1.475
34.159 9.1330004 1.473
34.187 9.2519999 1.475
33.997002 9.3129997 1.467
34.061001 9.4420004 1.471
33.966999 9.5279999 1.4680001
33.875999 9.7259998 1.465
33.823002 9.8240004 1.464
33.879002 9.9530001 1.467
33.848 10.057 1.467
33.733002 10.136 1.4630001
33.686001 10.234 1.461
33.647999 10.336 1.461
33.627998 10.444 1.461
33.490002 10.514 1.456
33.627998 10.672 1.4630001
33.480999 10.853 1.4579999
33.402 10.942 1.456
33.376999 11.048 1.456
33.369999 11.16 1.456
33.299 11.251 1.454
33.215 11.452 1.4529999
33.143002 11.542 1.451
33.191002 11.674 1.454
33.136002 11.77 1.452
33.146999 11.889 1.454
33.062 11.974 1.451
33.015999 12.073 1.45
33.007 12.186 1.451
32.533001 13.512 1.446
32.473999 13.604 1.444
32.426998 13.701 1.443
32.400002 13.806 1.443
32.202999 14.419 1.442
32.091999 14.486 1.439
28.527 13.395 1.285
28.337999 13.409 1.278
31.591999 15.871 1.436
31.5 15.94 1.433
43.333 -20.792 2.302
43.327999 -20.662001 2.3010001
42.921001 -15.065 2.2679999
42.860001 -14.918 2.2639999
42.937 -14.82 2.2679999
42.991001 -14.713 2.27
4.1069999 -1.3329999 0.21600001
3.9760001 -1.279 0.20900001
3.8859999 -1.239 0.205
3.826 -1.209 0.20100001
3.7950001 -1.188 0.2
3.7939999 -1.176 0.2
3.76 -1.155 0.198
3.7750001 -1.149 0.199
3.766 -1.135 0.198
3.747 -1.107 0.197
3.7609999 -1.1 0.198
3.773 -1.082 0.198
3.8039999 -1.08 0.2
3.8210001 -1.074 0.20100001
3.8310001 -1.0650001 0.20100001
3.848 -1.059 0.20200001
3.865 -1.052 0.20299999
3.8889999 -1.0470001 0.204
3.905 -1.04 0.205
3.908 -1.03 0.205
3.9449999 -1.028 0.207
3.983 -1.027 0.20900001
4.0619998 -1.035 0.213
4.0939999 -1.031 0.215
41.221001 -9.9110003 2.165
41.355999 -9.8240004 2.1719999
18.788 -4.2459998 0.986
18.676001 -4.1659999 0.98000002
18.74 -4.1259999 0.98299998
40.320999 -7.598 2.112
40.397999 -7.4959998 2.115
39.500999 -5.737 2.063
39.278 -5.592 2.0510001
39.508999 -5.3979998 2.062
39.452999 -5.277 2.059
39.324001 -4.8080001 2.0510001
39.118 -4.6700001 2.04
39.089001 -4.5549998 2.0380001
39.056999 -4.4390001 2.036
16.361 0.72299999 0.72500002
16.263 0.74400002 0.72000003
16.246 0.76899999 0.71899998
16.181999 0.79299998 0.71600002
16.16 0.81800002 0.71499997
16.129 0.84399998 0.71399999
16.125999 0.87099999 0.713
16.132 0.89899999 0.71399999
16.094 0.92500001 0.71200001
16.075001 0.95200002 0.71100003
16.045 0.97899997 0.70899999
16.091999 1.011 0.71100003
16.101 1.041 0.71200001
16.233999 1.08 0.71799999
15.918 1.149 0.70300001
15.785 1.17 0.69700003
15.706 1.1950001 0.69400001
15.647 1.221 0.69099998
15.626 1.251 0.69
15.546 1.276 0.68699998
15.528 1.306 0.68599999
15.508 1.336 0.685
15.49 1.367 0.68400002
15.463 1.397 0.68300003
15.436 1.427 0.68199998
15.443 1.46 0.68199998
15.45 1.494 0.68300003
15.435 1.526 0.68199998
15.448 1.562 0.68300003
15.47 1.598 0.68400002
15.539 1.64 0.68699998
36.143002 3.8970001 1.599
36.080002 3.9719999 1.596
35.93 4.1209998 1.59
35.848999 4.1950002 1.587
35.924999 4.2880001 1.59
35.810001 4.3590002 1.586
35.925999 4.4590001 1.591
35.769001 4.526 1.584
35.84 4.6209998 1.5880001
35.68 4.7750001 1.582
35.706001 4.8670001 1.5829999
35.617001 4.9439998 1.58
35.604 5.0320001 1.58
34.848999 7.1079998 1.561
34.856998 7.211 1.562
34.867001 7.316 1.563
34.833 7.4120002 1.562
34.709 7.4889998 1.558
34.720001 7.5949998 1.559
34.588001 7.6700001 1.554
34.585999 7.7750001 1.5549999
34.493 7.8590002 1.552
34.480999 8.0670004 1.553
34.493 8.177 1.5549999
34.455002 8.2740002 1.554
34.353001 8.3570004 1.55
34.367001 8.4689999 1.552
34.341 8.5699997 1.552
34.216999 8.6479998 1.5470001
34.189999 8.8590002 1.548
34.136002 8.9549999 1.5470001
34.216999 9.0869999 1.552
34.160999 9.1829996 1.55
34.02 9.2559996 1.545
34.098999 9.3900003 1.55
33.976002 9.4680004 1.545
33.962002 9.5760002 1.546
33.907001 9.6730003 1.545
33.827999 9.7639999 1.5420001
33.807999 9.8719997 1.543
33.743 9.9659996 1.541
33.723 10.075 1.541
33.668999 10.173 1.54
33.679001 10.292 1.5420001
33.548 10.367 1.5369999
33.688999 10.527 1.545
33.623001 10.623 1.543
33.587002 10.728 1.543
33.544998 10.832 1.5420001
33.483002 11.048 1.5420001
33.370998 11.129 1.539
33.397999 11.257 1.541
33.293999 11.341 1.538
33.254002 11.447 1.538
33.129002 11.523 1.533
33.186001 11.663 1.5369999
33.046001 11.734 1.5319999
32.967999 11.827 1.53
32.964001 11.946 1.5319999
33.116001 12.123 1.54
32.876999 12.157 1.531
32.862 12.273 1.5319999
32.855999 12.394 1.533
32.744999 12.598 1.531
32.662998 12.689 1.529
32.632999 13.05 1.5319999
32.506001 13.124 1.528
32.568001 13.274 1.533
32.439999 13.348 1.528
32.455002 13.48 1.531
32.480999 13.617 1.534
32.419998 13.718 1.533
32.213001 13.757 1.525
32.25 14.414 1.536
32.143002 14.495 1.5319999
32.051998 14.583 1.53
32.004002 14.691 1.53
32.042 14.839 1.533
31.972 14.937 1.5319999
31.759001 15.36 1.529
31.722 15.475 1.53
31.694 15.726 1.5319999
31.514 15.769 1.526
31.141001 16.917999 1.529
31.115999 17.040001 1.53
31.250999 17.250999 1.538
31.110001 17.311001 1.534
39.555 -23.841999 2.2149999
39.598 -23.639 2.2160001
39.779999 -23.521 2.224
39.868 -23.348 2.2279999
40.034 -23.219999 2.2349999
40.139999 -23.058001 2.24
40.334 -22.947001 2.2490001
40.474998 -22.806999 2.2550001
40.664001 -22.691999 2.2639999
40.787998 -22.542999 2.27
41.278999 -22.159 2.2920001
41.452999 -22.037001 2.3010001
41.616001 -21.909 2.3080001
41.844002 -21.815001 2.319
41.936001 -21.650999 2.323
42.108002 -21.528 2.3310001
42.236 -21.382 2.3369999
42.417999 -21.264 2.346
42.625 -21.159 2.3559999
42.811001 -21.042999 2.365
43.07 -20.962 2.378
43.191002 -20.813 2.3829999
43.436001 -20.725 2.395
43.469002 -20.535 2.3959999
43.785 -20.479 2.4119999
43.949001 -20.351999 2.4189999
44.175999 -20.253 2.431
44.416 -20.16 2.4430001
42.939999 -14.849 2.335
42.938 -14.686 2.3340001
43.068001 -14.569 2.3399999
4.0960002 -1.325 0.222
3.9579999 -1.266 0.214
3.845 -1.216 0.208
3.7980001 -1.187 0.205
3.7780001 -1.168 0.204
3.7609999 -1.097 0.20299999
3.7720001 -1.087 0.204
3.7969999 -1.082 0.205
3.8210001 -1.075 0.206
3.8629999 -1.062 0.208
3.8710001 -1.051 0.20900001
3.9319999 -1.0549999 0.212
3.9820001 -1.0420001 0.214
4.099 -1.0599999 0.221
4.2129998 -1.076 0.227
41.185001 -10.127 2.22
41.328999 -10.034 2.2279999
18.739 -4.3189998 1.0089999
18.684 -4.25 1.006
18.813999 -4.223 1.013
40.294998 -7.763 2.165
40.532001 -7.6960001 2.177
39.445 -5.7259998 2.1140001
39.417 -5.625 2.1129999
39.318001 -5.5139999 2.1070001
39.407001 -5.4299998 2.112
39.258999 -4.3920002 2.102
39.102001 -4.2849998 2.0940001
39.077999 -4.1079998 2.092
39.096001 -4.0229998 2.0929999
38.405998 -2.0710001 2.056
38.278999 -1.992 2.049
37.348999 0.736 1.771
37.166 0.80000001 1.761
37.021 1.37 1.751
36.912998 1.441 1.745
36.979 1.5190001 1.748
16.454 0.70999998 0.77700001
16.254999 0.73500001 0.76800001
16.205 0.76700002 0.76499999
16.159 0.79900002 0.76300001
16.145 0.833 0.76200002
16.127001 0.86699998 0.76099998
16.087 0.89999998 0.759
16.061001 0.93400002 0.75800002
16.021 0.96700001 0.75599998
15.99 1.001 0.755
16 1.038 0.755
16.025999 1.076 0.75599998
16.157 1.1210001 0.76200002
36.624001 2.543 1.728
36.576 2.6240001 1.726
16.017 1.186 0.75599998
36.537998 2.7060001 1.724
15.839 1.21 0.74699998
36.567001 2.7939999 1.725
15.709 1.237 0.741
15.653 1.27 0.73799998
15.584 1.302 0.73500001
15.565 1.3380001 0.73400003
15.509 1.3710001 0.73100001
15.492 1.4069999 0.73100001
15.456 1.442 0.72899997
15.453 1.48 0.72899997
15.425 1.516 0.72799999
15.433 1.556 0.72799999
15.42 1.594 0.727
15.441 1.635 0.72899997
15.479 1.679 0.73000002
15.634 1.7359999 0.73799998
36.050999 4.0040002 1.702
35.891998 4.079 1.6950001
35.948002 4.1799998 1.697
35.925999 4.2709999 1.697
35.859001 4.3579998 1.694
35.747002 4.4390001 1.689
35.784 4.54 1.691
35.842999 4.6440001 1.694
35.747002 4.7280002 1.689
35.737999 4.8239999 1.689
35.686001 4.914 1.687
35.556 4.994 1.681
34.866001 7.1230001 1.66
34.835999 7.223 1.659
34.709 7.303 1.654
34.675999 7.402 1.653
34.644001 7.5019999 1.652
34.611 7.6020002 1.652
34.564999 7.6999998 1.65
34.532001 7.8000002 1.649
34.632 7.9310002 1.655
34.52 8.0139999 1.65
34.41 8.0970001 1.646
34.483002 8.2229996 1.65
34.344002 8.2980003 1.6440001
34.305 8.3979998 1.643
34.277 8.5010004 1.643
34.256001 8.6049995 1.643
34.203999 8.7019997 1.641
34.242001 8.8219995 1.6440001
34.166 8.9130001 1.641
34.153 9.0209999 1.641
34.113998 9.1219997 1.641
34.064999 9.2200003 1.6390001
34.016998 9.3179998 1.638
33.995998 9.4239998 1.638
33.907001 9.5109997 1.6339999
33.826 9.6000004 1.632
33.855 9.7200003 1.6339999
33.914001 9.8500004 1.638
33.752998 9.9160004 1.631
33.705002 10.014 1.63
33.669998 10.117 1.6289999
33.644001 10.222 1.6289999
33.664001 10.341 1.631
33.743 10.479 1.636
33.702 10.581 1.635
33.488998 10.628 1.626
33.57 10.768 1.631
33.463001 10.847 1.627
33.377998 10.934 1.624
33.389999 11.167 1.627
33.34 11.265 1.626
33.195 11.33 1.62
33.194 11.445 1.6210001
33.227001 11.571 1.624
33.089001 11.753 1.62
32.995998 11.835 1.617
33.097 11.987 1.623
32.939999 12.045 1.6160001
33.060001 12.205 1.624
32.919998 12.269 1.618
33.040001 12.43 1.625
32.813 12.46 1.615
32.792 12.684 1.617
32.772999 12.793 1.618
32.738998 12.896 1.617
32.563999 13.059 1.612
32.596001 13.188 1.615
32.511002 13.27 1.612
31.896999 14.629 1.602
32.032001 14.807 1.6109999
31.903 15.096 1.609
31.827 15.176 1.607
43.139 -20.965 2.4890001
43.146 -20.841 2.4890001
43.360001 -20.818001 2.5009999
42.851002 -15.047 2.457
42.84 -14.918 2.4560001
42.944 -14.828 2.4619999
43.008999 -14.725 2.4649999
4.0139999 -1.304 0.229
3.9289999 -1.2640001 0.22499999
3.829 -1.221 0.219
3.8050001 -1.202 0.21699999
3.7939999 -1.188 0.21699999
3.763 -1.156 0.215
3.7690001 -1.147 0.215
3.7460001 -1.097 0.214
3.763 -1.09 0.215
3.7739999 -1.0829999 0.215
3.783 -1.074 0.21600001
3.8150001 -1.072 0.21699999
3.8329999 -1.066 0.21799999
3.8410001 -1.057 0.219
3.895 -1.05 0.222
3.924 -1.046 0.22400001
3.9389999 -1.038 0.22400001
3.9890001 -1.028 0.227
4.1100001 -1.048 0.234
41.231998 -9.9160004 2.3499999
41.23 -9.7959995 2.349
18.676001 -4.2210002 1.063
18.704 -4.1729999 1.0650001
18.815001 -4.1430001 1.071
40.330002 -7.8319998 2.2920001
40.240002 -7.698 2.286
40.341999 -7.6009998 2.2920001
40.472 -7.5089998 2.299
40.106998 -6.9790001 2.276
39.933998 -6.8330002 2.266
40.007 -6.7309999 2.27
40.028 -6.619 2.27
39.907001 -6.4840002 2.263
39.396 -5.494 2.2309999
39.438 -5.3860002 2.2320001
39.686001 -5.3060002 2.2460001
39.126999 -4.7810001 2.2130001
39.185001 -4.6760001 2.2149999
39.120998 -4.5560002 2.211
39.160999 -4.448 2.2130001
39.146 -4.3340001 2.2119999
39.067001 -4.2129998 2.207
38.308998 -2.0439999 2.155
38.278999 -1.932 2.1530001
36.888 1.465 1.8099999
36.842999 1.5190001 1.807
36.716999 1.571 1.801
16.41 0.75300002 0.80400002
16.271999 0.773 0.79699999
16.208 0.796 0.79400003
16.139999 0.81999999 0.79100001
16.118999 0.84600002 0.78899997
16.056999 0.87 0.78600001
16.079 0.898 0.787
16.080999 0.926 0.787
16.025 0.95099998 0.78399998
16.030001 0.98000002 0.78500003
16.02 1.0089999 0.78399998
16.027 1.038 0.78399998
16.120001 1.074 0.78899997
36.618 2.4400001 1.7920001
16.132 1.105 0.78899997
36.557999 2.5050001 1.789
36.547001 2.573 1.789
36.5 2.6389999 1.786
15.991 1.187 0.78200001
36.478001 2.7079999 1.785
15.797 1.2029999 0.773
36.423 2.7750001 1.783
15.66 1.224 0.76599997
15.611 1.251 0.764
15.581 1.28 0.76200002
15.57 1.311 0.76200002
15.531 1.339 0.75999999
15.507 1.37 0.759
15.49 1.4 0.75800002
15.471 1.431 0.75700003
15.459 1.4630001 0.75700003
15.454 1.4960001 0.75599998
15.442 1.529 0.75599998
15.431 1.561 0.75599998
15.471 1.6 0.75800002
36.063999 3.73 1.767
15.549 1.642 0.76200002
35.827999 3.7850001 1.755
35.737 3.8559999 1.751
35.699001 3.9330001 1.75
35.740002 4.0190001 1.752
35.687 4.0960002 1.75
35.646 4.1739998 1.748
35.674999 4.2610002 1.75
35.66 4.3439999 1.749
35.743999 4.4390001 1.7539999
35.624001 4.5100002 1.749
35.598 4.5929999 1.748
35.539001 4.6719999 1.745
35.478001 4.7509999 1.743
35.498001 4.8410001 1.744
35.445 4.9229999 1.742
35.444 5.0120001 1.743
35.400002 5.0949998 1.7410001
35.318001 5.1729999 1.738
35.339001 5.2670002 1.739
35.334 5.3569999 1.74
28.98 4.4689999 1.427
35.338001 5.4499998 1.7410001
28.781 4.5139999 1.418
28.834 4.598 1.421
28.766001 4.7410002 1.419
28.648001 4.7979999 1.414
28.618999 4.9489999 1.414
28.636 5.0300002 1.415
28.615999 5.105 1.415
28.552 5.1729999 1.4119999
28.459999 5.2360001 1.408
28.530001 5.329 1.413
28.549999 5.4130001 1.414
34.811001 6.8990002 1.727
34.683998 6.974 1.722
34.674999 7.073 1.722
34.688 7.177 1.724
34.623001 7.2659998 1.722
34.591 7.362 1.721
34.497002 7.4439998 1.7180001
34.519001 7.552 1.72
34.532001 7.6589999 1.721
34.445999 7.744 1.7180001
34.473 7.855 1.721
34.382 7.9390001 1.717
34.333 8.033 1.716
34.282001 8.1269999 1.715
34.196999 8.2130003 1.711
34.325001 8.3509998 1.719
34.203999 8.4289999 1.714
34.200001 8.5360003 1.715
34.157001 8.6330004 1.714
34.084 8.7229996 1.712
34.106998 8.8380003 1.714
34.078999 8.941 1.714
34.029999 9.0380001 1.7130001
33.925999 9.1199999 1.709
33.931 9.2320004 1.711
33.882 9.3299999 1.71
33.889999 9.4440002 1.711
33.844002 9.5430002 1.71
33.793999 9.6420002 1.709
33.757 9.7440004 1.709
33.740002 9.8520002 1.709
33.637001 9.9359999 1.706
33.707001 10.07 1.711
33.687 10.179 1.711
33.594002 10.266 1.7079999
33.594002 10.381 1.71
33.741001 10.543 1.719
33.597 10.614 1.7130001
33.580002 10.726 1.714
33.403999 10.786 1.706
33.400002 10.903 1.7079999
33.478001 11.046 1.7130001
33.280998 11.099 1.705
33.241001 11.204 1.704
33.247002 11.325 1.706
33.175999 11.42 1.704
33.181 11.541 1.706
33.126999 11.642 1.705
33.007 11.84 1.7029999
33.012001 11.963 1.705
32.979 12.073 1.705
32.790001 12.125 1.697
32.868 12.276 1.7029999
32.994999 12.446 1.711
32.810001 12.499 1.7029999
32.837002 12.633 1.707
32.626999 12.799 1.699
32.658001 12.935 1.7029999
32.617001 13.043 1.7029999
32.571999 13.276 1.704
32.466999 13.359 1.701
32.422001 13.466 1.7
32.445999 13.602 1.704
32.137001 14.106 1.698
32.271999 14.294 1.707
32.181 14.383 1.704
32.032001 14.574 1.701
32.033001 14.704 1.7029999
31.91 14.777 1.699
31.594999 15.809 1.702
31.544001 15.917 1.702
31.570999 16.063999 1.706
31.535999 16.181 1.706
31.382 16.236 1.7
189.62399 112.305 10.539
188.539 112.518 10.496
39.720001 -23.48 2.405
39.805 -23.305 2.408
40.049 -23.224001 2.421
40.134998 -23.049999 2.424
41.882999 -21.832001 2.513
42.097 -21.73 2.5239999
42.215 -21.579 2.53
42.301998 -21.412001 2.5339999
42.484001 -21.294001 2.543
42.671001 -21.177999 2.553
43.019001 -20.934 2.5710001
43.18 -20.805 2.579
43.422001 -20.715 2.592
43.542999 -20.566999 2.5969999
43.798 -20.482 2.6110001
44.013 -20.378 2.6229999
44.209 -20.264999 2.6329999
43.720001 -16.830999 2.5829999
43.667 -16.634001 2.579
42.904999 -14.835 2.5239999
42.949001 -14.689 2.526
43.056 -14.564 2.5320001
4.0900002 -1.323 0.23999999
3.9170001 -1.253 0.229
3.826 -1.21 0.22400001
3.7939999 -1.186 0.222
3.7969999 -1.174 0.222
3.803 -1.0829999 0.222
3.8139999 -1.074 0.223
3.8369999 -1.067 0.22400001
3.8699999 -1.063 0.226
3.9130001 -1.062 0.228
3.951 -1.0599999 0.23
4.04 -1.057 0.235
4.1529999 -1.074 0.242
41.173 -10.124 2.401
41.335999 -10.035 2.4100001
18.688999 -4.3070002 1.0880001
18.691999 -4.2519999 1.0880001
18.802999 -4.2199998 1.095
40.429001 -7.789 2.349
40.334 -7.6589999 2.3429999
39.365002 -5.5209999 2.2809999
39.334999 -5.4200001 2.279
39.257 -4.3920002 2.273
39.202 -4.2969999 2.27
37.237 0.53899997 1.943
37.331001 0.60600001 1.948
37.235001 0.94599998 1.9400001
37.286999 1.018 1.942
37.238998 1.089 1.939
37.139 1.158 1.933
36.827 1.22 1.9170001
36.726002 1.29 1.911
36.75 1.364 1.9119999
36.641998 1.434 1.906
36.674999 1.511 1.9069999
16.257999 0.70300001 0.84500003
36.811001 1.592 1.914
16.209 0.73500001 0.84200001
16.15 0.76599997 0.83899999
16.106001 0.79799998 0.83700001
16.072001 0.83099997 0.83499998
16.056 0.86500001 0.83399999
16.024 0.898 0.83200002
16.042999 0.93400002 0.833
16.011 0.96799999 0.83099997
15.996 1.003 0.83099997
15.994 1.039 0.83099997
16.125999 1.084 0.83700001
36.653999 2.464 1.904
36.52 2.539 1.897
36.438999 2.618 1.892
15.978 1.1849999 0.82999998
36.342999 2.6949999 1.887
15.847 1.212 0.82300001
36.319 2.779 1.886
15.714 1.239 0.81599998
36.393002 2.8699999 1.89
15.636 1.27 0.81199998
15.592 1.304 0.81
15.556 1.339 0.80800003
15.523 1.373 0.80599999
15.495 1.409 0.80500001
15.479 1.446 0.80400002
15.462 1.482 0.80299997
15.455 1.52 0.80299997
15.435 1.557 0.80199999
15.429 1.596 0.80199999
15.467 1.6390001 0.80400002
35.842999 3.799 1.863
15.555 1.688 0.80800003
35.675999 3.8729999 1.854
35.674 3.964 1.855
35.639999 4.053 1.853
35.604 4.1420002 1.851
35.570999 4.2309999 1.85
35.573002 4.3260002 1.85
35.634998 4.428 1.854
35.623001 4.5209999 1.854
35.528999 4.605 1.849
35.587002 4.7090001 1.853
35.431999 4.7839999 1.845
35.480999 4.888 1.848
35.396999 4.973 1.844
35.359001 5.066 1.842
35.339001 5.1609998 1.842
35.201 5.2389998 1.835
35.178001 5.3340001 1.834
35.166 5.4310002 1.834
35.222 5.539 1.8380001
35.243999 5.6430001 1.84
28.972 4.7220001 1.513
35.416 5.7719998 1.849
28.855 4.7849998 1.507
35.324001 5.8579998 1.845
28.775999 4.855 1.503
35.508999 5.9910002 1.855
28.839001 4.9489999 1.507
35.313 6.0599999 1.846
28.677 5.0050001 1.499
35.175999 6.1389999 1.839
28.723 5.0970001 1.502
34.967999 6.2049999 1.829
28.608 5.1599998 1.497
34.879002 6.2919998 1.825
28.580999 5.2399998 1.4960001
34.785 6.3769999 1.821
28.589001 5.3260002 1.497
34.771 6.4780002 1.821
34.702 6.5679998 1.818
34.759998 6.6830001 1.821
34.737999 6.783 1.821
34.68 6.8759999 1.819
34.666 6.9780002 1.819
34.556999 7.0609999 1.814
34.527 7.1599998 1.813
34.516998 7.263 1.813
34.457001 7.3569999 1.811
34.444 7.46 1.811
34.387001 7.5539999 1.809
34.321999 7.6459999 1.807
34.308998 7.75 1.807
34.240002 7.842 1.804
34.248001 7.9510002 1.806
34.187 8.0450001 1.803
34.148998 8.1440001 1.802
34.088001 8.2370005 1.8
34.075001 8.3430004 1.8
34.047001 8.4440002 1.8
33.994999 8.54 1.798
33.945999 8.6370001 1.7970001
33.925999 8.7419996 1.7970001
33.869999 8.8369999 1.795
33.814999 8.9320002 1.793
33.792999 9.0360003 1.793
33.763 9.1379995 1.7920001
33.691002 9.2290001 1.79
33.696999 9.3409996 1.791
33.636002 9.4350004 1.789
33.639 9.5469999 1.79
33.612 9.651 1.79
33.574001 9.7519999 1.789
33.521999 9.8479996 1.788
33.477001 9.9469995 1.7869999
33.405998 10.038 1.784
33.382999 10.143 1.784
33.326 10.238 1.7819999
33.271999 10.333 1.781
33.299999 10.455 1.784
33.254002 10.553 1.7819999
33.194 10.647 1.78
33.160999 10.75 1.78
33.146 10.858 1.781
33.047001 10.939 1.777
33.077999 11.063 1.78
33.055 11.169 1.78
32.986 11.259 1.778
32.918999 11.35 1.775
32.848 11.439 1.773
32.910999 11.575 1.778
32.818001 11.657 1.774
32.833 11.777 1.776
32.743 11.859 1.773
32.757999 11.979 1.775
32.737 12.086 1.776
32.657001 12.171 1.773
32.665001 12.289 1.775
32.675999 12.409 1.777
32.591 12.491 1.774
32.543999 12.588 1.773
32.542 12.703 1.775
32.5 12.802 1.774
32.471001 12.906 1.774
32.459999 13.017 1.775
32.455002 13.131 1.776
32.356998 13.207 1.773
32.375 13.33 1.775
32.27 13.402 1.771
32.210999 13.494 1.77
32.207001 13.607 1.771
32.316002 13.77 1.779
32.188999 13.947 1.775
32.240002 14.086 1.78
32.048 14.118 1.771
32.057999 14.238 1.773
32.025002 14.339 1.773
32.021 14.454 1.775
31.931 14.529 1.772
32.014999 14.683 1.778
31.804001 14.702 1.768
31.926001 14.875 1.777
31.747999 14.907 1.7690001
31.688 15.341 1.773
31.737 15.481 1.778
31.624001 15.541 1.773
31.669001 15.679 1.778
31.1 16.761 1.77
31.225 16.941999 1.779
43.630001 -20.577 2.7149999
43.828999 -20.542 2.727
44.057999 -20.52 2.7409999
44.147999 -20.431999 2.7460001
42.810001 -15.039 2.648
42.866001 -14.933 2.651
42.973999 -14.845 2.6570001
4.165 -1.365 0.257
4.0580001 -1.318 0.25
3.934 -1.267 0.243
3.865 -1.233 0.23800001
3.8169999 -1.207 0.235
3.806 -1.192 0.234
3.7839999 -1.174 0.233
3.767 -1.125 0.23199999
3.7620001 -1.113 0.23199999
3.776 -1.095 0.23199999
3.793 -1.089 0.233
3.803 -1.08 0.234
3.8139999 -1.072 0.234
3.8369999 -1.067 0.236
3.8380001 -1.057 0.236
3.8570001 -1.051 0.237
3.9000001 -1.051 0.23999999
3.9360001 -1.049 0.242
3.9679999 -1.046 0.244
4.0240002 -1.049 0.24699999
4.0570002 -1.046 0.249
4.2750001 -1.09 0.26199999
41.183998 -10.145 2.5309999
41.32 -10.059 2.539
41.173 -9.9029999 2.53
41.369999 -9.8310003 2.5420001
41.419998 -9.7220001 2.5439999
18.895 -4.2709999 1.16
18.677 -4.1669998 1.146
18.722 -4.1230001 1.149
40.450001 -7.9720001 2.4779999
40.344002 -7.835 2.471
40.285999 -7.7069998 2.467
40.34 -7.6009998 2.47
40.485001 -7.5110002 2.4790001
40.066002 -6.855 2.45
40.088001 -6.744 2.451
39.484001 -5.7319999 2.4100001
39.390999 -5.605 2.404
39.352001 -5.4860001 2.401
39.477001 -5.3899999 2.408
39.630001 -5.296 2.4170001
39.026001 -4.5419998 2.3770001
39.056999 -4.434 2.3789999
39.173 -4.3340001 2.385
39.075001 -4.211 2.3789999
38.424 -3.368 2.336
38.581001 -3.2709999 2.345
36.743 1.465 1.976
36.716999 1.52 1.974
36.723999 1.576 1.974
36.643002 1.63 1.969
36.73 1.692 1.974
16.343 0.77899998 0.87800002
36.851002 1.757 1.98
16.194 0.79799998 0.87
16.179001 0.824 0.86900002
16.129 0.84799999 0.866
16.115999 0.875 0.86500001
16.136 0.90399998 0.866
16.177999 0.93400002 0.86799997
16.190001 0.963 0.86900002
16.142 0.98900002 0.866
16.093 1.015 0.86400002
16.198999 1.051 0.86900002
36.715 2.451 1.97
36.530998 2.507 1.961
36.436001 2.569 1.955
36.368999 2.6340001 1.952
36.355 2.7030001 1.951
15.843 1.209 0.85000002
36.369999 2.7750001 1.952
15.707 1.229 0.84299999
36.384998 2.848 1.9529999
15.651 1.256 0.83999997
15.61 1.284 0.838
15.565 1.312 0.83499998
15.538 1.342 0.83399999
15.524 1.373 0.833
15.507 1.404 0.83200002
15.507 1.436 0.83200002
15.453 1.464 0.82999998
15.477 1.5 0.83099997
15.475 1.533 0.83099997
36.062 3.5739999 1.937
15.502 1.5700001 0.833
35.797001 3.6259999 1.923
15.648 1.619 0.84100002
35.716999 3.697 1.919
35.669998 3.7709999 1.9170001
35.641998 3.849 1.916
35.629002 3.928 1.916
35.598 4.006 1.914
35.549999 4.0830002 1.9119999
35.556999 4.1659999 1.913
35.667 4.263 1.919
35.766998 4.3590002 1.925
35.876999 4.4580002 1.932
35.820999 4.5370002 1.929
35.805 4.6220002 1.929
35.686001 4.6929998 1.923
35.530998 4.7600002 1.915
35.519001 4.8470001 1.915
35.451 4.9260001 1.9119999
35.390999 5.006 1.91
35.374001 5.0929999 1.909
35.271 5.1680002 1.905
35.292999 5.2620001 1.9069999
35.248001 5.3460002 1.905
35.234001 5.4359999 1.905
35.297001 5.5380001 1.909
35.303001 5.632 1.91
35.412998 5.743 1.9170001
35.321999 5.823 1.913
35.256001 5.9070001 1.91
35.091999 5.974 1.902
34.917 6.039 1.8940001
34.786999 6.112 1.887
34.741001 6.1999998 1.886
34.727001 6.2940001 1.886
34.705002 6.3870001 1.886
34.672001 6.4780002 1.885
34.625999 6.5669999 1.883
34.630001 6.6659999 1.885
34.724998 6.7839999 1.891
34.752998 6.8889999 1.8940001
34.674999 6.974 1.89
34.622002 7.0640001 1.8890001
34.623001 7.165 1.89
34.570999 7.256 1.888
34.551998 7.3540001 1.888
34.445999 7.434 1.8839999
34.396 7.526 1.882
34.386002 7.6279998 1.883
34.316002 7.7160001 1.88
34.291 7.8140001 1.88
34.258999 7.9120002 1.88
34.263 8.0179996 1.881
34.201 8.1090002 1.8789999
34.217999 8.2189999 1.881
34.112 8.3000002 1.877
34.078999 8.3990002 1.876
34.011002 8.4890003 1.874
33.938999 8.5790005 1.872
33.827999 8.658 1.867
33.776001 8.7530003 1.865
33.780998 8.8629999 1.867
33.747002 8.9630003 1.867
33.707001 9.0620003 1.8660001
33.751999 9.184 1.87
33.701 9.2810001 1.869
33.713001 9.3950005 1.8710001
33.633999 9.4840002 1.868
33.626999 9.5939999 1.869
33.573002 9.691 1.868
33.530998 9.7910004 1.867
33.467999 9.8859997 1.8660001
33.443001 9.9919996 1.8660001
33.405998 10.094 1.865
33.360001 10.194 1.865
33.34 10.303 1.865
33.261002 10.393 1.862
33.233002 10.5 1.863
33.192001 10.602 1.862
33.160999 10.708 1.862
33.115002 10.81 1.8609999
33.028999 10.898 1.858
32.955002 10.991 1.8559999
32.936001 11.101 1.857
32.868999 11.196 1.855
32.841999 11.305 1.855
32.798 11.408 1.855
32.762001 11.514 1.855
32.756001 11.631 1.8559999
32.705002 11.732 1.855
32.674999 11.841 1.8559999
32.644001 11.95 1.8559999
32.623001 12.063 1.857
32.566002 12.163 1.8559999
32.543999 12.276 1.8559999
32.507999 12.384 1.8559999
32.456001 12.486 1.8559999
32.393002 12.584 1.854
32.370998 12.698 1.855
32.341999 12.81 1.855
32.298 12.916 1.855
32.261002 13.025 1.855
32.231998 13.137 1.8559999
32.145 13.226 1.853
32.105 13.334 1.853
32.077 13.448 1.854
32.030998 13.554 1.853
32.004002 13.668 1.854
31.996 13.79 1.8559999
31.966999 13.904 1.8559999
31.922001 14.012 1.8559999
31.882 14.121 1.8559999
31.836 14.228 1.8559999
31.799 14.34 1.8559999
31.82 14.478 1.86
31.712999 14.557 1.8559999
31.702999 14.681 1.858
31.646 14.784 1.857
31.594999 14.89 1.8559999
31.597 15.021 1.859
31.495001 15.102 1.8559999
31.49 15.23 1.858
31.500999 15.367 1.8609999
31.448999 15.473 1.86
31.409 15.585 1.8609999
31.372999 15.698 1.8609999
31.285 15.786 1.859
31.290001 15.922 1.862
31.296 16.058001 1.865
31.204 16.143999 1.862
31.221001 16.285999 1.865
31.283001 16.452999 1.872
31.264999 16.577999 1.874
31.156 16.655001 1.87
31.035999 16.726 1.865
30.993999 16.839001 1.8660001
30.966999 16.959 1.867
31.002001 17.115 1.872
30.959 17.228001 1.872
30.959 17.364 1.875
30.794001 17.408001 1.868
30.798 17.548 1.8710001
30.778999 17.812 1.876
30.742001 17.93 1.876
41.901001 -21.625 2.704
42.217999 -21.577 2.723
42.372002 -21.444 2.7309999
42.617001 -21.357 2.7449999
42.658001 -21.167999 2.7460001
43.013 -20.927 2.766
43.108002 -20.767 2.77
43.529999 -20.763 2.796
43.723999 -20.65 2.8069999
43.856998 -20.507 2.8139999
44.096001 -20.414 2.8269999
44.042 -20.186001 2.822
44.269001 -20.087 2.835
42.886002 -14.828 2.7149999
42.933998 -14.682 2.717
4.0139999 -1.298 0.25299999
3.9219999 -1.2539999 0.24699999
3.8510001 -1.2180001 0.243
3.8010001 -1.188 0.23899999
3.7609999 -1.097 0.236
3.7980001 -1.095 0.23899999
3.8080001 -1.085 0.23899999
3.8110001 -1.073 0.23899999
3.842 -1.069 0.241
3.872 -1.064 0.243
3.9189999 -1.064 0.24600001
3.997 -1.072 0.25099999
4.0780001 -1.08 0.25600001
4.198 -1.099 0.26300001
41.092999 -10.363 2.579
41.035999 -10.219 2.575
41.131001 -10.114 2.5799999
41.229 -10.009 2.585
18.674999 -4.3039999 1.17
18.681 -4.2490001 1.17
40.193001 -7.8569999 2.5120001
40.272999 -7.7589998 2.516
40.403 -7.6719999 2.5239999
39.964001 -6.9359999 2.494
40.006001 -6.8369999 2.497
39.375 -5.5229998 2.4530001
39.441002 -5.4349999 2.457
39.185001 -4.296 2.4389999
39.155998 -4.204 2.437
39.167999 -4.118 2.438
37.217999 0.54400003 2.118
37.241001 0.61000001 2.119
36.764 1.296 2.0869999
36.716 1.368 2.0840001
36.68 1.4400001 2.0810001
36.605999 1.512 2.0769999
36.591 1.587 2.075
16.332001 0.74199998 0.926
36.554001 1.6619999 2.073
16.218 0.77100003 0.91900003
36.611 1.7410001 2.076
16.165001 0.80299997 0.91600001
16.129999 0.83600003 0.91399997
16.135 0.87099999 0.91399997
16.120001 0.90499997 0.91399997
16.122 0.94099998 0.91399997
16.146 0.97799999 0.91500002
16.1 1.011 0.912
16.108999 1.048 0.91299999
16.169001 1.0880001 0.91600001
36.546001 2.5450001 2.0710001
36.472 2.6229999 2.0669999
36.363998 2.7 2.0610001
36.348999 2.7839999 2.0599999
15.949 1.2589999 0.90399998
36.257999 2.8629999 2.0550001
15.703 1.277 0.88999999
36.299 2.9530001 2.0569999
15.647 1.3099999 0.88700002
36.354 3.0439999 2.0610001
15.596 1.3430001 0.884
15.563 1.378 0.88200003
15.536 1.414 0.88099998
15.494 1.448 0.87800002
15.485 1.4859999 0.87800002
15.477 1.524 0.87699997
15.458 1.561 0.87599999
15.493 1.603 0.87900001
35.84 3.71 2.033
15.542 1.648 0.88099998
35.731998 3.79 2.027
35.683998 3.8759999 2.0250001
35.612 3.96 2.0209999
35.605 4.0510001 2.0209999
35.556999 4.1389999 2.0190001
35.532001 4.2290001 2.0179999
35.569 4.3270001 2.02
35.729 4.4419999 2.03
35.752998 4.54 2.0309999
35.816002 4.6440001 2.0350001
35.778 4.7360001 2.0339999
35.651001 4.816 2.027
35.597 4.9060001 2.0239999
35.497002 4.9889998 2.0190001
35.395 5.073 2.0139999
35.327 5.1609998 2.0109999
35.327999 5.2600002 2.0109999
35.280998 5.3509998 2.0090001
35.200001 5.4380002 2.0050001
35.216 5.54 2.007
35.268002 5.6490002 2.0109999
35.402 5.7709999 2.0190001
35.424 5.8759999 2.0209999
35.381001 5.9710002 2.0190001
35.165001 6.0370002 2.0079999
34.872002 6.0879998 1.992
34.784 6.1739998 1.987
34.717999 6.2639999 1.984
34.692001 6.362 1.984
34.685001 6.4629998 1.984
34.632 6.5560002 1.982
34.618 6.6570001 1.982
34.702 6.777 1.988
34.82 6.9050002 1.995
34.909 7.0279999 2.0009999
34.907001 7.1329999 2.0020001
34.764999 7.21 1.995
34.599998 7.2820001 1.9859999
34.505001 7.368 1.982
34.488998 7.4710002 1.982
34.433998 7.5650001 1.98
34.374001 7.6589999 1.978
34.368 7.7649999 1.978
34.330002 7.8629999 1.977
34.382 7.9829998 1.9809999
34.382 8.0909996 1.982
34.495998 8.2270002 1.99
34.289001 8.2869997 1.979
34.240002 8.3839998 1.978
33.932999 8.4169998 1.961
33.858002 8.507 1.9579999
33.827 8.6079998 1.957
33.798 8.7089996 1.957
33.755001 8.8070002 1.955
33.723999 8.9090004 1.955
33.685001 9.0080004 1.954
33.779999 9.1440001 1.961
33.866001 9.2779999 1.967
33.839001 9.3809996 1.967
33.825001 9.4890003 1.967
33.743 9.5769997 1.964
33.667999 9.6680002 1.961
33.603001 9.7600002 1.9579999
33.544998 9.8549995 1.956
33.521999 9.9610004 1.957
33.460999 10.054 1.954
33.437 10.16 1.954
33.411999 10.264 1.954
33.438 10.385 1.957
33.389 10.483 1.956
33.344002 10.582 1.955
33.291 10.678 1.9529999
33.205002 10.764 1.95
33.02 10.817 1.9400001
32.956001 10.909 1.938
32.91 11.006 1.937
32.875 11.108 1.937
32.814999 11.201 1.9349999
32.784 11.304 1.9349999
32.801998 11.423 1.937
32.903 11.573 1.9450001
32.875 11.677 1.9450001
32.882 11.794 1.947
32.768002 11.868 1.942
32.745998 11.975 1.942
32.696999 12.071 1.941
32.648998 12.168 1.9400001
32.611 12.269 1.939
32.584 12.374 1.9400001
32.541 12.472 1.939
32.465 12.558 1.936
32.473999 12.676 1.938
32.473999 12.792 1.9400001
32.338001 12.853 1.934
32.403 12.994 1.9400001
32.353001 13.09 1.938
32.27 13.171 1.9349999
32.094002 13.214 1.927
32.026001 13.301 1.924
31.983 13.398 1.924
31.972 13.508 1.925
31.927999 13.605 1.924
31.893999 13.705 1.924
31.954 13.846 1.9299999
32.029999 13.994 1.936
31.993999 14.094 1.936
31.917999 14.176 1.934
31.902 14.284 1.9349999
31.834 14.37 1.933
31.785999 14.463 1.932
31.74 14.557 1.931
31.665001 14.638 1.928
31.693001 14.766 1.932
31.643 14.858 1.931
31.657 14.98 1.934
31.599001 15.068 1.933
31.582001 15.175 1.934
31.537001 15.268 1.933
31.443001 15.337 1.9299999
31.438 15.45 1.931
31.379 15.535 1.9299999
31.242001 15.582 1.924
31.205 15.677 1.924
31.136 15.756 1.9220001
31.115999 15.86 1.923
31.115999 15.974 1.925
31.077 16.068001 1.925
31.118 16.202 1.929
31.181 16.349001 1.936
31.24 16.493999 1.941
31.073999 16.52 1.933
31.076 16.635 1.936
31.106001 16.764999 1.9400001
30.966 16.802 1.934
30.884001 16.870001 1.931
30.895 16.989 1.934
30.865 17.084999 1.934
30.862 17.195999 1.937
30.870001 17.312 1.939
30.804001 17.386999 1.938
30.861 17.532 1.944
30.76 17.586 1.9400001
30.687 17.767 1.9400001
30.705999 17.889 1.944
30.502001 17.989 1.9349999
30.518 18.108999 1.939
30.438999 18.172001 1.936
30.409 18.263 1.937
30.443001 18.392 1.942
30.349001 18.444 1.938
42.842999 -15.057 2.8429999
42.855999 -14.936 2.8429999
42.936001 -14.838 2.848
4.1440001 -1.359 0.27399999
4.0799999 -1.326 0.27000001
3.9560001 -1.274 0.26199999
3.8940001 -1.243 0.257
3.8039999 -1.147 0.25099999
3.78 -1.1289999 0.25
3.7809999 -1.119 0.25
3.789 -1.11 0.25
3.7820001 -1.097 0.25
3.79 -1.0880001 0.25
3.8099999 -1.082 0.25099999
3.8110001 -1.072 0.25099999
3.8239999 -1.064 0.252
3.8599999 -1.063 0.25400001
3.8540001 -1.05 0.25400001
3.891 -1.049 0.25600001
3.937 -1.05 0.259
3.9920001 -1.053 0.26300001
4.046 -1.0549999 0.26699999
4.119 -1.062 0.271
41.175999 -9.9060001 2.7130001
41.263 -9.8070002 2.7179999
41.32 -9.7010002 2.7219999
18.716999 -4.177 1.232
18.705999 -4.1199999 1.2309999
18.955 -4.1199999 1.247
40.289001 -7.8239999 2.6459999
40.304001 -7.711 2.6470001
40.286999 -7.5910001 2.645
40.301998 -7.4770002 2.645
39.504002 -5.619 2.585
39.412998 -5.4920001 2.5780001
39.368999 -5.3730001 2.575
39.443001 -5.2690001 2.579
39.102001 -4.5489998 2.553
39.067001 -4.4320002 2.5510001
