# .PCD v0.7 - Point Cloud Data file format
VERSION 0.7
FIELDS x y z
SIZE 4 4 4
TYPE F F F
COUNT 1 1 1
WIDTH 1865
HEIGHT 1
VIEWPOINT 0 0 0 1 0 0 0
POINTS 1865
DATA ascii
42.317001 -13.533 4.1700001
41.952999 -12.526 4.125
41.926998 -12.374 4.1209998
41.460999 -11.396 4.0669999
41.445999 -11.255 4.0640001
18.655001 -4.3000002 1.822
18.701 -4.2540002 1.826
40.613998 -8.9960003 3.9649999
40.648998 -8.8830004 3.967
40.154999 -7.9629998 3.9119999
40.171001 -7.8530002 3.9130001
40.280998 -7.7620001 3.9230001
39.769001 -6.9029999 3.868
39.827999 -6.8080001 3.8729999
39.724998 -6.3740001 3.8599999
39.948002 -6.3070002 3.881
39.458 -5.829 3.8310001
39.372002 -5.7179999 3.822
39.348999 -5.52 3.819
39.363998 -5.4250002 3.8199999
39.152 -4.2919998 3.7939999
38.896999 -4.1760001 3.7690001
38.964001 -4.0970001 3.7750001
36.827 1.192 3.4749999
36.705002 1.2589999 3.4630001
36.615002 1.3279999 3.454
36.582001 1.4 3.451
36.561001 1.472 3.4489999
36.542999 1.546 3.447
36.528999 1.62 3.4449999
36.500999 1.694 3.4430001
36.481998 1.77 3.441
36.493999 1.847 3.4419999
36.493 1.925 3.4419999
36.592999 2.0090001 3.451
36.794998 2.099 3.471
36.523998 2.49 3.4460001
36.298 2.5569999 3.425
36.189999 2.6329999 3.415
36.146 2.7130001 3.4119999
36.125 2.796 3.4100001
36.073002 2.8759999 3.4059999
36.035999 2.9590001 3.4030001
36.032001 3.0439999 3.4030001
36.028 3.131 3.4030001
36.071999 3.2219999 3.408
36.207001 3.322 3.421
36.278 3.507 3.4289999
36.27 3.5969999 3.4289999
35.963001 3.6559999 3.401
35.77 3.727 3.3840001
35.661999 3.806 3.3740001
35.604 3.891 3.3699999
35.583 3.98 3.369
35.584999 4.072 3.3699999
35.521 4.1570001 3.365
35.519001 4.2490001 3.3659999
35.546001 4.3460002 3.369
35.693001 4.4590001 3.3840001
35.707001 4.5549998 3.3870001
35.834 4.6669998 3.4000001
35.780998 4.757 3.3959999
35.616001 4.8309999 3.382
35.455002 4.9060001 3.368
35.266998 4.9759998 3.3510001
35.176998 5.0599999 3.3440001
35.157001 5.1550002 3.3429999
35.098999 5.244 3.339
35.054001 5.335 3.3369999
35.082001 5.4369998 3.3410001
35.033001 5.5289998 3.3369999
35.199001 5.6550002 3.355
35.041 6.0310001 3.346
34.849998 6.0999999 3.3299999
34.740002 6.1820002 3.3210001
34.671001 6.2709999 3.316
34.632999 6.3660002 3.3139999
34.625999 6.467 3.3150001
34.577 6.5599999 3.312
34.558998 6.6599998 3.313
34.623001 6.776 3.3210001
34.93 6.941 3.352
34.870998 7.2459998 3.352
34.452 7.2639999 3.3139999
34.348999 7.3470001 3.306
34.306 7.4439998 3.3039999
34.245998 7.5359998 3.3010001
34.196999 7.632 3.2980001
34.18 7.7340002 3.299
34.168999 7.8379998 3.3
34.169998 7.9460001 3.302
34.402 8.1079998 3.3269999
34.235001 8.3940001 3.3180001
33.969002 8.4370003 3.2939999
33.839001 8.5129995 3.2839999
33.794998 8.6099997 3.2820001
33.751999 8.7080002 3.2809999
33.720001 8.809 3.28
33.672001 8.9049997 3.2780001
33.673 9.0150003 3.28
33.713001 9.1359997 3.2869999
34.002998 9.3249998 3.3180001
33.734001 9.585 3.3
33.529999 9.6370001 3.2820001
33.433998 9.7209997 3.276
33.369999 9.8129997 3.2720001
33.334 9.9139996 3.2720001
33.282001 10.01 3.2690001
33.249001 10.112 3.2690001
33.247002 10.223 3.2720001
33.338001 10.363 3.283
33.542 10.54 3.3069999
33.507 10.757 3.309
33.23 10.781 3.2850001
33.002998 10.82 3.2650001
32.897999 10.899 3.2579999
32.867001 11.001 3.2579999
32.817001 11.097 3.256
32.783001 11.199 3.256
32.776001 11.31 3.2579999
32.768002 11.42 3.2609999
32.894001 11.579 3.277
33.007999 11.733 3.2909999
32.900002 11.81 3.2839999
32.818001 11.895 3.279
32.700001 11.967 3.27
32.574001 12.035 3.2609999
32.478001 12.113 3.2550001
32.449001 12.217 3.2550001
32.416 12.319 3.256
32.377998 12.419 3.2550001
32.348 12.522 3.256
32.362 12.642 3.2609999
32.485001 12.805 3.276
32.495998 12.925 3.2809999
32.535 13.057 3.289
32.375999 13.108 3.276
32.228001 13.164 3.2650001
32.037998 13.201 3.2490001
32.002998 13.301 3.2490001
31.945999 13.392 3.247
31.93 13.5 3.2490001
31.879999 13.594 3.2479999
31.874001 13.706 3.2509999
31.948 13.853 3.2620001
32.195999 14.077 3.2909999
32.098999 14.151 3.2850001
32.050999 14.245 3.2839999
31.900999 14.295 3.273
31.745001 14.34 3.2609999
31.639999 14.408 3.2539999
31.621 14.514 3.256
31.58 14.61 3.256
31.535999 14.704 3.2550001
31.483999 14.795 3.2539999
31.523001 14.928 3.2620001
31.66 15.109 3.28
31.73 15.258 3.2909999
31.723 15.371 3.2950001
31.627001 15.439 3.289
31.497999 15.492 3.28
31.225 15.472 3.2550001
31.167999 15.557 3.2539999
31.114 15.645 3.2520001
31.111 15.757 3.256
31.079 15.855 3.257
31.004 15.93 3.253
31.061001 16.073 3.263
31.219 16.268999 3.2839999
31.351999 16.568001 3.3069999
31.149 16.575001 3.29
31.187 16.709 3.2980001
30.983 16.714001 3.2809999
30.862 16.761999 3.273
30.804001 16.843 3.2709999
30.768999 16.936001 3.2720001
30.75 17.038 3.2739999
30.712 17.129 3.2750001
30.686001 17.226999 3.277
30.729 17.362 3.286
30.593 17.952999 3.299
30.408001 17.954 3.283
30.330999 18.018 3.28
30.329 18.127001 3.2839999
30.259001 18.194 3.2809999
30.239 18.290001 3.2839999
30.17 18.357 3.2809999
30.228001 18.500999 3.2920001
30.395 18.711 3.3150001
29.958 19.396 3.3099999
29.909 19.468 3.3099999
29.881001 19.554001 3.312
29.962999 19.711 3.326
29.899 19.771999 3.3239999
29.884001 19.865 3.3269999
43.083 -16.469 4.415
43.060001 -16.333 4.4120002
43.244999 -16.275 4.4299998
42.341999 -13.683 4.3200002
42.307999 -13.547 4.316
42.439999 -13.464 4.3280001
41.991001 -12.703 4.2779999
42.021 -12.589 4.2800002
41.568001 -11.232 4.224
41.567001 -11.11 4.223
41.522999 -10.976 4.217
41.174 -10.16 4.1760001
41.039001 -10.007 4.1609998
41.167999 -9.9180002 4.1729999
41.215 -9.8079996 4.177
18.671 -4.1700001 1.89
18.694 -4.1209998 1.892
40.299 -7.8260002 4.0689998
40.195 -7.6890001 4.0580001
40.209999 -7.5749998 4.0580001
40.243 -7.4640002 4.0609999
38.858002 -4.7249999 3.8989999
38.867001 -4.6129999 3.8989999
38.562 -3.573 3.859
38.584 -3.4630001 3.8599999
36.798 1.461 3.5320001
36.797001 1.515 3.5320001
36.706001 1.566 3.5220001
36.736 1.623 3.5250001
36.609001 1.674 3.513
36.644001 1.733 3.516
36.605 1.789 3.5120001
36.566002 1.846 3.5079999
36.581001 1.9069999 3.5090001
36.673 1.972 3.5179999
36.334 2.5309999 3.487
36.223999 2.5910001 3.4760001
36.120998 2.652 3.467
36.133999 2.7219999 3.4690001
36.150002 2.793 3.47
36.051998 2.8559999 3.4619999
36.034 2.9260001 3.46
36.063 3 3.464
36.036999 3.0710001 3.4619999
36.263 3.164 3.484
36.242001 3.237 3.483
35.900002 3.5869999 3.454
35.747002 3.6489999 3.441
35.68 3.721 3.4349999
35.618 3.7939999 3.4300001
35.606998 3.872 3.4300001
35.569 3.948 3.428
35.566002 4.0289998 3.4289999
35.512001 4.1040001 3.425
35.549 4.191 3.4289999
35.613998 4.2810001 3.437
35.763 4.3829999 3.4530001
35.861 4.4809999 3.4630001
35.886002 4.5689998 3.467
35.659 4.6259999 3.447
35.629002 4.7090001 3.4449999
35.5 4.7789998 3.434
35.265999 4.8340001 3.4130001
35.221001 4.915 3.411
35.206001 5.0009999 3.411
35.185001 5.0869999 3.4100001
35.132999 5.1690001 3.4070001
35.097 5.2529998 3.405
35.055 5.3369999 3.4030001
35.084 5.4320002 3.408
35.169998 5.5370002 3.418
35.331001 5.6550002 3.4349999
35.004002 5.9770002 3.411
34.825001 6.0409999 3.3959999
34.723 6.118 3.388
34.712002 6.211 3.3889999
34.662998 6.2989998 3.3870001
34.633999 6.3899999 3.3859999
34.605999 6.4809999 3.385
34.595001 6.5770001 3.3870001
34.598 6.6750002 3.3889999
34.752998 6.8039999 3.4070001
35.027 6.9580002 3.4360001
34.499001 7.2550001 3.3940001
34.34 7.323 3.381
34.286999 7.4130001 3.3789999
34.257999 7.5089998 3.378
34.209 7.6009998 3.3759999
34.150002 7.691 3.3729999
34.153999 7.796 3.3759999
34.159 7.901 3.3789999
34.255001 8.0279999 3.392
34.181999 8.4359999 3.3959999
33.945999 8.4840002 3.3759999
33.824001 8.5609999 3.3670001
33.755001 8.651 3.3629999
33.75 8.757 3.365
33.699001 8.8520002 3.3629999
33.655998 8.9499998 3.362
33.639 9.0539999 3.3640001
33.750999 9.1940002 3.378
33.881001 9.3409996 3.395
33.715 9.6289997 3.388
33.521 9.6859999 3.372
33.415001 9.7670002 3.365
33.363998 9.8649998 3.3629999
33.310001 9.9619999 3.3610001
33.261002 10.06 3.3599999
33.247002 10.169 3.362
33.237 10.281 3.3640001
33.334 10.426 3.378
33.415001 10.8 3.3970001
33.105 10.816 3.369
32.959999 10.885 3.359
32.865002 10.97 3.3529999
32.817001 11.07 3.352
32.792 11.179 3.3529999
32.766998 11.288 3.3540001
32.748001 11.4 3.3559999
32.842999 11.552 3.3699999
32.941002 11.706 3.3840001
32.955002 11.831 3.3900001
32.787998 11.892 3.3770001
32.653 11.963 3.3670001
32.534 12.039 3.359
32.469002 12.136 3.3559999
32.423 12.24 3.3559999
32.383999 12.346 3.3559999
32.363998 12.46 3.358
32.370998 12.585 3.3629999
32.422001 12.728 3.3729999
32.513 12.887 3.3870001
32.424999 12.976 3.382
32.312 13.055 3.375
32.113998 13.099 3.359
32.035 13.191 3.355
31.962 13.285 3.352
31.934 13.398 3.3540001
31.903 13.509 3.355
31.885 13.627 3.358
31.989 13.798 3.3729999
32.124001 13.984 3.392
32.044998 14.077 3.3889999
32.013 14.191 3.3900001
31.841 14.242 3.3770001
31.679001 14.297 3.365
31.636 14.405 3.365
31.607 14.52 3.3670001
31.565001 14.63 3.3670001
31.52 14.737 3.3670001
31.537001 14.875 3.3740001
31.679001 15.072 3.3940001
31.681 15.204 3.4000001
31.656 15.324 3.402
31.533001 15.395 3.3940001
31.299999 15.413 3.3740001
31.209 15.499 3.3699999
31.162001 15.607 3.3699999
31.098 15.706 3.368
31.066999 15.822 3.3699999
31.02 15.931 3.3699999
31.108 16.108999 3.385
31.263 16.323 3.408
31.268 16.461 3.414
31.207001 16.563 3.4130001
31.129 16.657 3.4100001
30.900999 16.67 3.3900001
30.759001 16.728001 3.3800001
30.728001 16.844999 3.382
30.719999 16.976999 3.3870001
30.664 17.080999 3.3870001
30.615999 17.190001 3.3870001
30.604 17.32 3.392
30.724001 17.524 3.411
30.834999 17.726 3.4289999
30.673 18.048 3.4289999
30.358999 18.002001 3.3989999
30.250999 18.075001 3.3929999
30.186001 18.174999 3.392
30.141001 18.285999 3.3929999
30.072001 18.382999 3.391
30.052999 18.51 3.395
30 18.617001 3.395
29.997 18.754 3.401
30.242001 19.048 3.4349999
31.237 19.969 3.5610001
31.145 20.056999 3.5569999
29.979 19.59 3.437
29.819 19.628 3.425
29.667999 19.67 3.414
29.580999 19.754999 3.4100001
29.521 19.856001 3.4100001
29.469999 19.964001 3.4100001
29.424 20.076 3.4119999
29.374001 20.184 3.4119999
29.302999 20.278 3.411
29.226 20.368 3.408
29.222 20.507999 3.414
29.177 20.620001 3.4159999
29.187 20.771 3.424
29.339001 21.024 3.448
29.891001 21.568001 3.52
43.217999 -16.282 4.4790001
43.115002 -16.070999 4.4660001
43.136002 -15.909 4.4660001
43.227001 -15.772 4.473
42.286999 -13.523 4.3540001
42.432999 -13.417 4.3670001
41.953999 -12.673 4.3119998
41.949001 -12.525 4.3099999
41.897999 -12.365 4.303
42.016998 -12.256 4.3140001
41.276001 -10.54 4.2220001
41.153999 -10.378 4.2090001
18.694 -4.309 1.908
18.712 -4.256 1.909
40.601002 -8.993 4.1409998
40.527 -8.8570004 4.132
40.596001 -8.7519999 4.138
40.359001 -8.2329998 4.1100001
40.284 -8.1029997 4.1020002
40.161999 -7.9650002 4.0879998
40.16 -7.8509998 4.0869999
40.213001 -7.7490001 4.092
40.216 -7.638 4.0910001
39.942001 -7.1479998 4.0599999
39.827999 -7.02 4.0479999
39.318001 -5.5149999 3.987
39.262001 -5.4109998 3.98
39.316002 -5.323 3.9849999
39.297001 -5.2249999 3.983
38.928001 -4.6240001 3.9430001
38.993 -4.5409999 3.9489999
39.014 -4.454 3.95
38.884998 -4.3499999 3.937
38.962002 -4.2709999 3.944
38.963001 -4.1830001 3.944
38.974998 -4.0970001 3.9449999
38.486 -3.056 3.892
38.48 -2.9760001 3.891
38.533001 -2.747 3.8959999
38.488998 -2.6670001 3.892
37.222 0.85900003 3.6900001
36.997002 0.92199999 3.6670001
37.071999 0.99299997 3.674
36.981998 1.131 3.664
36.837002 1.197 3.6489999
36.612 1.261 3.6259999
36.640999 1.334 3.6289999
36.612 1.406 3.6259999
36.611 1.479 3.6259999
36.584 1.552 3.6229999
36.527 1.624 3.6170001
36.540001 1.701 3.618
36.473999 1.774 3.612
36.442001 1.849 3.609
36.535 1.931 3.618
36.599998 2.013 3.6240001
36.695 2.098 3.6340001
36.724998 2.1800001 3.6370001
36.696999 2.2590001 3.635
36.721001 2.342 3.6370001
36.472 2.49 3.6129999
36.259998 2.5580001 3.5929999
36.165001 2.635 3.5840001
36.096001 2.7130001 3.5769999
36.057999 2.7939999 3.5739999
36.035999 2.8770001 3.572
35.990002 2.9590001 3.5680001
35.98 3.0439999 3.5680001
35.981998 3.1300001 3.569
36.09 3.227 3.5799999
36.203999 3.325 3.592
36.256001 3.4189999 3.598
36.259998 3.599 3.5999999
35.957001 3.6589999 3.5710001
35.702999 3.723 3.5469999
35.643002 3.8069999 3.5420001
35.601002 3.8929999 3.5380001
35.578999 3.9820001 3.5369999
35.541 4.0700002 3.5339999
35.516998 4.1589999 3.533
35.501999 4.25 3.533
35.532001 4.3470001 3.5369999
35.714001 4.4640002 3.556
35.741001 4.5630002 3.5599999
35.787998 4.664 3.566
35.673 4.7449999 3.556
35.519001 4.8210001 3.5420001
35.375999 4.8979998 3.529
35.222 4.973 3.5150001
35.152 5.059 3.5090001
35.146999 5.1560001 3.51
35.117001 5.2490001 3.5090001
35.058998 5.3379998 3.5050001
35.002998 5.428 3.5009999
35.062 5.5359998 3.5079999
35.243 5.664 3.5280001
34.963001 6.02 3.507
34.805 6.0939999 3.493
34.745998 6.1849999 3.4890001
34.664001 6.2719998 3.4820001
34.658001 6.3730001 3.483
34.604 6.4650002 3.48
34.568001 6.5609999 3.4779999
34.613998 6.6729999 3.4849999
34.702 6.7930002 3.4960001
34.550999 7.1810002 3.4890001
34.416 7.2579999 3.4779999
34.316002 7.342 3.47
34.251999 7.434 3.4649999
34.23 7.5349998 3.4649999
34.169998 7.6279998 3.4619999
34.160999 7.7319999 3.4630001
34.134998 7.8330002 3.4630001
34.275002 7.9720001 3.4790001
34.465 8.125 3.5009999
34.041 8.3479996 3.4660001
33.926998 8.4280005 3.4560001
33.837002 8.5139999 3.45
33.771 8.6059999 3.4460001
33.750999 8.71 3.4460001
33.702999 8.8059998 3.444
33.676998 8.908 3.444
33.675999 9.0179996 3.447
33.791 9.1590004 3.461
33.844002 9.2840004 3.47
33.824001 9.5 3.473
33.667 9.5670004 3.46
33.495998 9.6300001 3.4449999
33.407001 9.7150002 3.4389999
33.370998 9.816 3.438
33.308998 9.9090004 3.4349999
33.284 10.012 3.4349999
33.256001 10.116 3.4349999
33.234001 10.221 3.4360001
33.338001 10.365 3.45
33.400002 10.724 3.4660001
33.200001 10.773 3.448
33.004002 10.822 3.431
32.910999 10.905 3.425
32.855 10.999 3.4219999
32.826 11.102 3.4230001
32.792999 11.204 3.4219999
32.759998 11.306 3.4219999
32.764 11.421 3.4260001
32.898998 11.582 3.444
33.026001 11.742 3.461
32.924999 11.82 3.4530001
32.820999 11.898 3.4460001
32.685001 11.963 3.4349999
32.537998 12.023 3.4230001
32.471001 12.113 3.4200001
32.431 12.212 3.4189999
32.397999 12.314 3.4189999
32.355 12.412 3.4189999
32.327 12.515 3.4189999
32.341999 12.636 3.425
32.519001 12.821 3.447
32.555 12.951 3.4549999
32.452999 13.026 3.448
32.391998 13.117 3.4449999
32.216 13.161 3.4300001
32.039001 13.203 3.415
31.997 13.301 3.415
31.965 13.402 3.415
31.91 13.494 3.4130001
31.884001 13.598 3.414
31.874001 13.708 3.4170001
31.945999 13.855 3.4289999
32.019001 14.002 3.441
32.151001 14.176 3.4590001
32.050999 14.248 3.4519999
31.945 14.317 3.4449999
31.761 14.35 3.4289999
31.650999 14.415 3.4219999
31.584 14.499 3.4189999
31.551001 14.599 3.4189999
31.535 14.706 3.4219999
31.488001 14.799 3.421
31.49 14.915 3.425
31.612 15.088 3.4430001
31.739 15.265 3.461
31.67 15.348 3.4579999
31.6 15.429 3.4549999
31.49 15.49 3.447
31.289 15.506 3.4289999
31.195 15.574 3.424
31.129 15.655 3.421
31.099001 15.754 3.4219999
31.076 15.856 3.424
31.031 15.947 3.4230001
31.032 16.061001 3.428
31.222 16.274 3.4530001
31.386999 16.475 3.4760001
31.253 16.518999 3.4660001
31.434 16.73 3.4909999
31.294001 16.77 3.48
30.989 16.719999 3.451
30.854 16.76 3.4400001
30.764 16.823999 3.4349999
30.733999 16.92 3.4360001
30.674999 17 3.4349999
30.687 17.118999 3.441
30.663 17.216999 3.4430001
30.723 17.363001 3.454
30.833 17.538 3.471
30.575001 17.945999 3.467
30.459 17.988001 3.4579999
30.336 18.025 3.4489999
30.26 18.09 3.4460001
30.284 18.212999 3.4530001
30.243 18.297001 3.454
30.223 18.393 3.4560001
30.224001 18.502001 3.4619999
30.417 18.73 3.4890001
30.039 19.348 3.4860001
29.976 19.412001 3.484
29.906 19.471001 3.4809999
29.941999 19.599001 3.49
29.834999 19.632 3.483
29.907 19.783001 3.497
29.791 19.809 3.4879999
43.028999 -16.457001 4.6030002
43.102001 -16.357 4.6100001
43.174 -16.256001 4.6170001
42.683998 -15.06 4.5560002
42.683998 -14.934 4.5549998
42.25 -13.658 4.5
42.337002 -13.562 4.5079999
42.344002 -13.439 4.5079999
41.886002 -12.429 4.4520001
41.942001 -12.322 4.4569998
42.027 -12.224 4.4650002
41.608002 -11.612 4.4159999
41.562 -11.477 4.4099998
41.424 -11.317 4.395
41.573002 -11.236 4.4089999
41.092999 -10.022 4.349
41.022999 -9.8839998 4.3410001
18.811001 -4.257 1.988
18.672001 -4.171 1.973
18.775999 -4.1399999 1.983
40.573002 -8.8269997 4.2849998
40.660999 -8.7270002 4.2930002
40.23 -7.8130002 4.2399998
40.174 -7.6849999 4.2329998
40.257 -7.5830002 4.2410002
40.220001 -7.4590001 4.2360001
39.844002 -6.9250002 4.1919999
39.749001 -6.7930002 4.1810002
39.637001 -6.6589999 4.1680002
39.708 -6.5549998 4.1739998
39.771 -6.4499998 4.1799998
39.373001 -5.6989999 4.132
39.386002 -5.586 4.132
39.257 -5.454 4.1170001
39.481998 -5.3709998 4.1399999
39.166 -5.2140002 4.1059999
38.998001 -4.7389998 4.0840001
38.916 -4.6170001 4.0739999
38.923 -4.5050001 4.0739999
38.797001 -4.3779998 4.059
38.918999 -4.2789998 4.0710001
38.93 -4.1669998 4.0710001
38.692001 -3.8050001 4.0430002
38.662998 -3.691 4.039
38.598999 -3.573 4.0310001
38.403999 -3.444 4.0089998
38.393002 -3.3310001 4.007
38.466999 -3.2260001 4.0139999
38.446999 -3.1140001 4.0110002
36.705002 1.516 3.6949999
36.723999 1.572 3.697
36.675999 1.625 3.6919999
36.551998 1.676 3.6789999
36.584999 1.735 3.6819999
36.584 1.793 3.6819999
36.525002 1.849 3.6760001
36.563999 1.91 3.6789999
36.624001 1.974 3.6849999
36.650002 2.036 3.688
36.615002 2.0969999 3.684
36.616001 2.1600001 3.6849999
36.578999 2.221 3.681
36.529999 2.283 3.6760001
36.568001 2.3499999 3.6800001
36.397999 2.405 3.6630001
36.466999 2.4760001 3.671
36.279999 2.5309999 3.652
36.153 2.5899999 3.6400001
36.137001 2.6570001 3.6389999
36.060001 2.72 3.631
36.074001 2.7909999 3.6329999
36.040001 2.859 3.6300001
36.037998 2.9300001 3.631
36.012001 3 3.6289999
36.037998 3.0739999 3.632
36.136002 3.1559999 3.6429999
36.174 3.234 3.6470001
36.152 3.3069999 3.6459999
36.166 3.3840001 3.648
36.049 3.45 3.6370001
35.993999 3.5220001 3.6329999
35.888 3.589 3.6229999
35.728001 3.6500001 3.608
35.667 3.723 3.6029999
35.629002 3.7980001 3.5999999
35.608002 3.875 3.599
35.560001 3.95 3.596
35.498001 4.0240002 3.5910001
35.556999 4.112 3.598
35.491001 4.1869998 3.592
35.630001 4.2859998 3.608
35.743 4.3839998 3.6210001
35.714001 4.4650002 3.619
35.706001 4.5489998 3.6199999
35.695 4.6339998 3.6199999
35.577 4.7049999 3.6099999
35.423 4.7709999 3.596
35.285 4.8390002 3.5840001
35.216999 4.9169998 3.5780001
35.162998 4.9980001 3.575
35.129002 5.0809999 3.573
35.117001 5.1690001 3.573
35.081001 5.2529998 3.572
35.043999 5.3379998 3.5699999
35.066002 5.4320002 3.5739999
35.113998 5.5310001 3.5810001
35.341 5.6589999 3.6059999
35.125999 6 3.592
34.819 6.0419998 3.563
34.742001 6.1230001 3.5580001
34.687 6.2090001 3.5539999
34.683998 6.3039999 3.556
34.640999 6.3930001 3.5539999
34.619999 6.4860001 3.5539999
34.569 6.5739999 3.552
34.575001 6.6729999 3.5550001
34.701 6.796 3.5699999
34.52 7.2610002 3.5650001
34.335999 7.3239999 3.5480001
34.262001 7.4099998 3.543
34.241001 7.5079999 3.5439999
34.207001 7.6030002 3.543
34.151001 7.6929998 3.54
34.141998 7.7950001 3.5420001
34.139999 7.8979998 3.5450001
34.178001 8.0120001 3.552
34.428001 8.177 3.5810001
34.337002 8.4759998 3.5810001
33.964001 8.4910002 3.5450001
33.848 8.5690002 3.536
33.803001 8.665 3.5350001
33.744999 8.7580004 3.5320001
33.700001 8.8540001 3.5309999
33.636002 8.9460001 3.527
33.619999 9.0509996 3.529
33.671001 9.1739998 3.5380001
33.862999 9.3380003 3.5610001
33.845001 9.6680002 3.5699999
33.522999 9.6879997 3.54
33.402 9.7650003 3.5309999
33.321999 9.8540001 3.526
33.287998 9.9569998 3.526
33.231998 10.053 3.5239999
33.209 10.16 3.5250001
33.188 10.267 3.527
33.284 10.412 3.5409999
33.470001 10.586 3.5639999
33.353001 10.781 3.5599999
33.125999 10.824 3.54
32.952999 10.884 3.5250001
32.861 10.97 3.52
32.821999 11.074 3.5190001
32.785 11.178 3.5190001
32.758999 11.287 3.5209999
32.763 11.407 3.5250001
32.867001 11.562 3.5409999
32.973999 11.72 3.5569999
32.945 11.83 3.5580001
32.754002 11.881 3.5420001
32.615002 11.951 3.5309999
32.506001 12.031 3.5239999
32.463001 12.136 3.5239999
32.411999 12.238 3.5220001
32.362 12.34 3.5209999
32.346001 12.455 3.5239999
32.339001 12.575 3.5280001
32.400002 12.721 3.539
32.477001 12.875 3.552
32.41 12.972 3.55
32.368999 13.08 3.55
32.143002 13.113 3.53
32.008999 13.182 3.52
31.965 13.288 3.52
31.950001 13.407 3.523
31.902 13.512 3.523
31.875999 13.626 3.5250001
32.002998 13.807 3.5439999
32.140999 13.994 3.5639999
32.095001 14.101 3.5639999
31.993 14.184 3.5580001
31.781 14.217 3.539
31.665001 14.293 3.5320001
31.610001 14.396 3.5309999
31.561001 14.502 3.53
31.537001 14.619 3.533
31.511 14.736 3.5350001
31.542 14.88 3.5439999
31.653999 15.063 3.562
31.608 15.172 3.562
31.677999 15.337 3.576
31.500999 15.383 3.5610001
31.282 15.407 3.5420001
31.201 15.498 3.5380001
31.148001 15.603 3.5380001
31.104 15.712 3.5380001
31.045 15.814 3.5369999
31.039 15.943 3.5420001
31.158001 16.138 3.5610001
31.283001 16.337 3.582
31.209 16.433001 3.579
31.164 16.544001 3.5799999
31.111 16.650999 3.579
30.851999 16.646999 3.5550001
30.757999 16.73 3.55
30.701 16.834 3.55
30.697001 16.966999 3.5550001
30.635 17.068001 3.5539999
30.598 17.183001 3.556
30.665001 17.358 3.5699999
30.891001 17.622999 3.602
30.792999 17.705999 3.5969999
30.789 17.841999 3.6029999
30.719 17.940001 3.6010001
30.551001 17.98 3.5869999
30.353001 18.002001 3.5699999
30.226999 18.065001 3.562
30.164 18.166 3.5610001
30.117001 18.275999 3.562
30.073 18.386999 3.563
30.035999 18.504 3.5650001
30.004999 18.624001 3.5669999
30.108999 18.829 3.586
29.927999 19.562 3.605
29.778999 19.606001 3.5929999
29.645 19.66 3.5840001
29.548 19.737 3.579
29.497999 19.846001 3.5799999
29.443001 19.952 3.5799999
29.372999 20.046 3.5780001
29.308001 20.143999 3.5769999
29.298 20.280001 3.5829999
29.256001 20.393999 3.585
29.184 20.488001 3.5829999
29.153999 20.608999 3.586
29.184999 20.775 3.5969999
29.98 21.49 3.7030001
29.875999 21.563999 3.697
43.164001 -16.09 4.6630001
43.148998 -15.913 4.6589999
42.292 -13.678 4.5440001
42.327999 -13.537 4.546
41.569 -11.426 4.4429998
41.421001 -11.248 4.4260001
18.694 -4.309 1.99
18.700001 -4.2540002 1.99
40.546001 -8.9809999 4.3130002
40.595001 -8.8719997 4.3169999
40.299 -8.3369999 4.2810001
40.283001 -8.2180004 4.2779999
40.139 -7.96 4.2610002
40.171001 -7.8530002 4.2639999
40.131001 -7.7329998 4.2579999
39.681 -6.1620002 4.1999998
39.522999 -6.0370002 4.1820002
39.377998 -5.816 4.165
39.367001 -5.7160001 4.164
39.346001 -5.6160002 4.1609998
39.312 -5.5139999 4.1570001
39.333 -5.4200001 4.158
39.415001 -5.336 4.1659999
38.946999 -4.4460001 4.1129999
38.944 -4.3559999 4.112
38.825001 -4.1680002 4.098
38.904999 -4.0890002 4.1059999
38.877998 -4 4.1030002
38.828999 -3.8239999 4.0970001
38.84 -3.74 4.098
37.063 0.597 3.8510001
37.028 0.66100001 3.8469999
36.977001 0.72500002 3.8410001
37 0.792 3.842
36.935001 0.85799998 3.835
36.948002 0.926 3.836
36.887001 0.99299997 3.829
36.852001 1.062 3.825
36.855999 1.132 3.825
36.771 1.2 3.816
36.652 1.267 3.803
36.638 1.339 3.8010001
36.612999 1.41 3.799
36.591999 1.483 3.796
36.569 1.556 3.7939999
36.532001 1.6289999 3.79
36.493 1.7029999 3.786
36.490002 1.779 3.7850001
36.535999 1.858 3.79
36.539001 1.936 3.7909999
36.557999 2.0150001 3.793
36.509998 2.092 3.7880001
36.463001 2.1689999 3.783
36.465 2.2490001 3.7839999
36.414001 2.3269999 3.779
36.361 2.405 3.7739999
36.326 2.484 3.77
36.210999 2.559 3.7590001
36.130001 2.6359999 3.7509999
36.097 2.717 3.7479999
36.047001 2.7969999 3.743
36.021999 2.8800001 3.7409999
35.993999 2.9630001 3.7390001
35.951 3.0450001 3.7349999
35.988998 3.135 3.74
35.984001 3.221 3.74
36.026001 3.313 3.7449999
36.042 3.402 3.7479999
36.009998 3.4879999 3.7449999
35.931 3.5699999 3.7379999
35.895 3.6559999 3.7349999
35.801998 3.737 3.7260001
35.660999 3.812 3.7130001
35.618999 3.8989999 3.7090001
35.59 3.987 3.707
35.549 4.0739999 3.704
35.525002 4.1630001 3.7030001
35.497002 4.2529998 3.701
35.556 4.3540001 3.7090001
35.583 4.4510002 3.7130001
35.606998 4.5489998 3.7160001
35.560001 4.638 3.7130001
35.508999 4.7259998 3.7090001
35.473 4.8179998 3.707
35.397999 4.9039998 3.7
35.172001 4.9689999 3.678
35.167999 5.0650001 3.6789999
35.105999 5.1529999 3.674
35.074001 5.2449999 3.6719999
35.042999 5.3379998 3.671
35.009998 5.4320002 3.6689999
35.044998 5.5359998 3.674
35.124001 5.6479998 3.684
35.175999 5.756 3.6919999
35.145 5.8520002 3.6900001
35.137001 5.9520001 3.691
35.014999 6.0320001 3.6800001
34.799999 6.0960002 3.6600001
34.721001 6.1830001 3.6530001
34.651001 6.2719998 3.648
34.632999 6.3709998 3.648
34.59 6.4650002 3.6459999
34.537998 6.5580001 3.642
34.573002 6.6669998 3.648
34.665001 6.789 3.6600001
34.785999 6.9169998 3.675
34.827 7.1350002 3.684
34.602001 7.1939998 3.6619999
34.362999 7.25 3.6389999
34.299 7.3410001 3.635
34.237999 7.4330001 3.631
34.185001 7.527 3.6270001
34.144001 7.6240001 3.625
34.137001 7.7290001 3.6270001
34.145 7.8369999 3.631
34.243 7.967 3.6440001
34.424999 8.118 3.665
34.168999 8.382 3.6459999
33.876999 8.4180002 3.618
33.820999 8.5120001 3.6140001
33.785999 8.6120005 3.6129999
33.752998 8.7119999 3.6129999
33.698002 8.8070002 3.6099999
33.660999 8.9060001 3.608
33.645 9.0109997 3.6099999
33.813 9.1669998 3.631
33.984001 9.3240004 3.652
33.632999 9.5600004 3.6229999
33.493999 9.6309996 3.6110001
33.363998 9.7040005 3.5999999
33.332001 9.8059998 3.5999999
33.292 9.9060001 3.599
33.252998 10.005 3.598
33.219002 10.107 3.5969999
33.199001 10.212 3.599
33.337002 10.367 3.6170001
33.540001 10.544 3.642
33.455002 10.744 3.6400001
33.138 10.755 3.609
32.977001 10.816 3.595
32.905998 10.905 3.5899999
32.862 11.003 3.589
32.832001 11.106 3.589
32.778 11.201 3.5869999
32.747002 11.304 3.5869999
32.790001 11.432 3.595
32.921001 11.592 3.6129999
32.988998 11.731 3.6240001
32.903999 11.815 3.619
32.818001 11.899 3.6129999
32.643002 11.95 3.5969999
32.507999 12.014 3.586
32.444 12.105 3.5829999
32.410999 12.207 3.5829999
32.342999 12.295 3.579
32.344002 12.41 3.5829999
32.313 12.513 3.5840001
32.387001 12.656 3.596
32.498001 12.815 3.612
32.473999 12.921 3.6140001
32.435001 13.021 3.6129999
32.347 13.101 3.608
32.193001 13.154 3.5940001
32.028999 13.201 3.5799999
31.986 13.298 3.579
31.976 13.409 3.582
31.917 13.499 3.5799999
31.847 13.584 3.576
31.886999 13.716 3.585
32.008999 13.885 3.6029999
32.060001 14.022 3.6129999
32.035999 14.128 3.615
32.018002 14.236 3.6170001
31.888 14.294 3.6070001
31.684999 14.318 3.5880001
31.597 14.393 3.582
31.556999 14.489 3.582
31.554001 14.603 3.586
31.48 14.684 3.582
31.476 14.797 3.586
31.49 14.918 3.592
31.669001 15.118 3.6170001
31.690001 15.244 3.6240001
31.666 15.349 3.6259999
31.583 15.424 3.6210001
31.485001 15.491 3.615
31.249001 15.489 3.592
31.164 15.561 3.5869999
31.125999 15.657 3.5880001
31.058001 15.736 3.5840001
31.065001 15.854 3.5899999
31.044001 15.957 3.592
31.059 16.077999 3.599
31.221001 16.277 3.622
31.32 16.443001 3.6389999
31.320999 16.558001 3.6440001
31.225 16.622 3.638
31.128 16.684999 3.631
30.948999 16.702 3.615
30.806 16.738001 3.6029999
30.764999 16.827999 3.6040001
30.709 16.91 3.602
30.694 17.014 3.605
30.667 17.111 3.6070001
30.66 17.219 3.6110001
30.719 17.365 3.6229999
30.724001 17.927 3.6500001
30.589001 17.959 3.6389999
30.422001 17.971001 3.6240001
30.341 18.033001 3.6199999
30.302 18.118999 3.6199999
30.26 18.202999 3.6199999
30.209 18.281 3.6199999
30.224001 18.399 3.6270001
30.201 18.493 3.6289999
30.323999 18.677 3.6489999
30.066999 19.266001 3.6559999
30.062 19.368 3.661
29.903 19.371 3.6470001
29.823 19.423 3.6429999
29.865999 19.555 3.6530001
29.747999 19.580999 3.6440001
29.826 19.735001 3.6589999
42.999001 -16.580999 4.7950001
42.985001 -16.448 4.7919998
43.048 -16.344 4.7979999
43.061001 -16.221001 4.7979999
42.361 -14.2 4.7059999
42.299 -14.054 4.698
42.337002 -13.817 4.6999998
42.313999 -13.684 4.6960001
41.409 -11.195 4.5760002
41.493999 -11.096 4.585
41.075001 -10.14 4.5310001
41.101002 -10.026 4.533
18.851 -4.2670002 2.076
18.652 -4.1669998 2.053
18.738001 -4.131 2.062
40.310001 -7.9460001 4.428
40.25 -7.8169999 4.4200001
40.248001 -7.6989999 4.4190001
40.192001 -7.5710001 4.4109998
39.759998 -6.9099998 4.3579998
39.755001 -6.7930002 4.3569999
39.791 -6.684 4.3590002
39.442001 -5.822 4.3130002
39.264999 -5.6820002 4.2930002
39.381001 -5.5840001 4.3039999
39.205002 -5.4450002 4.2839999
39.185001 -5.3280001 4.2810001
39.285 -5.2280002 4.29
38.948002 -4.7309999 4.2490001
38.889 -4.6110001 4.2410002
38.796001 -4.487 4.23
38.758999 -4.3709998 4.2249999
38.896999 -4.2729998 4.2389998
38.841999 -4.1550002 4.2319999
38.726002 -3.6930001 4.2140002
38.528999 -3.563 4.1919999
38.416 -3.441 4.178
38.431999 -3.3310001 4.1789999
37.005001 1.271 3.902
36.924999 1.319 3.8929999
36.875 1.368 3.8870001
36.82 1.419 3.881
36.716999 1.4680001 3.8699999
36.712002 1.521 3.869
36.658001 1.574 3.8629999
36.583 1.626 3.855
36.582001 1.682 3.8540001
36.555 1.738 3.8510001
36.52 1.794 3.8469999
36.494999 1.851 3.8440001
36.548 1.914 3.8499999
36.569 1.975 3.852
36.508999 2.033 3.846
36.525002 2.096 3.8469999
36.535 2.1589999 3.849
36.412998 2.2149999 3.836
36.408001 2.279 3.836
36.403999 2.3440001 3.835
36.334 2.405 3.8280001
36.321999 2.47 3.8269999
36.201 2.529 3.8150001
36.164001 2.5940001 3.812
36.113998 2.6589999 3.8069999
36.099998 2.727 3.806
36.001999 2.789 3.796
36.02 2.8610001 3.799
36.008999 2.931 3.7980001
35.965 2.9990001 3.7939999
36.005001 3.075 3.799
36.006001 3.148 3.8
36.028999 3.2249999 3.803
35.994999 3.296 3.8010001
35.937 3.3659999 3.7950001
35.921001 3.441 3.7950001
35.882 3.5139999 3.7920001
35.806 3.5840001 3.7850001
35.713001 3.652 3.776
35.674999 3.727 3.773
35.612 3.799 3.7679999
35.612 3.8789999 3.7690001
35.59 3.9560001 3.7679999
35.570999 4.0349998 3.767
35.515999 4.1100001 3.763
35.544998 4.1960001 3.767
35.497002 4.2729998 3.763
35.541 4.362 3.77
35.513 4.4429998 3.7679999
35.507 4.527 3.7690001
35.452999 4.605 3.7650001
35.410999 4.6859999 3.7620001
35.349998 4.7639999 3.757
35.243 4.836 3.7479999
35.216999 4.9200001 3.747
35.146 4.9980001 3.7409999
35.124001 5.0830002 3.7409999
35.076 5.165 3.737
35.063999 5.2529998 3.7379999
35.022999 5.3369999 3.7360001
35.039001 5.4299998 3.7390001
35.09 5.5289998 3.747
35.110001 5.625 3.7509999
35.071999 5.711 3.7490001
35.032001 5.7979999 3.747
34.972 5.882 3.743
34.919998 5.967 3.74
34.825001 6.0450001 3.7320001
34.752998 6.1279998 3.727
34.689999 6.2119999 3.7219999
34.652 6.3010001 3.721
34.641998 6.395 3.7219999
34.591 6.4829998 3.7190001
34.576 6.5770001 3.72
34.550999 6.6700001 3.72
34.647999 6.7880001 3.733
34.650002 6.888 3.7360001
34.598 6.9770002 3.733
34.591 7.0760002 3.7349999
34.548 7.1680002 3.733
34.405998 7.2389998 3.721
34.306999 7.3200002 3.7130001
34.247002 7.4089999 3.7090001
34.216999 7.5040002 3.7090001
34.164001 7.5949998 3.7060001
34.141998 7.6929998 3.707
34.118999 7.7909999 3.7079999
34.096001 7.8899999 3.7079999
34.203999 8.0200005 3.723
34.254002 8.1370001 3.7320001
34.254002 8.243 3.7349999
34.164001 8.3280001 3.7279999
34.117001 8.4230003 3.727
33.944 8.4879999 3.711
33.82 8.5640001 3.701
33.773998 8.6590004 3.6989999
33.716 8.7519999 3.6960001
33.695 8.8549995 3.698
33.646999 8.9510002 3.6960001
33.637001 9.0570002 3.698
33.731998 9.1929998 3.7119999
33.743 9.3059998 3.717
33.769001 9.4250002 3.724
33.705002 9.5179996 3.72
33.634998 9.6099997 3.717
33.473999 9.6759996 3.7019999
33.369999 9.7580004 3.6949999
33.317001 9.8549995 3.6930001
33.262001 9.9510002 3.691
33.237 10.057 3.6919999
33.182999 10.154 3.6900001
33.189999 10.27 3.6949999
33.293999 10.417 3.71
33.375999 10.558 3.723
33.319 10.656 3.721
33.212002 10.738 3.714
33.061001 10.805 3.701
32.904999 10.87 3.688
32.875 10.977 3.6889999
32.831001 11.079 3.688
32.771 11.176 3.6849999
32.752998 11.287 3.688
32.758999 11.407 3.6930001
32.855 11.56 3.7079999
32.935001 11.708 3.7219999
32.800999 11.78 3.711
32.731998 11.875 3.7079999
32.592999 11.945 3.697
32.460999 12.016 3.687
32.417 12.121 3.6860001
32.382999 12.229 3.687
32.325001 12.328 3.6849999
32.304001 12.442 3.688
32.360001 12.585 3.6989999
32.479 12.755 3.717
32.487 12.881 3.723
32.368 12.958 3.714
32.259998 13.039 3.707
32.112999 13.103 3.6949999
32.014 13.187 3.6889999
31.989 13.301 3.691
31.915001 13.394 3.688
31.899 13.513 3.691
31.870001 13.626 3.6930001
32.019001 13.816 3.7149999
32.077 13.968 3.727
32.027 14.074 3.727
31.917 14.153 3.7190001
31.721001 14.193 3.7019999
31.625999 14.278 3.6960001
31.575001 14.383 3.6960001
31.531 14.491 3.6960001
31.511999 14.61 3.6989999
31.465 14.717 3.6989999
31.531 14.878 3.7130001
31.697001 15.086 3.7379999
31.648001 15.194 3.7379999
31.584999 15.295 3.7360001
31.462 15.367 3.727
31.257 15.397 3.7090001
31.179001 15.49 3.7049999
31.134001 15.599 3.7060001
31.073999 15.7 3.7049999
31.051001 15.821 3.7079999
31.035999 15.945 3.7119999
31.120001 16.122 3.7279999
31.18 16.287001 3.7409999
31.169001 16.415001 3.7460001
31.121 16.525 3.7460001
31.009001 16.6 3.7390001
30.813999 16.629999 3.7219999
30.752001 16.731001 3.72
30.693001 16.834 3.7190001
30.639 16.938999 3.7190001
30.610001 17.058001 3.7219999
30.547001 17.159 3.721
30.551001 17.297001 3.7279999
30.728001 17.535 3.756
30.844999 17.74 3.776
30.671 17.778 3.7620001
30.643 17.9 3.7650001
30.533001 17.974001 3.7579999
30.319 17.986 3.7379999
30.198999 18.052999 3.73
30.145 18.158001 3.73
30.103001 18.271999 3.7309999
30.044001 18.374001 3.7309999
30.028 18.503 3.7360001
29.973 18.608999 3.7360001
29.958 18.739 3.74
30.224001 19.047001 3.7809999
31.243999 20.131001 3.9300001
31.101 20.186001 3.9189999
29.862 19.524 3.77
29.704 19.563 3.757
29.621 19.649 3.7539999
29.546 19.742001 3.7520001
29.455999 19.823 3.747
29.379999 19.914 3.7449999
29.316 20.013 3.744
29.299 20.143999 3.7490001
29.254999 20.256001 3.7509999
29.187 20.351999 3.7490001
29.15 20.469999 3.7520001
29.118 20.591 3.7550001
29.101999 20.723 3.7609999
29.117001 20.878 3.77
29.798 21.514 3.8659999
43.074001 -16.056 4.8460002
43.259998 -15.955 4.8639998
42.874001 -14.982 4.8099999
42.740002 -14.773 4.7930002
18.746 -4.3210001 2.0769999
18.704 -4.2550001 2.072
40.601002 -8.993 4.4959998
40.577999 -8.868 4.493
40.191002 -8.085 4.4429998
40.183998 -7.9689999 4.4419999
40.185001 -7.8559999 4.441
39.624001 -6.7719998 4.3709998
39.786999 -6.6950002 4.388
39.679001 -6.573 4.375
39.693001 -6.4710002 4.3759999
39.436001 -5.8249998 4.3429999
39.388 -5.7189999 4.3369999
39.342999 -5.6149998 4.3319998
39.264999 -5.507 4.322
39.316002 -5.4180002 4.3270001
39.312 -5.2259998 4.3260002
39.327 -5.1339998 4.3270001
39.268002 -5.0320001 4.3200002
39.226002 -4.9330001 4.3150001
39.186001 -4.744 4.309
39.036999 -4.6350002 4.2919998
38.951 -4.5349998 4.2820001
38.818001 -4.2529998 4.2659998
38.789001 -4.1630001 4.263
36.932999 0.60000002 4.0120001
36.915001 0.66399997 4.0089998
36.923 0.73000002 4.0089998
36.924 0.796 4.0089998
36.921001 0.86299998 4.0079999
36.827 0.92799997 3.997
36.861 0.99800003 4
36.807999 1.0650001 3.994
36.807999 1.135 3.994
36.641998 1.201 3.9749999
36.652 1.272 3.9760001
36.646 1.344 3.9749999
36.591999 1.414 3.9690001
36.558998 1.4859999 3.9649999
36.476002 1.557 3.9560001
36.508999 1.633 3.96
36.459999 1.706 3.954
36.459 1.7819999 3.954
36.464001 1.859 3.9549999
36.452 1.936 3.954
36.438999 2.013 3.9530001
36.437 2.092 3.9519999
36.418999 2.1700001 3.951
36.375 2.2479999 3.9460001
36.273998 2.322 3.9360001
36.313999 2.4059999 3.9400001
36.242001 2.483 3.9330001
36.120998 2.5569999 3.9200001
36.110001 2.638 3.9200001
36.040001 2.717 3.9130001
36.016998 2.799 3.911
35.985001 2.881 3.908
35.98 2.9649999 3.908
35.943001 3.0480001 3.905
35.929001 3.1329999 3.904
35.948002 3.221 3.9070001
35.980999 3.312 3.911
35.903 3.3929999 3.9030001
35.894001 3.48 3.904
35.882 3.5680001 3.9030001
35.721001 3.642 3.8870001
35.696999 3.7290001 3.885
35.637001 3.813 3.8800001
35.601002 3.9000001 3.8770001
35.57 3.9879999 3.875
35.530998 4.0749998 3.8710001
35.492001 4.1630001 3.869
35.490002 4.2550001 3.8699999
35.458 4.3449998 3.8670001
35.514999 4.4450002 3.875
35.459999 4.533 3.8699999
35.353001 4.6139998 3.8599999
35.393002 4.7140002 3.8659999
35.363998 4.8060002 3.8640001
35.292 4.8920002 3.858
35.166 4.9710002 3.846
35.113998 5.0599999 3.842
35.099998 5.1550002 3.842
35.054001 5.2449999 3.8380001
35.018002 5.3379998 3.836
35.007 5.434 3.8369999
35.043999 5.539 3.8429999
35.057999 5.6399999 3.846
35.042999 5.737 3.846
34.994999 5.8299999 3.8429999
34.959999 5.9239998 3.8410001
34.875 6.0110002 3.8340001
34.772999 6.0939999 3.825
34.714001 6.1849999 3.8199999
34.675999 6.2789998 3.8180001
34.643002 6.375 3.8169999
34.592999 6.4679999 3.813
34.560001 6.5640001 3.812
34.582001 6.671 3.816
34.618999 6.7820001 3.823
34.604 6.8829999 3.823
34.556 6.9780002 3.8199999
34.532001 7.0770001 3.8199999
34.474998 7.171 3.816
34.355 7.25 3.806
34.275002 7.3379998 3.799
34.216 7.4310002 3.7950001
34.201 7.533 3.796
34.132 7.6240001 3.7909999
34.113998 7.7259998 3.7909999
34.077999 7.8239999 3.79
34.155998 7.9489999 3.802
34.181999 8.0620003 3.8069999
34.146999 8.1619997 3.806
34.098 8.2580004 3.803
34.029999 8.3500004 3.799
33.907001 8.4280005 3.7880001
33.828999 8.5170002 3.7820001
33.769001 8.6099997 3.7780001
33.734001 8.71 3.777
33.712002 8.8129997 3.7780001
33.654999 8.9069996 3.7739999
33.669998 9.0200005 3.779
33.729 9.1459999 3.789
33.689999 9.2460003 3.7869999
33.678001 9.3529997 3.789
33.618999 9.4469995 3.786
33.59 9.5500002 3.786
33.453999 9.6219997 3.7739999
33.353001 9.7040005 3.7650001
33.316002 9.8039999 3.7650001
33.275002 9.9029999 3.763
33.242001 10.004 3.763
33.202999 10.104 3.7620001
33.173 10.207 3.7620001
33.273998 10.35 3.777
33.280998 10.464 3.7809999
33.248001 10.567 3.7809999
33.173 10.656 3.776
33.137001 10.757 3.7750001
32.999001 10.825 3.763
32.921001 10.912 3.7579999
32.862 11.005 3.7550001
32.838001 11.11 3.756
32.772999 11.202 3.7520001
32.745998 11.306 3.753
32.737 11.416 3.756
32.865002 11.575 3.7739999
32.806 11.668 3.7709999
32.789001 11.776 3.773
32.738998 11.873 3.7709999
32.623001 11.945 3.7620001
32.501999 12.015 3.7520001
32.423 12.099 3.747
32.386002 12.199 3.7460001
32.360001 12.304 3.747
32.326 12.406 3.7479999
32.282001 12.503 3.747
32.327 12.635 3.756
32.362999 12.764 3.7639999
32.351002 12.875 3.767
32.324001 12.979 3.7679999
32.271999 13.073 3.766
32.199001 13.159 3.7620001
32.048 13.212 3.7490001
31.993 13.304 3.747
31.940001 13.397 3.7449999
31.906 13.497 3.7449999
31.867001 13.596 3.7449999
31.879 13.716 3.7509999
31.955999 13.864 3.7639999
32.001999 14 3.7739999
31.962 14.098 3.7739999
31.905001 14.189 3.7720001
31.785999 14.251 3.7620001
31.648001 14.304 3.7509999
31.577999 14.388 3.747
31.556999 14.492 3.7490001
31.521 14.591 3.75
31.487 14.69 3.75
31.441 14.783 3.7490001
31.429001 14.892 3.753
31.540001 15.06 3.7709999
31.618999 15.213 3.7850001
31.465 15.254 3.7709999
31.513 15.393 3.7820001
31.466999 15.486 3.7809999
31.216 15.477 3.756
31.187 15.576 3.7579999
31.129999 15.662 3.756
31.080999 15.751 3.7550001
31.033001 15.841 3.7539999
31.007999 15.942 3.756
31.046 16.075001 3.7650001
31.195 16.267 3.789
31.221001 16.395 3.7969999
31.172001 16.483 3.796
31.093 16.556 3.7920001
31.082001 16.664 3.796
30.856001 16.656 3.773
30.794001 16.735001 3.7709999
30.684 16.788 3.7620001
30.686001 16.902 3.7679999
30.66 16.999001 3.77
30.631001 17.094999 3.7720001
30.625 17.204 3.776
30.697001 17.356001 3.79
30.476 17.896999 3.7950001
30.395 17.959 3.7909999
30.292999 18.009001 3.7839999
30.299 18.122 3.79
30.253 18.204 3.79
30.242001 18.306 3.7939999
30.159 18.364 3.789
30.245001 18.525 3.8050001
30.224001 19.264999 3.842
30.09 19.285999 3.8310001
30.025 19.35 3.8280001
29.877001 19.358999 3.8150001
29.804001 19.416 3.812
29.781 19.504999 3.8150001
29.736 19.579 3.8150001
29.789 19.716999 3.8269999
29.688999 19.753 3.8199999
42.932999 -16.436001 4.98
43.047001 -16.351999 4.9920001
42.291 -13.807 4.8839998
42.313 -13.689 4.8860002
42.117001 -13.003 4.8579998
41.897999 -12.812 4.8309999
41.452999 -11.209 4.7659998
41.355999 -11.062 4.7540002
18.790001 -4.2529998 2.152
18.657 -4.1690001 2.1359999
18.808001 -4.1469998 2.1530001
40.230999 -7.9299998 4.5970001
40.178001 -7.803 4.5900002
40.181 -7.6859999 4.5890002
39.917 -7.053 4.553
39.846001 -6.9239998 4.5430002
39.667 -6.6620002 4.5209999
39.723999 -6.5560002 4.526
39.812 -6.454 4.5349998
39.341999 -5.8060002 4.4749999
39.382 -5.697 4.4790001
39.310001 -5.572 4.4689999
39.188999 -5.441 4.454
39.240002 -5.3340001 4.4590001
38.910999 -4.724 4.415
38.943001 -4.6149998 4.4180002
36.682999 1.471 4.039
36.796001 1.529 4.0510001
36.705002 1.58 4.0409999
36.646999 1.633 4.0339999
36.577999 1.686 4.026
36.577999 1.743 4.026
36.571999 1.801 4.0250001
36.542999 1.858 4.0219998
36.508999 1.916 4.0180001
36.576 1.98 4.026
36.599998 2.0420001 4.0279999
36.491001 2.098 4.0159998
36.515999 2.1619999 4.0190001
36.391998 2.2179999 4.006
36.358002 2.28 4.0019999
36.355999 2.345 4.0019999
36.275002 2.405 3.994
36.243999 2.4690001 3.9909999
36.125999 2.5280001 3.9779999
36.062 2.5899999 3.971
36.110001 2.6619999 3.977
36.056999 2.727 3.9719999
36.057999 2.7969999 3.973
35.958 2.859 3.9619999
35.991001 2.9330001 3.967
36 3.006 3.9679999
36.061001 3.0829999 3.9760001
35.994999 3.151 3.97
35.882999 3.2149999 3.9579999
35.967999 3.2969999 3.9679999
35.929001 3.369 3.9649999
35.858002 3.438 3.9579999
35.787998 3.5079999 3.9519999
35.766998 3.5829999 3.95
35.708 3.655 3.9449999
35.667 3.7290001 3.9419999
35.611 3.802 3.937
35.581001 3.878 3.9349999
35.554001 3.9549999 3.9330001
35.542 4.0349998 3.9330001
35.483002 4.1090002 3.928
35.533001 4.197 3.9349999
35.522999 4.2789998 3.9360001
35.492001 4.3590002 3.934
35.473999 4.4400001 3.9330001
35.451 4.5219998 3.9330001
35.391998 4.5999999 3.928
35.352001 4.6799998 3.925
35.323002 4.763 3.924
35.199001 4.8330002 3.9119999
35.154999 4.914 3.9089999
35.131001 4.9980001 3.908
35.097 5.0819998 3.9059999
35.082001 5.1690001 3.9070001
35.004002 5.2459998 3.9000001
34.999001 5.336 3.901
35.027 5.4310002 3.9070001
35.064999 5.5279999 3.9130001
35.035999 5.6149998 3.9119999
35.005001 5.7030001 3.911
34.963001 5.789 3.9089999
34.922001 5.8759999 3.9059999
34.909 5.967 3.9070001
34.792 6.0419998 3.8970001
34.733002 6.1259999 3.8929999
34.683998 6.2129998 3.8900001
34.669998 6.3060002 3.891
34.619999 6.3930001 3.888
34.580002 6.4829998 3.8859999
34.57 6.5780001 3.888
34.563999 6.6750002 3.8900001
34.595001 6.7800002 3.8959999
34.501999 6.8600001 3.888
34.534 6.9660001 3.895
34.463001 7.052 3.8900001
34.439999 7.1479998 3.8900001
34.355999 7.2309999 3.8829999
34.259998 7.3119998 3.8759999
34.192001 7.3990002 3.8710001
34.167 7.4949999 3.8710001
34.105999 7.5840001 3.868
34.101002 7.6859999 3.8699999
34.077999 7.7839999 3.8710001
34.078999 7.888 3.8740001
34.127998 8.0039997 3.8829999
34.098 8.1020002 3.8829999
34.066002 8.1999998 3.8829999
34.028 8.2969999 3.882
33.973 8.3900003 3.8789999
33.929001 8.4860001 3.878
33.834 8.5690002 3.8699999
33.751999 8.6560001 3.865
33.721001 8.7550001 3.865
33.686001 8.8549995 3.8640001
33.645 8.9519997 3.8629999
33.632 9.0579996 3.8659999
33.661999 9.1759996 3.8729999
33.627998 9.2770004 3.8729999
33.611 9.3830004 3.875
33.582001 9.4860001 3.875
33.487 9.5699997 3.868
33.453999 9.6719999 3.868
33.331001 9.7489996 3.858
33.285 9.8470001 3.8570001
33.237 9.9449997 3.855
33.202999 10.048 3.8559999
33.167 10.151 3.8559999
33.146 10.258 3.858
33.202 10.39 3.868
33.187 10.5 3.8710001
33.159 10.607 3.872
33.075001 10.696 3.8659999
33.021 10.794 3.865
32.945 10.886 3.8599999
32.858002 10.973 3.8540001
32.811001 11.074 3.8540001
32.783001 11.182 3.855
32.762001 11.292 3.8570001
32.737999 11.402 3.859
32.751999 11.526 3.865
32.743999 11.642 3.869
32.710999 11.75 3.8699999
32.655998 11.85 3.868
32.563999 11.937 3.862
32.450001 12.015 3.8529999
32.398998 12.116 3.852
32.363998 12.224 3.8529999
32.313 12.326 3.852
32.289001 12.438 3.8540001
32.298 12.564 3.8599999
32.34 12.703 3.8699999
32.325001 12.82 3.8740001
32.265999 12.92 3.872
32.207001 13.02 3.8699999
32.098 13.099 3.862
32.021 13.192 3.858
31.974001 13.297 3.858
31.927 13.402 3.858
31.893 13.513 3.859
31.854 13.622 3.8599999
31.934 13.782 3.875
31.945 13.914 3.882
31.893 14.018 3.881
31.812 14.11 3.8770001
31.726999 14.199 3.872
31.587999 14.264 3.8610001
31.559999 14.379 3.8629999
31.537001 14.497 3.8659999
31.472 14.595 3.8640001
31.438999 14.708 3.8659999
31.465 14.85 3.875
31.525 15.008 3.888
31.495001 15.124 3.8900001
31.436001 15.226 3.8889999
31.389999 15.335 3.8889999
31.252001 15.399 3.878
31.167999 15.488 3.8740001
31.117001 15.594 3.8740001
31.084 15.709 3.8759999
31.028 15.813 3.875
31.014999 15.938 3.8800001
31.056 16.091999 3.891
31.070999 16.233999 3.8989999
31.084 16.375 3.9070001
30.993999 16.461 3.902
30.959 16.577 3.905
30.819 16.636999 3.8929999
30.718 16.716 3.8870001
30.664 16.822001 3.8870001
30.632999 16.940001 3.8889999
30.573 17.042 3.888
30.537001 17.157 3.891
30.556 17.304001 3.9000001
30.580999 17.455 3.9100001
30.620001 17.615 3.921
30.594999 17.738001 3.925
30.497999 17.82 3.9189999
30.461 17.936001 3.9219999
30.290001 17.974001 3.9070001
30.233 18.077999 3.9059999
30.141001 18.160999 3.901
30.084999 18.266001 3.901
30.072001 18.396 3.9059999
29.992001 18.487 3.9030001
29.948999 18.599001 3.905
30 18.771 3.9189999
30.056999 18.947001 3.9330001
30.033001 19.073 3.937
30.047001 19.224001 3.947
30.016001 19.344999 3.95
29.856001 19.384001 3.9360001
29.860001 19.528999 3.944
29.702999 19.568001 3.931
29.576 19.625999 3.921
29.473 19.698999 3.915
29.402 19.792999 3.9130001
29.362 19.908001 3.9159999
29.337 20.034 3.9200001
29.268999 20.129999 3.918
29.228001 20.243999 3.921
29.174 20.35 3.921
29.131001 20.462999 3.9230001
29.068001 20.562 3.9219999
29.044001 20.688999 3.927
29.099001 20.872 3.9419999
29.115 21.028 3.9519999
43.037998 -16.044001 5.0339999
43.104 -15.898 5.039
42.956001 -15.341 5.0149999
42.917999 -15.162 5.0079999
42.294998 -13.68 4.9190001
42.285 -13.524 4.9159999
41.691002 -11.879 4.829
41.438999 -11.667 4.7979999
41.464001 -11.398 4.7979999
41.487999 -11.267 4.7989998
18.694 -4.309 2.154
18.719999 -4.2589998 2.1559999
40.549999 -8.9820004 4.6690001
40.562 -8.8649998 4.6690001
40.564999 -8.7460003 4.6680002
40.146 -7.9619999 4.6129999
40.172001 -7.8530002 4.6149998
39.377998 -5.717 4.5079999
39.334 -5.6129999 4.5019999
39.278 -5.5079999 4.4949999
39.299999 -5.415 4.4970002
39.002998 -4.6300001 4.4580002
38.862999 -4.5240002 4.4419999
38.861 -4.434 4.441
38.875 -4.0840001 4.441
38.854 -3.9949999 4.4380002
38.778999 -3.8169999 4.4289999
39.212002 -3.7739999 4.4780002
38.57 -3.381 4.4029999
38.568001 -3.299 4.402
38.583 -3.22 4.4039998
38.448002 -3.128 4.388
38.478001 -3.0510001 4.3909998
38.429001 -2.9690001 4.3860002
38.457001 -2.892 4.3889999
36.962002 0.60600001 4.1900001
36.973999 0.671 4.1900001
36.972 0.736 4.1890001
36.931999 0.801 4.184
36.884998 0.86699998 4.178
36.902 0.935 4.1799998
36.891998 1.0039999 4.178
36.848 1.072 4.1729999
36.771999 1.1390001 4.164
36.712002 1.2079999 4.1570001
36.681 1.278 4.1529999
36.624001 1.348 4.1459999
36.591 1.419 4.1420002
36.57 1.4910001 4.1399999
36.541 1.564 4.1360002
36.486 1.636 4.1300001
36.494999 1.712 4.131
36.414001 1.784 4.1220002
36.459999 1.863 4.1269999
36.473999 1.941 4.1290002
36.412998 2.016 4.1220002
36.449001 2.0969999 4.1259999
36.402 2.1730001 4.1209998
36.359001 2.2509999 4.1170001
36.335999 2.3299999 4.1149998
36.320999 2.4100001 4.1129999
36.299 2.4909999 4.1110001
36.140999 2.562 4.0939999
36.111 2.6429999 4.0910001
36.056999 2.7219999 4.085
36.019001 2.803 4.0819998
36.001999 2.8859999 4.0809999
35.938999 2.9660001 4.0739999
35.931999 3.0510001 4.0739999
35.915001 3.135 4.073
35.988998 3.2290001 4.0819998
35.921001 3.3099999 4.0749998
35.868999 3.3929999 4.0700002
35.880001 3.483 4.073
35.813 3.5650001 4.066
35.783001 3.651 4.0640001
35.708 3.734 4.0560002
35.610001 3.8139999 4.046
35.588001 3.902 4.0450001
35.556999 3.99 4.0430002
35.532001 4.079 4.0409999
