# .PCD v0.7 - Point Cloud Data file format
VERSION 0.7
FIELDS x y z
SIZE 4 4 4
TYPE F F F
COUNT 1 1 1
WIDTH 1900
HEIGHT 1
VIEWPOINT 0 0 0 1 0 0 0
POINTS 1900
DATA ascii
12.906 1.271 0.73199999
12.946 1.307 0.73400003
21.358999 2.1570001 1.211
12.94 1.339 0.73400003
21.34 2.2090001 1.21
12.964 1.375 0.73500001
21.424 2.2720001 1.215
12.971 1.409 0.736
21.407 2.325 1.214
12.983 1.443 0.736
21.356001 2.375 1.212
13.004 1.479 0.73799998
21.371 2.4319999 1.2130001
13.161 1.5319999 0.74699998
21.483 2.5 1.219
21.552999 2.5650001 1.224
21.566999 2.6240001 1.225
21.604 2.6860001 1.227
21.745001 2.7609999 1.235
21.846001 2.8329999 1.2410001
21.870001 2.895 1.243
21.85 2.9519999 1.242
21.809999 3.006 1.24
21.819 3.0669999 1.2410001
21.818001 3.1270001 1.2410001
21.794001 3.184 1.24
22.104 3.2909999 1.258
22.125999 3.3559999 1.26
22.159 3.4230001 1.262
22.209 3.494 1.265
22.245001 3.563 1.268
22.351 3.6429999 1.274
22.372999 3.711 1.276
22.398001 3.78 1.278
22.292999 3.8269999 1.273
22.253 3.885 1.271
22.245001 3.948 1.271
22.242001 4.013 1.271
22.266001 4.0830002 1.273
22.327999 4.1599998 1.277
22.422001 4.2449999 1.283
22.503 4.3270001 1.288
22.490999 4.3920002 1.288
22.537001 4.4689999 1.291
22.576 4.5450001 1.294
22.573 4.6129999 1.295
22.624001 4.6919999 1.298
19.636 5.1869998 1.138
19.632999 5.25 1.1390001
19.593 5.303 1.137
19.833 5.4330001 1.152
7.4159999 2.1289999 0.43200001
7.2620001 2.109 0.42300001
7.1810002 2.1099999 0.41800001
7.1420002 2.122 0.41600001
7.1040001 2.1340001 0.41499999
7.0770001 2.1500001 0.41299999
7.0479999 2.165 0.412
7.0310001 2.1830001 0.41100001
7.0320001 2.207 0.412
7.0339999 2.2320001 0.412
7.0359998 2.257 0.412
7.0619998 2.289 0.414
7.0869999 2.3210001 0.41600001
7.079 2.3429999 0.41600001
7.0809999 2.368 0.41600001
7.1360002 2.411 0.41999999
11.356 6.6160002 0.71799999
11.166 6.5450001 0.70700002
11.121 6.559 0.70499998
11.074 6.5710001 0.70300001
11.049 6.5960002 0.70300001
11.012 6.6129999 0.70099998
10.997 6.6440001 0.70099998
10.972 6.6680002 0.69999999
10.961 6.7010002 0.70099998
10.957 6.737 0.70099998
10.955 6.7740002 0.70200002
11.002 6.8429999 0.70599997
11.919 -6.2189999 0.79699999
12 -6.2270002 0.80299997
11.967 -6.1739998 0.80000001
12.018 -6.1659999 0.80400002
12.011 -6.1269999 0.80299997
12.073 -6.1230001 0.80699998
12.072 -6.0869999 0.80699998
12.102 -6.066 0.80900002
12.14 -6.0500002 0.81099999
12.151 -6.02 0.81199998
12.176 -5.9970002 0.81400001
12.184 -5.9650002 0.81400001
12.229 -5.9510002 0.81699997
12.199 -5.9000001 0.815
12.222 -5.875 0.81599998
12.262 -5.8590002 0.81900001
12.317 -5.849 0.82200003
12.348 -5.8270001 0.824
12.345 -5.789 0.824
12.366 -5.763 0.82499999
12.402 -5.743 0.82800001
12.413 -5.7119999 0.82800001
12.431 -5.6830001 0.829
12.441 -5.651 0.82999998
12.494 -5.6389999 0.833
12.536 -5.6209998 0.83600003
12.546 -5.5879998 0.83600003
12.562 -5.559 0.83700001
12.626 -5.5500002 0.84100002
12.655 -5.5250001 0.84299999
12.718 -5.5149999 0.847
12.732 -5.4840002 0.84799999
12.741 -5.4499998 0.84899998
12.767 -5.4239998 0.85000002
12.918 -5.4499998 0.86000001
12.896 -5.4029999 0.85900003
12.88 -5.3579998 0.85699999
13.052 -5.3150001 0.86799997
12.988 -5.25 0.86400002
13.007 -5.2199998 0.86500001
13.702 -5.1370001 0.91000003
13.69 -5.092 0.90899998
13.648 -5.0370002 0.90600002
13.642 -4.994 0.90600002
13.669 -4.9640002 0.90700001
13.662 -4.921 0.90700001
13.649 -4.8769999 0.90600002
13.676 -4.8460002 0.90700001
13.669 -4.8039999 0.90700001
13.726 -4.7839999 0.91000003
13.768 -4.7579999 0.91299999
13.844 -4.744 0.91799998
13.795 -4.6859999 0.91399997
13.869 -4.671 0.91900003
13.95 -4.6570001 0.92400002
13.965 -4.6220002 0.92500001
14.021 -4.5170002 0.92799997
13.97 -4.46 0.92500001
13.993 -4.4260001 0.926
14.031 -4.3969998 0.92900002
14.031 -4.3559999 0.92799997
14.02 -4.3119998 0.92799997
14.205 -4.2030001 0.93900001
14.291 -4.1859999 0.94499999
14.428 -4.1430001 0.95300001
14.506 -4.1220002 0.958
13.012 -0.542 0.84399998
12.854 -0.498 0.83399999
12.725 -0.45699999 0.82499999
12.68 -0.419 0.82200003
12.637 -0.38100001 0.81900001
12.641 -0.345 0.81900001
12.638 -0.308 0.81900001
12.636 -0.27200001 0.81800002
12.634 -0.236 0.81800002
12.656 -0.2 0.81900001
12.665 -0.164 0.81999999
12.686 -0.12800001 0.82099998
12.767 -0.092 0.82599998
8.5249996 0.086000003 0.50300002
8.5200005 0.093999997 0.50199997
8.5220003 0.102 0.50199997
8.5039997 0.11 0.50099999
8.5039997 0.118 0.50099999
8.5039997 0.126 0.5
8.4750004 0.134 0.498
8.4689999 0.14300001 0.498
8.4820004 0.153 0.498
8.4589996 0.161 0.49700001
8.4619999 0.171 0.49700001
8.4530001 0.18000001 0.49599999
8.4350004 0.19 0.495
8.4200001 0.2 0.49399999
8.3950005 0.20900001 0.49200001
8.3789997 0.219 0.491
8.3430004 0.229 0.48899999
8.3249998 0.23899999 0.48699999
8.309 0.25 0.486
8.283 0.25999999 0.48500001
8.2550001 0.271 0.48300001
8.2519999 0.28200001 0.48300001
8.2399998 0.29300001 0.48199999
8.2539997 0.30599999 0.48300001
8.2659998 0.31799999 0.48300001
8.2869997 0.331 0.484
8.3000002 0.34400001 0.48500001
8.2919998 0.35699999 0.484
8.2989998 0.37 0.48500001
8.2980003 0.38299999 0.48500001
8.3050003 0.39700001 0.48500001
8.3249998 0.41100001 0.486
8.3409996 0.426 0.48699999
8.3839998 0.442 0.48899999
13.152 0.69300002 0.76800001
8.4809999 0.461 0.495
13.081 0.71200001 0.764
13.011 0.73000002 0.759
12.975 0.75099999 0.75700003
12.988 0.77399999 0.75800002
12.965 0.796 0.75700003
12.946 0.81800002 0.75599998
12.929 0.84100002 0.755
12.9 0.86299998 0.75300002
12.874 0.88499999 0.75099999
12.861 0.90799999 0.75
12.86 0.93300003 0.75
12.876 0.95899999 0.75099999
12.88 0.98400003 0.75199997
12.869 1.008 0.75099999
12.885 1.035 0.75199997
12.889 1.062 0.75199997
12.884 1.087 0.75199997
12.89 1.114 0.75300002
12.915 1.143 0.75400001
12.922 1.171 0.755
12.904 1.196 0.75400001
12.923 1.226 0.755
12.953 1.256 0.75700003
22.278 2.161 1.302
12.978 1.2869999 0.75800002
22.169001 2.1989999 1.296
12.983 1.316 0.759
22.006001 2.2309999 1.286
12.968 1.3430001 0.75800002
21.872 2.266 1.279
13.007 1.376 0.75999999
21.877001 2.3150001 1.279
13.07 1.4119999 0.764
21.917 2.368 1.2819999
13.106 1.446 0.76700002
22.027 2.4300001 1.289
22.048 2.483 1.29
21.997999 2.5280001 1.288
22.118999 2.5929999 1.295
22.141001 2.648 1.2970001
22.184 2.7049999 1.3
22.186001 2.7579999 1.3
22.191 2.812 1.301
22.129999 2.858 1.298
22.117001 2.9100001 1.2970001
22.056999 2.9560001 1.294
22.042999 3.0090001 1.294
22.069 3.0680001 1.296
22.132999 3.132 1.3
22.209999 3.1989999 1.3049999
22.224001 3.2579999 1.306
22.219 3.3139999 1.307
22.236 3.3740001 1.308
22.308001 3.4430001 1.313
22.361 3.5090001 1.317
22.441 3.5810001 1.322
22.594 3.665 1.332
22.695999 3.743 1.3380001
22.687 3.802 1.3380001
22.67 3.8599999 1.3380001
22.459999 3.8859999 1.326
22.388 3.9349999 1.323
22.364 3.9920001 1.322
22.365 4.0539999 1.323
22.370001 4.118 1.324
22.547001 4.2129998 1.335
22.622999 4.2909999 1.34
22.547001 4.3410001 1.336
22.561001 4.408 1.3380001
22.597 4.48 1.341
22.612 4.5489998 1.3430001
22.648001 4.6209998 1.346
22.688 4.6960001 1.349
7.362 2.1500001 0.447
7.223 2.1329999 0.43900001
7.1500001 2.1359999 0.435
7.1149998 2.1500001 0.433
7.079 2.1630001 0.43099999
7.0380001 2.175 0.42899999
7.026 2.1949999 0.42899999
7.027 2.22 0.42899999
7.026 2.244 0.42899999
7.0440001 2.2739999 0.43099999
7.0539999 2.303 0.43200001
7.0869999 2.3380001 0.43399999
7.0929999 2.365 0.435
7.1079998 2.3959999 0.43700001
7.2119999 2.4560001 0.44299999
11.353 6.2670002 0.74800003
11.267 6.27 0.74400002
11.214 6.29 0.741
11.18 6.3200002 0.74000001
11.159 6.3579998 0.74000001
11.152 6.4039998 0.741
11.149 6.4530001 0.74199998
11.153 6.5050001 0.74299997
11.287 6.6339998 0.75300002
10.895 -7.1529999 0.76700002
10.949 -7.1199999 0.76999998
11.01 -7.092 0.773
11.036 -7.0409999 0.77499998
11.104 -7.0170002 0.77899998
11.126 -6.9640002 0.77999997
11.175 -6.928 0.78200001
11.24 -6.902 0.78600001
11.279 -6.8590002 0.78799999
11.285 -6.7979999 0.78799999
11.334 -6.7620001 0.79100001
11.388 -6.7290001 0.79400003
11.398 -6.671 0.79400003
11.452 -6.638 0.79699999
11.484 -6.5929999 0.79900002
11.511 -6.5450001 0.80000001
11.599 -6.5320001 0.80599999
11.664 -6.5050001 0.81
11.727 -6.4780002 0.81400001
11.76 -6.4330001 0.815
11.748 -6.3649998 0.81400001
11.793 -6.3270001 0.81699997
11.839 -6.29 0.81900001
11.864 -6.243 0.81999999
11.884 -6.1919999 0.82099998
11.913 -6.1469998 0.82300001
11.967 -6.1149998 0.82599998
12.024 -6.0840001 0.829
12.058 -6.0419998 0.83099997
12.103 -6.0050001 0.83399999
12.127 -5.9580002 0.83499998
12.164 -5.9169998 0.83700001
12.194 -5.8730001 0.83899999
12.211 -5.823 0.83899999
12.304 -5.8099999 0.84500003
12.343 -5.77 0.847
12.385 -5.7329998 0.85000002
12.408 -5.6859999 0.85100001
12.462 -5.6539998 0.85399997
12.501 -5.6149998 0.85600001
12.522 -5.5669999 0.85699999
12.603 -5.5469999 0.86199999
12.631 -5.5040002 0.86400002
12.641 -5.4520001 0.86400002
12.764 -5.4499998 0.87199998
12.832 -5.4229999 0.87599999
12.843 -5.3720002 0.87699997
12.934 -5.355 0.88200003
13.726 -5.118 0.93199998
13.707 -5.0560002 0.93099999
13.702 -5.0009999 0.93000001
13.697 -4.9450002 0.92900002
13.72 -4.9000001 0.93000001
13.77 -4.8649998 0.93300003
13.774 -4.8140001 0.93300003
13.78 -4.7639999 0.93300003
13.826 -4.7280002 0.93599999
13.86 -4.6869998 0.93800002
13.955 -4.6680002 0.94400001
14.056 -4.6490002 0.94999999
14.53 -4.3390002 0.97899997
14.502 -4.2800002 0.977
14.554 -4.2449999 0.98100001
14.719 -4.1929998 0.991
14.772 -4.1589999 0.99400002
12.994 -0.421 0.86500001
12.966 -0.398 0.86299998
12.867 -0.373 0.85600001
12.768 -0.34900001 0.85000002
12.712 -0.32600001 0.84600002
12.697 -0.30500001 0.84500003
12.679 -0.28299999 0.84399998
12.678 -0.26300001 0.84399998
12.684 -0.242 0.84399998
12.683 -0.222 0.84500003
12.685 -0.20200001 0.84500003
12.702 -0.182 0.84600002
12.75 -0.163 0.84899998
12.774 -0.14300001 0.85100001
12.804 -0.124 0.85299999
12.877 -0.105 0.85799998
13.082 -0.086999997 0.87199998
8.3389997 0.123 0.51300001
8.3389997 0.13699999 0.51300001
8.3380003 0.152 0.51300001
8.3170004 0.167 0.51200002
8.2930002 0.182 0.50999999
8.2740002 0.197 0.509
8.2559996 0.212 0.50800002
8.2279997 0.227 0.50599998
8.2309999 0.242 0.50599998
8.2130003 0.25799999 0.505
8.2320004 0.27500001 0.50599998
8.2419996 0.29100001 0.50599998
8.2650003 0.30899999 0.50800002
8.276 0.32600001 0.50800002
8.2910004 0.34299999 0.509
8.2980003 0.361 0.509
8.2969999 0.37799999 0.509
8.302 0.39500001 0.50999999
8.3280001 0.414 0.51099998
8.3640003 0.43399999 0.51300001
8.4619999 0.45699999 0.51899999
13.125 0.70999998 0.80599999
13.038 0.73299998 0.80000001
13.025 0.76099998 0.79900002
13.02 0.79000002 0.79900002
13.006 0.81800002 0.79799998
12.979 0.84500003 0.79699999
12.95 0.87300003 0.79500002
12.948 0.90200001 0.79500002
12.902 0.92900002 0.792
12.888 0.958 0.79100001
12.927 0.991 0.79299998
12.96 1.024 0.796
12.936 1.053 0.79400003
12.94 1.084 0.79400003
12.931 1.115 0.79400003
12.942 1.147 0.79500002
12.973 1.182 0.79699999
12.943 1.211 0.79500002
12.938 1.242 0.79500002
22.358 2.1470001 1.374
12.967 1.278 0.79699999
22.205 2.188 1.364
13.03 1.317 0.801
22.181 2.2409999 1.363
13.068 1.353 0.80299997
22.139999 2.293 1.3609999
13.029 1.383 0.801
22.094999 2.345 1.358
13.091 1.423 0.80500001
22.025999 2.3940001 1.354
22.024 2.45 1.354
22.101 2.516 1.359
22.105 2.5739999 1.36
22.122999 2.6340001 1.3609999
22.423 2.7290001 1.38
22.377001 2.783 1.378
22.305 2.8340001 1.373
22.285 2.891 1.373
22.235001 2.9449999 1.37
22.186001 2.9979999 1.367
22.172001 3.0569999 1.367
22.135 3.112 1.365
22.165001 3.178 1.367
22.226 3.2479999 1.3710001
22.268999 3.316 1.374
22.299999 3.3840001 1.377
22.334999 3.4519999 1.3789999
22.382 3.5220001 1.383
22.422001 3.592 1.386
22.718 3.704 1.405
22.764 3.777 1.408
22.794001 3.848 1.41
22.752001 3.9070001 1.408
22.554001 3.938 1.397
22.426001 3.9809999 1.3890001
22.413 4.0450001 1.3890001
22.457001 4.119 1.392
22.51 4.1950002 1.396
22.622 4.283 1.404
22.599001 4.3470001 1.403
22.611 4.4169998 1.405
22.66 4.494 1.408
22.681999 4.5669999 1.41
22.799 4.6599998 1.418
7.329 2.1289999 0.463
7.2049999 2.1170001 0.456
7.1329999 2.119 0.45199999
7.0939999 2.132 0.449
7.0549998 2.1440001 0.447
7.0469999 2.165 0.447
7.0289998 2.1830001 0.44600001
7.027 2.2060001 0.447
7.0279999 2.23 0.447
7.033 2.256 0.44800001
7.0630002 2.289 0.44999999
7.079 2.319 0.45100001
7.1090002 2.3529999 0.454
7.1420002 2.388 0.456
7.1830001 2.427 0.45899999
7.3109999 2.4949999 0.46799999
12.416 -6.6290002 0.88800001
12.367 -6.5669999 0.884
12.413 -6.5549998 0.88700002
12.452 -6.539 0.88999999
12.657 -6.4229999 0.90399998
12.674 -6.395 0.90499997
12.633 -6.3369999 0.90200001
12.714 -6.3400002 0.90799999
12.708 -6.3000002 0.90700001
12.763 -6.289 0.91100001
12.805 -6.2729998 0.91399997
12.763 -6.2140002 0.91100001
12.799 -6.1939998 0.91299999
13.845 -5.559 0.98400003
13.829 -5.5120001 0.98199999
13.812 -5.4650002 0.98100001
13.767 -5.4070001 0.977
13.801 -5.3790002 0.98000002
13.887 -5.3720002 0.986
13.842 -5.3140001 0.98199999
13.841 -5.2729998 0.98199999
13.847 -5.2340002 0.98199999
13.835 -5.1890001 0.98100001
13.851 -5.1539998 0.98199999
13.864 -5.119 0.98299998
13.859 -5.0760002 0.98199999
13.855 -5.0339999 0.98199999
13.883 -5.0029998 0.98400003
13.921 -4.9759998 0.986
13.9 -4.928 0.98500001
13.915 -4.8920002 0.986
13.951 -4.8639998 0.98799998
13.949 -4.822 0.98799998
14.028 -4.809 0.99299997
14.134 -4.803 1
14.266 -4.8060002 1.0089999
14.34 -4.789 1.015
13.062 -0.542 0.90399998
12.96 -0.50099999 0.89700001
12.862 -0.46000001 0.88999999
12.791 -0.421 0.88499999
12.746 -0.382 0.88099998
12.744 -0.34599999 0.88099998
12.763 -0.31 0.88200003
12.782 -0.273 0.88300002
12.838 -0.23800001 0.88700002
12.937 -0.20299999 0.89399999
12.98 -0.16599999 0.89600003
8.5319996 0.088 0.54299998
8.5150003 0.096000001 0.542
8.5299997 0.104 0.54299998
8.5050001 0.111 0.54100001
8.5080004 0.12 0.54100001
8.5100002 0.12800001 0.54100001
8.4870005 0.13600001 0.53899997
8.474 0.145 0.53799999
8.4829998 0.154 0.53799999
8.4530001 0.163 0.53600001
8.4589996 0.17200001 0.53600001
8.4530001 0.182 0.53600001
8.4280005 0.191 0.53399998
8.4200001 0.20100001 0.53299999
8.3900003 0.211 0.53100002
8.3839998 0.221 0.53100002
8.3629999 0.23100001 0.52899998
8.3549995 0.242 0.528
8.3380003 0.252 0.52700001
8.335 0.26300001 0.52700001
8.3070002 0.27399999 0.52499998
8.2849998 0.285 0.523
8.2620001 0.29499999 0.52200001
8.2449999 0.30700001 0.52100003
8.2309999 0.31799999 0.51999998
8.2390003 0.331 0.51999998
8.2419996 0.34299999 0.51999998
8.2530003 0.35600001 0.52100003
8.2729998 0.37 0.52200001
8.302 0.384 0.52399999
8.3199997 0.39899999 0.52499998
8.3219995 0.412 0.52499998
8.3389997 0.42699999 0.52600002
8.3800001 0.44299999 0.528
8.4549999 0.461 0.53299999
8.6219997 0.48500001 0.54400003
13.273 0.889 0.83700001
13.218 0.91000003 0.83399999
13.231 0.93599999 0.83399999
13.188 0.958 0.83200002
13.207 0.98500001 0.833
22.517 2.043 1.4220001
22.379999 2.0769999 1.413
22.327 2.1199999 1.41
22.329 2.168 1.41
22.341999 2.2179999 1.411
22.327999 2.266 1.411
22.34 2.316 1.4119999
22.386999 2.3710001 1.415
22.5 2.4330001 1.423
23.069 2.5469999 1.459
22.989 2.5910001 1.454
22.778 2.619 1.441
22.714001 2.665 1.438
22.690001 2.7149999 1.437
22.672001 2.767 1.436
22.594999 2.8110001 1.431
22.469 2.849 1.424
22.423 2.898 1.4220001
22.320999 2.9389999 1.416
22.316999 2.993 1.416
22.296 3.0450001 1.415
22.278999 3.098 1.414
22.302999 3.158 1.4170001
22.347 3.22 1.42
22.375999 3.2809999 1.4220001
22.469999 3.3529999 1.429
22.52 3.418 1.433
22.555 3.4820001 1.436
22.691999 3.563 1.4450001
23.017 3.674 1.466
23.031 3.7379999 1.4680001
23.031 3.799 1.469
23.194 3.888 1.48
22.716999 3.994 1.452
22.639 4.0419998 1.447
22.643 4.1059999 1.448
22.709 4.1810002 1.4529999
22.867001 4.2740002 1.464
22.798 4.3260002 1.461
22.712 4.3740001 1.456
22.749001 4.4460001 1.459
22.860001 4.533 1.467
19.587 4.645 1.2690001
19.465 4.6760001 1.262
19.539 4.7550001 1.267
7.48 2.1589999 0.491
7.3239999 2.1389999 0.48100001
7.197 2.1259999 0.47299999
7.1279998 2.1300001 0.46900001
7.0830002 2.1400001 0.46599999
7.059 2.1570001 0.465
7.0310001 2.1730001 0.46399999
7.0209999 2.194 0.46399999
7.0240002 2.2190001 0.46399999
7.0229998 2.243 0.465
7.0310001 2.27 0.46599999
7.0469999 2.3 0.46700001
7.0840001 2.3369999 0.47
7.1300001 2.378 0.47400001
7.1659999 2.415 0.477
7.1939998 2.451 0.479
7.3049998 2.5150001 0.48699999
11.362 -7.4590001 0.852
11.43 -7.4320002 0.85699999
11.472 -7.388 0.85900003
11.507 -7.3400002 0.861
11.581 -7.3169999 0.866
11.63 -7.2779999 0.86900002
11.672 -7.2350001 0.87099999
11.736 -7.2049999 0.875
11.772 -7.158 0.87699997
11.817 -7.1170001 0.88
11.853 -7.0700002 0.88200003
11.872 -7.0139999 0.88300002
11.903 -6.9650002 0.884
11.963 -6.9330001 0.88800001
11.998 -6.8870001 0.88999999
12.065 -6.8590002 0.89399999
12.116 -6.822 0.89700001
12.175 -6.789 0.90100002
12.206 -6.7410002 0.903
12.214 -6.6810002 0.903
12.25 -6.6360002 0.90499997
12.251 -6.572 0.90399998
12.274 -6.5209999 0.90499997
12.318 -6.4809999 0.90799999
12.387 -6.454 0.91299999
12.397 -6.3959999 0.91299999
12.48 -6.3759999 0.91799998
12.47 -6.309 0.917
12.581 -6.303 0.92400002
12.619 -6.2600002 0.92699999
12.625 -6.2020001 0.92699999
12.737 -6.1950002 0.93400002
12.845 -6.1859999 0.94199997
12.915 -6.158 0.94599998
12.947 -6.1129999 0.94800001
13.192 -6.1669998 0.96499997
13.858 -5.5609999 1.006
13.964 -5.546 1.013
14.003 -5.5040002 1.016
13.861 -5.3909998 1.005
13.92 -5.3569999 1.0089999
13.974 -5.322 1.012
14.026 -5.2849998 1.016
14.009 -5.223 1.0140001
13.988 -5.1599998 1.012
14.019 -5.1160002 1.0140001
14.064 -5.0780001 1.017
14.054 -5.02 1.016
14.116 -4.987 1.02
14.121 -4.9349999 1.02
14.139 -4.888 1.02
12.989 -0.35499999 0.921
12.963 -0.33199999 0.91900003
12.95 -0.31099999 0.91799998
12.939 -0.289 0.917
12.925 -0.26800001 0.91600001
12.91 -0.24600001 0.91500002
12.937 -0.226 0.917
13.053 -0.208 0.926
13.005 -0.16599999 0.92199999
13.039 -0.146 0.92500001
8.3509998 0.124 0.55400002
8.342 0.139 0.55299997
8.3479996 0.154 0.55299997
8.3240004 0.168 0.551
8.3140001 0.183 0.551
8.3070002 0.199 0.55000001
8.2950001 0.214 0.54900002
8.2799997 0.229 0.54799998
8.2340002 0.244 0.54500002
8.2159996 0.259 0.54400003
8.21 0.27500001 0.54299998
8.2089996 0.29100001 0.54299998
8.217 0.308 0.54299998
8.2370005 0.32499999 0.54500002
8.2480001 0.34200001 0.54500002
8.2980003 0.36199999 0.54900002
8.3009996 0.37900001 0.54900002
8.3280001 0.398 0.55000001
8.3450003 0.41600001 0.551
8.3800001 0.43599999 0.55400002
8.4709997 0.45899999 0.56
13.264 0.89600003 0.87699997
13.229 0.92299998 0.87400001
13.236 0.954 0.875
13.289 0.98900002 0.87800002
13.167 1.073 0.87099999
13.209 1.108 0.87300003
22.462999 2.1040001 1.4859999
22.337999 2.1470001 1.478
22.334999 2.2030001 1.478
22.360001 2.2609999 1.48
22.412001 2.323 1.484
22.402 2.3789999 1.483
22.431 2.4400001 1.4859999
23.035999 2.5650001 1.526
23.023001 2.6229999 1.525
22.969999 2.677 1.522
22.879 2.7260001 1.517
22.767 2.773 1.51
22.756001 2.832 1.5089999
22.667 2.881 1.5039999
22.580999 2.931 1.498
22.41 2.9690001 1.487
22.33 3.0190001 1.483
22.319 3.079 1.482
22.292999 3.1359999 1.4809999
22.337999 3.204 1.485
22.395 3.2739999 1.489
22.400999 3.3369999 1.49
22.563999 3.425 1.501
22.657 3.503 1.508
23.075001 3.632 1.536
23.181999 3.7149999 1.544
23 4.3559999 1.538
22.987 4.4219999 1.538
23.400999 4.7129998 1.568
23.292999 4.7620001 1.562
23.344999 4.8429999 1.566
19.583 4.6100001 1.3200001
19.429001 4.6350002 1.311
19.504 4.7150002 1.317
7.4910002 2.151 0.50999999
7.3070002 2.122 0.498
7.1760001 2.108 0.49000001
7.125 2.1170001 0.486
7.092 2.131 0.48500001
7.0679998 2.148 0.48300001
7.053 2.1670001 0.48300001
7.0209999 2.181 0.48100001
7.02 2.204 0.48100001
7.013 2.2260001 0.48100001
7.0170002 2.2509999 0.48199999
7.039 2.2820001 0.484
7.0419998 2.3069999 0.484
7.0689998 2.3399999 0.48699999
7.0960002 2.3729999 0.48899999
7.1199999 2.4059999 0.491
7.1300001 2.434 0.49200001
7.1960001 2.4809999 0.49700001
7.4759998 2.6040001 0.51700002
13.327 -6.415 1.011
13.314 -6.369 1.01
13.344 -6.3439999 1.012
13.385 -6.3239999 1.015
13.467 -6.323 1.021
13.52 -6.3080001 1.025
13.62 -6.3150001 1.033
13.766 -6.342 1.044
14.106 -6 1.067
14.11 -5.96 1.067
14.214 -5.7940001 1.074
14.313 -5.7919998 1.082
14.365 -5.7709999 1.085
14.225 -5.631 1.074
14.311 -5.6230001 1.081
14.433 -5.4590001 1.089
14.428 -5.414 1.0880001
13.097 -0.354 0.96200001
13.099 -0.31600001 0.96200001
8.5179996 0.090000004 0.583
8.5170002 0.097000003 0.58200002
8.493 0.105 0.57999998
8.5050001 0.113 0.58099997
8.4989996 0.121 0.57999998
8.4989996 0.12899999 0.57999998
8.4840002 0.138 0.579
8.4700003 0.146 0.57700002
8.4829998 0.156 0.57800001
8.4560003 0.164 0.57599998
8.4630003 0.17399999 0.57599998
8.4440002 0.183 0.57499999
8.4300003 0.193 0.574
8.4049997 0.20200001 0.57200003
8.3809996 0.212 0.56999999
8.3590002 0.222 0.56800002
8.3439999 0.23199999 0.56699997
8.3330002 0.242 0.56599998
8.3249998 0.25299999 0.565
8.3170004 0.264 0.565
8.3190002 0.27500001 0.565
8.3009996 0.28600001 0.56300002
8.283 0.29699999 0.56199998
8.2790003 0.30899999 0.56199998
8.2550001 0.31999999 0.56
8.2340002 0.33199999 0.55800003
8.217 0.34299999 0.55699998
8.2200003 0.35600001 0.55699998
8.2469997 0.37 0.55900002
8.2589998 0.384 0.56
8.3000002 0.39899999 0.56199998
8.3459997 0.41499999 0.56599998
8.3929996 0.43099999 0.56900001
8.441 0.447 0.57200003
8.5690002 0.46799999 0.58099997
13.254 0.84100002 0.898
13.259 0.86500001 0.898
13.215 0.88700002 0.89499998
13.16 0.90799999 0.89200002
13.153 0.93199998 0.89099997
13.207 0.96100003 0.89499998
13.197 0.98500001 0.89399999
13.124 1.005 0.889
13.088 1.028 0.88700002
13.104 1.056 0.88800001
13.133 1.084 0.88999999
13.184 1.115 0.89399999
13.241 1.147 0.898
13.364 1.186 0.90600002
13.286 1.3200001 0.90200001
13.151 1.335 0.89300001
23.256001 3.471 1.59
23.209 3.5239999 1.587
23.173 3.579 1.586
23.191 3.642 1.5880001
23.173 3.701 1.587
23.184 3.7639999 1.589
23.167 3.823 1.5880001
23.157 3.8829999 1.589
23.169001 3.948 1.59
23.148001 4.007 1.59
23.132 4.0679998 1.589
23.121 4.1290002 1.59
23.136 4.1960001 1.591
23.166 4.2659998 1.594
23.364 4.368 1.609
23.351 4.632 1.612
23.402 4.7090001 1.617
23.267 4.75 1.608
23.201 4.8039999 1.605
23.243 4.881 1.609
19.509001 4.6880002 1.36
19.559 4.7610002 1.365
7.3400002 2.1440001 0.51899999
7.1929998 2.125 0.509
7.1370001 2.1329999 0.505
7.0929999 2.1440001 0.50300002
7.0689998 2.1600001 0.50099999
7.0359998 2.174 0.5
7.0089998 2.1900001 0.498
6.98 2.2049999 0.49700001
6.9559999 2.2219999 0.495
6.9660001 2.25 0.49700001
6.9920001 2.283 0.49900001
7.0120001 2.3139999 0.50099999
7.0349998 2.346 0.50300002
7.0669999 2.382 0.50599998
7.0960002 2.4170001 0.509
7.1199999 2.451 0.51099998
7.244 2.52 0.51999998
11.854 -7.7800002 0.94400001
11.919 -7.7490001 0.949
11.976 -7.7119999 0.95200002
12.02 -7.6659999 0.95499998
12.06 -7.619 0.958
12.125 -7.5869999 0.96200001
12.148 -7.5289998 0.963
12.198 -7.487 0.96600002
12.226 -7.4330001 0.96799999
12.209 -7.3520002 0.96499997
12.259 -7.3109999 0.96899998
12.237 -7.2290001 0.96600002
12.278 -7.184 0.96899998
12.294 -7.1240001 0.96899998
12.301 -7.0599999 0.96899998
12.312 -6.9990001 0.96899998
12.362 -6.9590001 0.972
12.394 -6.9109998 0.97399998
12.431 -6.8639998 0.97600001
12.45 -6.809 0.977
12.51 -6.7750001 0.98100001
12.622 -6.77 0.98900002
13.114 -6.8990002 1.026
13.12 -6.835 1.026
13.101 -6.7589998 1.024
13.065 -6.6739998 1.021
13.219 -6.6869998 1.0319999
13.232 -6.6279998 1.0319999
13.271 -6.5830002 1.035
13.302 -6.4689999 1.036
13.269 -6.3899999 1.033
13.282 -6.3330002 1.033
13.35 -6.302 1.038
13.392 -6.2600002 1.04
13.49 -6.243 1.0470001
13.582 -6.223 1.054
13.661 -6.197 1.0599999
13.858 -6.223 1.074
13.963 -6.2069998 1.082
14.065 -6.1900001 1.089
14.031 -6.112 1.086
14.053 -6.0599999 1.087
14.158 -6.0430002 1.095
14.208 -5.9419999 1.097
14.18 -5.869 1.095
14.175 -5.8070002 1.094
14.226 -5.7680001 1.097
14.262 -5.723 1.099
14.243 -5.6560001 1.097
14.305 -5.6220002 1.102
14.406 -5.6020002 1.109
14.458 -5.5640001 1.112
14.405 -5.4860001 1.108
14.486 -5.4580002 1.114
14.613 -5.448 1.123
14.636 -5.3979998 1.124
14.611 -5.3319998 1.122
14.636 -5.2839999 1.123
14.834 -5.184 1.137
14.741 -5.0949998 1.1289999
14.814 -5.0650001 1.135
14.891 -5.0349998 1.14
8.3310003 0.125 0.59100002
8.3319998 0.14 0.59100002
8.3330002 0.155 0.59100002
8.3120003 0.169 0.58999997
8.3030005 0.184 0.58899999
8.3100004 0.2 0.58899999
8.2980003 0.215 0.588
8.2910004 0.23100001 0.588
8.2889996 0.24600001 0.58700001
8.2679996 0.26199999 0.58600003
8.2550001 0.27700001 0.58499998
8.2340002 0.29300001 0.583
8.2139997 0.30899999 0.58200002
8.1999998 0.32499999 0.58099997
8.2049999 0.34200001 0.58099997
8.2189999 0.359 0.58200002
8.257 0.37799999 0.58499998
8.2950001 0.39700001 0.58700001
8.3649998 0.41800001 0.59200001
8.415 0.43900001 0.59600002
8.5310001 0.463 0.60399997
13.201 0.745 0.935
13.142 0.77100003 0.93000001
13.14 0.80000001 0.93000001
13.135 0.829 0.93000001
13.135 0.85799998 0.93000001
13.129 0.88800001 0.93000001
13.104 0.91600001 0.92799997
13.072 0.94400001 0.926
13.049 0.972 0.92400002
13.069 1.005 0.926
13.026 1.0319999 0.92299998
13.017 1.062 0.92199999
13.012 1.0930001 0.92199999
13.054 1.128 0.92500001
13.068 1.161 0.926
13.102 1.196 0.92799997
13.212 1.238 0.93599999
13.159 1.266 0.93300003
23.014 2.214 1.632
13.161 1.299 0.93300003
23.083 2.2780001 1.637
13.149 1.331 0.93199998
13.112 1.36 0.93000001
13.101 1.392 0.92900002
13.264 1.444 0.94099998
23.312 2.9030001 1.6569999
23.202999 2.951 1.65
23.15 3.006 1.646
23.157 3.0699999 1.647
23.190001 3.1370001 1.65
23.173 3.198 1.649
23.141001 3.257 1.648
23.124001 3.3180001 1.647
23.194 3.3929999 1.653
23.104 3.5079999 1.647
23.077 3.569 1.646
23.084999 3.635 1.647
23.094 3.7019999 1.649
23.087 3.767 1.649
23.072001 3.8310001 1.648
23.08 3.8989999 1.65
23.072001 3.964 1.65
23.079 4.0320001 1.651
23.08 4.0999999 1.652
23.07 4.1659999 1.652
23.097 4.2389998 1.655
23.177999 4.322 1.661
23.351999 4.6339998 1.677
23.353001 4.704 1.678
23.247999 4.7540002 1.671
23.212999 4.8169999 1.67
23.417 4.9310002 1.6849999
7.5549998 2.1700001 0.55199999
7.2719998 2.1129999 0.53200001
7.1950002 2.1140001 0.52700001
7.1360002 2.1199999 0.523
7.0869999 2.1300001 0.51999998
7.0630002 2.1459999 0.51800001
7.0440001 2.164 0.51700002
6.9980001 2.174 0.514
6.9460001 2.181 0.51099998
6.9180002 2.1960001 0.509
6.9320002 2.224 0.51099998
6.9710002 2.26 0.514
6.9840002 2.2880001 0.51499999
7.0219998 2.325 0.51899999
7.066 2.3629999 0.52200001
7.0900002 2.3959999 0.52499998
7.1110001 2.427 0.52700001
7.171 2.473 0.53200001
7.3049998 2.5439999 0.542
14.167 -6.4889998 1.138
14.161 -6.4450002 1.137
14.167 -6.4050002 1.138
14.215 -6.3850002 1.141
14.277 -6.3709998 1.146
14.339 -6.3559999 1.151
14.351 -6.3189998 1.152
14.453 -6.3210001 1.16
14.412 -6.2189999 1.156
14.493 -6.21 1.1619999
14.484 -6.164 1.161
14.463 -6.112 1.159
14.474 -6.0739999 1.16
14.453 -6.0229998 1.158
14.493 -5.9970002 1.161
14.535 -5.9710002 1.164
14.598 -5.954 1.169
14.589 -5.9070001 1.168
14.657 -5.8920002 1.173
14.672 -5.8540001 1.174
14.621 -5.7909999 1.17
14.702 -5.7800002 1.176
14.79 -5.7709999 1.183
14.904 -5.6830001 1.192
14.786 -5.5949998 1.182
14.911 -5.598 1.192
14.868 -5.5380001 1.188
8.5500002 0.092 0.625
8.5439997 0.098999999 0.62400001
8.5200005 0.107 0.62199998
8.5089998 0.115 0.62099999
8.4989996 0.123 0.62
8.5150003 0.131 0.62099999
8.4960003 0.14 0.61900002
8.4729996 0.148 0.61699998
8.5010004 0.15800001 0.61900002
8.4659996 0.16599999 0.616
8.5019999 0.176 0.61900002
8.4870005 0.186 0.61799997
8.4650002 0.19499999 0.616
8.4390001 0.205 0.61400002
8.4259996 0.215 0.61299998
8.4250002 0.22499999 0.61199999
8.4020004 0.235 0.61000001
8.4040003 0.24600001 0.61000001
8.3970003 0.257 0.61000001
8.3699999 0.26699999 0.60799998
8.3620005 0.278 0.60699999
8.3459997 0.289 0.60600001
8.3190002 0.30000001 0.60399997
8.3070002 0.31099999 0.602
8.2959995 0.32300001 0.602
8.2790003 0.33500001 0.60000002
8.2419996 0.34599999 0.597
8.2229996 0.35699999 0.59600002
8.217 0.37 0.59500003
8.198 0.382 0.59399998
8.2220001 0.396 0.59600002
8.243 0.41 0.597
8.2950001 0.42699999 0.60100001
8.3970003 0.44600001 0.60799998
13.331 0.708 0.96600002
8.6929998 0.47600001 0.63
13.138 0.72000003 0.95200002
13.08 0.73900002 0.94800001
13.048 0.75999999 0.94499999
13.065 0.78399998 0.94700003
13.051 0.80599999 0.94599998
13.047 0.829 0.94499999
13.031 0.852 0.94400001
13.006 0.87400001 0.94199997
12.971 0.89600003 0.94
12.946 0.91900003 0.93800002
12.938 0.94300002 0.93800002
12.92 0.96600002 0.93599999
12.9 0.99000001 0.935
12.89 1.0140001 0.93400002
12.894 1.04 0.935
12.892 1.066 0.935
12.903 1.0930001 0.93599999
12.917 1.12 0.93699998
12.946 1.15 0.93900001
12.948 1.177 0.93900001
23.104 2.0999999 1.676
12.999 1.209 0.94300002
23.108 2.1489999 1.677
13.068 1.243 0.94800001
23.097 2.198 1.677
12.986 1.263 0.94300002
23.077999 2.2449999 1.676
13.015 1.294 0.94499999
23.188999 2.306 1.684
13.037 1.325 0.94700003
13.058 1.3559999 0.94800001
13.137 1.393 0.954
13.197 1.429 0.95899999
23.216 2.5150001 1.688
13.247 1.465 0.963
23.018999 2.5450001 1.674
22.996 2.595 1.673
22.989 2.6470001 1.673
13.168 1.5470001 0.958
22.997999 2.7019999 1.674
13.091 1.568 0.95300001
23.009001 2.757 1.675
13.013 1.59 0.94700003
23.028 2.813 1.677
13.016 1.6210001 0.94800001
23.025999 2.868 1.677
13.11 1.664 0.95499998
23.014 2.9219999 1.677
23.000999 2.9760001 1.677
23.021 3.0339999 1.679
23.009001 3.089 1.679
23.017 3.1470001 1.6799999
23.01 3.2030001 1.6799999
23.013 3.2609999 1.681
23.061001 3.326 1.6849999
23.07 3.3859999 1.687
23.028999 3.4389999 1.684
22.997999 3.494 1.683
23.018 3.556 1.6849999
23.021 3.6170001 1.686
23.011 3.6760001 1.686
23.028 3.74 1.688
23.024 3.8 1.689
23.025999 3.862 1.6900001
23.018 3.9230001 1.6900001
23.028 3.9879999 1.692
23.016001 4.0479999 1.692
23.028999 4.1139998 1.694
23.055 4.1830001 1.697
23.062 4.2480001 1.699
23.117001 4.323 1.704
23.292 4.6209998 1.721
23.35 4.6999998 1.726
23.375 4.7729998 1.729
23.346001 4.835 1.728
7.3379998 2.1429999 0.55500001
7.2069998 2.1289999 0.546
7.1570001 2.1389999 0.54299998
7.0929999 2.1440001 0.53799999
7.059 2.1570001 0.53600001
7.026 2.1719999 0.53399998
6.9879999 2.184 0.53200001
6.934 2.191 0.528
6.8969998 2.2030001 0.52600002
6.9200001 2.2349999 0.528
6.954 2.27 0.53100002
6.9970002 2.309 0.53500003
7.053 2.352 0.54000002
7.1220002 2.401 0.546
7.1279998 2.428 0.54699999
7.145 2.46 0.54900002
7.2389998 2.5179999 0.55699998
12.595 -8.2650003 1.062
12.655 -8.2259998 1.066
12.743 -8.2040005 1.073
12.804 -8.1639996 1.077
12.841 -8.1110001 1.079
12.883 -8.059 1.082
12.979 -8.0419998 1.089
12.999 -7.9780002 1.09
13.074 -7.948 1.095
13.113 -7.895 1.097
13.156 -7.8460002 1.1
13.239 -7.8189998 1.1059999
13.338 -7.803 1.114
13.448 -7.7919998 1.122
13.395 -7.6869998 1.117
13.567 -7.4910002 1.128
13.629 -7.4520001 1.132
13.598 -7.3639998 1.1289999
13.622 -7.3049998 1.13
13.709 -7.211 1.135
13.801 -7.1890001 1.142
13.803 -7.1199999 1.142
14.242 -6.46 1.169
14.2 -6.3759999 1.165
14.238 -6.329 1.1670001
14.308 -6.296 1.1720001
14.359 -6.2550001 1.176
14.425 -6.2199998 1.181
14.539 -6.2049999 1.189
14.512 -6.131 1.186
14.52 -6.072 1.187
14.502 -6.0019999 1.184
14.578 -5.9720001 1.1900001
14.599 -5.9190001 1.191
14.646 -5.8769999 1.1950001
14.633 -5.8109999 1.193
14.712 -5.7810001 1.199
14.826 -5.7659998 1.207
14.807 -5.698 1.205
14.886 -5.6680002 1.211
14.879 -5.6059999 1.21
14.997 -5.5910001 1.219
8.3579998 0.127 0.63200003
8.3529997 0.141 0.63200003
13.368 0.226 1.012
8.3649998 0.156 0.63300002
13.364 0.25 1.011
8.3540001 0.171 0.63200003
13.341 0.27399999 1.0089999
8.3599997 0.18700001 0.63200003
8.3559999 0.20200001 0.63200003
8.3369999 0.21699999 0.63
8.3210001 0.233 0.62900001
8.3149996 0.248 0.62800002
8.2910004 0.264 0.62599999
8.2790003 0.27900001 0.625
8.2729998 0.29499999 0.625
8.2379999 0.31099999 0.62199998
8.2229996 0.32699999 0.62099999
8.2040005 0.34299999 0.61900002
8.1859999 0.359 0.61799997
8.2010002 0.37599999 0.61900002
8.2139997 0.39399999 0.62
8.2650003 0.414 0.62400001
13.275 0.66500002 1.002
8.3579998 0.43700001 0.63099998
13.149 0.68699998 0.99299997
13.06 0.71100003 0.986
13.029 0.73699999 0.98400003
13.012 0.76499999 0.98199999
13.008 0.79299998 0.98199999
13.017 0.82300001 0.98299998
13.005 0.85100001 0.98199999
12.976 0.87900001 0.98000002
12.947 0.90600002 0.97799999
12.933 0.935 0.977
12.9 0.963 0.97399998
12.88 0.991 0.97299999
12.856 1.02 0.97100002
12.856 1.05 0.97100002
12.861 1.081 0.972
12.861 1.112 0.972
12.878 1.145 0.97299999
12.927 1.181 0.977
12.922 1.212 0.977
23.091999 2.1670001 1.7460001
12.937 1.2460001 0.97799999
23.069 2.2219999 1.745
13.026 1.2869999 0.98500001
23.069 2.279 1.745
12.962 1.313 0.98000002
23.058001 2.336 1.744
13.019 1.352 0.98500001
13.001 1.383 0.98400003
13.071 1.424 0.98900002
13.113 1.462 0.99299997
23.146 2.5810001 1.753
13.183 1.5039999 0.99800003
22.969 2.6199999 1.74
22.941 2.677 1.738
13.18 1.572 0.99900001
22.938 2.737 1.738
13.064 1.5930001 0.99000001
22.955 2.799 1.74
12.977 1.617 0.98400003
22.971001 2.862 1.742
12.969 1.65 0.98299998
22.995001 2.9260001 1.744
13.062 1.697 0.991
22.98 2.9860001 1.743
22.968 3.046 1.743
22.961 3.108 1.743
22.961 3.1700001 1.744
22.961 3.233 1.744
22.962999 3.2969999 1.745
23.002001 3.3659999 1.749
23.065001 3.4389999 1.7539999
22.997999 3.494 1.75
22.985001 3.556 1.749
23 3.6229999 1.751
22.997999 3.688 1.752
22.993 3.753 1.752
22.995001 3.819 1.753
23.004999 3.8870001 1.755
23.002001 3.9530001 1.755
23.01 4.0209999 1.757
23.021 4.0900002 1.758
23.021 4.158 1.7589999
23.027 4.2270002 1.76
23.061001 4.3010001 1.7640001
23.282 4.4120002 1.7819999
19.774 4.6560001 1.526
19.566999 4.6690001 1.511
19.416 4.6950002 1.501
19.487 4.7740002 1.507
7.3099999 2.1240001 0.57099998
7.204 2.1170001 0.56300002
7.1399999 2.122 0.55900002
7.0809999 2.128 0.55400002
7.0580001 2.145 0.55299997
7.04 2.1630001 0.55199999
6.9840002 2.1689999 0.54799998
6.9310002 2.177 0.54400003
6.8969998 2.1889999 0.542
6.9060001 2.2160001 0.54299998
6.9520001 2.2539999 0.54699999
6.9949999 2.2920001 0.551
7.0599999 2.3369999 0.55699998
7.1659999 2.3970001 0.56599998
7.2480001 2.4489999 0.57300001
7.2270002 2.467 0.57200003
7.2540002 2.5009999 0.574
7.5209999 2.6199999 0.59600002
14.54 -6.9650002 1.235
14.611 -6.9559999 1.2410001
12.199 -5.5190001 1.035
12.266 -5.513 1.04
14.666 -6.5479999 1.244
14.717 -6.5279999 1.248
14.818 -6.5289998 1.256
14.84 -6.3629999 1.257
14.851 -6.3239999 1.258
14.924 -6.3099999 1.2640001
14.851 -6.2360001 1.257
14.984 -6.2470002 1.268
8.7019997 0.094999999 0.67699999
8.6689997 0.103 0.67400002
8.6499996 0.11 0.67199999
8.6470003 0.118 0.67199999
8.5950003 0.126 0.667
8.5869999 0.134 0.66600001
8.5600004 0.142 0.66399997
8.5369997 0.15099999 0.662
8.5249996 0.16 0.66100001
8.5129995 0.169 0.66000003
8.4989996 0.178 0.65799999
8.4779997 0.18700001 0.65700001
8.4630003 0.197 0.65499997
8.4499998 0.206 0.65399998
8.4350004 0.21600001 0.653
8.4350004 0.227 0.65200001
8.4160004 0.237 0.65100002
8.4099998 0.24699999 0.64999998
8.3839998 0.25799999 0.648
8.3800001 0.26899999 0.648
8.3669996 0.28 0.64600003
8.3380003 0.28999999 0.64399999
8.3249998 0.301 0.64300001
8.3120003 0.31299999 0.64200002
8.2819996 0.324 0.639
8.2729998 0.336 0.639
8.276 0.34799999 0.639
8.2530003 0.36000001 0.63700002
8.224 0.37099999 0.63499999
8.2049999 0.38299999 0.63300002
13.335 0.62300003 1.029
8.2019997 0.396 0.63300002
13.32 0.64399999 1.028
8.198 0.40900001 0.63200003
8.2320004 0.42500001 0.63499999
8.2609997 0.44 0.63700002
13.268 0.70700002 1.024
8.3299999 0.45699999 0.64200002
13.155 0.72299999 1.015
13.066 0.74000001 1.008
13.024 0.75999999 1.005
13.037 0.78399998 1.006
13.02 0.80599999 1.0039999
13.019 0.829 1.0039999
12.994 0.85100001 1.002
12.978 0.87400001 1.001
12.918 0.89399999 0.99699998
12.904 0.917 0.99599999
12.876 0.93900001 0.99400002
12.832 0.96100003 0.99000001
12.798 0.98299998 0.98799998
12.786 1.007 0.98699999
12.787 1.033 0.98699999
12.798 1.059 0.98799998
12.809 1.086 0.98900002
12.819 1.113 0.99000001
12.86 1.143 0.99299997
22.995001 2.0450001 1.777
12.948 1.178 1
22.981001 2.0910001 1.776
12.917 1.2029999 0.99800003
22.969 2.1389999 1.775
13.005 1.238 1.005
23.070999 2.197 1.783
12.996 1.265 1.005
23.204 2.26 1.794
13.032 1.2970001 1.008
13.031 1.325 1.008
13.091 1.36 1.013
13.14 1.395 1.017
13.18 1.429 1.02
23.058001 2.4990001 1.785
13.328 1.475 1.0319999
22.945 2.539 1.777
22.907 2.5869999 1.774
22.916 2.641 1.776
13.12 1.5420001 1.017
22.927999 2.6949999 1.777
13.041 1.563 1.011
22.938999 2.75 1.779
13.017 1.591 1.0089999
22.941999 2.8050001 1.779
13.073 1.6289999 1.0140001
22.936001 2.858 1.78
22.957001 2.9159999 1.7819999
22.933001 2.9679999 1.781
22.950001 3.026 1.783
22.951 3.0829999 1.783
22.938 3.138 1.783
22.941 3.1949999 1.784
22.958 3.2550001 1.786
23.002001 3.319 1.791
23.021 3.3800001 1.793
22.983 3.434 1.791
22.975 3.4920001 1.791
22.975 3.5510001 1.7920001
23.000999 3.615 1.795
22.995001 3.675 1.795
22.990999 3.7349999 1.796
22.996 3.7969999 1.7970001
22.995001 3.859 1.798
22.993 3.9200001 1.799
23.004999 3.9849999 1.801
23.014999 4.0500002 1.803
23 4.1100001 1.803
23.007999 4.1750002 1.804
23.018 4.2410002 1.806
23.059999 4.3140001 1.811
23.195 4.4039998 1.822
19.819 4.6409998 1.574
19.666 4.6659999 1.563
19.462 4.678 1.548
19.362 4.7140002 1.541
19.391001 4.7820001 1.545
7.3509998 2.1470001 0.59299999
7.2160001 2.132 0.583
7.1469998 2.1359999 0.57800001
7.0960002 2.145 0.574
7.0580001 2.1570001 0.57200003
7.0289998 2.1730001 0.56999999
6.9650002 2.177 0.565
6.9180002 2.1860001 0.56199998
6.8990002 2.204 0.56099999
6.921 2.2360001 0.56300002
6.9819999 2.279 0.56900001
7.0479999 2.326 0.57499999
7.1030002 2.369 0.57999998
7.2350001 2.4389999 0.59200001
7.2950001 2.4849999 0.597
7.3369999 2.526 0.60100001
13.246 -8.691 1.178
13.294 -8.6389999 1.182
13.385 -8.6160002 1.189
13.437 -8.5670004 1.192
13.494 -8.5220003 1.196
13.535 -8.467 1.199
13.594 -8.4230003 1.2029999
13.653 -8.3780003 1.207
13.693 -8.323 1.21
13.734 -8.2679996 1.212
13.784 -8.2189999 1.216
13.841 -8.1739998 1.22
13.893 -8.1260004 1.224
14.034 -7.8990002 1.232
14.038 -7.8249998 1.232
14.184 -7.8299999 1.244
14.145 -7.7340002 1.239
14.178 -7.677 1.2410001
14.271 -7.6529999 1.249
14.238 -7.5609999 1.245
14.271 -7.5050001 1.247
14.31 -7.4530001 1.25
14.325 -7.388 1.25
14.351 -7.3299999 1.252
14.335 -7.25 1.249
14.424 -7.224 1.256
14.481 -7.1820002 1.26
14.466 -7.1040001 1.258
14.465 -7.0339999 1.257
14.486 -6.974 1.258
12.02 -5.73 1.044
12.026 -5.6760001 1.043
12.17 -5.6869998 1.0549999
14.648 -6.7779999 1.27
14.632 -6.7030001 1.267
14.713 -6.6719999 1.274
14.809 -6.6490002 1.281
14.751 -6.5560002 1.276
14.78 -6.5029998 1.277
14.833 -6.461 1.281
14.861 -6.408 1.283
14.891 -6.355 1.285
14.954 -6.3179998 1.29
15.033 -6.2859998 1.296
15.052 -6.23 1.2970001
8.3459997 0.12800001 0.671
8.3540001 0.14300001 0.671
8.3540001 0.15700001 0.671
8.3620005 0.17299999 0.67199999
8.3389997 0.18700001 0.67000002
8.3529997 0.20299999 0.671
8.3400002 0.21799999 0.66900003
8.3280001 0.234 0.66799998
8.3009996 0.249 0.66600001
8.2910004 0.26499999 0.66500002
8.276 0.28 0.66399997
8.2690001 0.296 0.66299999
8.2620001 0.31299999 0.66299999
8.2349997 0.32800001 0.66000003
8.2200003 0.34400001 0.65899998
8.1969995 0.36000001 0.65700001
13.322 0.58600003 1.069
8.191 0.377 0.65700001
13.247 0.61000001 1.062
8.1809998 0.39300001 0.65600002
13.365 0.64300001 1.072
8.1949997 0.41100001 0.65700001
13.352 0.671 1.071
8.2419996 0.43099999 0.66100001
13.207 0.69199997 1.059
8.3009996 0.45199999 0.66600001
13.116 0.71499997 1.052
8.4770002 0.47999999 0.68000001
13.049 0.74000001 1.046
13.011 0.76599997 1.043
13.024 0.796 1.045
13.008 0.824 1.043
12.981 0.85100001 1.041
12.959 0.87900001 1.039
12.919 0.90600002 1.036
12.876 0.93199998 1.033
12.844 0.95999998 1.031
12.8 0.986 1.027
12.765 1.0140001 1.024
12.757 1.043 1.024
12.784 1.076 1.026
12.8 1.108 1.028
12.817 1.141 1.029
12.854 1.175 1.0319999
12.944 1.215 1.04
23.172001 2.1760001 1.862
12.929 1.2460001 1.039
23.087 2.2249999 1.855
13.054 1.291 1.049
13.002 1.318 1.045
13.074 1.358 1.051
13.076 1.392 1.051
13.121 1.4299999 1.0549999
13.131 1.465 1.056
23.098 2.5769999 1.858
22.934999 2.618 1.846
22.9 2.674 1.8430001
22.889999 2.733 1.8430001
13.127 1.602 1.057
22.902 2.7939999 1.845
13.063 1.628 1.052
22.92 2.8570001 1.847
13.089 1.666 1.0549999
22.905001 2.9170001 1.846
22.915001 2.9790001 1.847
22.912001 3.0409999 1.848
22.922001 3.1040001 1.849
22.934999 3.168 1.851
22.934999 3.2309999 1.852
22.931999 3.2939999 1.852
22.948999 3.3599999 1.854
23.007999 3.4319999 1.859
22.969 3.4909999 1.857
22.955999 3.553 1.857
22.964001 3.619 1.858
22.978001 3.687 1.86
22.98 3.7520001 1.8609999
22.966 3.816 1.8609999
22.976 3.8840001 1.862
22.983 3.951 1.864
22.986 4.0190001 1.865
22.987 4.086 1.8660001
22.989 4.1529999 1.867
22.99 4.2210002 1.868
22.997999 4.2909999 1.87
23.076 4.3740001 1.877
19.735001 4.6479998 1.62
19.493 4.652 1.601
19.4 4.6919999 1.594
19.493999 4.776 1.603
7.3330002 2.131 0.60900003
7.204 2.1170001 0.59899998
7.1230001 2.1170001 0.59299999
7.0819998 2.1289999 0.58999997
7.0430002 2.141 0.58700001
7.039 2.1630001 0.58700001
6.9840002 2.1700001 0.583
6.921 2.174 0.57800001
6.9000001 2.1900001 0.57700002
6.921 2.221 0.579
6.9990001 2.27 0.58600003
7.0349998 2.3050001 0.58999997
7.0739999 2.342 0.59399998
7.1459999 2.391 0.60000002
7.2989998 2.467 0.61400002
7.375 2.5179999 0.62099999
13.099 -0.34799999 1.132
13.049 -0.30899999 1.128
13.02 -0.271 1.125
13.091 -0.235 1.131
12.977 0.177 1.117
12.926 0.214 1.113
12.991 0.252 1.118
8.6529999 0.096000001 0.71399999
8.6230001 0.104 0.71100003
8.5439997 0.11 0.704
8.5389996 0.118 0.70300001
8.5 0.126 0.69999999
8.4840002 0.134 0.69800001
8.434 0.142 0.69400001
8.4209995 0.15000001 0.69300002
8.415 0.15899999 0.69199997
8.3959999 0.168 0.69
8.3929996 0.177 0.69
8.3780003 0.186 0.68800002
8.3719997 0.19599999 0.68699998
8.3520002 0.205 0.68599999
8.3570004 0.21600001 0.68599999
8.3570004 0.226 0.68599999
8.3570004 0.236 0.685
8.3509998 0.24699999 0.685
8.3439999 0.25799999 0.68400002
8.3500004 0.26899999 0.68400002
8.3290005 0.28 0.68199998
8.3079996 0.28999999 0.68099999
8.2939997 0.30199999 0.67900002
8.2670002 0.31200001 0.67699999
8.2639999 0.324 0.67699999
8.2670002 0.33700001 0.67699999
8.2629995 0.34900001 0.676
8.2650003 0.36199999 0.676
8.2489996 0.37400001 0.67500001
8.2200003 0.38499999 0.67299998
8.2010002 0.39700001 0.671
8.1969995 0.41 0.671
8.1999998 0.42399999 0.671
8.2290001 0.43900001 0.67299998
8.2489996 0.454 0.67500001
13.235 0.72899997 1.0829999
8.3280001 0.47299999 0.68099999
13.144 0.74599999 1.076
8.5340004 0.49900001 0.69800001
13.066 0.764 1.069
13.035 0.78500003 1.067
13.045 0.80900002 1.067
12.999 0.829 1.064
12.98 0.852 1.062
12.957 0.87400001 1.0599999
12.929 0.89600003 1.058
12.894 0.91799998 1.0549999
12.856 0.93900001 1.052
12.816 0.96100003 1.049
12.786 0.98400003 1.0470001
12.781 1.008 1.0470001
12.795 1.035 1.048
12.802 1.061 1.049
12.806 1.087 1.049
12.827 1.115 1.051
12.867 1.145 1.054
12.936 1.178 1.0599999
23.066 2.1010001 1.891
12.949 1.207 1.062
23.075001 2.151 1.892
13.057 1.244 1.071
23.150999 2.207 1.899
13.011 1.268 1.067
13.045 1.3 1.0700001
13.027 1.326 1.069
13.053 1.358 1.071
13.09 1.391 1.075
13.12 1.423 1.077
22.988001 2.494 1.888
13.261 1.4680001 1.089
22.91 2.5369999 1.882
13.308 1.5039999 1.094
22.879999 2.586 1.881
13.118 1.513 1.0779999
22.882999 2.6389999 1.881
13.162 1.548 1.082
22.907 2.6949999 1.8839999
22.896999 2.747 1.8839999
22.896999 2.8010001 1.8839999
22.910999 2.8570001 1.886
22.924999 2.914 1.888
22.909 2.967 1.888
22.924 3.0250001 1.89
22.919001 3.0799999 1.89
22.9 3.1340001 1.8890001
22.913 3.1930001 1.891
22.934 3.253 1.8940001
22.945999 3.313 1.896
23.01 3.3800001 1.902
22.955999 3.431 1.898
22.941 3.4879999 1.898
22.951 3.549 1.9
22.951 3.609 1.901
22.973 3.6730001 1.903
22.982 3.7349999 1.905
22.975 3.7950001 1.906
22.959 3.8540001 1.905
22.966999 3.9170001 1.9069999
22.955999 3.9779999 1.9069999
22.974001 4.0440001 1.91
22.961 4.105 1.91
22.982 4.1719999 1.913
22.992001 4.2379999 1.915
22.990999 4.302 1.916
23.01 4.3699999 1.919
23.068001 4.447 1.925
23.198999 4.5380001 1.937
7.4289999 2.1700001 0.63599998
7.2420001 2.1400001 0.62099999
7.1430001 2.135 0.61299998
7.073 2.138 0.60799998
7.053 2.1559999 0.60699999
7.0279999 2.1730001 0.60500002
6.9619999 2.1760001 0.60000002
6.9229999 2.188 0.597
6.914 2.2090001 0.597
6.9419999 2.2420001 0.60000002
7.0079999 2.2880001 0.60699999
7.0489998 2.3269999 0.611
7.0949998 2.3670001 0.61500001
7.2010002 2.428 0.625
7.3439999 2.5020001 0.63800001
10.911 6.868 1.051
10.911 6.9200001 1.053
27.594 19.759001 2.7509999
27.451 19.792999 2.7420001
13.999 -8.9250002 1.307
13.962 -8.8170004 1.302
13.998 -8.7550001 1.3049999
14.059 -8.7089996 1.309
14.1 -8.651 1.312
14.14 -8.5930004 1.314
14.168 -8.5290003 1.316
14.216 -8.4759998 1.319
14.33 -8.4619999 1.329
14.427 -8.4379997 1.337
12.974 -0.35299999 1.1440001
12.926 -0.33000001 1.1390001
12.87 -0.308 1.135
12.817 -0.285 1.13
12.781 -0.26300001 1.127
12.764 -0.242 1.125
12.758 -0.222 1.125
12.749 -0.20100001 1.124
12.769 -0.18099999 1.126
12.795 -0.162 1.128
12.822 -0.142 1.131
12.895 -0.123 1.137
8.2880001 0.12800001 0.70499998
8.3030005 0.14300001 0.70599997
8.2989998 0.15800001 0.70599997
8.309 0.17299999 0.70599997
8.3070002 0.18799999 0.70599997
8.323 0.204 0.70700002
8.3079996 0.219 0.70599997
8.2919998 0.234 0.704
8.2860003 0.25 0.704
8.2749996 0.26499999 0.70300001
8.2659998 0.28099999 0.70200002
8.2659998 0.29699999 0.70200002
8.2469997 0.31299999 0.69999999
8.25 0.33000001 0.69999999
8.2530003 0.347 0.70099998
8.2360001 0.36300001 0.699
8.2019997 0.37799999 0.69599998
8.184 0.39500001 0.69499999
8.1920004 0.412 0.69499999
8.2040005 0.43000001 0.69599998
13.305 0.69800001 1.13
8.2449999 0.44999999 0.69999999
13.208 0.722 1.1210001
8.2989998 0.47099999 0.704
13.126 0.74599999 1.114
8.4709997 0.5 0.71899998
13.027 0.76800001 1.1059999
13.007 0.796 1.104
13.014 0.82499999 1.105
12.97 0.852 1.101
12.936 0.87900001 1.098
12.936 0.90799999 1.099
12.882 0.93400002 1.094
12.863 0.963 1.0930001
12.824 0.99000001 1.089
12.783 1.016 1.086
12.773 1.046 1.085
12.79 1.0779999 1.087
12.814 1.1109999 1.089
12.832 1.143 1.091
12.889 1.1799999 1.096
12.933 1.216 1.1
23.181 2.1789999 1.972
12.972 1.251 1.103
23.138 2.2320001 1.9680001
13.039 1.29 1.109
13.027 1.322 1.108
13.048 1.357 1.1109999
13.041 1.3890001 1.11
13.061 1.425 1.112
13.091 1.462 1.115
22.973 2.5650001 1.957
13.191 1.507 1.124
22.872999 2.6129999 1.949
13.223 1.545 1.127
22.864 2.6719999 1.949
13.032 1.557 1.1109999
22.858 2.7309999 1.949
13.125 1.602 1.119
22.878 2.793 1.951
13.169 1.643 1.123
22.871 2.8529999 1.951
22.868999 2.914 1.952
22.882 2.977 1.9529999
22.874001 3.0369999 1.9529999
22.893 3.102 1.956
22.899 3.165 1.957
22.898001 3.227 1.9579999
22.899 3.2909999 1.9579999
22.908001 3.355 1.96
22.948999 3.425 1.964
22.93 3.4860001 1.9630001
22.938999 3.552 1.965
22.926001 3.615 1.965
22.940001 3.6819999 1.967
22.952999 3.7490001 1.969
22.938999 3.813 1.9680001
22.945999 3.8800001 1.97
22.940001 3.9449999 1.97
22.962 4.0159998 1.973
22.978001 4.086 1.976
22.974001 4.152 1.976
22.975 4.2199998 1.977
22.974001 4.2880001 1.978
22.973 4.3559999 1.979
23.004999 4.4299998 1.983
23.059999 4.5100002 1.989
23.191999 4.605 2.0009999
7.3709998 2.142 0.64899999
7.2259998 2.1240001 0.63599998
7.1329999 2.1210001 0.62900001
7.0749998 2.1270001 0.62400001
7.0549998 2.145 0.62300003
7.0159998 2.1559999 0.62
6.9650002 2.164 0.616
6.9180002 2.1730001 0.61299998
6.9190001 2.197 0.61299998
6.9450002 2.2279999 0.616
7 2.27 0.62099999
7.046 2.309 0.62599999
7.1040001 2.3529999 0.63200003
7.1739998 2.4000001 0.639
7.342 2.4820001 0.65399998
7.5229998 2.569 0.671
11.296 6.789 1.098
11.197 6.77 1.09
11.201 6.8119998 1.092
11.179 6.8390002 1.092
11.232 6.9120002 1.098
10.862 7.1420002 1.081
10.81 7.145 1.077
13.025 -0.45699999 1.183
12.901 -0.41600001 1.1720001
12.814 -0.37599999 1.163
12.753 -0.33700001 1.1569999
