# .PCD v0.7 - Point Cloud Data file format
VERSION 0.7
FIELDS x y z
SIZE 4 4 4
TYPE F F F
COUNT 1 1 1
WIDTH 1946
HEIGHT 1
VIEWPOINT 0 0 0 1 0 0 0
POINTS 1946
DATA ascii
10.552 -1.915 0.146
10.577 -1.891 0.146
10.612 -1.868 0.147
10.644 -1.845 0.147
10.677 -1.823 0.148
10.694 -1.7970001 0.148
10.73 -1.775 0.148
10.776 -1.7539999 0.149
10.794 -1.729 0.149
10.786 -1.7 0.149
10.832 -1.679 0.15000001
10.863 -1.6569999 0.15000001
10.883 -1.632 0.15099999
10.934 -1.612 0.15099999
10.947 -1.587 0.152
10.965 -1.562 0.152
10.989 -1.538 0.152
11 -1.513 0.152
11.002 -1.4859999 0.153
11.039 -1.464 0.153
11.07 -1.442 0.154
11.099 -1.419 0.154
11.124 -1.396 0.154
11.135 -1.3710001 0.155
11.165 -1.349 0.155
11.22 -1.329 0.156
11.271 -1.309 0.15700001
11.268 -1.283 0.15700001
11.293 -1.26 0.15700001
11.336 -1.239 0.15800001
11.348 -1.214 0.15800001
11.413 -1.196 0.15899999
11.417 -1.171 0.15899999
11.447 -1.149 0.15899999
11.465 -1.125 0.16
11.499 -1.104 0.16
11.539 -1.082 0.161
11.572 -1.061 0.161
11.63 -1.041 0.162
11.66 -1.0190001 0.163
11.742 -1.002 0.164
11.818 -0.98299998 0.16500001
11.824 -0.95899999 0.16500001
11.952 -0.94499999 0.167
11.955 0.155 0.048
11.989 0.177 0.048
12.031 0.199 0.048
12.036 0.221 0.048
12.05 0.244 0.048
12.062 0.26699999 0.048
12.055 0.28999999 0.048
12.082 0.31400001 0.048
12.075 0.33700001 0.046999998
12.09 0.361 0.046999998
12.094 0.38499999 0.046999998
12.088 0.40900001 0.046999998
12.106 0.43399999 0.046999998
12.104 0.45899999 0.046999998
12.101 0.484 0.046
12.117 0.50999999 0.046
12.129 0.53600001 0.046
12.124 0.56099999 0.046
12.138 0.588 0.046
12.142 0.61400002 0.046
12.156 0.64200002 0.045000002
12.157 0.66900003 0.045000002
12.18 0.69700003 0.045000002
12.179 0.72399998 0.045000002
12.198 0.75300002 0.045000002
12.204 0.78100002 0.045000002
12.216 0.81 0.044
12.249 0.83999997 0.044
12.233 0.86699998 0.044
12.245 0.89700001 0.044
12.262 0.92699999 0.044
12.253 0.95599997 0.044
12.291 0.98799998 0.044
12.315 1.02 0.044
12.321 1.05 0.043000001
12.339 1.082 0.043000001
12.363 1.115 0.043000001
12.369 1.146 0.043000001
12.384 1.178 0.043000001
12.39 1.21 0.043000001
12.432 1.2460001 0.043000001
12.427 1.277 0.041999999
12.426 1.309 0.041999999
12.435 1.342 0.041999999
12.479 1.3789999 0.041999999
12.491 1.413 0.041999999
12.528 1.45 0.041999999
12.53 1.483 0.041999999
12.533 1.517 0.041000001
12.564 1.554 0.041000001
12.557 1.587 0.041000001
12.582 1.624 0.041000001
12.604 1.661 0.041000001
12.641 1.701 0.041000001
12.673 1.74 0.041000001
12.698 1.778 0.039999999
12.72 1.817 0.039999999
12.729 1.853 0.039999999
12.73 1.8890001 0.039999999
12.758 1.929 0.039999999
12.759 1.966 0.039999999
12.795 2.007 0.039999999
12.836 2.0510001 0.039000001
12.827 2.086 0.039000001
12.858 2.128 0.039000001
12.893 2.171 0.039000001
12.893 2.2090001 0.039000001
12.913 2.25 0.039000001
12.925 2.29 0.039000001
12.96 2.3340001 0.037999999
12.961 2.3729999 0.037999999
12.978 2.415 0.037999999
13.024 2.4619999 0.037999999
13.047 2.506 0.037999999
13.062 2.5480001 0.037999999
13.072 2.589 0.037
13.092 2.6329999 0.037
13.104 2.675 0.037
13.129 2.721 0.037
13.167 2.7690001 0.037
13.181 2.812 0.037
13.21 2.8599999 0.037
13.228 2.905 0.035999998
13.274 2.9560001 0.035999998
13.278 2.9979999 0.035999998
13.309 3.0469999 0.035999998
13.339 3.096 0.035999998
13.363 3.1440001 0.035999998
13.438 3.204 0.035999998
13.463 3.253 0.035999998
13.481 3.3 0.035
13.465 3.3399999 0.035
13.511 3.3940001 0.035
13.55 3.448 0.035
13.603 3.5050001 0.035
13.639 3.559 0.035
13.658 3.608 0.034000002
13.73 3.6719999 0.034000002
13.731 3.717 0.034000002
13.769 3.773 0.034000002
13.811 3.8299999 0.034000002
13.867 3.891 0.034000002
13.927 3.954 0.034000002
13.967 4.0120001 0.034000002
13.961 4.0570002 0.033
14 4.1149998 0.033
14.019 4.1669998 0.033
13.999 4.2080002 0.033
14.073 4.2779999 0.033
14.092 4.3309999 0.032000002
14.158 4.3990002 0.032000002
14.228 4.4689999 0.032000002
14.26 4.5279999 0.032000002
14.285 4.5840001 0.032000002
14.354 4.6560001 0.032000002
14.345 4.7020001 0.032000002
14.396 4.7680001 0.030999999
14.421 4.8260002 0.030999999
14.438 4.882 0.030999999
14.457 4.9380002 0.030999999
14.58 5.0300002 0.030999999
14.72 5.1300001 0.030999999
14.724 5.1820002 0.030999999
14.751 5.243 0.029999999
14.8 5.3119998 0.029999999
14.82 5.3709998 0.029999999
14.809 5.4190001 0.029999999
14.948 5.5229998 0.029999999
15.02 5.6020002 0.029999999
15.186 5.717 0.029999999
15.176 5.7670002 0.029999999
15.29 5.8649998 0.028999999
15.221 5.8920002 0.028999999
15.223 5.947 0.028999999
15.243 6.0089998 0.028999999
15.275 6.0760002 0.028000001
15.342 6.1570001 0.028000001
15.382 6.2280002 0.028000001
15.37 6.2789998 0.028000001
15.408 6.349 0.028000001
15.508 6.4460001 0.027000001
12.313 6.0100002 0.017000001
12.177 5.9889998 0.017000001
12.062 5.9759998 0.016000001
11.989 5.9840002 0.016000001
11.944 6.0050001 0.016000001
12.01 6.0819998 0.016000001
12.198 6.2220001 0.016000001
12.284 6.3099999 0.016000001
12.189 6.3060002 0.015
12.202 6.3579998 0.015
12.142 6.415 0.014
12.049 6.4089999 0.014
12.137 6.5009999 0.014
7.8860002 -4.6469998 0.126
7.9029999 -4.6350002 0.126
7.9180002 -4.6220002 0.126
7.915 -4.5970001 0.126
7.9330001 -4.585 0.127
7.9369998 -4.5650001 0.127
7.9590001 -4.5549998 0.127
7.973 -4.54 0.127
7.987 -4.5250001 0.12800001
8.007 -4.5139999 0.12800001
8.0229998 -4.5 0.12800001
8.0190001 -4.4749999 0.12800001
8.0229998 -4.454 0.12800001
8.052 -4.447 0.12899999
8.0489998 -4.4219999 0.12899999
8.0640001 -4.4070001 0.12899999
8.0880003 -4.3969998 0.13
8.0900002 -4.375 0.13
8.1129999 -4.3639998 0.13
8.1099997 -4.3390002 0.13
8.1309996 -4.3270001 0.13
8.1549997 -4.3169999 0.131
8.158 -4.2950001 0.131
8.1669998 -4.276 0.131
8.1829996 -4.2600002 0.131
8.1780005 -4.2340002 0.131
8.2040005 -4.224 0.132
8.2290001 -4.2140002 0.132
8.2580004 -4.204 0.133
8.2709999 -4.1869998 0.133
8.2810001 -4.1680002 0.133
8.2840004 -4.1459999 0.133
8.2849998 -4.1230001 0.133
8.3030005 -4.1069999 0.134
8.3039999 -4.0840001 0.134
8.3409996 -4.0780001 0.134
8.3500004 -4.0580001 0.13500001
8.3649998 -4.0409999 0.13500001
8.3830004 -4.026 0.13500001
8.3900003 -4.0050001 0.13500001
8.3999996 -3.9849999 0.13600001
8.4230003 -3.9719999 0.13600001
8.4460001 -3.9579999 0.13600001
8.4630003 -3.941 0.13699999
8.4650002 -3.918 0.13699999
8.4840002 -3.902 0.13699999
8.5100002 -3.8889999 0.138
8.5120001 -3.8659999 0.138
8.5340004 -3.8510001 0.138
8.5570002 -3.836 0.138
8.5710001 -3.8180001 0.139
8.5930004 -3.803 0.139
8.585 -3.7739999 0.139
8.6079998 -3.76 0.139
8.6230001 -3.7409999 0.14
8.632 -3.72 0.14
8.6520004 -3.7030001 0.14
8.658 -3.681 0.14
8.6850004 -3.6670001 0.141
8.7010002 -3.6489999 0.141
8.7159996 -3.6300001 0.141
8.7250004 -3.608 0.142
8.7539997 -3.595 0.142
8.7959995 -3.5869999 0.14300001
8.8050003 -3.5650001 0.14300001
8.8140001 -3.543 0.14300001
8.842 -3.5280001 0.14399999
8.8610001 -3.51 0.14399999
8.3439999 -3.2809999 0.13600001
8.2220001 -3.2090001 0.134
8.1339998 -3.151 0.132
8.1029997 -3.1159999 0.132
8.0909996 -3.0880001 0.132
8.1049995 -3.069 0.132
8.1190004 -3.0510001 0.132
8.1479998 -3.039 0.133
8.25 -3.053 0.134
9.0240002 -3.313 0.147
9.0150003 -3.2839999 0.147
9.0290003 -3.2620001 0.147
9.0550003 -3.2460001 0.148
9.0830002 -3.2290001 0.148
9.0909996 -3.2060001 0.148
9.1070004 -3.1849999 0.149
9.1499996 -3.174 0.149
9.1890001 -3.161 0.15000001
9.2340002 -3.1489999 0.15099999
8.2110004 -2.777 0.134
8.1700001 -2.7390001 0.133
8.1520004 -2.7090001 0.133
8.1370001 -2.681 0.133
8.1300001 -2.655 0.133
8.1470003 -2.6370001 0.133
8.1680002 -2.6199999 0.133
8.2480001 -2.622 0.13500001
9.6899996 -3.0250001 0.15899999
9.6630001 -2.9879999 0.15800001
9.5860004 -2.937 0.15700001
9.5970001 -2.9119999 0.15700001
9.6309996 -2.895 0.15800001
9.6389999 -2.8699999 0.15800001
9.6569996 -2.8469999 0.15800001
9.6820002 -2.826 0.15899999
9.717 -2.809 0.15899999
9.7379999 -2.7869999 0.16
9.7510004 -2.7620001 0.16
9.7659998 -2.7379999 0.16
9.7889996 -2.717 0.161
9.809 -2.694 0.161
9.842 -2.675 0.161
9.8780003 -2.6559999 0.162
9.8649998 -2.6240001 0.162
9.8999996 -2.605 0.163
9.9399996 -2.5869999 0.163
9.9549999 -2.562 0.163
9.9540005 -2.533 0.164
10.001 -2.516 0.164
10.01 -2.49 0.164
10.059 -2.473 0.16500001
10.067 -2.4460001 0.16500001
10.065 -2.4159999 0.16500001
10.089 -2.3929999 0.16599999
10.116 -2.3699999 0.16599999
10.161 -2.352 0.167
10.164 -2.323 0.167
10.195 -2.3010001 0.168
10.221 -2.2780001 0.168
10.239 -2.2520001 0.169
10.262 -2.2279999 0.169
10.283 -2.2030001 0.169
10.309 -2.1789999 0.17
10.35 -2.158 0.17
10.377 -2.1340001 0.171
10.412 -2.1110001 0.17200001
10.453 -2.089 0.17200001
10.474 -2.0639999 0.17299999
10.503 -2.039 0.17299999
10.548 -2.0179999 0.17399999
10.565 -1.9910001 0.17399999
10.579 -1.9630001 0.175
10.62 -1.9400001 0.175
10.639 -1.913 0.176
10.66 -1.887 0.176
10.705 -1.864 0.177
10.737 -1.839 0.177
10.786 -1.816 0.178
10.805 -1.789 0.178
10.82 -1.76 0.17900001
10.908 -1.743 0.18000001
10.905 -1.712 0.18000001
10.917 -1.682 0.18000001
10.978 -1.66 0.18099999
10.997 -1.632 0.182
11.052 -1.608 0.183
11.063 -1.5779999 0.183
11.096 -1.551 0.183
11.142 -1.526 0.184
11.155 -1.4960001 0.185
11.216 -1.472 0.186
11.255 -1.4450001 0.186
11.305 -1.419 0.18700001
11.354 -1.393 0.18799999
11.349 -1.36 0.18799999
11.441 -1.3380001 0.189
11.5 -1.313 0.19
11.569 -1.288 0.192
11.569 -1.255 0.192
11.618 -1.227 0.192
11.686 -1.201 0.19400001
11.746 -1.173 0.19499999
11.879 -1.153 0.197
11.957 -1.126 0.198
11.999 -1.096 0.199
12.017 -1.063 0.199
12.142 -1.005 0.20100001
12.135 -0.97000003 0.20100001
12.729 0.35800001 0.077
12.652 0.373 0.075999998
12.734 0.39300001 0.077
12.692 0.41 0.075999998
12.637 0.426 0.075999998
12.649 0.44499999 0.075999998
12.718 0.46700001 0.075999998
12.689 0.48500001 0.075000003
12.646 0.50199997 0.075000003
12.639 0.52200001 0.075000003
12.618 0.54100001 0.074000001
12.605 0.56099999 0.074000001
12.646 0.583 0.074000001
12.624 0.60299999 0.074000001
12.602 0.62300003 0.074000001
12.587 0.64399999 0.072999999
12.586 0.66500002 0.072999999
12.596 0.68699998 0.072999999
12.583 0.70899999 0.072999999
12.576 0.73100001 0.072999999
12.595 0.755 0.072999999
12.599 0.778 0.071999997
12.592 0.801 0.071999997
12.623 0.82599998 0.071999997
12.61 0.84899998 0.071999997
12.62 0.87400001 0.071999997
12.652 0.90100002 0.071999997
12.665 0.926 0.071999997
12.678 0.95200002 0.071999997
12.689 0.97799999 0.071999997
12.678 1.003 0.071000002
12.711 1.0319999 0.071000002
12.762 1.062 0.071000002
12.755 1.0880001 0.071000002
12.752 1.114 0.071000002
12.785 1.1440001 0.071000002
12.789 1.1720001 0.071000002
12.814 1.202 0.071000002
12.81 1.229 0.071000002
12.802 1.256 0.07
12.812 1.286 0.07
12.823 1.3150001 0.07
12.833 1.345 0.07
12.854 1.377 0.07
12.882 1.409 0.07
12.891 1.4400001 0.07
12.895 1.47 0.07
12.905 1.502 0.07
12.909 1.533 0.07
12.911 1.564 0.068999998
12.914 1.595 0.068999998
12.915 1.626 0.068999998
12.939 1.661 0.068999998
12.95 1.694 0.068999998
12.952 1.726 0.068999998
12.971 1.761 0.068999998
12.991 1.7970001 0.068999998
13.006 1.832 0.068999998
13.002 1.864 0.068000004
13.017 1.9 0.068000004
13.037 1.936 0.068000004
13.061 1.974 0.068000004
13.086 2.0120001 0.068000004
13.096 2.0480001 0.068000004
13.128 2.0880001 0.068000004
13.155 2.1270001 0.068000004
13.176 2.1659999 0.068000004
13.191 2.204 0.068000004
13.198 2.2409999 0.068000004
13.225 2.2820001 0.068000004
13.259 2.3239999 0.068000004
13.26 2.3610001 0.068000004
13.274 2.401 0.067000002
13.294 2.441 0.067000002
13.334 2.487 0.067000002
13.357 2.529 0.067000002
13.376 2.5710001 0.067000002
13.402 2.6140001 0.067000002
13.406 2.6530001 0.067000002
13.437 2.6989999 0.067000002
13.453 2.7409999 0.067000002
13.477 2.786 0.067000002
13.516 2.8340001 0.067000002
13.529 2.8770001 0.067000002
13.577 2.927 0.067000002
13.588 2.971 0.067000002
13.594 3.013 0.067000002
13.613 3.0580001 0.067000002
13.638 3.1059999 0.067000002
13.676 3.1559999 0.067000002
13.699 3.204 0.067000002
13.762 3.2609999 0.067000002
13.791 3.3110001 0.067000002
13.793 3.355 0.067000002
13.838 3.4089999 0.067000002
13.866 3.46 0.067000002
13.895 3.5109999 0.067000002
13.946 3.569 0.067000002
13.955 3.6159999 0.066
13.999 3.6719999 0.067000002
14.025 3.7249999 0.066
14.086 3.7869999 0.067000002
14.106 3.8380001 0.067000002
14.135 3.8929999 0.067000002
14.149 3.9430001 0.066
14.215 4.0089998 0.067000002
14.243 4.0640001 0.067000002
14.282 4.1230001 0.067000002
14.308 4.1789999 0.066
14.321 4.2309999 0.066
14.358 4.2909999 0.066
14.412 4.3559999 0.066
14.483 4.427 0.067000002
14.509 4.4850001 0.067000002
14.538 4.5450001 0.067000002
14.596 4.6129999 0.067000002
14.611 4.6690001 0.067000002
14.659 4.7360001 0.067000002
14.711 4.8039999 0.067000002
14.754 4.8699999 0.067000002
14.825 4.9460001 0.067000002
14.871 5.0149999 0.067000002
14.928 5.0879998 0.067000002
14.997 5.165 0.067000002
15.092 5.2519999 0.067000002
15.104 5.3109999 0.067000002
15.163 5.3870001 0.067000002
15.285 5.487 0.068000004
15.265 5.5349998 0.067000002
15.263 5.5910001 0.067000002
15.423 5.7069998 0.068000004
15.444 5.7719998 0.068000004
15.463 5.8369999 0.068000004
15.492 5.9060001 0.067000002
15.539 5.9819999 0.068000004
15.544 6.0430002 0.067000002
15.608 6.1269999 0.067000002
15.645 6.2010002 0.067000002
15.722 6.2919998 0.068000004
15.723 6.3520002 0.067000002
15.795 6.4419999 0.068000004
15.818 6.513 0.067000002
12.277 5.9419999 0.050000001
12.16 5.9359999 0.048999999
12.016 5.9159999 0.048
11.948 5.9320002 0.048
11.919 5.9679999 0.048
12.06 6.0900002 0.048
12.233 6.2290001 0.048999999
12.184 6.256 0.048
12.187 6.309 0.048
12.273 6.4060001 0.048
12.13 6.3839998 0.048
12.067 6.4029999 0.046999998
9.875 6.8249998 0.035
9.9250002 6.9070001 0.035
7.5489998 -4.9720001 0.14
7.5900002 -4.9520001 0.141
7.6100001 -4.9169998 0.141
7.6459999 -4.8930001 0.142
7.6719999 -4.8629999 0.142
7.6929998 -4.8299999 0.142
7.7309999 -4.8070002 0.14300001
7.7600002 -4.7789998 0.14399999
7.7719998 -4.7410002 0.14399999
7.7989998 -4.711 0.14399999
7.8309999 -4.6859999 0.145
7.8379998 -4.645 0.145
7.8709998 -4.619 0.145
7.902 -4.5929999 0.146
7.9219999 -4.5609999 0.146
7.9400001 -4.527 0.146
7.9720001 -4.5019999 0.147
7.9840002 -4.4650002 0.147
8.0089998 -4.4359999 0.148
8.033 -4.4060001 0.148
8.0539999 -4.3740001 0.148
8.0690002 -4.3400002 0.149
8.0860004 -4.3070002 0.149
8.1210003 -4.2839999 0.149
8.165 -4.2649999 0.15000001
8.1940002 -4.2379999 0.15099999
8.2119999 -4.2069998 0.15099999
8.224 -4.171 0.15099999
8.2460003 -4.1409998 0.152
8.2729998 -4.1139998 0.152
8.3030005 -4.0890002 0.152
8.3319998 -4.0619998 0.153
8.3660002 -4.039 0.154
8.3760004 -4.0040002 0.154
8.4040003 -3.977 0.154
8.4259996 -3.948 0.155
8.448 -3.918 0.155
8.4910002 -3.8989999 0.156
8.5100002 -3.869 0.156
8.5439997 -3.845 0.15700001
8.5780001 -3.822 0.15700001
8.6120005 -3.7980001 0.15800001
8.6120005 -3.76 0.15800001
8.6330004 -3.7309999 0.15800001
8.6730003 -3.71 0.15899999
8.6999998 -3.684 0.15899999
8.7329998 -3.6600001 0.16
8.7600002 -3.6329999 0.16
8.7740002 -3.6010001 0.161
8.8059998 -3.5769999 0.161
8.8380003 -3.553 0.162
8.8509998 -3.5209999 0.162
8.9110003 -3.5079999 0.163
8.9449997 -3.4849999 0.164
9.0500002 -3.4890001 0.16500001
8.1709995 -3.1170001 0.149
8.1090002 -3.0599999 0.148
8.1129999 -3.029 0.148
8.1230001 -3.0009999 0.148
8.2220001 -3.0050001 0.15000001
9.1520004 -3.309 0.167
9.1800003 -3.2839999 0.168
9.1969995 -3.2539999 0.168
9.2489996 -3.237 0.169
9.276 -3.211 0.169
9.3389997 -3.197 0.171
9.3889999 -3.1789999 0.17200001
8.1920004 -2.743 0.15000001
8.1429996 -2.697 0.149
8.1490002 -2.6689999 0.149
8.1639996 -2.6429999 0.149
8.1879997 -2.6210001 0.149
8.2959995 -2.6259999 0.15099999
9.8149996 -3.072 0.17900001
9.7229996 -3.0079999 0.178
9.7349997 -2.977 0.178
9.7440004 -2.9460001 0.178
9.7650003 -2.918 0.178
9.7969999 -2.8940001 0.17900001
9.8319998 -2.8699999 0.18000001
9.8559999 -2.8429999 0.18000001
9.8859997 -2.8180001 0.18000001
9.8990002 -2.789 0.18099999
9.9370003 -2.766 0.18099999
9.9549999 -2.7379999 0.182
9.9890003 -2.714 0.182
10.024 -2.691 0.183
10.04 -2.6619999 0.183
10.075 -2.638 0.184
10.086 -2.609 0.184
10.133 -2.5880001 0.185
10.147 -2.5599999 0.185
10.182 -2.536 0.186
10.197 -2.5079999 0.186
10.239 -2.4860001 0.18700001
10.271 -2.4619999 0.18799999
10.29 -2.4349999 0.18799999
10.325 -2.411 0.189
10.33 -2.381 0.189
10.357 -2.3559999 0.189
10.383 -2.3299999 0.19
10.413 -2.306 0.19
10.441 -2.2809999 0.191
10.491 -2.2609999 0.192
10.523 -2.237 0.192
10.557 -2.214 0.193
10.578 -2.187 0.193
10.612 -2.164 0.19400001
10.647 -2.1400001 0.19499999
10.651 -2.1110001 0.19499999
10.696 -2.0899999 0.19599999
10.733 -2.0669999 0.19599999
10.774 -2.0450001 0.197
10.78 -2.016 0.197
10.821 -1.994 0.198
10.815 -1.9630001 0.198
10.881 -1.9450001 0.199
10.905 -1.92 0.199
10.927 -1.895 0.2
10.95 -1.87 0.2
11.005 -1.85 0.20100001
11.025 -1.824 0.20200001
11.065 -1.802 0.20200001
11.134 -1.784 0.204
11.18 -1.763 0.205
11.173 -1.733 0.205
11.168 -1.7029999 0.204
11.19 -1.678 0.205
11.233 -1.6569999 0.206
11.287 -1.636 0.207
11.274 -1.6059999 0.207
11.309 -1.5829999 0.207
11.362 -1.563 0.208
11.409 -1.5420001 0.20900001
11.448 -1.5190001 0.20999999
11.485 -1.4960001 0.211
11.493 -1.47 0.211
11.508 -1.4450001 0.211
11.574 -1.426 0.212
11.588 -1.4 0.213
11.609 -1.376 0.213
11.655 -1.354 0.214
11.723 -1.335 0.215
11.761 -1.313 0.21600001
11.813 -1.291 0.21699999
11.839 -1.268 0.21699999
11.822 -1.239 0.21699999
11.856 -1.217 0.21799999
11.875 -1.192 0.21799999
11.94 -1.173 0.219
11.971 -1.15 0.22
12.045 -1.131 0.221
12.087 -1.109 0.222
12.108 -1.085 0.223
12.167 -1.064 0.22400001
12.19 -1.04 0.22400001
12.204 -1.016 0.22499999
12.281 -0.99699998 0.226
12.311 -0.97399998 0.227
12.271 -0.94599998 0.226
12.321 -0.92400002 0.227
12.405 -0.90600002 0.228
12.404 0.162 0.111
12.439 0.185 0.111
12.486 0.208 0.112
12.492 0.23199999 0.111
12.518 0.255 0.111
12.545 0.27900001 0.111
12.538 0.303 0.111
12.572 0.32800001 0.111
12.598 0.35299999 0.111
12.576 0.377 0.111
12.603 0.403 0.111
12.596 0.428 0.111
12.616 0.454 0.111
12.642 0.48100001 0.111
12.641 0.50700003 0.111
12.64 0.53299999 0.11
12.632 0.55900002 0.11
12.645 0.58700001 0.11
12.642 0.61400002 0.11
12.655 0.64200002 0.11
12.674 0.67000002 0.11
12.652 0.69700003 0.109
12.672 0.72600001 0.109
12.689 0.75599998 0.109
12.689 0.78399998 0.109
12.7 0.81400001 0.109
12.707 0.84299999 0.109
12.711 0.87300003 0.109
12.735 0.90399998 0.109
12.76 0.93599999 0.109
12.772 0.96700001 0.109
12.774 0.99699998 0.109
12.798 1.03 0.109
12.826 1.063 0.109
12.87 1.098 0.109
12.901 1.132 0.109
12.919 1.166 0.109
12.896 1.196 0.109
12.893 1.228 0.108
12.907 1.261 0.108
12.907 1.294 0.108
12.924 1.329 0.108
12.92 1.3609999 0.108
12.928 1.396 0.108
12.945 1.431 0.108
12.973 1.4680001 0.108
12.99 1.5039999 0.108
12.995 1.539 0.108
12.998 1.574 0.108
13.018 1.6109999 0.108
13.024 1.647 0.107
13.047 1.6849999 0.107
13.039 1.719 0.107
13.085 1.761 0.107
13.08 1.796 0.107
13.102 1.835 0.107
13.121 1.874 0.107
13.146 1.915 0.107
13.153 1.952 0.107
13.185 1.994 0.107
13.23 2.0380001 0.107
13.26 2.0810001 0.107
13.293 2.1240001 0.108
13.34 2.1700001 0.108
13.342 2.2090001 0.108
13.355 2.2490001 0.108
13.362 2.289 0.107
13.41 2.3369999 0.108
13.445 2.382 0.108
13.464 2.425 0.108
13.498 2.471 0.108
13.543 2.52 0.108
13.562 2.5639999 0.108
13.587 2.609 0.108
13.602 2.6530001 0.108
13.647 2.7030001 0.108
13.659 2.747 0.108
13.69 2.7950001 0.108
13.756 2.8499999 0.109
13.78 2.898 0.109
13.812 2.947 0.109
13.83 2.994 0.109
13.829 3.036 0.109
13.902 3.096 0.109
13.933 3.1459999 0.109
13.96 3.1960001 0.109
14.003 3.25 0.109
14.051 3.306 0.109
14.109 3.3640001 0.11
14.117 3.411 0.11
14.124 3.457 0.11
14.137 3.506 0.109
14.177 3.562 0.11
14.207 3.615 0.11
14.27 3.677 0.11
14.328 3.7379999 0.11
14.439 3.8139999 0.111
14.47 3.8699999 0.111
14.492 3.9230001 0.111
14.521 3.9779999 0.111
14.547 4.0339999 0.111
14.589 4.0929999 0.111
14.626 4.152 0.111
14.681 4.2160001 0.112
14.757 4.2870002 0.112
14.771 4.3410001 0.112
14.778 4.3920002 0.112
14.839 4.46 0.112
14.875 4.5209999 0.112
14.961 4.598 0.113
15.022 4.6669998 0.113
15.066 4.7319999 0.113
15.117 4.8000002 0.113
15.159 4.8639998 0.114
15.255 4.947 0.114
15.227 4.9899998 0.114
15.277 5.059 0.114
15.332 5.1300001 0.114
15.393 5.204 0.114
15.406 5.2610002 0.114
15.477 5.3390002 0.115
15.506 5.4029999 0.115
15.643 5.5050001 0.116
15.655 5.5640001 0.116
15.684 5.6290002 0.116
15.809 5.7290001 0.116
15.777 5.7729998 0.116
15.804 5.8379998 0.116
15.856 5.9130001 0.116
15.903 5.9860001 0.116
15.929 6.052 0.116
15.98 6.1279998 0.117
16.035999 6.2069998 0.117
16.09 6.2849998 0.117
16.117001 6.3530002 0.117
16.155001 6.4250002 0.117
16.205 6.5029998 0.117
14.773 6.0339999 0.107
14.796 6.0960002 0.107
12.491 5.7779999 0.088
12.517 5.835 0.088
12.331 5.973 0.086000003
12.208 5.9580002 0.085000001
12.013 5.9070001 0.083999999
11.928 5.9089999 0.082999997
11.911 5.9439998 0.082999997
11.901 5.9819999 0.082000002
11.976 6.0630002 0.082999997
12.217 6.23 0.083999999
12.199 6.2659998 0.083999999
12.21 6.316 0.083999999
12.302 6.408 0.085000001
12.18 6.3889999 0.083999999
12.08 6.381 0.082999997
12.059 6.414 0.082999997
12.167 6.5159998 0.082999997
8.2049999 -4.8390002 0.169
8.2150002 -4.822 0.17
8.2320004 -4.809 0.17
8.243 -4.7919998 0.17
8.2659998 -4.7810001 0.171
8.2690001 -4.7589998 0.171
8.2860003 -4.7459998 0.171
8.302 -4.7309999 0.17200001
8.2880001 -4.6989999 0.171
8.3219995 -4.6950002 0.17200001
8.302 -4.6589999 0.17200001
8.316 -4.6440001 0.17200001
8.3310003 -4.6290002 0.17200001
8.3500004 -4.6149998 0.17299999
8.3760004 -4.605 0.17299999
8.3839998 -4.585 0.17399999
8.3940001 -4.5669999 0.17399999
8.3959999 -4.5440001 0.17399999
8.4139996 -4.5289998 0.17399999
8.4209995 -4.5089998 0.175
8.4399996 -4.4949999 0.175
8.4580002 -4.48 0.175
8.467 -4.46 0.176
8.4829998 -4.4439998 0.176
8.5369997 -4.448 0.177
8.5469999 -4.4289999 0.177
8.5769997 -4.4190001 0.178
8.5939999 -4.4029999 0.178
8.5719995 -4.3670001 0.178
8.5819998 -4.348 0.178
8.585 -4.3239999 0.178
8.5939999 -4.3039999 0.17900001
8.6309996 -4.2969999 0.17900001
8.6359997 -4.2750001 0.17900001
8.6540003 -4.2589998 0.18000001
8.6660004 -4.2399998 0.18000001
8.6709995 -4.217 0.18000001
8.6940002 -4.2030001 0.18099999
8.6969995 -4.1789999 0.18099999
8.6969995 -4.1539998 0.18099999
8.71 -4.1350002 0.18099999
8.75 -4.1279998 0.182
8.7729998 -4.1139998 0.183
8.7779999 -4.0910001 0.183
8.7799997 -4.066 0.183
8.8109999 -4.0549998 0.183
8.8149996 -4.0310001 0.184
8.835 -4.0149999 0.184
8.8579998 -4 0.185
8.8719997 -3.98 0.185
8.8859997 -3.961 0.185
8.8959999 -3.9389999 0.185
8.9130001 -3.921 0.186
8.9119997 -3.8940001 0.186
8.9630003 -3.891 0.18700001
8.9779997 -3.8710001 0.18700001
8.9870005 -3.849 0.18700001
9.0240002 -3.839 0.18799999
9.0290003 -3.8139999 0.18799999
9.0369997 -3.7920001 0.189
9.0719995 -3.78 0.189
9.0930004 -3.7620001 0.19
9.0880003 -3.734 0.19
9.1269999 -3.723 0.191
9.1210003 -3.694 0.19
9.158 -3.6830001 0.191
9.1809998 -3.665 0.192
9.1960001 -3.645 0.192
9.2130003 -3.625 0.192
9.2740002 -3.622 0.19400001
8.1809998 -3.171 0.171
8.1160002 -3.122 0.17
8.0970001 -3.0910001 0.169
8.0889997 -3.0650001 0.169
8.125 -3.0550001 0.17
8.1409998 -3.0380001 0.17
8.2089996 -3.039 0.17200001
9.4469995 -3.47 0.198
9.4449997 -3.4419999 0.197
9.4659996 -3.4219999 0.198
9.474 -3.3970001 0.198
9.4949999 -3.3770001 0.199
9.5109997 -3.355 0.199
9.5389996 -3.3380001 0.2
9.5810003 -3.325 0.2
9.5769997 -3.296 0.2
9.625 -3.2839999 0.20100001
8.217 -2.78 0.17200001
8.1639996 -2.7379999 0.171
8.151 -2.71 0.171
8.158 -2.6889999 0.171
8.1829996 -2.674 0.171
8.198 -2.655 0.17200001
8.2309999 -2.642 0.17200001
8.2880001 -2.6359999 0.17399999
8.3059998 -2.618 0.17399999
9.9259996 -3.099 0.208
9.8660002 -3.052 0.207
9.8620005 -3.0220001 0.207
9.8920002 -3.003 0.207
9.9040003 -2.9779999 0.208
9.9259996 -2.9560001 0.208
9.9280005 -2.928 0.208
9.941 -2.9030001 0.208
9.9700003 -2.8829999 0.20900001
9.9910002 -2.8599999 0.20900001
10.017 -2.8380001 0.20999999
10.041 -2.816 0.211
10.057 -2.7920001 0.211
10.077 -2.7679999 0.211
10.105 -2.747 0.212
10.134 -2.7249999 0.213
10.156 -2.7019999 0.213
10.192 -2.6819999 0.214
10.194 -2.6530001 0.214
10.225 -2.632 0.215
10.247 -2.608 0.215
10.28 -2.5869999 0.21600001
10.287 -2.559 0.21600001
10.308 -2.5350001 0.21600001
10.335 -2.5120001 0.21699999
10.35 -2.4849999 0.21699999
10.386 -2.464 0.21799999
10.401 -2.438 0.21799999
10.412 -2.4100001 0.219
10.439 -2.3859999 0.219
10.479 -2.3659999 0.22
10.509 -2.342 0.221
10.536 -2.3180001 0.221
10.57 -2.2950001 0.222
10.561 -2.263 0.222
10.63 -2.247 0.223
10.65 -2.221 0.22400001
10.701 -2.201 0.22499999
10.73 -2.1760001 0.22499999
10.74 -2.1470001 0.226
10.774 -2.1229999 0.226
10.794 -2.096 0.227
10.839 -2.073 0.228
10.866 -2.0469999 0.228
10.916 -2.026 0.229
10.95 -2 0.23
11.001 -1.978 0.23100001
11.018 -1.95 0.23199999
11.041 -1.9220001 0.23199999
11.078 -1.897 0.233
11.122 -1.873 0.234
11.136 -1.8430001 0.234
11.17 -1.817 0.235
11.274 -1.801 0.237
11.4 -1.789 0.23999999
11.334 -1.7460001 0.23800001
11.345 -1.715 0.23899999
11.394 -1.6900001 0.23999999
11.432 -1.663 0.23999999
11.494 -1.6390001 0.242
11.521 -1.61 0.242
11.57 -1.584 0.243
11.62 -1.558 0.244
11.662 -1.53 0.245
11.687 -1.5 0.24600001
11.733 -1.472 0.24699999
11.789 -1.446 0.248
11.878 -1.423 0.25
11.9 -1.391 0.25
11.949 -1.363 0.25099999
11.968 -1.331 0.252
12.001 -1.3 0.25299999
12.064 -1.273 0.25400001
12.106 -1.243 0.255
12.216 -1.219 0.257
12.233 -1.186 0.257
12.267 -1.154 0.25799999
12.336 -1.091 0.25999999
12.404 -1.061 0.26100001
12.417 -1.027 0.26100001
13.323 0.47099999 0.145
13.194 0.486 0.14300001
13.214 0.50700003 0.14300001
13.111 0.523 0.142
13.11 0.54400003 0.141
13.102 0.56400001 0.141
13.128 0.58600003 0.141
13.114 0.60699999 0.141
13.099 0.62800002 0.141
13.119 0.65100002 0.141
13.107 0.67199999 0.14
13.109 0.69499999 0.14
13.108 0.71700001 0.14
13.114 0.741 0.14
13.124 0.76499999 0.14
13.138 0.78899997 0.14
13.116 0.81199998 0.139
13.128 0.83700001 0.139
13.121 0.861 0.139
13.116 0.88499999 0.139
13.112 0.91000003 0.139
13.121 0.93599999 0.139
13.109 0.95999998 0.138
13.109 0.986 0.138
13.132 1.0140001 0.138
13.132 1.041 0.138
13.145 1.068 0.138
13.208 1.101 0.139
13.237 1.13 0.139
13.269 1.161 0.139
13.225 1.1849999 0.138
13.201 1.211 0.138
13.179 1.237 0.138
13.199 1.268 0.138
13.208 1.298 0.138
13.205 1.326 0.13699999
13.215 1.357 0.13699999
13.244 1.39 0.138
13.277 1.423 0.138
13.294 1.455 0.138
13.291 1.4859999 0.138
13.306 1.518 0.138
13.311 1.55 0.138
13.314 1.582 0.13699999
13.33 1.615 0.13699999
13.353 1.65 0.138
13.349 1.682 0.13699999
13.385 1.719 0.138
13.397 1.7539999 0.138
13.427 1.791 0.138
13.408 1.821 0.13699999
13.47 1.864 0.138
13.476 1.899 0.138
13.501 1.936 0.138
13.522 1.974 0.138
13.525 2.0090001 0.138
13.547 2.0480001 0.138
13.573 2.0869999 0.138
13.596 2.1270001 0.138
13.598 2.1630001 0.138
13.63 2.204 0.138
13.65 2.244 0.139
13.677 2.286 0.139
13.68 2.323 0.139
13.749 2.3729999 0.139
13.782 2.4159999 0.139
13.797 2.457 0.139
13.882 2.5109999 0.14
13.881 2.55 0.14
13.876 2.5880001 0.14
13.911 2.6340001 0.14
13.927 2.677 0.14
13.952 2.721 0.14
14.015 2.7739999 0.141
14.052 2.822 0.141
14.093 2.872 0.141
14.089 2.9119999 0.141
14.112 2.9590001 0.141
14.181 3.0150001 0.142
14.198 3.0610001 0.142
14.252 3.1159999 0.14300001
14.296 3.168 0.14300001
14.33 3.22 0.14300001
14.38 3.2750001 0.14300001
14.445 3.3340001 0.14399999
14.489 3.388 0.14399999
14.457 3.4260001 0.14399999
14.508 3.483 0.14399999
14.49 3.5239999 0.14399999
14.486 3.569 0.14399999
14.507 3.6199999 0.14399999
14.643 3.7 0.145
14.748 3.7739999 0.146
14.695 3.8080001 0.146
14.722 3.862 0.146
14.808 3.9330001 0.147
14.854 3.993 0.147
14.868 4.0450001 0.147
14.91 4.1059999 0.147
14.969 4.1719999 0.148
14.986 4.2259998 0.148
14.984 4.2750001 0.148
15.048 4.3439999 0.148
15.093 4.408 0.149
15.197 4.4899998 0.15000001
15.202 4.5430002 0.15000001
15.247 4.6079998 0.15000001
15.265 4.6659999 0.15000001
15.387 4.756 0.15099999
15.43 4.823 0.152
15.448 4.882 0.152
15.615 4.9889998 0.153
15.577 5.0320001 0.153
15.666 5.1149998 0.153
15.689 5.1789999 0.154
15.764 5.2589998 0.154
15.774 5.3189998 0.154
15.818 5.3899999 0.155
15.815 5.4460001 0.155
15.943 5.5479999 0.156
15.998 5.625 0.156
15.985 5.678 0.156
16.075001 5.7690001 0.15700001
16.108999 5.8400002 0.15700001
16.184999 5.928 0.15800001
16.177999 5.9850001 0.15800001
16.216 6.0599999 0.15800001
16.221001 6.1220002 0.15800001
12.29 5.8969998 0.119
12.244 5.9250002 0.118
12.005 5.8600001 0.116
11.945 5.8800001 0.115
11.966 5.941 0.115
12.007 6.0110002 0.116
12.228 6.2259998 0.118
12.304 6.316 0.119
12.254 6.3429999 0.118
12.169 6.3509998 0.117
12.103 6.369 0.117
12.122 6.4310002 0.117
12.231 6.5419998 0.118
7.8249998 -5.152 0.183
7.8720002 -5.1339998 0.184
7.9120002 -5.1110001 0.184
7.9400001 -5.079 0.185
7.9679999 -5.0489998 0.186
8.0089998 -5.026 0.186
8.0179996 -4.9840002 0.186
8.04 -4.9499998 0.18700001
8.0710001 -4.9219999 0.18799999
8.1040001 -4.8940001 0.18799999
8.1389999 -4.868 0.189
8.158 -4.8330002 0.189
8.1820002 -4.8010001 0.19
8.2130003 -4.7719998 0.19
8.2390003 -4.7420001 0.191
8.2589998 -4.7069998 0.191
8.2969999 -4.6830001 0.192
8.3319998 -4.658 0.193
8.3430004 -4.619 0.193
8.3859997 -4.598 0.19400001
8.4099998 -4.566 0.19400001
8.4519997 -4.5450001 0.19499999
8.4870005 -4.5190001 0.19599999
8.5030003 -4.4840002 0.19599999
8.5200005 -4.4489999 0.197
8.5319996 -4.4120002 0.197
8.5579996 -4.3829999 0.197
8.5830002 -4.3520002 0.198
8.6160002 -4.3260002 0.198
8.658 -4.3049998 0.199
8.677 -4.2709999 0.2
8.6879997 -4.2350001 0.2
8.7150002 -4.2059999 0.2
8.7379999 -4.1750002 0.20100001
8.7589998 -4.1440001 0.20100001
8.7959995 -4.1199999 0.20200001
8.7860003 -4.0739999 0.20200001
8.8330002 -4.0549998 0.20299999
8.8599997 -4.027 0.20299999
8.908 -4.0079999 0.204
8.9309998 -3.9779999 0.205
8.9530001 -3.948 0.205
8.9799995 -3.9189999 0.206
9.0100002 -3.8929999 0.207
9.0360003 -3.8640001 0.207
9.0640001 -3.836 0.208
9.1160002 -3.819 0.20900001
9.1309996 -3.786 0.20900001
9.1619997 -3.76 0.20999999
9.191 -3.733 0.20999999
9.2110004 -3.7019999 0.211
9.2379999 -3.675 0.211
9.2779999 -3.652 0.212
9.3030005 -3.6240001 0.213
9.3439999 -3.6010001 0.214
8.1780005 -3.119 0.18700001
8.1140003 -3.062 0.185
8.1120005 -3.029 0.185
8.1440001 -3.0079999 0.186
8.2209997 -3.0039999 0.18799999
9.559 -3.4549999 0.21799999
9.5740004 -3.424 0.219
9.5889997 -3.392 0.219
9.6280003 -3.369 0.22
9.665 -3.345 0.221
9.684 -3.3150001 0.221
9.7469997 -3.3 0.222
8.1850004 -2.74 0.18700001
8.1459999 -2.697 0.186
8.1599998 -2.6719999 0.186
8.2040005 -2.6559999 0.18700001
8.2609997 -2.645 0.18799999
8.276 -2.619 0.189
8.3940001 -2.6270001 0.191
9.9490004 -3.0780001 0.227
9.9589996 -3.046 0.227
10.01 -3.026 0.228
10.033 -2.9979999 0.229
10.031 -2.9619999 0.229
10.069 -2.9389999 0.229
10.089 -2.911 0.23
10.118 -2.8840001 0.23
10.148 -2.859 0.23100001
10.17 -2.8310001 0.23199999
10.2 -2.8050001 0.23199999
10.244 -2.783 0.233
10.274 -2.757 0.234
10.31 -2.733 0.235
10.346 -2.7090001 0.235
10.367 -2.681 0.236
10.423 -2.6619999 0.237
10.431 -2.631 0.237
10.439 -2.5999999 0.23800001
10.461 -2.573 0.23800001
10.504 -2.55 0.23899999
10.532 -2.5239999 0.23999999
10.546 -2.4949999 0.23999999
10.573 -2.4690001 0.241
10.61 -2.4449999 0.241
10.65 -2.4219999 0.242
10.671 -2.395 0.243
10.706 -2.3710001 0.244
10.726 -2.3429999 0.244
10.769 -2.3210001 0.245
10.802 -2.2969999 0.24600001
10.83 -2.2709999 0.24600001
10.85 -2.244 0.24699999
10.893 -2.221 0.248
10.915 -2.194 0.248
10.933 -2.1670001 0.249
11.012 -2.152 0.25099999
11.065 -2.131 0.252
11.09 -2.105 0.252
11.138 -2.0829999 0.25299999
11.189 -2.062 0.255
11.149 -2.0239999 0.25400001
11.22 -2.006 0.255
11.244 -1.98 0.25600001
11.284 -1.957 0.257
11.304 -1.9299999 0.257
11.358 -1.909 0.25799999
11.397 -1.886 0.259
11.446 -1.864 0.25999999
11.437 -1.8329999 0.25999999
11.511 -1.8150001 0.26199999
11.523 -1.7869999 0.26199999
11.505 -1.755 0.26199999
11.588 -1.738 0.264
11.592 -1.71 0.264
11.682 -1.694 0.266
11.722 -1.671 0.26699999
11.732 -1.643 0.26699999
11.772 -1.62 0.26800001
11.801 -1.595 0.26899999
11.815 -1.568 0.26899999
11.818 -1.54 0.26899999
11.84 -1.515 0.27000001
11.882 -1.492 0.271
11.912 -1.4680001 0.271
11.986 -1.449 0.273
11.999 -1.4220001 0.273
12.07 -1.403 0.27500001
12.098 -1.378 0.27599999
12.116 -1.353 0.27599999
12.157 -1.33 0.27700001
12.214 -1.308 0.278
12.238 -1.284 0.27900001
12.277 -1.26 0.28
12.272 -1.233 0.28
12.3 -1.209 0.28099999
12.377 -1.189 0.28200001
12.464 -1.171 0.28400001
12.503 -1.147 0.285
12.556 -1.125 0.287
12.558 -1.099 0.287
12.916 0.171 0.17900001
12.901 0.19400001 0.178
12.969 0.21799999 0.17900001
12.981 0.242 0.17900001
12.995 0.26699999 0.17900001
13.035 0.292 0.18000001
13.042 0.317 0.17900001
13.061 0.34200001 0.17900001
13.041 0.36700001 0.17900001
13.059 0.39300001 0.17900001
13.041 0.419 0.17900001
13.052 0.44499999 0.17900001
13.051 0.47099999 0.178
13.056 0.498 0.178
13.061 0.52499998 0.178
13.081 0.55299997 0.178
13.067 0.57999998 0.178
13.072 0.60799998 0.178
13.065 0.63599998 0.177
13.102 0.66600001 0.178
13.095 0.69400001 0.178
13.114 0.72399998 0.178
13.112 0.75300002 0.177
13.111 0.78200001 0.177
13.121 0.81199998 0.177
13.121 0.84200001 0.177
13.14 0.87300003 0.177
13.139 0.903 0.177
13.128 0.93300003 0.177
13.122 0.96399999 0.176
13.13 0.995 0.176
13.141 1.027 0.176
13.154 1.0599999 0.176
13.178 1.0930001 0.176
13.223 1.1289999 0.177
13.28 1.1670001 0.178
13.278 1.199 0.177
13.247 1.229 0.177
13.238 1.261 0.177
13.223 1.293 0.176
13.245 1.329 0.176
13.268 1.365 0.176
13.292 1.401 0.177
13.323 1.439 0.177
13.34 1.475 0.177
13.34 1.51 0.177
13.351 1.546 0.177
13.382 1.585 0.177
13.384 1.6210001 0.177
13.406 1.66 0.177
13.441 1.7 0.177
13.471 1.74 0.178
13.515 1.7819999 0.178
13.53 1.821 0.178
13.579 1.865 0.17900001
13.568 1.901 0.178
13.608 1.944 0.17900001
13.63 1.9859999 0.17900001
13.651 2.027 0.17900001
13.658 2.066 0.17900001
13.682 2.108 0.17900001
13.705 2.151 0.17900001
13.722 2.1930001 0.18000001
13.778 2.2409999 0.18000001
13.825 2.289 0.18099999
13.852 2.3329999 0.18099999
13.899 2.382 0.18099999
13.974 2.4349999 0.182
13.993 2.48 0.182
14.046 2.53 0.183
14.094 2.5810001 0.183
14.131 2.6289999 0.184
14.158 2.677 0.184
14.206 2.7279999 0.184
14.214 2.773 0.184
14.269 2.8269999 0.185
14.339 2.8840001 0.186
14.363 2.9319999 0.186
14.428 2.99 0.18700001
14.454 3.04 0.18700001
14.548 3.1040001 0.18799999
14.616 3.164 0.189
14.658 3.2179999 0.189
14.682 3.2690001 0.189
14.739 3.3280001 0.19
14.782 3.3840001 0.191
14.813 3.438 0.191
14.859 3.4949999 0.191
14.909 3.5550001 0.192
14.939 3.609 0.192
14.968 3.664 0.192
15.031 3.727 0.193
15.007 3.77 0.193
15.106 3.8429999 0.19400001
15.141 3.901 0.19400001
15.196 3.964 0.19499999
15.228 4.0219998 0.19499999
15.255 4.079 0.19499999
15.281 4.1360002 0.19599999
15.399 4.2189999 0.197
15.445 4.2820001 0.198
15.491 4.3460002 0.198
15.561 4.4169998 0.199
15.572 4.4720001 0.199
15.626 4.539 0.199
15.713 4.6170001 0.2
15.779 4.6890001 0.20100001
15.831 4.7579999 0.20200001
15.874 4.8239999 0.20200001
15.961 4.9039998 0.20299999
16.059 4.9889998 0.204
16.080999 5.0500002 0.205
16.138 5.1230001 0.205
16.115 5.171 0.205
16.233999 5.2639999 0.206
16.250999 5.3249998 0.206
16.309 5.4000001 0.207
16.351 5.4710002 0.208
16.375 5.5349998 0.208
16.42 5.6069999 0.208
16.486 5.6859999 0.20900001
16.468 5.737 0.20900001
16.478001 5.7979999 0.20900001
16.507999 5.8660002 0.20900001
16.594999 5.9549999 0.20999999
16.66 6.0370002 0.211
16.673 6.0999999 0.211
16.783001 6.1989999 0.212
13.101 5.585 0.16500001
12.881 5.5370002 0.162
12.714 5.5120001 0.16
12.619 5.5159998 0.15800001
12.816 5.6479998 0.161
12.292 5.9089999 0.154
12.28 5.948 0.154
12.173 6.0289998 0.152
12.161 6.0679998 0.152
12.143 6.1030002 0.152
12.269 6.3010001 0.153
12.205 6.3119998 0.153
12.248 6.3790002 0.153
8.5380001 -5.039 0.21600001
8.5530005 -5.0240002 0.21699999
8.5620003 -5.0050001 0.21699999
8.5939999 -4.9990001 0.21799999
8.5979996 -4.9770002 0.21799999
8.6140003 -4.9619999 0.21799999
8.6199999 -4.941 0.219
8.6260004 -4.9190001 0.219
8.6420002 -4.9039998 0.219
8.651 -4.8839998 0.22
8.658 -4.8629999 0.22
8.6920004 -4.8569999 0.221
8.6859999 -4.829 0.22
8.6999998 -4.8119998 0.221
8.71 -4.7930002 0.221
8.7209997 -4.7729998 0.221
8.6999998 -4.737 0.221
8.7489996 -4.7379999 0.222
8.7580004 -4.7179999 0.222
8.7629995 -4.6960001 0.223
8.7670002 -4.6729999 0.223
8.783 -4.6560001 0.223
8.8039999 -4.6409998 0.22400001
8.8050003 -4.6160002 0.22400001
8.8540001 -4.6170001 0.22499999
8.882 -4.605 0.226
8.8920002 -4.585 0.226
8.8649998 -4.5450001 0.22499999
8.8620005 -4.5180001 0.22499999
8.8800001 -4.5019999 0.226
8.8909998 -4.4819999 0.226
8.9069996 -4.4640002 0.227
8.9169998 -4.4429998 0.227
8.927 -4.4219999 0.227
8.9510002 -4.408 0.228
8.9790001 -4.3959999 0.228
8.9910002 -4.375 0.229
8.9860001 -4.3470001 0.229
9.0050001 -4.3299999 0.229
9.0340004 -4.3179998 0.23
9.0530005 -4.3010001 0.23
9.0799999 -4.2870002 0.23100001
9.092 -4.2659998 0.23100001
9.1029997 -4.2449999 0.23199999
9.1120005 -4.223 0.23199999
9.1169996 -4.1989999 0.23199999
9.1459999 -4.1849999 0.233
9.1669998 -4.1680002 0.233
9.1639996 -4.1399999 0.233
9.1949997 -4.1269999 0.234
9.21 -4.1079998 0.235
9.2320004 -4.0900002 0.235
9.2279997 -4.0619998 0.235
9.2639999 -4.0510001 0.236
9.2840004 -4.0320001 0.237
9.2849998 -4.006 0.237
9.323 -3.9949999 0.23800001
9.3240004 -3.9690001 0.23800001
9.3540001 -3.954 0.23800001
9.3850002 -3.9400001 0.23899999
9.3859997 -3.9130001 0.23899999
9.3970003 -3.8900001 0.23999999
9.4169998 -3.8710001 0.23999999
9.4490004 -3.8570001 0.241
9.4720001 -3.839 0.241
9.4689999 -3.8099999 0.241
9.5120001 -3.799 0.243
9.5150003 -3.773 0.243
9.5699997 -3.767 0.244
9.5869999 -3.7460001 0.244
8.1929998 -3.177 0.20900001
8.1149998 -3.1229999 0.207
8.092 -3.0910001 0.206
8.1029997 -3.072 0.207
8.125 -3.0569999 0.207
8.1520004 -3.043 0.208
8.2329998 -3.049 0.20999999
9.7410002 -3.579 0.248
9.7299995 -3.5469999 0.248
9.7320004 -3.52 0.248
9.7340002 -3.4920001 0.248
9.7770004 -3.4790001 0.249
9.8000002 -3.4590001 0.25
9.8280001 -3.4400001 0.25099999
9.8509998 -3.4200001 0.25099999
9.8479996 -3.3900001 0.25099999
8.1949997 -2.7969999 0.20900001
8.1129999 -2.7460001 0.207
8.1210003 -2.7249999 0.207
8.1210003 -2.701 0.207
8.1260004 -2.6800001 0.207
8.1549997 -2.6659999 0.208
8.2390003 -2.6689999 0.20999999
8.2639999 -2.6530001 0.211
8.2720003 -2.632 0.211
8.3879995 -2.6440001 0.214
10.16 -3.174 0.259
10.107 -3.128 0.25799999
10.107 -3.099 0.25799999
10.15 -3.082 0.259
10.152 -3.0539999 0.259
10.187 -3.0350001 0.25999999
10.209 -3.0120001 0.26100001
10.222 -2.9860001 0.26100001
10.239 -2.961 0.26100001
10.259 -2.937 0.26199999
10.269 -2.911 0.26199999
10.288 -2.8859999 0.26300001
10.319 -2.865 0.26300001
10.367 -2.849 0.26499999
10.381 -2.823 0.26499999
10.409 -2.8 0.266
10.436 -2.777 0.266
10.449 -2.75 0.26699999
10.487 -2.73 0.26800001
10.541 -2.714 0.26899999
10.571 -2.691 0.27000001
10.565 -2.6589999 0.27000001
10.588 -2.6340001 0.27000001
10.596 -2.6059999 0.271
10.635 -2.585 0.27200001
10.641 -2.556 0.27200001
10.66 -2.529 0.27200001
10.688 -2.5050001 0.273
10.732 -2.4849999 0.27399999
10.759 -2.46 0.27500001
10.773 -2.4319999 0.27500001
10.797 -2.4070001 0.27599999
10.856 -2.3889999 0.27700001
10.874 -2.3610001 0.278
10.925 -2.3410001 0.27900001
10.939 -2.313 0.27900001
10.981 -2.29 0.28
11.028 -2.2679999 0.28200001
11.049 -2.24 0.28200001
11.07 -2.2130001 0.28299999
11.123 -2.1919999 0.28400001
11.189 -2.1719999 0.28600001
11.214 -2.145 0.28600001
11.276 -2.125 0.28799999
11.309 -2.098 0.289
11.359 -2.075 0.28999999
11.377 -2.046 0.28999999
11.425 -2.0220001 0.292
11.451 -1.994 0.292
11.507 -1.97 0.294
11.562 -1.947 0.29499999
11.539 -1.91 0.29499999
11.579 -1.883 0.296
11.57 -1.848 0.29499999
11.581 -1.817 0.296
11.588 -1.785 0.296
11.584 -1.751 0.296
11.645 -1.727 0.29699999
11.758 -1.71 0.30000001
11.771 -1.678 0.30000001
11.818 -1.651 0.30199999
11.828 -1.619 0.30199999
11.833 -1.586 0.30199999
11.858 -1.5549999 0.303
11.936 -1.531 0.30500001
12.068 -1.5140001 0.308
12.17 -1.492 0.31099999
12.224 -1.464 0.31200001
12.261 -1.433 0.31299999
12.318 -1.404 0.31400001
12.357 -1.374 0.315
12.415 -1.345 0.317
12.482 -1.316 0.31799999
12.546 -1.2869999 0.31999999
13.598 0.44400001 0.214
13.582 0.463 0.213
13.56 0.48199999 0.213
13.586 0.50300002 0.213
13.486 0.51999998 0.211
13.477 0.54000002 0.211
13.484 0.56099999 0.211
13.481 0.583 0.211
13.461 0.60299999 0.20999999
13.475 0.62599999 0.20999999
13.432 0.64600003 0.20900001
13.443 0.66900003 0.20900001
13.404 0.68900001 0.20900001
13.415 0.713 0.20900001
13.455 0.73799998 0.20900001
13.426 0.75999999 0.208
13.458 0.78600001 0.20900001
13.45 0.81 0.20900001
13.422 0.833 0.208
13.447 0.85900003 0.208
13.44 0.88300002 0.208
13.448 0.90899998 0.208
13.448 0.935 0.208
13.462 0.96200001 0.208
13.487 0.99000001 0.208
13.491 1.017 0.208
13.513 1.045 0.208
13.502 1.072 0.208
13.524 1.101 0.208
13.578 1.133 0.20900001
13.653 1.1670001 0.20999999
13.661 1.197 0.20999999
13.631 1.223 0.20900001
13.596 1.248 0.208
13.607 1.279 0.20900001
13.613 1.309 0.208
13.599 1.337 0.208
13.66 1.373 0.20900001
13.716 1.41 0.20999999
13.758 1.4450001 0.20999999
13.769 1.477 0.20999999
13.792 1.511 0.211
13.784 1.5420001 0.20999999
13.785 1.574 0.20999999
13.802 1.608 0.20999999
13.825 1.6440001 0.211
13.882 1.683 0.211
13.899 1.719 0.212
13.921 1.755 0.212
13.925 1.79 0.212
13.927 1.824 0.212
13.977 1.865 0.212
14.01 1.904 0.213
14.027 1.942 0.213
14.072 1.983 0.214
14.08 2.02 0.214
14.094 2.0580001 0.214
14.137 2.1010001 0.214
14.186 2.145 0.215
14.232 2.1889999 0.21600001
14.275 2.234 0.21600001
14.318 2.2780001 0.21699999
14.311 2.3150001 0.21600001
14.361 2.362 0.21699999
14.42 2.4100001 0.21799999
14.508 2.4649999 0.219
14.498 2.503 0.219
14.513 2.5450001 0.219
14.554 2.592 0.22
14.553 2.6329999 0.22
14.58 2.6789999 0.22
14.68 2.7379999 0.221
14.757 2.7950001 0.223
14.799 2.845 0.223
14.827 2.8929999 0.22400001
14.845 2.9389999 0.22400001
14.84 2.9809999 0.22400001
14.892 3.0350001 0.22400001
14.932 3.0869999 0.22499999
14.974 3.1400001 0.22499999
14.992 3.188 0.226
15.029 3.2409999 0.226
15.064 3.293 0.227
15.148 3.358 0.228
15.178 3.4100001 0.228
15.224 3.467 0.229
15.237 3.517 0.229
15.23 3.562 0.229
15.305 3.6270001 0.23
15.36 3.688 0.23100001
15.476 3.7639999 0.233
15.479 3.813 0.233
15.477 3.862 0.233
15.495 3.915 0.233
15.59 3.9890001 0.234
15.641 4.052 0.235
15.675 4.112 0.236
15.716 4.1729999 0.236
15.761 4.237 0.237
15.855 4.3140001 0.23800001
15.835 4.3600001 0.23800001
15.881 4.4250002 0.23899999
15.985 4.5079999 0.23999999
16.038 4.5760002 0.241
16.033001 4.6279998 0.241
16.093 4.6999998 0.242
16.184999 4.7810001 0.243
16.437 4.9109998 0.24699999
16.290001 4.9229999 0.245
16.299999 4.9819999 0.245
16.372999 5.0609999 0.24600001
16.412001 5.1290002 0.24699999
16.429001 5.1919999 0.24699999
16.455999 5.2579999 0.24699999
16.504999 5.3309999 0.248
16.554001 5.4050002 0.249
16.627001 5.4879999 0.25
16.659 5.5570002 0.25099999
16.726 5.6389999 0.252
16.775999 5.7160001 0.252
16.830999 5.7950001 0.25299999
16.844 5.8610001 0.25400001
16.945999 5.9569998 0.255
16.915001 6.0079999 0.255
16.983999 6.0949998 0.25600001
13.109 5.4980001 0.198
12.944 5.4790001 0.19599999
12.812 5.474 0.19400001
12.661 5.4590001 0.192
12.57 5.4699998 0.19
12.672 5.5650001 0.192
12.29 6.1009998 0.18700001
12.203 6.1090002 0.186
12.178 6.303 0.186
12.184 6.3579998 0.186
12.189 6.4130001 0.186
12.202 6.4720001 0.18700001
8.1610003 -5.3709998 0.229
8.1969995 -5.3429999 0.23
8.243 -5.322 0.23100001
8.2729998 -5.2909999 0.23199999
8.3140001 -5.2659998 0.233
8.3199997 -5.2199998 0.233
8.3769999 -5.2049999 0.234
8.3990002 -5.1690001 0.235
8.4390001 -5.1440001 0.236
8.4610004 -5.1079998 0.236
8.4840002 -5.073 0.237
8.5100002 -5.04 0.237
8.5360003 -5.007 0.23800001
8.5559998 -4.9710002 0.23899999
8.5860004 -4.9400001 0.23899999
8.5979996 -4.8990002 0.23899999
8.6339998 -4.8720002 0.23999999
8.6669998 -4.8439999 0.241
8.6920004 -4.8109999 0.242
8.7110004 -4.7750001 0.242
8.7629995 -4.757 0.243
8.7930002 -4.7270002 0.244
8.7889996 -4.6789999 0.244
8.7930002 -4.6360002 0.244
8.8249998 -4.6069999 0.245
8.8299999 -4.5650001 0.245
8.875 -4.5430002 0.24600001
8.8959999 -4.5089998 0.24600001
8.9239998 -4.48 0.24699999
8.9659996 -4.4559999 0.248
8.9840002 -4.4219999 0.248
9 -4.3860002 0.249
9.0310001 -4.3569999 0.25
9.073 -4.3340001 0.25099999
9.1090002 -4.3080001 0.25099999
9.132 -4.277 0.252
9.1499996 -4.2420001 0.252
9.151 -4.1999998 0.252
9.1870003 -4.1750002 0.25299999
9.2220001 -4.1479998 0.25400001
9.2390003 -4.1139998 0.25400001
9.2860003 -4.0929999 0.25600001
9.2939997 -4.0549998 0.25600001
9.3360004 -4.033 0.257
9.3450003 -3.9949999 0.257
9.3909998 -3.974 0.25799999
9.4329996 -3.951 0.259
9.4530001 -3.9189999 0.25999999
9.4829998 -3.891 0.26100001
9.4969997 -3.8559999 0.26100001
9.54 -3.8340001 0.26199999
9.5559998 -3.8 0.26199999
9.5699997 -3.766 0.26300001
9.5909996 -3.7349999 0.26300001
9.6490002 -3.7179999 0.26499999
8.1689997 -3.115 0.22400001
8.1079998 -3.059 0.222
8.1120005 -3.0280001 0.222
8.1350002 -3.0039999 0.223
8.2600002 -3.0179999 0.226
9.8140001 -3.5469999 0.26899999
9.8190002 -3.5109999 0.26899999
9.8439999 -3.4820001 0.26899999
9.8830004 -3.457 0.27000001
9.9280005 -3.4360001 0.27200001
8.4160004 -2.8800001 0.23
8.1210003 -2.7490001 0.222
8.0959997 -2.71 0.221
8.1049995 -2.6830001 0.221
8.1280003 -2.661 0.222
8.2250004 -2.6630001 0.22499999
8.302 -2.6570001 0.227
8.4300003 -2.668 0.23
10.26 -3.21 0.28
10.194 -3.1530001 0.278
10.204 -3.1199999 0.27900001
10.256 -3.0999999 0.28
10.283 -3.073 0.28099999
10.296 -3.0409999 0.28099999
10.34 -3.0179999 0.28200001
10.362 -2.9890001 0.28299999
10.386 -2.96 0.28299999
10.42 -2.9349999 0.28400001
10.474 -2.915 0.28600001
10.497 -2.8859999 0.28600001
10.526 -2.8599999 0.287
10.556 -2.8329999 0.28799999
10.594 -2.8080001 0.289
10.636 -2.7850001 0.28999999
10.692 -2.7650001 0.29100001
10.714 -2.7360001 0.292
10.708 -2.701 0.292
10.737 -2.674 0.292
10.75 -2.6440001 0.29300001
10.809 -2.6240001 0.294
10.85 -2.6010001 0.29499999
10.893 -2.5769999 0.29699999
10.912 -2.5480001 0.29699999
10.948 -2.523 0.29800001
10.978 -2.497 0.29899999
11.014 -2.4719999 0.30000001
11.034 -2.444 0.30000001
11.075 -2.4200001 0.301
11.115 -2.3959999 0.30199999
11.145 -2.369 0.303
11.201 -2.349 0.30500001
11.243 -2.325 0.30599999
11.279 -2.3 0.30700001
11.339 -2.28 0.30899999
11.399 -2.2590001 0.31
11.413 -2.23 0.31099999
11.464 -2.2079999 0.31200001
11.496 -2.1819999 0.31299999
11.554 -2.161 0.31400001
11.628 -2.1429999 0.31600001
11.599 -2.1059999 0.315
11.64 -2.0810001 0.317
11.672 -2.056 0.317
11.698 -2.029 0.31799999
11.705 -1.999 0.31799999
11.666 -1.961 0.317
11.615 -1.9220001 0.31600001
11.607 -1.891 0.31600001
11.627 -1.863 0.31600001
11.617 -1.832 0.31600001
11.621 -1.803 0.31600001
11.638 -1.776 0.317
11.652 -1.748 0.317
11.677 -1.723 0.31799999
11.722 -1.7 0.31900001
11.718 -1.67 0.31900001
11.697 -1.638 0.31799999
11.732 -1.615 0.31900001
11.765 -1.59 0.31999999
11.818 -1.569 0.32100001
11.847 -1.544 0.322
11.877 -1.52 0.32300001
11.919 -1.497 0.324
11.991 -1.478 0.32600001
12.546 -1.488 0.34099999
12.449 -1.447 0.33899999
12.488 -1.423 0.34
12.535 -1.4 0.34099999
12.595 -1.378 0.34299999
12.682 -1.359 0.345
12.687 -1.331 0.345
12.751 -1.309 0.347
12.773 -1.284 0.34799999
12.936 -1.272 0.352
12.86 -1.2359999 0.34999999
13.39 0.17900001 0.25099999
13.396 0.20299999 0.25
13.415 0.228 0.25099999
13.425 0.25299999 0.25099999
13.456 0.278 0.25099999
13.442 0.303 0.25
13.449 0.329 0.25
13.469 0.35499999 0.25099999
13.455 0.38100001 0.25
13.454 0.40700001 0.25
13.467 0.43399999 0.25
13.451 0.46000001 0.249
13.451 0.48699999 0.249
13.464 0.51499999 0.249
13.475 0.54400003 0.249
13.474 0.57200003 0.249
13.479 0.60000002 0.249
13.467 0.62800002 0.249
13.471 0.65700001 0.249
13.466 0.68599999 0.248
13.468 0.71499997 0.248
13.481 0.745 0.248
13.5 0.77600002 0.248
13.519 0.80800003 0.249
13.508 0.83700001 0.248
13.507 0.86799997 0.248
13.517 0.89999998 0.248
13.536 0.93199998 0.248
