# .PCD v0.7 - Point Cloud Data file format
VERSION 0.7
FIELDS x y z
SIZE 4 4 4
TYPE F F F
COUNT 1 1 1
WIDTH 1671
HEIGHT 1
VIEWPOINT 0 0 0 1 0 0 0
POINTS 1671
DATA ascii
8.2349997 0.244 -0.49700001
8.2550001 0.257 -0.498
8.2010002 0.26699999 -0.495
8.1999998 0.28 -0.495
8.1929998 0.292 -0.495
8.1750002 0.30500001 -0.49399999
8.1809998 0.31799999 -0.495
8.1780005 0.331 -0.495
8.191 0.345 -0.49599999
8.1709995 0.35800001 -0.495
8.1669998 0.37099999 -0.495
8.1719999 0.38600001 -0.495
8.1809998 0.40000001 -0.49599999
8.1739998 0.414 -0.49599999
8.1730003 0.42899999 -0.49599999
8.1809998 0.44400001 -0.49700001
8.1829996 0.45899999 -0.49700001
8.191 0.47499999 -0.498
8.1660004 0.48800001 -0.49599999
8.1829996 0.505 -0.498
8.1789999 0.51999998 -0.498
8.1960001 0.537 -0.49900001
8.1800003 0.55199999 -0.498
8.198 0.56900001 -0.5
8.2040005 0.58600003 -0.5
8.1890001 0.60100001 -0.5
8.1879997 0.61799997 -0.5
8.2010002 0.63599998 -0.50099999
8.1990004 0.65200001 -0.50099999
8.2110004 0.671 -0.50199997
8.224 0.68900001 -0.50400001
8.2229996 0.70599997 -0.50400001
8.2270002 0.72399998 -0.50400001
8.2250004 0.74199998 -0.505
8.2299995 0.76099998 -0.505
8.2270002 0.778 -0.505
8.2410002 0.79799998 -0.50700003
8.2329998 0.81599998 -0.50700003
8.2460003 0.83600003 -0.50800002
8.2419996 0.85399997 -0.50800002
8.2250004 0.87099999 -0.50700003
8.2349997 0.89200002 -0.50800002
8.2559996 0.91299999 -0.50999999
8.2559996 0.93300003 -0.50999999
8.2510004 0.95200002 -0.50999999
8.2559996 0.972 -0.51099998
8.2559996 0.99199998 -0.51200002
8.2659998 1.013 -0.51300001
8.2740002 1.035 -0.514
8.2869997 1.057 -0.51499999
8.276 1.076 -0.51499999
8.2729998 1.096 -0.51499999
8.2720003 1.117 -0.51499999
8.2969999 1.142 -0.51700002
8.3120003 1.165 -0.51899999
8.2969999 1.184 -0.51800001
8.302 1.206 -0.51899999
8.3179998 1.23 -0.52100003
8.3140001 1.252 -0.52100003
8.3109999 1.273 -0.52100003
8.3290005 1.298 -0.523
8.3210001 1.319 -0.523
8.3409996 1.345 -0.52499998
8.3290005 1.3660001 -0.52399999
8.3199997 1.387 -0.52399999
8.3310003 1.4119999 -0.52600002
8.3470001 1.437 -0.52700001
8.3409996 1.46 -0.52700001
8.3540001 1.485 -0.52899998
8.3669996 1.511 -0.52999997
8.3529997 1.5319999 -0.52999997
8.3590002 1.557 -0.53100002
8.375 1.584 -0.53200001
8.3660002 1.607 -0.53200001
8.3789997 1.633 -0.53399998
8.3859997 1.659 -0.53500003
8.3859997 1.684 -0.53600001
8.3909998 1.71 -0.53600001
8.3979998 1.7359999 -0.53799999
8.408 1.763 -0.53899997
8.4110003 1.789 -0.54000002
8.4239998 1.817 -0.54100001
8.4200001 1.842 -0.542
8.4359999 1.8710001 -0.54299998
8.441 1.898 -0.54400003
8.4399996 1.924 -0.54500002
8.4350004 1.949 -0.54500002
8.4499998 1.978 -0.54699999
8.4630003 2.0079999 -0.54799998
8.4659996 2.0350001 -0.54900002
8.4630003 2.0610001 -0.55000001
8.4940004 2.096 -0.55299997
8.4940004 2.1229999 -0.55299997
8.4840002 2.1470001 -0.55299997
8.5190001 2.184 -0.55599999
8.5240002 2.2130001 -0.55699998
8.5050001 2.2349999 -0.55699998
8.533 2.27 -0.56
8.5469999 2.302 -0.56099999
8.5760002 2.3380001 -0.56400001
8.5749998 2.3659999 -0.565
8.5930004 2.4000001 -0.56699997
8.5869999 2.427 -0.56699997
8.6020002 2.46 -0.56900001
8.6049995 2.49 -0.56999999
8.6239996 2.5250001 -0.57200003
8.6099997 2.55 -0.57200003
8.6199999 2.582 -0.57300001
8.6230001 2.6129999 -0.574
8.6160002 2.641 -0.57499999
8.6190004 2.6719999 -0.57599998
8.6370001 2.707 -0.57800001
8.6289997 2.7349999 -0.57800001
8.6459999 2.77 -0.57999998
8.6820002 2.813 -0.58399999
8.6680002 2.839 -0.583
8.677 2.8729999 -0.58499998
8.7060003 2.9130001 -0.588
8.7069998 2.9449999 -0.58899999
8.7200003 2.9809999 -0.59100002
8.7410002 3.02 -0.59299999
8.757 3.0569999 -0.59500003
8.7749996 3.095 -0.597
8.776 3.128 -0.59799999
8.7980003 3.168 -0.60100001
8.8009996 3.201 -0.602
8.8079996 3.237 -0.60299999
8.8240004 3.2750001 -0.60500002
8.8319998 3.3110001 -0.60699999
8.8470001 3.3499999 -0.60900003
8.8369999 3.3800001 -0.60900003
8.8500004 3.418 -0.611
8.8629999 3.457 -0.61299998
8.8620005 3.49 -0.61400002
8.8920002 3.536 -0.61699998
8.9029999 3.575 -0.61900002
8.927 3.619 -0.62199998
8.9449997 3.661 -0.62400001
8.9519997 3.698 -0.62599999
8.9630003 3.7379999 -0.62800002
8.974 3.7780001 -0.63
9.0170002 3.8310001 -0.634
9.0179996 3.868 -0.63499999
9.033 3.9100001 -0.63700002
9.0550003 3.9549999 -0.63999999
9.0799999 4.0019999 -0.64300001
9.085 4.0409999 -0.64399999
9.0889997 4.079 -0.64600003
9.1079998 4.125 -0.648
9.118 4.1659999 -0.64999998
9.1420002 4.2140002 -0.653
9.1490002 4.2550001 -0.65499997
9.1549997 4.2950001 -0.65600002
9.1639996 4.3369999 -0.65799999
9.1929998 4.3889999 -0.662
9.1890001 4.4250002 -0.66299999
9.1960001 4.467 -0.66399997
9.2290001 4.5209999 -0.66799998
9.2290001 4.5599999 -0.66900003
9.2650003 4.6170001 -0.67299998
9.2629995 4.6550002 -0.67400002
9.276 4.7010002 -0.67699999
9.2770004 4.7410002 -0.67799997
9.2840004 4.7839999 -0.68000001
9.2860003 4.8249998 -0.68099999
9.2939997 4.869 -0.68300003
9.3380003 4.9320002 -0.68800002
9.3450003 4.9770002 -0.69
9.3450003 5.0170002 -0.69099998
9.3699999 5.0710001 -0.69400001
9.3789997 5.1170001 -0.69599998
9.375 5.1560001 -0.69700003
9.4090004 5.2160001 -0.70099998
9.4180002 5.263 -0.70300001
9.4619999 5.329 -0.708
9.4639997 5.3720002 -0.70999998
9.4689999 5.4180002 -0.71200001
9.4770002 5.4650002 -0.71399999
9.4720001 5.5040002 -0.71499997
9.4650002 5.5430002 -0.71600002
9.4799995 5.5949998 -0.71799999
9.4829998 5.6389999 -0.72000003
9.4890003 5.6859999 -0.722
9.4980001 5.7350001 -0.72399998
9.5100002 5.7859998 -0.727
9.533 5.8439999 -0.73000002
9.5139999 5.8759999 -0.73000002
9.5430002 5.9380002 -0.73400003
9.552 5.9879999 -0.736
9.5550003 6.0349998 -0.73799998
9.5430002 6.072 -0.73900002
9.566 6.131 -0.74199998
9.5559998 6.1690001 -0.74299997
9.5629997 6.2189999 -0.745
9.5740004 6.2709999 -0.74800003
9.5629997 6.3099999 -0.74800003
9.5600004 6.3530002 -0.75
9.5570002 6.3969998 -0.75099999
9.5349998 6.428 -0.75099999
9.5459995 6.4819999 -0.75400001
9.533 6.5190001 -0.75400001
9.5229998 6.5580001 -0.755
9.5139999 6.598 -0.75599998
9.5290003 6.6539998 -0.759
9.5170002 6.6919999 -0.75999999
9.507 6.7319999 -0.76099998
9.493 6.7690001 -0.76099998
9.4790001 6.8049998 -0.76200002
9.4359999 6.8210001 -0.75999999
5.7129998 -3.7869999 -0.25799999
5.744 -3.7709999 -0.25999999
5.7589998 -3.7449999 -0.25999999
5.7930002 -3.7309999 -0.26100001
5.7969999 -3.697 -0.26100001
5.802 -3.665 -0.26100001
5.8099999 -3.635 -0.26100001
5.8270001 -3.6099999 -0.26100001
5.849 -3.589 -0.26199999
5.882 -3.575 -0.26300001
5.8979998 -3.55 -0.264
5.9060001 -3.52 -0.264
5.934 -3.503 -0.26499999
5.9549999 -3.4820001 -0.26499999
5.9759998 -3.46 -0.266
5.9970002 -3.4389999 -0.26699999
6.007 -3.411 -0.26699999
6.0310001 -3.391 -0.26699999
6.046 -3.3670001 -0.26800001
6.052 -3.3369999 -0.26800001
6.0669999 -3.313 -0.26800001
6.0900002 -3.293 -0.26899999
6.119 -3.277 -0.27000001
6.132 -3.2520001 -0.27000001
6.1339998 -3.221 -0.27000001
6.158 -3.2019999 -0.271
6.178 -3.181 -0.271
6.1830001 -3.152 -0.271
6.2090001 -3.1340001 -0.27200001
6.2199998 -3.108 -0.27200001
6.2340002 -3.0840001 -0.273
6.257 -3.066 -0.27399999
6.277 -3.0450001 -0.27399999
6.2969999 -3.0239999 -0.27500001
6.316 -3.003 -0.27500001
6.3179998 -2.974 -0.27500001
6.3390002 -2.954 -0.27599999
6.368 -2.937 -0.27700001
6.3730001 -2.9100001 -0.27700001
6.3959999 -2.891 -0.278
6.414 -2.8699999 -0.278
6.4250002 -2.846 -0.278
6.447 -2.8269999 -0.27900001
6.4660001 -2.806 -0.28
6.467 -2.7780001 -0.27900001
6.494 -2.7609999 -0.28
6.5100002 -2.7390001 -0.28099999
6.527 -2.7179999 -0.28099999
6.5489998 -2.6989999 -0.28200001
6.5570002 -2.674 -0.28200001
6.5890002 -2.6589999 -0.28299999
6.6009998 -2.6359999 -0.28400001
6.6139998 -2.6140001 -0.28400001
6.631 -2.5929999 -0.28400001
6.6440001 -2.5699999 -0.285
6.6700001 -2.553 -0.28600001
6.6810002 -2.53 -0.28600001
6.6929998 -2.5079999 -0.28600001
6.7090001 -2.487 -0.287
6.7179999 -2.4630001 -0.287
6.7270002 -2.4400001 -0.287
6.7470002 -2.421 -0.28799999
6.7639999 -2.401 -0.28799999
6.7779999 -2.3789999 -0.28799999
6.7820001 -2.355 -0.28799999
6.796 -2.3340001 -0.289
6.8010001 -2.309 -0.289
6.8239999 -2.2920001 -0.28999999
6.8390002 -2.2709999 -0.28999999
6.855 -2.2509999 -0.29100001
6.8670001 -2.2290001 -0.29100001
6.8800001 -2.2079999 -0.29100001
6.8959999 -2.188 -0.292
6.9089999 -2.168 -0.292
6.9250002 -2.148 -0.292
6.9369998 -2.1270001 -0.29300001
6.941 -2.1029999 -0.29300001
6.9629998 -2.085 -0.29300001
6.9770002 -2.0650001 -0.294
6.9920001 -2.0450001 -0.294
7.0050001 -2.0250001 -0.29499999
7.0139999 -2.003 -0.29499999
7.0300002 -1.984 -0.29499999
7.0580001 -1.9680001 -0.296
7.0619998 -1.9450001 -0.296
7.0770001 -1.926 -0.29699999
7.085 -1.904 -0.29699999
7.1090002 -1.887 -0.29800001
7.112 -1.865 -0.29800001
7.152 -1.852 -0.29899999
7.1669998 -1.8329999 -0.30000001
7.1950002 -1.817 -0.301
7.2140002 -1.799 -0.301
7.2179999 -1.777 -0.301
7.2399998 -1.7589999 -0.30199999
7.243 -1.737 -0.30199999
7.2600002 -1.719 -0.303
7.2880001 -1.7029999 -0.30399999
7.309 -1.6849999 -0.30399999
7.3169999 -1.665 -0.30399999
7.3309999 -1.646 -0.30500001
7.342 -1.626 -0.30500001
7.355 -1.607 -0.30599999
7.3720002 -1.589 -0.30599999
7.3759999 -1.568 -0.30599999
7.395 -1.55 -0.30700001
7.4060001 -1.531 -0.30700001
7.4180002 -1.511 -0.30700001
7.4419999 -1.495 -0.308
7.4520001 -1.476 -0.308
7.4650002 -1.457 -0.30899999
7.4640002 -1.436 -0.30899999
7.48 -1.418 -0.30899999
7.5100002 -1.402 -0.31
7.5570002 -1.39 -0.31200001
7.5320001 -1.365 -0.31099999
7.5650001 -1.35 -0.31200001
7.5749998 -1.331 -0.31200001
7.586 -1.313 -0.31299999
7.5960002 -1.294 -0.31299999
7.5999999 -1.274 -0.31299999
7.6240001 -1.258 -0.31400001
7.6440001 -1.2410001 -0.315
7.6589999 -1.224 -0.315
7.678 -1.207 -0.31600001
7.6950002 -1.189 -0.31600001
7.684 -1.168 -0.31600001
7.7129998 -1.153 -0.317
7.7129998 -1.133 -0.317
7.7360001 -1.117 -0.317
7.7649999 -1.102 -0.31799999
7.7919998 -1.086 -0.31900001
7.7849998 -1.066 -0.31900001
7.789 -1.0470001 -0.31900001
7.8060002 -1.031 -0.31999999
7.8140001 -1.013 -0.31999999
7.8319998 -0.99599999 -0.31999999
7.8540001 -0.98000002 -0.32100001
7.8540001 -0.96200001 -0.32100001
7.8699999 -0.94499999 -0.322
7.8860002 -0.92799997 -0.322
7.8940001 -0.91100001 -0.322
7.9060001 -0.89399999 -0.32300001
7.9130001 -0.87699997 -0.32300001
7.927 -0.86000001 -0.32300001
7.9549999 -0.84500003 -0.324
7.9629998 -0.82800001 -0.32499999
7.9889998 -0.81300002 -0.32600001
8.0050001 -0.79699999 -0.32600001
8.0019999 -0.77899998 -0.32600001
8.0209999 -0.76300001 -0.32699999
8.0369997 -0.74699998 -0.32699999
8.0600004 -0.73100001 -0.32800001
8.0769997 -0.71600002 -0.329
8.0690002 -0.69800001 -0.32800001
8.1000004 -0.68300003 -0.329
8.0950003 -0.66600001 -0.329
8.125 -0.65100002 -0.33000001
8.1590004 -0.63700002 -0.331
8.1599998 -0.62 -0.331
8.1780005 -0.60500002 -0.33199999
8.1859999 -0.58899999 -0.33199999
8.2229996 -0.57499999 -0.33399999
8.2449999 -0.56 -0.33500001
8.2370005 -0.54299998 -0.33399999
8.2480001 -0.52700001 -0.33399999
8.276 -0.51300001 -0.336
8.2919998 -0.498 -0.336
8.3170004 -0.48300001 -0.33700001
8.323 -0.46700001 -0.33700001
8.3319998 -0.45199999 -0.33700001
8.3479996 -0.43700001 -0.338
8.3830004 -0.42300001 -0.33899999
8.3979998 -0.40799999 -0.34
8.3959999 -0.39300001 -0.34
8.4350004 -0.37900001 -0.34099999
8.46 -0.36500001 -0.34200001
8.5 -0.35100001 -0.34400001
8.4949999 -0.33500001 -0.34299999
8.5150003 -0.32100001 -0.34400001
8.5799999 -0.308 -0.347
8.6090002 -0.294 -0.34799999
8.1160002 0.090000004 -0.46799999
8.1400003 0.105 -0.46900001
8.1569996 0.121 -0.47
8.1429996 0.13600001 -0.47
8.151 0.15099999 -0.47
8.1560001 0.167 -0.47099999
8.1569996 0.183 -0.47099999
8.1350002 0.198 -0.47
8.1459999 0.215 -0.47099999
8.1440001 0.23100001 -0.47099999
8.1400003 0.24699999 -0.47099999
8.1400003 0.264 -0.47099999
8.1540003 0.28099999 -0.472
8.1440001 0.29800001 -0.472
8.1339998 0.31400001 -0.47099999
8.1520004 0.33199999 -0.47299999
8.151 0.34999999 -0.47299999
8.1560001 0.36700001 -0.47299999
8.1619997 0.38499999 -0.47400001
8.1610003 0.403 -0.47400001
8.1599998 0.421 -0.47400001
8.1639996 0.44 -0.47499999
8.1789999 0.45899999 -0.47600001
8.1709995 0.477 -0.47600001
8.1789999 0.49599999 -0.47600001
8.1829996 0.51499999 -0.477
8.191 0.53500003 -0.47799999
8.1940002 0.55400002 -0.47799999
8.2010002 0.574 -0.479
8.1870003 0.59200001 -0.47799999
8.1960001 0.61299998 -0.479
8.217 0.634 -0.48100001
8.2010002 0.653 -0.47999999
8.2150002 0.67400002 -0.48100001
8.2150002 0.69400001 -0.48199999
8.2220001 0.71499997 -0.48199999
8.2270002 0.736 -0.48300001
8.2320004 0.75700003 -0.484
8.2410002 0.77899998 -0.484
8.2449999 0.80000001 -0.48500001
8.2460003 0.82099998 -0.486
8.2469997 0.84299999 -0.486
8.2620001 0.86500001 -0.48699999
8.2460003 0.88499999 -0.48699999
8.2609997 0.90899998 -0.48800001
8.276 0.93199998 -0.48899999
8.2530003 0.95099998 -0.48800001
8.2919998 0.97799999 -0.491
8.2950001 1.001 -0.49200001
8.3070002 1.024 -0.493
8.3100004 1.0470001 -0.493
8.3070002 1.0700001 -0.49399999
8.302 1.092 -0.49399999
8.3100004 1.1160001 -0.495
8.3319998 1.142 -0.49599999
8.3500004 1.1670001 -0.498
8.3459997 1.1900001 -0.498
8.3549995 1.215 -0.49900001
8.3590002 1.239 -0.5
8.3690004 1.2640001 -0.50099999
8.3789997 1.29 -0.50199997
8.382 1.314 -0.50300002
8.3920002 1.34 -0.50400001
8.3940001 1.365 -0.50400001
8.3940001 1.3890001 -0.505
8.3990002 1.414 -0.50599998
8.4069996 1.4400001 -0.50700003
8.4250002 1.4680001 -0.50800002
8.4359999 1.495 -0.509
8.4460001 1.522 -0.50999999
8.4519997 1.548 -0.51099998
8.4639997 1.576 -0.51300001
8.4499998 1.599 -0.51200002
8.46 1.626 -0.51300001
8.4790001 1.656 -0.51499999
8.4809999 1.682 -0.51599997
8.5019999 1.712 -0.51800001
8.4980001 1.737 -0.51800001
8.5150003 1.767 -0.51999998
8.526 1.796 -0.52100003
8.5349998 1.824 -0.52200001
8.5439997 1.853 -0.523
8.5500002 1.881 -0.52399999
8.5740004 1.913 -0.52600002
8.573 1.939 -0.52700001
8.5880003 1.97 -0.528
8.6029997 2.0009999 -0.52999997
8.6020002 2.0280001 -0.52999997
8.5939999 2.053 -0.53100002
8.6160002 2.086 -0.53299999
8.6289997 2.1170001 -0.53399998
8.6409998 2.148 -0.53600001
8.6490002 2.178 -0.537
8.6619997 2.2090001 -0.53799999
8.6680002 2.2390001 -0.53899997
8.6689997 2.267 -0.54000002
8.7060003 2.306 -0.54299998
8.7130003 2.336 -0.54400003
8.7379999 2.3710001 -0.546
8.7299995 2.398 -0.54699999
8.7510004 2.4330001 -0.54900002
8.7559996 2.4630001 -0.55000001
8.7539997 2.4920001 -0.55000001
8.7690001 2.526 -0.55199999
8.7810001 2.5580001 -0.55299997
8.7969999 2.592 -0.55500001
8.7959995 2.622 -0.55599999
8.8059998 2.655 -0.55699998
8.8170004 2.688 -0.55900002
8.835 2.723 -0.56099999
8.8459997 2.757 -0.56199998
8.8380003 2.7839999 -0.56199998
8.8610001 2.822 -0.565
8.8769999 2.8570001 -0.56599998
8.9090004 2.898 -0.56900001
8.8990002 2.9260001 -0.56900001
8.8940001 2.9549999 -0.56999999
8.9119997 2.9909999 -0.57200003
8.9180002 3.0239999 -0.57300001
8.9029999 3.05 -0.57300001
8.9359999 3.092 -0.57599998
8.9569998 3.131 -0.57800001
8.9659996 3.165 -0.57999998
8.9589996 3.194 -0.57999998
8.9770002 3.2320001 -0.58200002
8.9759998 3.263 -0.583
9.0059996 3.306 -0.58600003
9.0120001 3.3399999 -0.58700001
9.0100002 3.3710001 -0.588
9.0159998 3.405 -0.58899999
9.0509996 3.45 -0.59200001
9.0570002 3.4849999 -0.59299999
9.0670004 3.5209999 -0.59500003
9.0740004 3.556 -0.59600002
9.0970001 3.5969999 -0.59899998
9.0900002 3.6270001 -0.59899998
9.1300001 3.6760001 -0.60299999
9.1429996 3.714 -0.60500002
9.1780005 3.7609999 -0.60799998
9.177 3.7939999 -0.60900003
9.1940002 3.8340001 -0.611
9.21 3.8740001 -0.61299998
9.2370005 3.918 -0.616
9.25 3.957 -0.61799997
9.2690001 3.9990001 -0.62
9.2810001 4.0380001 -0.62199998
9.2600002 4.0619998 -0.62099999
9.2749996 4.1020002 -0.62400001
9.3070002 4.1500001 -0.62699997
9.3310003 4.1950002 -0.62900001
9.3389997 4.2319999 -0.63099998
9.3579998 4.2750001 -0.63300002
9.3800001 4.3189998 -0.63599998
9.3979998 4.362 -0.63800001
9.3839998 4.3889999 -0.63800001
9.4219999 4.4419999 -0.64200002
9.4139996 4.4720001 -0.64200002
9.4180002 4.5089998 -0.64399999
9.4399996 4.553 -0.64600003
9.441 4.5890002 -0.648
9.4709997 4.638 -0.65100002
9.4840002 4.6789999 -0.653
9.4969997 4.7199998 -0.65499997
9.5109997 4.7620001 -0.65700001
9.5200005 4.8010001 -0.65899998
9.5200005 4.836 -0.66000003
9.5530005 4.888 -0.66299999
9.5649996 4.9289999 -0.66500002
9.5780001 4.9710002 -0.667
9.5839996 5.0089998 -0.66900003
9.6059999 5.0560002 -0.67199999
9.6149998 5.0949998 -0.67299998
9.6420002 5.145 -0.67699999
9.6379995 5.178 -0.67699999
9.6599998 5.2259998 -0.68000001
9.6730003 5.2680001 -0.68199998
9.6890001 5.3119998 -0.685
9.6929998 5.349 -0.68599999
9.7089996 5.3940001 -0.68900001
9.717 5.434 -0.69
9.7379999 5.4809999 -0.69300002
9.7390003 5.5170002 -0.69400001
9.7480001 5.5570002 -0.69599998
9.7449999 5.5910001 -0.69700003
9.7550001 5.632 -0.699
9.7670002 5.6739998 -0.70099998
9.7889996 5.723 -0.704
9.7770004 5.7509999 -0.70499998
9.8330002 5.8189998 -0.70999998
9.823 5.848 -0.71100003
9.8459997 5.8969998 -0.71399999
9.8389997 5.9289999 -0.71499997
9.8699999 5.9829998 -0.71799999
9.8769999 6.0219998 -0.72000003
9.8769999 6.0570002 -0.72100002
9.8620005 6.0830002 -0.72100002
9.8889999 6.1350002 -0.72500002
9.8909998 6.171 -0.72600001
9.9099998 6.2179999 -0.72899997
9.9099998 6.2529998 -0.73000002
9.9180002 6.2919998 -0.73199999
9.9239998 6.3309999 -0.73400003
9.927 6.368 -0.736
9.9639997 6.4260001 -0.74000001
9.9680004 6.4629998 -0.74199998
9.9639997 6.4949999 -0.74299997
9.9720001 6.5349998 -0.745
9.9849997 6.5780001 -0.74699998
9.9949999 6.619 -0.74900001
10.016 6.6659999 -0.75199997
10.008 6.6950002 -0.75300002
10.029 6.743 -0.75599998
10.024 6.7729998 -0.75700003
10.053 6.8270001 -0.76099998
10.045 6.855 -0.76099998
10.047 6.8899999 -0.76300001
10.066 6.9359999 -0.76599997
10.053 6.96 -0.76599997
10.082 7.013 -0.76999998
10.107 7.0630002 -0.773
10.147 7.1240001 -0.778
6.0749998 -3.546 -0.255
6.0830002 -3.5339999 -0.255
6.0869999 -3.5190001 -0.255
6.0890002 -3.503 -0.255
6.099 -3.4920001 -0.255
6.1110001 -3.4820001 -0.25600001
6.125 -3.473 -0.25600001
6.1259999 -3.4560001 -0.25600001
6.125 -3.4389999 -0.25600001
6.1479998 -3.434 -0.257
6.1539998 -3.4200001 -0.257
6.1560001 -3.404 -0.257
6.158 -3.388 -0.257
6.1630001 -3.3729999 -0.257
6.178 -3.3640001 -0.25799999
6.1919999 -3.355 -0.25799999
6.1929998 -3.3369999 -0.25799999
6.1869998 -3.3169999 -0.25799999
6.1929998 -3.303 -0.25799999
6.2010002 -3.289 -0.25799999
6.2179999 -3.2809999 -0.259
6.2470002 -3.279 -0.25999999
6.2600002 -3.2679999 -0.25999999
6.2610002 -3.25 -0.25999999
6.2690001 -3.237 -0.25999999
6.2740002 -3.2219999 -0.25999999
6.2779999 -3.2060001 -0.25999999
6.303 -3.201 -0.26100001
6.303 -3.1830001 -0.26100001
6.3070002 -3.1670001 -0.26100001
6.3169999 -3.154 -0.26100001
6.3330002 -3.1440001 -0.26199999
6.3530002 -3.1359999 -0.26300001
6.3470001 -3.115 -0.26199999
6.3600001 -3.1029999 -0.26300001
6.3639998 -3.0869999 -0.26300001
6.381 -3.0769999 -0.26300001
6.3959999 -3.0669999 -0.264
6.3839998 -3.043 -0.26300001
6.402 -3.033 -0.264
6.421 -3.0239999 -0.264
6.4299998 -3.0090001 -0.26499999
6.4520001 -3.0009999 -0.26499999
6.4710002 -2.9920001 -0.266
6.4759998 -2.9760001 -0.266
6.4809999 -2.9590001 -0.266
6.4899998 -2.9449999 -0.26699999
6.5029998 -2.9319999 -0.26699999
6.5029998 -2.914 -0.26699999
6.5110002 -2.8989999 -0.26699999
6.5240002 -2.8859999 -0.26699999
6.539 -2.8740001 -0.26800001
6.5539999 -2.862 -0.26800001
6.5599999 -2.845 -0.26800001
6.5669999 -2.8299999 -0.26899999
6.5830002 -2.8180001 -0.26899999
6.5799999 -2.7980001 -0.26899999
6.6020002 -2.7880001 -0.27000001
6.619 -2.776 -0.27000001
6.632 -2.763 -0.271
6.6329999 -2.744 -0.271
6.645 -2.73 -0.271
6.6550002 -2.7149999 -0.271
6.6799998 -2.7060001 -0.27200001
6.6919999 -2.6919999 -0.27200001
6.6960001 -2.675 -0.27200001
6.6919999 -2.654 -0.27200001
6.7090001 -2.641 -0.273
6.7179999 -2.6259999 -0.273
6.7249999 -2.609 -0.273
6.7319999 -2.5929999 -0.273
6.75 -2.5799999 -0.27399999
6.756 -2.563 -0.27399999
6.7709999 -2.55 -0.27399999
6.783 -2.5350001 -0.27500001
6.8010001 -2.5220001 -0.27500001
6.8099999 -2.506 -0.27599999
6.8060002 -2.4849999 -0.27500001
6.8200002 -2.471 -0.27599999
6.8410001 -2.4590001 -0.27599999
6.8429999 -2.4400001 -0.27599999
6.8460002 -2.421 -0.27599999
6.8579998 -2.4059999 -0.27700001
6.8790002 -2.3929999 -0.27700001
6.8790002 -2.3740001 -0.27700001
6.8769999 -2.3540001 -0.27700001
6.8909998 -2.339 -0.27700001
6.8889999 -2.3180001 -0.27700001
6.9109998 -2.306 -0.278
6.9229999 -2.29 -0.278
6.9369998 -2.2750001 -0.27900001
6.941 -2.257 -0.27900001
6.9520001 -2.24 -0.27900001
6.967 -2.2249999 -0.28
6.9720001 -2.207 -0.28
6.9809999 -2.1900001 -0.28
6.9899998 -2.1730001 -0.28
7.0100002 -2.1589999 -0.28099999
7.0209999 -2.142 -0.28099999
7.0349998 -2.1259999 -0.28099999
7.04 -2.108 -0.28099999
7.0510001 -2.0910001 -0.28200001
7.0780001 -2.079 -0.28299999
7.0910001 -2.062 -0.28299999
7.0819998 -2.039 -0.28299999
7.099 -2.0239999 -0.28299999
7.1069999 -2.006 -0.28299999
7.1279998 -1.992 -0.28400001
7.145 -1.976 -0.28400001
7.158 -1.959 -0.285
7.171 -1.943 -0.285
7.1739998 -1.923 -0.285
7.1859999 -1.905 -0.285
7.2129998 -1.892 -0.28600001
7.1960001 -1.867 -0.28600001
7.2589998 -1.863 -0.28799999
7.263 -1.8430001 -0.28799999
7.2729998 -1.825 -0.28799999
7.2849998 -1.807 -0.28799999
7.29 -1.788 -0.289
7.2919998 -1.767 -0.28799999
7.322 -1.7539999 -0.289
7.3270001 -1.734 -0.28999999
7.3579998 -1.721 -0.29100001
7.3629999 -1.701 -0.29100001
7.369 -1.682 -0.29100001
7.3860002 -1.664 -0.29100001
7.4029999 -1.647 -0.292
7.4089999 -1.627 -0.292
7.4200001 -1.609 -0.292
7.4359999 -1.591 -0.29300001
7.4640002 -1.576 -0.294
7.467 -1.5549999 -0.294
7.493 -1.54 -0.294
7.5050001 -1.521 -0.29499999
7.5180001 -1.502 -0.29499999
7.5339999 -1.484 -0.296
7.5539999 -1.466 -0.296
7.527 -1.4400001 -0.29499999
7.553 -1.423 -0.296
7.579 -1.4069999 -0.29699999
7.6040001 -1.39 -0.29699999
7.6279998 -1.373 -0.29800001
7.632 -1.352 -0.29800001
7.6420002 -1.332 -0.29800001
7.6609998 -1.313 -0.29899999
7.6630001 -1.2920001 -0.29899999
7.6859999 -1.274 -0.30000001
7.7119999 -1.257 -0.301
7.7220001 -1.2359999 -0.301
7.737 -1.217 -0.301
7.7589998 -1.198 -0.30199999
7.7610002 -1.177 -0.30199999
7.7789998 -1.1569999 -0.30199999
7.8039999 -1.1390001 -0.303
7.8280001 -1.12 -0.30399999
7.8390002 -1.1 -0.30399999
7.868 -1.082 -0.30500001
7.8870001 -1.062 -0.30599999
7.9029999 -1.0420001 -0.30599999
7.9000001 -1.0190001 -0.30599999
7.8940001 -0.99599999 -0.30500001
7.9229999 -0.977 -0.30599999
7.9710002 -0.96100003 -0.308
7.967 -0.93800002 -0.308
8.0080004 -0.92000002 -0.30899999
8.0080004 -0.89700001 -0.30899999
8.0190001 -0.87599999 -0.30899999
8.0609999 -0.85799998 -0.31099999
8.0649996 -0.83499998 -0.31099999
8.0780001 -0.81400001 -0.31099999
8.1190004 -0.79500002 -0.31200001
8.1379995 -0.77399999 -0.31299999
8.1520004 -0.75199997 -0.31299999
8.1820002 -0.73199999 -0.31400001
8.184 -0.70899999 -0.31400001
8.2010002 -0.68699998 -0.315
8.217 -0.66500002 -0.315
8.276 -0.64700001 -0.317
8.2779999 -0.62400001 -0.317
8.3070002 -0.602 -0.31799999
8.3310003 -0.58099997 -0.31900001
8.3389997 -0.55800003 -0.31900001
8.3699999 -0.53600001 -0.31999999
8.3850002 -0.514 -0.31999999
8.4099998 -0.491 -0.32100001
8.4589996 -0.47 -0.32300001
8.4840002 -0.44800001 -0.324
8.4919996 -0.42399999 -0.324
8.5220003 -0.40200001 -0.32499999
8.5389996 -0.37900001 -0.32499999
8.6090002 -0.35699999 -0.32800001
8.7299995 -0.338 -0.33199999
8.7040005 -0.31200001 -0.331
8.743 -0.289 -0.33199999
8.4860001 0.138 -0.46599999
8.4779997 0.149 -0.465
8.4300003 0.15800001 -0.463
8.3950005 0.169 -0.461
8.3760004 0.17900001 -0.46000001
8.3760004 0.191 -0.46000001
8.3669996 0.20200001 -0.46000001
8.349 0.213 -0.45899999
8.3280001 0.22400001 -0.458
8.342 0.236 -0.45899999
8.3269997 0.248 -0.458
8.3240004 0.25999999 -0.458
8.3319998 0.273 -0.45899999
8.3190002 0.28600001 -0.458
8.3170004 0.29800001 -0.458
8.3100004 0.31099999 -0.458
8.3070002 0.324 -0.458
8.3269997 0.33899999 -0.45899999
8.302 0.35100001 -0.458
8.3070002 0.36500001 -0.458
8.3149996 0.38 -0.45899999
8.3059998 0.39399999 -0.45899999
8.309 0.40799999 -0.45899999
8.3050003 0.42199999 -0.45899999
8.3039999 0.43700001 -0.45899999
8.309 0.45199999 -0.46000001
8.3179998 0.46799999 -0.46000001
8.3249998 0.484 -0.461
8.3280001 0.49900001 -0.46200001
8.3199997 0.514 -0.461
8.3339996 0.53100002 -0.46200001
8.3360004 0.54699999 -0.463
8.3299999 0.56300002 -0.463
8.3570004 0.58099997 -0.46399999
8.3540001 0.59799999 -0.465
8.368 0.616 -0.46599999
8.3629999 0.63200003 -0.46599999
8.3760004 0.64999998 -0.46700001
8.3909998 0.66900003 -0.46799999
8.3859997 0.68599999 -0.46799999
8.4020004 0.70499998 -0.46900001
8.3859997 0.72100002 -0.46799999
8.3959999 0.74000001 -0.46900001
8.3970003 0.759 -0.47
8.3959999 0.77700001 -0.47
8.3940001 0.79500002 -0.47
8.3950005 0.81400001 -0.47099999
8.3900003 0.83200002 -0.47099999
8.4160004 0.85399997 -0.47299999
8.4289999 0.87400001 -0.47400001
8.4259996 0.89300001 -0.47400001
8.4239998 0.91299999 -0.47400001
8.4469995 0.935 -0.47600001
8.4440002 0.95499998 -0.47600001
8.4650002 0.977 -0.47799999
8.4540005 0.99599999 -0.477
8.4659996 1.018 -0.47799999
8.4840002 1.041 -0.47999999
8.4820004 1.061 -0.47999999
8.4700003 1.081 -0.47999999
8.5030003 1.1059999 -0.48199999
8.493 1.126 -0.48199999
8.4899998 1.147 -0.48199999
8.5270004 1.174 -0.48500001
8.5109997 1.193 -0.48500001
8.5209999 1.217 -0.486
8.5129995 1.237 -0.486
8.5209999 1.261 -0.486
8.5249996 1.284 -0.48699999
8.5270004 1.307 -0.48800001
8.5380001 1.331 -0.48899999
8.5430002 1.355 -0.49000001
8.5530005 1.3789999 -0.491
8.5609999 1.404 -0.49200001
8.5559998 1.426 -0.49200001
8.5740004 1.4529999 -0.49399999
8.5900002 1.479 -0.495
8.5690002 1.5 -0.49399999
8.5889997 1.527 -0.49599999
8.6219997 1.557 -0.498
8.6199999 1.581 -0.49900001
8.625 1.607 -0.5
8.6330004 1.633 -0.50099999
8.6520004 1.6619999 -0.50300002
8.6520004 1.687 -0.50300002
8.6499996 1.712 -0.50400001
8.6379995 1.734 -0.50300002
8.6490002 1.762 -0.505
8.6420002 1.786 -0.505
8.6569996 1.8150001 -0.50599998
8.6719999 1.844 -0.50800002
8.6820002 1.873 -0.509
8.6879997 1.9 -0.50999999
8.6879997 1.927 -0.51099998
8.7049999 1.957 -0.51200002
8.717 1.987 -0.514
8.7229996 2.0150001 -0.51499999
8.7320004 2.0439999 -0.51599997
8.7460003 2.075 -0.51700002
8.7600002 2.105 -0.51899999
8.7589998 2.1329999 -0.51999998
8.7659998 2.1619999 -0.52100003
8.7840004 2.1949999 -0.52200001
8.7729998 2.22 -0.52200001
8.7919998 2.253 -0.52399999
8.7910004 2.2809999 -0.52499998
8.8100004 2.3150001 -0.52700001
8.8140001 2.345 -0.528
8.8299999 2.378 -0.52999997
8.8430004 2.411 -0.53100002
8.8470001 2.441 -0.53200001
8.8660002 2.4760001 -0.53399998
8.8640003 2.5050001 -0.53500003
8.8760004 2.5380001 -0.53600001
8.8959999 2.5739999 -0.53799999
8.8940001 2.6029999 -0.53899997
8.8999996 2.635 -0.54000002
8.9139996 2.6700001 -0.542
8.9460001 2.71 -0.54400003
8.9440002 2.74 -0.54500002
8.9619999 2.777 -0.54699999
8.9610004 2.8080001 -0.54799998
8.9949999 2.8499999 -0.551
8.9949999 2.881 -0.55199999
9.0059996 2.9170001 -0.55299997
9.0010004 2.947 -0.55400002
9.0150003 2.984 -0.55500001
9.0369997 3.023 -0.55800003
9.0500002 3.0599999 -0.55900002
9.0679998 3.099 -0.56099999
9.0740004 3.1340001 -0.56300002
9.0780001 3.168 -0.56400001
9.0900002 3.2049999 -0.565
9.1020002 3.243 -0.56699997
9.092 3.2720001 -0.56699997
9.1099997 3.313 -0.56900001
9.118 3.349 -0.57099998
9.1409998 3.392 -0.57300001
9.1409998 3.4260001 -0.574
9.1639996 3.4690001 -0.57700002
9.177 3.5079999 -0.57800001
9.1929998 3.549 -0.57999998
9.1929998 3.5840001 -0.58099997
9.2089996 3.6259999 -0.583
9.2299995 3.6689999 -0.58600003
9.2489996 3.7119999 -0.588
9.2910004 3.7650001 -0.59200001
9.302 3.8050001 -0.59299999
9.3179998 3.848 -0.59600002
9.3380003 3.8929999 -0.59799999
9.349 3.934 -0.60000002
9.3719997 3.9809999 -0.602
9.3970003 4.0289998 -0.60500002
9.3979998 4.066 -0.60600001
9.4200001 4.1129999 -0.60900003
9.4130001 4.1479998 -0.60900003
9.4460001 4.1999998 -0.61199999
9.4709997 4.2490001 -0.61500001
9.5030003 4.302 -0.61799997
9.5240002 4.3499999 -0.62099999
9.5270004 4.3899999 -0.62199998
9.5179996 4.4250002 -0.62300003
9.5389996 4.474 -0.625
9.5480003 4.5170002 -0.62699997
9.5640001 4.5640001 -0.63
9.5930004 4.618 -0.63300002
9.5959997 4.6589999 -0.634
9.6230001 4.7129998 -0.63700002
9.632 4.757 -0.639
9.6479998 4.8060002 -0.64099997
9.6639996 4.855 -0.64300001
9.6899996 4.9089999 -0.64600003
9.6999998 4.9549999 -0.648
9.7040005 4.9990001 -0.64999998
9.7119999 5.0440001 -0.65200001
9.7309999 5.0960002 -0.65399998
9.7440004 5.145 -0.65700001
9.75 5.1900001 -0.65799999
9.7690001 5.2420001 -0.66100001
9.7969999 5.3000002 -0.66399997
9.8050003 5.3470001 -0.66600001
9.8210001 5.3990002 -0.66799998
9.8310003 5.448 -0.671
9.8280001 5.4899998 -0.67199999
9.8439999 5.5419998 -0.67400002
9.8509998 5.5900002 -0.676
9.8400002 5.6269999 -0.67699999
9.8620005 5.684 -0.68000001
9.8669996 5.7319999 -0.68099999
9.8920002 5.7909999 -0.685
9.8999996 5.8400002 -0.68699998
9.8979998 5.8839998 -0.68800002
9.8999996 5.9299998 -0.68900001
9.9180002 5.9860001 -0.69199997
9.9060001 6.0250001 -0.69300002
9.9119997 6.0739999 -0.69499999
9.9239998 6.1269999 -0.69700003
9.9139996 6.1669998 -0.69800001
9.9099998 6.21 -0.699
9.8970003 6.2480001 -0.69999999
9.9350004 6.3189998 -0.704
9.9209995 6.3559999 -0.704
9.9209995 6.402 -0.70599997
9.9320002 6.4569998 -0.708
9.9350004 6.506 -0.70999998
9.9429998 6.5580001 -0.71200001
9.9350004 6.5999999 -0.713
9.9530001 6.6589999 -0.71600002
9.9399996 6.6989999 -0.71700001
9.9429998 6.7480001 -0.71899998
9.9230003 6.783 -0.71899998
9.9399996 6.842 -0.722
9.9219999 6.8779998 -0.722
9.9239998 6.927 -0.72399998
9.8990002 6.9580002 -0.72399998
9.8879995 6.9990001 -0.72500002
9.875 7.0380001 -0.72500002
9.8529997 7.0710001 -0.72500002
9.8149996 7.092 -0.72399998
5.8169999 -3.8540001 -0.234
5.8410001 -3.8329999 -0.234
5.869 -3.8139999 -0.235
5.8870001 -3.789 -0.236
5.9089999 -3.767 -0.236
5.9250002 -3.7409999 -0.236
5.9530001 -3.7219999 -0.237
5.9629998 -3.6930001 -0.237
5.9780002 -3.6670001 -0.23800001
5.994 -3.641 -0.23800001
6.0029998 -3.6110001 -0.23800001
6.0310001 -3.5929999 -0.23899999
6.046 -3.5669999 -0.23899999
6.0510001 -3.536 -0.23899999
6.0580001 -3.506 -0.23899999
6.0910001 -3.4909999 -0.23999999
6.138 -3.484 -0.242
6.151 -3.457 -0.242
6.1810002 -3.4400001 -0.243
6.1929998 -3.4130001 -0.243
6.1929998 -3.3800001 -0.243
6.2210002 -3.362 -0.244
6.2329998 -3.336 -0.244
6.2550001 -3.3150001 -0.245
6.2800002 -3.296 -0.245
6.296 -3.2720001 -0.24600001
6.3060002 -3.2449999 -0.24600001
6.3130002 -3.217 -0.24600001
6.336 -3.197 -0.24600001
6.3649998 -3.1789999 -0.24699999
6.3720002 -3.152 -0.24699999
6.395 -3.132 -0.248
6.421 -3.1129999 -0.249
6.415 -3.079 -0.248
6.4380002 -3.059 -0.249
6.4549999 -3.0369999 -0.249
6.4749999 -3.016 -0.25
6.507 -3.0009999 -0.25099999
6.513 -2.973 -0.25099999
6.5279999 -2.95 -0.25099999
6.539 -2.925 -0.25099999
6.5580001 -2.9030001 -0.252
6.5809999 -2.8840001 -0.25299999
6.605 -2.865 -0.25299999
6.6160002 -2.8399999 -0.25299999
6.6279998 -2.8169999 -0.25400001
6.6440001 -2.7939999 -0.25400001
6.6630001 -2.773 -0.255
6.6849999 -2.7539999 -0.255
6.7059999 -2.734 -0.25600001
6.6999998 -2.7030001 -0.255
6.7129998 -2.6800001 -0.25600001
6.7389998 -2.6619999 -0.25600001
6.7420001 -2.635 -0.25600001
6.7680001 -2.618 -0.257
6.776 -2.5929999 -0.257
6.7880001 -2.5699999 -0.257
6.8210001 -2.5550001 -0.259
6.8270001 -2.53 -0.259
6.8540001 -2.5120001 -0.259
6.8590002 -2.487 -0.259
6.8909998 -2.4719999 -0.25999999
6.908 -2.451 -0.26100001
6.9130001 -2.4260001 -0.26100001
6.9159999 -2.4000001 -0.26100001
6.9200001 -2.3759999 -0.26100001
6.9400001 -2.3559999 -0.26100001
6.9530001 -2.3340001 -0.26199999
6.9679999 -2.313 -0.26199999
6.9749999 -2.29 -0.26199999
6.9959998 -2.2709999 -0.26300001
7.0180001 -2.2520001 -0.26300001
7.0339999 -2.2320001 -0.264
7.0250001 -2.2030001 -0.26300001
7.0469999 -2.1849999 -0.264
7.0640001 -2.165 -0.264
7.0749998 -2.1429999 -0.264
7.0929999 -2.1240001 -0.26499999
7.1090002 -2.1040001 -0.26499999
7.1230001 -2.0829999 -0.266
7.1370001 -2.062 -0.266
7.1570001 -2.0439999 -0.26699999
7.1630001 -2.0209999 -0.26699999
7.1919999 -2.0050001 -0.26800001
7.204 -1.984 -0.26800001
7.211 -1.962 -0.26800001
7.244 -1.947 -0.26899999
7.2540002 -1.926 -0.26899999
7.2690001 -1.906 -0.27000001
7.2810001 -1.885 -0.27000001
7.309 -1.869 -0.271
7.3130002 -1.846 -0.271
7.3270001 -1.827 -0.271
7.3439999 -1.808 -0.27200001
7.3639998 -1.789 -0.27200001
7.3899999 -1.772 -0.273
7.395 -1.751 -0.273
7.414 -1.732 -0.27399999
7.4159999 -1.71 -0.273
7.4380002 -1.692 -0.27399999
7.461 -1.675 -0.27500001
7.4629998 -1.653 -0.27500001
7.4699998 -1.632 -0.27500001
7.4990001 -1.6160001 -0.27599999
7.5240002 -1.599 -0.27700001
7.5219998 -1.577 -0.27599999
7.5419998 -1.559 -0.27700001
7.5669999 -1.5420001 -0.278
7.5939999 -1.526 -0.27900001
7.6040001 -1.506 -0.27900001
7.5999999 -1.483 -0.278
7.6100001 -1.464 -0.27900001
7.619 -1.444 -0.27900001
7.6370001 -1.426 -0.27900001
7.6719999 -1.4119999 -0.28099999
7.6810002 -1.392 -0.28099999
7.6939998 -1.373 -0.28099999
7.7080002 -1.355 -0.28099999
7.7179999 -1.336 -0.28200001
7.7249999 -1.316 -0.28200001
7.7340002 -1.2970001 -0.28200001
7.7540002 -1.28 -0.28299999
7.7690001 -1.262 -0.28299999
7.7820001 -1.244 -0.28299999
7.7919998 -1.225 -0.28400001
7.8010001 -1.206 -0.28400001
7.8119998 -1.188 -0.28400001
7.835 -1.171 -0.285
7.8449998 -1.153 -0.285
7.8629999 -1.136 -0.28600001
7.8839998 -1.119 -0.28600001
7.8959999 -1.101 -0.287
7.9120002 -1.084 -0.287
7.9299998 -1.067 -0.28799999
7.9390001 -1.049 -0.28799999
7.954 -1.031 -0.28799999
7.98 -1.016 -0.289
7.9959998 -0.99900001 -0.28999999
7.9980001 -0.98000002 -0.289
8.0159998 -0.963 -0.28999999
8.0159998 -0.94400001 -0.28999999
8.026 -0.92699999 -0.28999999
8.052 -0.91100001 -0.29100001
8.0459995 -0.89200002 -0.29100001
8.0769997 -0.87699997 -0.292
8.1000004 -0.861 -0.292
8.1140003 -0.84399998 -0.29300001
8.1269999 -0.82800001 -0.29300001
8.1409998 -0.81099999 -0.294
8.1619997 -0.79500002 -0.294
8.1739998 -0.778 -0.29499999
8.1879997 -0.76200002 -0.29499999
8.2019997 -0.745 -0.29499999
8.2130003 -0.72899997 -0.296
8.2349997 -0.713 -0.296
8.2539997 -0.69700003 -0.29699999
8.2530003 -0.68000001 -0.29699999
8.2690001 -0.66399997 -0.29699999
8.2849998 -0.648 -0.29800001
8.2989998 -0.63200003 -0.29800001
8.3210001 -0.616 -0.29899999
8.3310003 -0.60000002 -0.29899999
8.3470001 -0.58399999 -0.30000001
8.3549995 -0.56800002 -0.30000001
8.3739996 -0.55299997 -0.301
8.3929996 -0.53799999 -0.301
8.4209995 -0.523 -0.30199999
8.4300003 -0.50700003 -0.30199999
8.4530001 -0.49200001 -0.303
8.4689999 -0.477 -0.30399999
8.4890003 -0.46200001 -0.30399999
8.5050001 -0.44600001 -0.30500001
8.5190001 -0.43099999 -0.30500001
8.5500002 -0.417 -0.30599999
8.5629997 -0.40099999 -0.30700001
8.5930004 -0.38699999 -0.308
8.6239996 -0.373 -0.30899999
8.6239996 -0.35699999 -0.30899999
8.6540003 -0.34299999 -0.31
8.665 -0.32800001 -0.31
8.71 -0.31400001 -0.31099999
8.7119999 -0.29899999 -0.31099999
8.79 -0.28600001 -0.31400001
8.2679996 0.093000002 -0.43200001
8.2889996 0.109 -0.433
8.3100004 0.124 -0.43399999
8.3120003 0.14 -0.435
8.3219995 0.156 -0.435
8.3210001 0.17200001 -0.43599999
8.3210001 0.18799999 -0.43599999
8.3210001 0.204 -0.43599999
8.3199997 0.22 -0.43599999
8.3280001 0.237 -0.43700001
8.3280001 0.25400001 -0.43700001
8.3479996 0.271 -0.43799999
8.3389997 0.28799999 -0.43799999
8.3339996 0.30500001 -0.43799999
8.3439999 0.32300001 -0.43799999
8.3509998 0.34099999 -0.43900001
8.3360004 0.35800001 -0.43799999
8.3559999 0.377 -0.44
8.3590002 0.39500001 -0.44
8.3479996 0.41299999 -0.44
8.3570004 0.43200001 -0.44100001
8.3800001 0.45199999 -0.442
8.3730001 0.47 -0.442
8.368 0.48899999 -0.442
8.3629999 0.50800002 -0.442
8.3599997 0.52700001 -0.442
8.3879995 0.54799998 -0.44400001
8.3789997 0.56699997 -0.44400001
8.3950005 0.588 -0.44499999
8.4110003 0.60900003 -0.44600001
8.4219999 0.63 -0.447
8.4209995 0.64999998 -0.447
8.434 0.67199999 -0.44800001
8.4460001 0.69300002 -0.449
8.4630003 0.71499997 -0.44999999
8.4779997 0.73799998 -0.45100001
8.4809999 0.759 -0.45199999
8.4870005 0.78100002 -0.45199999
8.4799995 0.80199999 -0.45199999
8.4940004 0.82499999 -0.454
8.4890003 0.84600002 -0.454
8.4969997 0.86799997 -0.454
8.507 0.89099997 -0.45500001
8.5120001 0.91399997 -0.456
8.5170002 0.93699998 -0.45699999
8.526 0.95999998 -0.45699999
8.526 0.98299998 -0.458
8.5439997 1.008 -0.45899999
8.5500002 1.0319999 -0.46000001
8.559 1.056 -0.461
8.5539999 1.0779999 -0.461
8.5649996 1.103 -0.46200001
8.5679998 1.127 -0.46200001
8.5740004 1.151 -0.463
8.5819998 1.176 -0.46399999
8.5930004 1.202 -0.465
8.6040001 1.227 -0.46599999
8.6059999 1.252 -0.46700001
8.618 1.278 -0.46799999
8.6199999 1.302 -0.46799999
8.6289997 1.3279999 -0.46900001
8.6389999 1.355 -0.47
8.632 1.378 -0.47
8.6440001 1.405 -0.472
8.6610003 1.433 -0.47299999
8.6630001 1.459 -0.47400001
8.6599998 1.484 -0.47400001
8.684 1.513 -0.47600001
8.6999998 1.5420001 -0.477
8.7130003 1.5700001 -0.47799999
8.7119999 1.596 -0.479
8.7180004 1.623 -0.47999999
8.7320004 1.652 -0.48100001
8.7469997 1.681 -0.48199999
8.75 1.7079999 -0.48300001
8.7519999 1.735 -0.484
8.7670002 1.765 -0.48500001
8.7639999 1.791 -0.48500001
8.7589998 1.817 -0.486
8.7840004 1.849 -0.48800001
8.8059998 1.882 -0.48899999
8.7989998 1.9069999 -0.49000001
8.8050003 1.936 -0.49000001
8.8269997 1.969 -0.49200001
8.8280001 1.997 -0.493
8.8500004 2.03 -0.495
8.8620005 2.0599999 -0.49599999
8.8640003 2.089 -0.49700001
8.8839998 2.122 -0.498
8.8900003 2.152 -0.49900001
8.8830004 2.1789999 -0.5
8.8900003 2.2090001 -0.50099999
8.9020004 2.2409999 -0.50199997
8.9139996 2.273 -0.50300002
8.9289999 2.306 -0.505
8.9420004 2.3380001 -0.50599998
8.9460001 2.368 -0.50700003
8.9510002 2.3989999 -0.50800002
8.9510002 2.4289999 -0.509
8.9849997 2.467 -0.51099998
8.9799995 2.4960001 -0.51200002
8.9940004 2.53 -0.51300001
8.9919996 2.559 -0.514
9 2.5910001 -0.51499999
9.0209999 2.628 -0.51700002
9.0410004 2.664 -0.51899999
9.0579996 2.6989999 -0.51999998
9.059 2.73 -0.52100003
9.0640001 2.7620001 -0.52200001
9.0839996 2.799 -0.52399999
9.1070004 2.8369999 -0.52600002
9.1190004 2.872 -0.528
9.1350002 2.908 -0.52899998
9.1379995 2.9400001 -0.52999997
9.1429996 2.973 -0.53100002
9.1450005 3.0050001 -0.53200001
9.1759996 3.0469999 -0.53500003
9.1890001 3.0829999 -0.53600001
9.1820002 3.1129999 -0.537
9.198 3.1500001 -0.53799999
9.2049999 3.184 -0.54000002
9.2119999 3.2190001 -0.54100001
9.2069998 3.2490001 -0.54100001
9.2159996 3.2850001 -0.54299998
9.2379999 3.325 -0.54500002
9.2309999 3.355 -0.54500002
9.257 3.3970001 -0.54799998
9.276 3.4360001 -0.55000001
9.276 3.4690001 -0.551
9.3000002 3.5109999 -0.55299997
9.3000002 3.5439999 -0.55400002
9.3030005 3.5780001 -0.55500001
9.3149996 3.6159999 -0.55599999
9.3649998 3.6689999 -0.56
9.3780003 3.707 -0.56199998
9.4029999 3.7509999 -0.56400001
9.4250002 3.793 -0.56599998
9.4490004 3.8369999 -0.56900001
9.4510002 3.872 -0.56999999
9.4779997 3.9170001 -0.57200003
9.4910002 3.9560001 -0.574
9.5019999 3.9949999 -0.57599998
9.4919996 4.0250001 -0.57599998
9.5389996 4.079 -0.57999998
9.5410004 4.1139998 -0.58099997
9.5579996 4.1570001 -0.583
9.5900002 4.2049999 -0.58600003
9.6070004 4.2470002 -0.588
9.632 4.2940001 -0.58999997
9.6520004 4.3369999 -0.59299999
9.6820002 4.3860002 -0.59600002
9.6800003 4.4200001 -0.59600002
9.6750002 4.4530001 -0.597
9.684 4.493 -0.59899998
9.7089996 4.54 -0.60100001
9.7519999 4.5949998 -0.60500002
9.7530003 4.632 -0.60600001
9.7559996 4.6690001 -0.60699999
9.7729998 4.7129998 -0.60900003
9.7720003 4.7480001 -0.61000001
9.8219995 4.8080001 -0.61500001
9.8190002 4.842 -0.616
9.8339996 4.8860002 -0.61799997
9.8369999 4.9229999 -0.61900002
9.868 4.9749999 -0.62199998
9.882 5.0180001 -0.62400001
9.8920002 5.059 -0.62599999
9.9139996 5.1069999 -0.62800002
9.9130001 5.1430001 -0.62900001
9.9449997 5.1960001 -0.63200003
9.9720001 5.2470002 -0.63499999
9.9919996 5.2930002 -0.63800001
9.993 5.3309999 -0.639
10.009 5.3759999 -0.64099997
10.024 5.4200001 -0.64300001
10.056 5.474 -0.64600003
10.064 5.5149999 -0.648
10.076 5.559 -0.64999998
10.069 5.5910001 -0.65100002
10.077 5.6329999 -0.65200001
10.111 5.6890001 -0.65600002
10.106 5.723 -0.65700001
10.101 5.756 -0.65799999
10.107 5.796 -0.65899998
10.114 5.8369999 -0.66100001
10.124 5.8800001 -0.66299999
10.138 5.9250002 -0.66500002
10.154 5.9699998 -0.667
10.194 6.0310001 -0.671
10.201 6.0710001 -0.67299998
10.219 6.119 -0.67500001
10.239 6.1669998 -0.67799997
10.259 6.2160001 -0.68000001
10.268 6.2579999 -0.68199998
10.294 6.3109999 -0.685
10.302 6.3520002 -0.68699998
10.308 6.3930001 -0.68900001
10.34 6.4489999 -0.69199997
10.356 6.4959998 -0.69499999
10.363 6.5370002 -0.69700003
10.377 6.5819998 -0.699
10.376 6.6170001 -0.69999999
10.393 6.664 -0.70300001
10.406 6.7090001 -0.70499998
10.4 6.7410002 -0.70599997
10.403 6.7789998 -0.70700002
10.408 6.8179998 -0.70899999
10.433 6.8699999 -0.71200001
10.43 6.9039998 -0.713
10.471 6.967 -0.71700001
10.467 7 -0.71799999
10.456 7.0279999 -0.71899998
10.481 7.0799999 -0.722
10.514 7.1370001 -0.72600001
10.503 7.165 -0.72600001
10.539 7.2249999 -0.73000002
10.532 7.2540002 -0.73100001
10.543 7.2969999 -0.73299998
10.529 7.322 -0.73400003
10.606 7.4099998 -0.741
10.601 7.4400001 -0.74199998
10.631 7.4959998 -0.745
10.66 7.5500002 -0.74900001
6.1680002 -3.6029999 -0.228
6.1729999 -3.589 -0.228
6.1830001 -3.5780001 -0.228
6.198 -3.569 -0.229
6.2010002 -3.553 -0.229
6.211 -3.5409999 -0.229
6.2309999 -3.5350001 -0.23
6.2389998 -3.523 -0.23
6.2399998 -3.506 -0.23
6.2480001 -3.4920001 -0.23
6.2480001 -3.4749999 -0.23
6.256 -3.4619999 -0.23
6.27 -3.4519999 -0.23100001
6.2779999 -3.4389999 -0.23100001
6.2820001 -3.424 -0.23100001
6.2919998 -3.411 -0.23100001
6.3109999 -3.404 -0.23199999
6.3260002 -3.3940001 -0.23199999
6.3410001 -3.3840001 -0.233
6.3390002 -3.365 -0.23199999
6.3540001 -3.355 -0.233
6.3740001 -3.348 -0.233
6.395 -3.3399999 -0.234
6.3829999 -3.316 -0.233
6.3940001 -3.303 -0.234
6.3959999 -3.2869999 -0.234
6.408 -3.2750001 -0.234
6.4320002 -3.2679999 -0.235
6.4390001 -3.2539999 -0.235
6.4460001 -3.2390001 -0.235
6.4660001 -3.2309999 -0.236
6.4679999 -3.2130001 -0.236
6.4679999 -3.1949999 -0.236
6.474 -3.1789999 -0.236
6.4899998 -3.1689999 -0.236
6.5029998 -3.1570001 -0.236
6.507 -3.1400001 -0.236
6.5229998 -3.1289999 -0.237
6.5159998 -3.1070001 -0.237
6.5370002 -3.099 -0.237
6.5580001 -3.0899999 -0.23800001
6.559 -3.072 -0.23800001
6.572 -3.059 -0.23800001
6.5900002 -3.049 -0.23899999
6.592 -3.0309999 -0.23899999
6.6129999 -3.0209999 -0.23899999
6.6279998 -3.0090001 -0.23999999
6.6269999 -2.99 -0.23999999
6.6409998 -2.977 -0.23999999
6.6459999 -2.96 -0.23999999
6.6620002 -2.9489999 -0.23999999
6.665 -2.931 -0.23999999
6.6890001 -2.9219999 -0.241
6.6830001 -2.901 -0.241
6.7069998 -2.892 -0.242
6.7020001 -2.8710001 -0.241
6.7150002 -2.8570001 -0.242
6.737 -2.8469999 -0.242
6.7470002 -2.832 -0.242
6.7490001 -2.813 -0.242
6.7649999 -2.8 -0.243
6.7740002 -2.7850001 -0.243
6.7859998 -2.77 -0.243
6.8039999 -2.7579999 -0.244
6.8049998 -2.7390001 -0.244
6.8109999 -2.7219999 -0.244
6.816 -2.7049999 -0.244
6.8309999 -2.691 -0.244
6.829 -2.6700001 -0.244
6.8449998 -2.6570001 -0.245
6.8639998 -2.645 -0.245
6.8569999 -2.6229999 -0.245
6.8779998 -2.6110001 -0.245
6.901 -2.5999999 -0.24600001
6.9029999 -2.5810001 -0.24600001
6.9120002 -2.5639999 -0.24600001
6.9169998 -2.5469999 -0.24600001
6.9380002 -2.5339999 -0.24699999
6.9499998 -2.5190001 -0.24699999
6.954 -2.5 -0.24699999
6.9629998 -2.484 -0.24699999
6.9689999 -2.4660001 -0.24699999
6.9959998 -2.4549999 -0.248
6.9990001 -2.4360001 -0.248
6.9990001 -2.4159999 -0.248
7.0139999 -2.402 -0.248
7.0419998 -2.391 -0.249
7.0339999 -2.368 -0.249
7.0599999 -2.3570001 -0.25
7.0489998 -2.3329999 -0.249
7.0669999 -2.3180001 -0.25
7.0749998 -2.3010001 -0.25
7.098 -2.2880001 -0.25099999
7.1020002 -2.2690001 -0.25099999
7.1079998 -2.2509999 -0.25099999
7.1220002 -2.2349999 -0.25099999
7.1370001 -2.2190001 -0.25099999
7.1279998 -2.1960001 -0.25099999
7.1459999 -2.181 -0.25099999
7.1560001 -2.164 -0.252
7.171 -2.148 -0.252
7.1820002 -2.1300001 -0.252
7.1960001 -2.1140001 -0.25299999
7.2160001 -2.099 -0.25299999
7.23 -2.0829999 -0.25400001
7.2410002 -2.0650001 -0.25400001
7.2529998 -2.0480001 -0.25400001
7.2649999 -2.03 -0.25400001
7.2659998 -2.01 -0.25400001
7.2810001 -1.994 -0.255
7.3010001 -1.978 -0.255
7.3280001 -1.965 -0.25600001
7.3330002 -1.9450001 -0.25600001
7.3369999 -1.925 -0.25600001
7.336 -1.904 -0.25600001
7.3759999 -1.893 -0.257
7.381 -1.874 -0.257
7.4000001 -1.857 -0.25799999
7.4050002 -1.8380001 -0.25799999
7.4250002 -1.821 -0.25799999
7.4289999 -1.801 -0.25799999
7.4460001 -1.784 -0.259
7.4660001 -1.767 -0.259
7.487 -1.751 -0.25999999
7.4959998 -1.732 -0.25999999
7.5089998 -1.714 -0.25999999
7.513 -1.693 -0.25999999
7.5240002 -1.674 -0.26100001
7.5300002 -1.654 -0.26100001
7.539 -1.635 -0.26100001
7.5580001 -1.617 -0.26100001
7.5679998 -1.598 -0.26100001
7.5949998 -1.582 -0.26199999
7.6230001 -1.566 -0.26300001
7.645 -1.549 -0.264
7.678 -1.534 -0.26499999
7.6799998 -1.513 -0.26499999
7.6869998 -1.492 -0.26499999
7.7030001 -1.473 -0.26499999
7.6950002 -1.45 -0.26499999
7.711 -1.431 -0.26499999
7.7210002 -1.411 -0.26499999
7.756 -1.396 -0.266
7.7719998 -1.376 -0.26699999
7.77 -1.354 -0.266
7.7880001 -1.335 -0.26699999
7.7979999 -1.3150001 -0.26699999
7.816 -1.296 -0.26800001
7.8410001 -1.278 -0.26800001
7.842 -1.255 -0.26800001
7.8610001 -1.2359999 -0.26899999
7.8639998 -1.214 -0.26899999
7.8969998 -1.197 -0.27000001
7.9000001 -1.175 -0.27000001
7.9419999 -1.159 -0.271
7.9510002 -1.138 -0.271
7.9689999 -1.118 -0.271
7.9990001 -1.099 -0.27200001
8.0089998 -1.0779999 -0.27200001
8.0310001 -1.058 -0.273
8.0559998 -1.039 -0.27399999
8.0649996 -1.017 -0.27399999
8.0909996 -0.99699998 -0.27500001
8.1140003 -0.977 -0.27500001
8.1169996 -0.95499998 -0.27500001
8.1409998 -0.935 -0.27599999
8.1470003 -0.912 -0.27599999
8.1820002 -0.89300001 -0.27700001
8.2110004 -0.87300003 -0.278
8.2259998 -0.85100001 -0.278
8.2539997 -0.83099997 -0.27900001
8.2740002 -0.81 -0.27900001
8.2939997 -0.78799999 -0.28
8.3000002 -0.76499999 -0.28
8.3149996 -0.74299997 -0.28
8.3430004 -0.722 -0.28099999
8.3800001 -0.70200002 -0.28200001
8.3950005 -0.67900002 -0.28299999
8.4440002 -0.65899998 -0.28400001
8.4639997 -0.63700002 -0.28400001
8.4720001 -0.61400002 -0.285
8.507 -0.59200001 -0.28600001
8.5120001 -0.56800002 -0.28600001
8.5270004 -0.54500002 -0.28600001
8.5570002 -0.523 -0.287
8.5880003 -0.50099999 -0.28799999
8.6370001 -0.479 -0.289
8.6610003 -0.456 -0.28999999
8.6920004 -0.433 -0.29100001
8.7370005 -0.41100001 -0.292
8.802 -0.389 -0.294
8.8269997 -0.36500001 -0.29499999
8.71 0.177 -0.43200001
8.677 0.18799999 -0.43000001
8.6820002 0.2 -0.43099999
8.6230001 0.20999999 -0.428
8.6110001 0.222 -0.42699999
8.6420002 0.235 -0.42899999
8.6199999 0.24600001 -0.428
8.6140003 0.259 -0.428
8.6009998 0.271 -0.42699999
8.5950003 0.28400001 -0.42699999
8.5710001 0.296 -0.426
8.5970001 0.31 -0.428
8.5909996 0.324 -0.428
8.5769997 0.33700001 -0.42699999
8.5649996 0.34999999 -0.42699999
8.5620003 0.36399999 -0.42699999
8.5959997 0.38 -0.42899999
8.573 0.39300001 -0.428
8.5539999 0.40700001 -0.42699999
8.559 0.42199999 -0.42699999
8.552 0.43599999 -0.42699999
8.5579996 0.45199999 -0.428
8.5559998 0.46700001 -0.428
8.5430002 0.48199999 -0.42699999
8.5550003 0.498 -0.428
8.5679998 0.51499999 -0.42899999
8.5550003 0.52999997 -0.42899999
8.5819998 0.54799998 -0.43000001
8.5719995 0.56400001 -0.43000001
8.5620003 0.57999998 -0.43000001
8.5900002 0.59899998 -0.43099999
8.5900002 0.616 -0.43200001
8.5819998 0.63300002 -0.43200001
8.599 0.65100002 -0.433
8.6219997 0.67000002 -0.43399999
8.6379995 0.69 -0.435
8.6269999 0.70700002 -0.435
8.6560001 0.727 -0.43700001
8.6459999 0.745 -0.43700001
8.6569996 0.764 -0.43799999
8.684 0.78500003 -0.43900001
8.6590004 0.80199999 -0.43799999
8.6780005 0.82300001 -0.44
8.6800003 0.84200001 -0.44
8.6929998 0.86299998 -0.44100001
8.6879997 0.88200003 -0.44100001
8.6850004 0.90200001 -0.44100001
