# .PCD v0.7 - Point Cloud Data file format
VERSION 0.7
FIELDS x y z
SIZE 4 4 4
TYPE F F F
COUNT 1 1 1
WIDTH 1841
HEIGHT 1
VIEWPOINT 0 0 0 1 0 0 0
POINTS 1841
DATA ascii
7.7979999 -3.0139999 -0.054000001
7.822 -3.0009999 -0.055
7.8130002 -2.9749999 -0.054000001
7.8270001 -2.957 -0.054000001
7.8449998 -2.941 -0.054000001
7.8520002 -2.921 -0.054000001
7.8740001 -2.9070001 -0.054000001
7.8730001 -2.8840001 -0.054000001
7.901 -2.8710001 -0.054000001
7.908 -2.8510001 -0.054000001
7.928 -2.836 -0.055
7.9359999 -2.8150001 -0.054000001
7.948 -2.7969999 -0.054000001
7.9699998 -2.7809999 -0.055
7.9840002 -2.763 -0.055
7.9910002 -2.743 -0.055
8.0050001 -2.7249999 -0.055
8.0419998 -2.714 -0.055
8.04 -2.6900001 -0.055
8.0749998 -2.678 -0.055
8.0839996 -2.658 -0.055
8.1009998 -2.641 -0.055
8.1120005 -2.6210001 -0.055
8.1309996 -2.6029999 -0.055
8.1429996 -2.5840001 -0.055
8.1450005 -2.5610001 -0.055
8.1689997 -2.5450001 -0.055
8.1829996 -2.526 -0.055
8.2069998 -2.51 -0.055
8.2309999 -2.494 -0.055
8.2690001 -2.4809999 -0.055
8.2910004 -2.464 -0.055
8.283 -2.438 -0.055
8.3280001 -2.427 -0.055
8.3369999 -2.4059999 -0.055
8.3240004 -2.378 -0.055
8.3640003 -2.3659999 -0.055
8.3669996 -2.3429999 -0.055
8.3900003 -2.325 -0.055
8.4049997 -2.3050001 -0.055
8.4169998 -2.2839999 -0.055
8.4429998 -2.267 -0.055
8.4700003 -2.25 -0.055
8.4809999 -2.2290001 -0.055
8.5100002 -2.2119999 -0.056000002
8.5349998 -2.194 -0.056000002
8.5430002 -2.171 -0.056000002
8.552 -2.1489999 -0.056000002
8.5830002 -2.132 -0.056000002
8.6020002 -2.112 -0.056000002
8.5950003 -2.086 -0.056000002
8.6120005 -2.066 -0.056000002
8.6450005 -2.049 -0.056000002
8.6529999 -2.026 -0.056000002
8.6700001 -2.0050001 -0.056000002
8.6990004 -1.987 -0.056000002
8.724 -1.9680001 -0.056000002
8.7349997 -1.9450001 -0.056000002
8.7650003 -1.927 -0.056000002
8.8369999 -1.9170001 -0.056000002
8.8330002 -1.891 -0.056000002
8.8409996 -1.868 -0.056000002
8.8500004 -1.844 -0.056000002
8.8690004 -1.823 -0.056000002
8.8769999 -1.799 -0.056000002
8.9029999 -1.779 -0.056000002
8.9139996 -1.756 -0.056000002
8.9390001 -1.735 -0.056000002
8.967 -1.715 -0.056000002
8.9919996 -1.694 -0.056000002
9.0039997 -1.671 -0.056000002
9.0310001 -1.65 -0.057
9.033 -1.625 -0.056000002
9.066 -1.605 -0.057
9.0860004 -1.5829999 -0.057
9.0959997 -1.558 -0.057
9.1359997 -1.539 -0.057
9.1529999 -1.516 -0.057
9.1730003 -1.493 -0.057
9.2279997 -1.476 -0.057
9.2390003 -1.451 -0.057
9.257 -1.428 -0.057
9.2729998 -1.404 -0.057
9.3050003 -1.382 -0.057
9.3380003 -1.3609999 -0.057
9.3649998 -1.3380001 -0.057
9.3900003 -1.3150001 -0.057
9.4029999 -1.29 -0.057
9.4390001 -1.268 -0.057
9.4630003 -1.244 -0.057999998
9.4899998 -1.221 -0.057999998
9.5200005 -1.198 -0.057999998
9.507 -1.169 -0.057999998
9.552 -1.147 -0.057999998
9.599 -1.126 -0.057999998
9.6160002 -1.101 -0.057999998
9.6619997 -1.0779999 -0.057999998
9.6820002 -1.053 -0.057999998
9.698 -1.027 -0.057999998
9.7189999 -1.002 -0.057999998
9.7419996 -0.977 -0.057999998
9.7629995 -0.95099998 -0.057999998
9.7919998 -0.926 -0.057999998
9.8299999 -0.90200001 -0.057999998
9.868 -0.87699997 -0.059
9.9130001 -0.85299999 -0.059
9.9759998 -0.82999998 -0.059
9.9899998 -0.80299997 -0.059
10.113 -0.78399998 -0.059999999
10.117 -0.75599998 -0.059999999
10.15 -0.73000002 -0.059999999
10.2 -0.704 -0.059999999
10.235 -0.67799997 -0.059999999
10.356 -0.65600002 -0.061000001
10.354 -0.62699997 -0.059999999
10.269 0.185 -0.191
10.217 0.19599999 -0.19
10.184 0.208 -0.189
10.135 0.22 -0.189
10.148 0.234 -0.189
10.133 0.24699999 -0.189
10.131 0.25999999 -0.189
10.094 0.273 -0.18799999
10.08 0.287 -0.18799999
10.133 0.303 -0.189
10.154 0.31799999 -0.19
10.132 0.33199999 -0.19
10.118 0.34599999 -0.19
10.126 0.36199999 -0.19
10.144 0.37799999 -0.19
10.149 0.39399999 -0.191
10.142 0.41 -0.191
10.129 0.42500001 -0.191
10.108 0.44100001 -0.19
10.106 0.45699999 -0.191
10.113 0.47499999 -0.191
10.09 0.49000001 -0.191
10.111 0.509 -0.191
10.1 0.52600002 -0.191
10.102 0.54400003 -0.191
10.099 0.56099999 -0.192
10.118 0.57999998 -0.192
10.12 0.59899998 -0.192
10.138 0.61900002 -0.193
10.166 0.639 -0.19400001
10.174 0.65899998 -0.19400001
10.188 0.67900002 -0.19400001
10.189 0.699 -0.19499999
10.2 0.72000003 -0.19499999
10.211 0.74000001 -0.19599999
10.226 0.76200002 -0.19599999
10.24 0.78299999 -0.197
10.256 0.80500001 -0.197
10.24 0.82499999 -0.197
10.266 0.84799999 -0.198
10.264 0.87 -0.198
10.279 0.89200002 -0.198
10.307 0.917 -0.199
10.312 0.93900001 -0.2
10.33 0.963 -0.2
10.34 0.98699999 -0.20100001
10.329 1.0089999 -0.20100001
10.372 1.036 -0.20200001
10.375 1.059 -0.20200001
10.4 1.086 -0.20299999
10.409 1.11 -0.20299999
10.428 1.136 -0.204
10.448 1.163 -0.205
10.451 1.187 -0.205
10.469 1.214 -0.206
10.458 1.238 -0.206
10.491 1.267 -0.207
10.514 1.295 -0.207
10.527 1.322 -0.208
10.541 1.35 -0.208
10.538 1.375 -0.20900001
10.582 1.4069999 -0.20999999
10.579 1.433 -0.20999999
10.554 1.457 -0.20999999
10.571 1.4859999 -0.211
10.579 1.5140001 -0.211
10.604 1.545 -0.212
10.613 1.574 -0.212
10.636 1.605 -0.213
10.653 1.635 -0.214
10.668 1.666 -0.214
10.691 1.698 -0.215
10.7 1.728 -0.21600001
10.721 1.76 -0.21699999
10.746 1.793 -0.21699999
10.76 1.825 -0.21799999
10.772 1.857 -0.219
10.811 1.893 -0.22
10.817 1.925 -0.22
10.833 1.9579999 -0.221
10.861 1.993 -0.222
10.872 2.026 -0.222
10.863 2.056 -0.223
10.897 2.0929999 -0.22400001
10.925 2.1300001 -0.22499999
10.965 2.1689999 -0.226
10.981 2.2049999 -0.227
11.007 2.2420001 -0.228
11.025 2.2780001 -0.228
11.054 2.3169999 -0.229
11.079 2.355 -0.23
11.078 2.388 -0.23100001
11.094 2.425 -0.23100001
11.1 2.46 -0.23199999
11.128 2.5 -0.233
11.155 2.5409999 -0.234
11.195 2.5840001 -0.235
11.204 2.6210001 -0.236
11.235 2.6630001 -0.237
11.238 2.6989999 -0.237
11.262 2.74 -0.23800001
11.283 2.7809999 -0.23899999
11.308 2.823 -0.23999999
11.322 2.862 -0.241
11.371 2.911 -0.242
11.362 2.9449999 -0.243
11.362 2.9820001 -0.243
11.396 3.0280001 -0.244
11.405 3.0680001 -0.245
11.445 3.1159999 -0.24600001
11.427 3.1489999 -0.24600001
11.454 3.194 -0.24699999
11.473 3.237 -0.248
11.507 3.2850001 -0.25
11.522 3.3280001 -0.25
11.566 3.3800001 -0.252
11.596 3.428 -0.25299999
11.611 3.4719999 -0.25400001
11.651 3.5239999 -0.255
11.692 3.5769999 -0.257
11.736 3.631 -0.25799999
11.816 3.6960001 -0.25999999
11.834 3.743 -0.26100001
11.782 3.7679999 -0.26100001
11.793 3.813 -0.26199999
11.778 3.849 -0.26199999
11.815 3.904 -0.26300001
11.843 3.9549999 -0.264
11.915 4.0209999 -0.266
11.874 4.0500002 -0.266
11.9 4.1020002 -0.26699999
11.904 4.1459999 -0.26800001
11.944 4.204 -0.26899999
11.948 4.2490001 -0.27000001
11.956 4.2950001 -0.271
11.963 4.342 -0.27200001
11.994 4.3969998 -0.273
12.004 4.4450002 -0.27399999
12.04 4.5040002 -0.27500001
12.065 4.5580001 -0.27599999
12.069 4.605 -0.27700001
12.08 4.6550002 -0.278
12.106 4.711 -0.27900001
12.15 4.7740002 -0.28099999
12.147 4.8189998 -0.28099999
12.188 4.882 -0.28299999
12.19 4.9299998 -0.28400001
12.208 4.9840002 -0.285
12.211 5.033 -0.285
12.222 5.085 -0.28600001
12.263 5.1500001 -0.28799999
12.264 5.198 -0.289
12.311 5.2670002 -0.28999999
12.312 5.316 -0.29100001
8.2329998 3.5869999 -0.19499999
12.526 5.4580002 -0.29699999
8.1359997 3.5769999 -0.193
8.1260004 3.605 -0.193
8.1149998 3.6329999 -0.193
8.118 3.6670001 -0.19400001
8.2209997 3.747 -0.197
8.2360001 3.7869999 -0.198
8.2180004 3.812 -0.198
8.21 3.842 -0.198
8.2510004 3.895 -0.199
12.763 6.0250001 -0.30899999
12.518 5.961 -0.30399999
12.508 6.0079999 -0.30399999
12.515 6.0630002 -0.30500001
12.545 6.1300001 -0.30599999
12.603 6.211 -0.30899999
12.611 6.2680001 -0.31
12.567 6.2989998 -0.30899999
12.27 6.2020001 -0.303
12.213 6.2249999 -0.30199999
12.283 6.3649998 -0.30500001
12.156 6.3520002 -0.303
12.153 6.402 -0.303
12.294 6.5300002 -0.308
13.044 7.2129998 -0.331
12.999 7.2449999 -0.33000001
13.037 7.3239999 -0.33199999
13.08 7.4060001 -0.33399999
13.145 7.5009999 -0.33700001
10.547 6.256 -0.273
10.464 6.2540002 -0.27200001
10.368 6.244 -0.27000001
10.314 6.2589998 -0.27000001
10.189 6.23 -0.26699999
10.157 6.257 -0.26699999
10.098 6.2670002 -0.266
10.033 6.2740002 -0.26499999
9.9820004 6.2880001 -0.264
10.001 6.3470001 -0.26499999
10.133 6.4780002 -0.27000001
9.6020002 6.829 -0.266
9.5089998 6.809 -0.264
9.4259996 6.796 -0.26300001
6.7030001 -4.4239998 -0.035999998
6.7360001 -4.4039998 -0.035999998
6.7670002 -4.381 -0.037
6.7919998 -4.3559999 -0.037
6.8049998 -4.322 -0.037
6.8379998 -4.302 -0.037
6.8540001 -4.27 -0.037
6.8699999 -4.2399998 -0.037
6.8959999 -4.2150002 -0.037
6.9089999 -4.1820002 -0.037
6.9359999 -4.158 -0.037
6.9499998 -4.1259999 -0.037
6.9590001 -4.092 -0.037
6.994 -4.073 -0.037
7.0079999 -4.0419998 -0.037
7.0359998 -4.0190001 -0.037
7.0549998 -3.9909999 -0.037
7.0799999 -3.9660001 -0.037
7.1040001 -3.9419999 -0.037
7.085 -3.8929999 -0.037
7.1069999 -3.8670001 -0.037
7.1360002 -3.845 -0.037
7.1609998 -3.8210001 -0.037
7.1960001 -3.803 -0.037
7.2249999 -3.78 -0.037
7.2509999 -3.757 -0.037
7.2620001 -3.7260001 -0.037
7.277 -3.697 -0.037
7.2919998 -3.668 -0.037
7.3189998 -3.6459999 -0.037
7.3340001 -3.6170001 -0.037
7.3410001 -3.585 -0.037
7.3590002 -3.5580001 -0.037
7.401 -3.543 -0.037
7.408 -3.5109999 -0.037
7.4390001 -3.4909999 -0.037
7.441 -3.4560001 -0.037
7.4510002 -3.427 -0.037
7.4910002 -3.411 -0.037
7.513 -3.3859999 -0.037
7.5229998 -3.3559999 -0.037
7.552 -3.335 -0.037
7.572 -3.3099999 -0.037
7.5970001 -3.2869999 -0.037
7.6020002 -3.256 -0.037
7.6209998 -3.2309999 -0.037
7.652 -3.211 -0.037
7.6820002 -3.1900001 -0.037
7.6939998 -3.1619999 -0.037
7.7199998 -3.1400001 -0.037
7.744 -3.1170001 -0.037
7.7620001 -3.092 -0.037
7.77 -3.063 -0.037
7.8000002 -3.0420001 -0.037
7.822 -3.0190001 -0.037
7.8499999 -2.9979999 -0.037
7.8639998 -2.971 -0.037
7.8870001 -2.948 -0.037
7.9120002 -2.9260001 -0.037
7.9200001 -2.898 -0.037
7.9429998 -2.875 -0.037
7.954 -2.848 -0.037
7.9850001 -2.8280001 -0.037
8.0150003 -2.8080001 -0.037
8.0369997 -2.7850001 -0.037
8.059 -2.7620001 -0.037
8.0839996 -2.74 -0.037
8.1169996 -2.721 -0.037
8.1389999 -2.698 -0.037
8.165 -2.6760001 -0.037
8.1820002 -2.652 -0.037
8.217 -2.6329999 -0.037
8.2299995 -2.6070001 -0.037
8.2559996 -2.586 -0.037
8.2910004 -2.5669999 -0.037999999
8.3079996 -2.543 -0.037
8.3540001 -2.5280001 -0.037999999
8.3789997 -2.506 -0.037999999
8.3590002 -2.471 -0.037
8.3979998 -2.4530001 -0.037999999
8.448 -2.4389999 -0.037999999
8.4280005 -2.404 -0.037999999
8.467 -2.3870001 -0.037999999
8.4890003 -2.3640001 -0.037999999
8.5190001 -2.3440001 -0.037999999
8.552 -2.325 -0.037999999
8.5819998 -2.3050001 -0.037999999
8.6009998 -2.2809999 -0.037999999
8.6169996 -2.257 -0.037999999
8.6450005 -2.237 -0.037999999
8.665 -2.214 -0.037999999
8.6929998 -2.1930001 -0.037999999
8.698 -2.1670001 -0.037999999
8.7250004 -2.1459999 -0.037999999
8.7670002 -2.1289999 -0.037999999
8.7849998 -2.1059999 -0.037999999
8.8079996 -2.0840001 -0.037999999
8.8439999 -2.066 -0.037999999
8.8459997 -2.039 -0.037999999
8.8739996 -2.0179999 -0.037999999
8.9549999 -2.01 -0.037999999
9.0190001 -1.997 -0.039000001
8.9700003 -1.96 -0.037999999
8.9650002 -1.932 -0.037999999
8.9799995 -1.909 -0.037999999
9.0139999 -1.89 -0.037999999
9.0310001 -1.867 -0.037999999
9.0430002 -1.844 -0.037999999
9.0780001 -1.824 -0.037999999
9.0889997 -1.801 -0.037999999
9.1079998 -1.779 -0.037999999
9.1339998 -1.758 -0.037999999
9.1499996 -1.7359999 -0.037999999
9.1780005 -1.716 -0.037999999
9.2080002 -1.696 -0.037999999
9.2019997 -1.669 -0.037999999
9.2270002 -1.649 -0.037999999
9.25 -1.628 -0.037999999
9.2709999 -1.607 -0.037999999
9.3030005 -1.587 -0.037999999
9.3179998 -1.5650001 -0.037999999
9.3459997 -1.545 -0.037999999
9.368 -1.524 -0.037999999
9.4110003 -1.506 -0.039000001
9.4040003 -1.4809999 -0.039000001
9.4060001 -1.457 -0.037999999
9.4569998 -1.441 -0.039000001
9.4779997 -1.42 -0.039000001
9.4910002 -1.398 -0.039000001
9.5270004 -1.3789999 -0.039000001
9.5600004 -1.36 -0.039000001
9.5810003 -1.34 -0.039000001
9.5810003 -1.316 -0.039000001
9.6049995 -1.296 -0.039000001
9.6400003 -1.277 -0.039000001
9.6610003 -1.257 -0.039000001
9.6820002 -1.2359999 -0.039000001
9.6940002 -1.215 -0.039000001
9.7200003 -1.1950001 -0.039000001
9.7180004 -1.1720001 -0.039000001
9.7559996 -1.154 -0.039000001
9.7729998 -1.133 -0.039000001
9.8000002 -1.114 -0.039000001
9.835 -1.095 -0.039000001
9.8620005 -1.076 -0.039000001
9.875 -1.0549999 -0.039000001
9.9049997 -1.036 -0.039000001
9.9130001 -1.0140001 -0.039000001
9.9390001 -0.995 -0.039000001
9.9560003 -0.97500002 -0.039000001
9.9770002 -0.95499998 -0.039000001
9.9960003 -0.935 -0.039000001
9.9980001 -0.91399997 -0.039000001
10.048 -0.89700001 -0.039000001
10.065 -0.87699997 -0.039000001
10.103 -0.85900003 -0.039000001
10.103 -0.838 -0.039000001
10.122 -0.81900001 -0.039000001
10.186 -0.80299997 -0.039000001
10.178 -0.78100002 -0.039000001
10.244 -0.76499999 -0.039000001
10.268 -0.74599999 -0.039000001
10.253 -0.72500002 -0.039000001
10.329 -0.70899999 -0.039999999
10.387 -0.69300002 -0.039999999
10.397 -0.67299998 -0.039999999
10.477 -0.65799999 -0.039999999
9.9390001 0.123 -0.15700001
9.9870005 0.141 -0.15800001
9.993 0.16 -0.15800001
9.9890003 0.178 -0.15899999
10.003 0.197 -0.15899999
10.027 0.21600001 -0.15899999
10.006 0.235 -0.15899999
10.018 0.255 -0.16
10.034 0.27500001 -0.16
10.029 0.294 -0.16
10.024 0.31400001 -0.16
10.051 0.33500001 -0.161
10.044 0.35499999 -0.161
10.07 0.377 -0.162
10.082 0.398 -0.162
10.068 0.419 -0.162
10.072 0.44 -0.162
10.067 0.46200001 -0.162
10.085 0.484 -0.163
10.074 0.50599998 -0.163
10.084 0.528 -0.163
10.068 0.55000001 -0.163
10.088 0.57300001 -0.164
10.1 0.597 -0.164
10.108 0.62 -0.164
10.131 0.64399999 -0.16500001
10.132 0.66799998 -0.16500001
10.156 0.69300002 -0.16599999
10.18 0.71799999 -0.16599999
10.183 0.74299997 -0.167
10.191 0.76700002 -0.167
10.213 0.79400003 -0.168
10.234 0.81999999 -0.168
10.251 0.84600002 -0.169
10.264 0.87199998 -0.169
10.268 0.898 -0.17
10.29 0.92500001 -0.17
10.311 0.95300001 -0.171
10.309 0.97799999 -0.171
10.326 1.006 -0.17200001
10.345 1.034 -0.17200001
10.369 1.063 -0.17299999
10.381 1.091 -0.17299999
10.402 1.12 -0.17399999
10.432 1.151 -0.175
10.453 1.1799999 -0.175
10.494 1.2130001 -0.176
10.501 1.2410001 -0.177
10.506 1.27 -0.177
10.52 1.3 -0.177
10.544 1.331 -0.178
10.56 1.362 -0.17900001
10.584 1.3940001 -0.17900001
10.592 1.424 -0.18000001
10.63 1.4579999 -0.18099999
10.634 1.488 -0.18099999
10.651 1.52 -0.182
10.653 1.55 -0.182
10.67 1.5829999 -0.183
10.701 1.617 -0.184
10.738 1.653 -0.184
10.744 1.6849999 -0.185
10.785 1.722 -0.186
10.792 1.7539999 -0.186
10.821 1.79 -0.18700001
10.836 1.824 -0.18799999
10.877 1.863 -0.189
10.9 1.899 -0.19
10.899 1.931 -0.19
10.942 1.971 -0.191
10.962 2.007 -0.192
11.009 2.0480001 -0.193
11.038 2.0869999 -0.19400001
11.071 2.1259999 -0.19499999
11.098 2.165 -0.19499999
11.121 2.2030001 -0.19599999
11.164 2.2460001 -0.197
11.18 2.283 -0.198
11.211 2.3239999 -0.199
11.244 2.365 -0.2
11.283 2.408 -0.20100001
11.309 2.4489999 -0.20200001
11.319 2.4860001 -0.20200001
11.342 2.526 -0.20299999
11.377 2.5699999 -0.204
11.394 2.6099999 -0.205
11.417 2.651 -0.206
11.439 2.6919999 -0.206
11.468 2.7349999 -0.207
11.521 2.7850001 -0.20900001
11.565 2.832 -0.20999999
11.594 2.8770001 -0.211
11.609 2.918 -0.212
11.631 2.961 -0.212
11.632 2.9990001 -0.213
11.654 3.0420001 -0.214
11.668 3.0840001 -0.214
11.72 3.1359999 -0.21600001
11.734 3.178 -0.21600001
11.74 3.2190001 -0.21699999
11.783 3.2690001 -0.21799999
11.79 3.3099999 -0.219
11.855 3.368 -0.221
11.941 3.4319999 -0.223
11.967 3.4790001 -0.22400001
11.986 3.5250001 -0.22400001
12.001 3.5699999 -0.22499999
12.023 3.6170001 -0.226
12.035 3.661 -0.227
12.059 3.7090001 -0.228
12.079 3.756 -0.228
12.109 3.806 -0.23
12.14 3.858 -0.23100001
12.148 3.902 -0.23100001
12.176 3.9519999 -0.23199999
12.19 3.9990001 -0.233
12.231 4.0539999 -0.234
12.253 4.1040001 -0.235
12.268 4.151 -0.236
12.27 4.1939998 -0.237
12.288 4.243 -0.237
12.313 4.2940001 -0.23800001
12.316 4.3379998 -0.23899999
12.333 4.3870001 -0.23999999
12.368 4.4429998 -0.241
12.394 4.4949999 -0.242
12.405 4.5430002 -0.243
12.405 4.5869999 -0.243
12.393 4.6259999 -0.244
12.408 4.6750002 -0.245
12.46 4.7389998 -0.24600001
12.484 4.7919998 -0.24699999
12.494 4.8400002 -0.248
12.519 4.895 -0.249
12.518 4.9390001 -0.25
12.547 4.9949999 -0.25099999
12.57 5.0489998 -0.252
12.578 5.0970001 -0.25299999
12.605 5.1529999 -0.25400001
12.607 5.1989999 -0.25400001
12.646 5.2600002 -0.25600001
12.644 5.3049998 -0.25600001
12.662 5.3579998 -0.257
12.678 5.4099998 -0.25799999
8.5410004 3.6760001 -0.17399999
12.725 5.4759998 -0.25999999
8.2440004 3.5780001 -0.168
12.898 5.5970001 -0.264
8.1700001 3.575 -0.167
8.1230001 3.5840001 -0.167
8.1110001 3.608 -0.167
8.1000004 3.632 -0.167
8.1199999 3.671 -0.168
8.2019997 3.7379999 -0.17
8.2290001 3.78 -0.171
8.2040005 3.7980001 -0.171
8.1850004 3.8199999 -0.171
8.1999998 3.8559999 -0.17200001
8.2329998 3.902 -0.17299999
13.229 6.27 -0.278
8.4779997 4.0489998 -0.178
12.988 6.2030001 -0.273
13.019 6.2649999 -0.27500001
13.012 6.309 -0.27500001
13.06 6.3800001 -0.27700001
13.061 6.428 -0.27700001
13.076 6.4829998 -0.278
13.116 6.5510001 -0.28
12.303 6.1900001 -0.26300001
12.182 6.1739998 -0.26100001
12.334 6.296 -0.26499999
12.147 6.3330002 -0.26300001
12.081 6.3429999 -0.26199999
12.068 6.3800001 -0.26300001
12.284 6.539 -0.26800001
12.242 6.6059999 -0.26800001
12.165 6.6090002 -0.26699999
12.194 6.6700001 -0.26899999
13.689 7.6859999 -0.30500001
13.622 7.698 -0.30399999
10.604 6.1849999 -0.23899999
10.504 6.164 -0.23800001
10.426 6.1560001 -0.237
10.356 6.152 -0.236
10.3 6.1550002 -0.235
10.22 6.1440001 -0.234
10.148 6.1370001 -0.233
10.097 6.1430001 -0.23199999
10.038 6.1420002 -0.23100001
9.9870005 6.1469998 -0.23100001
9.9420004 6.1539998 -0.23
9.9169998 6.1739998 -0.23
9.934 6.2189999 -0.23100001
10.004 6.2979999 -0.233
9.6899996 6.6950002 -0.236
9.6520004 6.6999998 -0.236
9.5600004 6.6669998 -0.234
9.4890003 6.6479998 -0.233
9.4280005 6.6370001 -0.23199999
9.3900003 6.6399999 -0.23199999
9.3520002 6.6430001 -0.23199999
9.3280001 6.6550002 -0.23100001
9.3179998 6.678 -0.23199999
9.3100004 6.7010002 -0.23199999
9.3079996 6.7280002 -0.233
9.302 6.7529998 -0.233
9.3109999 6.7870002 -0.234
7.1729999 -4.2140002 -0.021
7.1729999 -4.1939998 -0.021
7.198 -4.1880002 -0.021
7.2069998 -4.1719999 -0.021
7.2080002 -4.1529999 -0.021
7.224 -4.1420002 -0.021
7.2249999 -4.1220002 -0.021
7.2420001 -4.1110001 -0.021
7.257 -4.099 -0.021
7.2670002 -4.0840001 -0.021
7.2740002 -4.0669999 -0.021
7.2880001 -4.0549998 -0.021
7.3039999 -4.0430002 -0.021
7.2979999 -4.0180001 -0.02
7.3150001 -4.007 -0.02
7.3239999 -3.9909999 -0.02
7.3340001 -3.9760001 -0.02
7.3410001 -3.9579999 -0.02
7.3649998 -3.95 -0.02
7.3579998 -3.925 -0.02
7.375 -3.914 -0.02
7.3299999 -3.869 -0.02
7.316 -3.8399999 -0.02
7.3109999 -3.8169999 -0.02
7.336 -3.809 -0.02
7.3920002 -3.8169999 -0.02
7.4380002 -3.819 -0.02
7.4349999 -3.796 -0.02
7.4489999 -3.7820001 -0.02
7.461 -3.767 -0.02
7.474 -3.7520001 -0.02
7.4840002 -3.7349999 -0.02
7.4920001 -3.7179999 -0.02
7.4889998 -3.6949999 -0.02
7.5100002 -3.6830001 -0.02
7.5170002 -3.6659999 -0.018999999
7.5349998 -3.652 -0.018999999
7.5339999 -3.631 -0.018999999
7.559 -3.6210001 -0.018999999
7.5679998 -3.6029999 -0.018999999
7.579 -3.586 -0.018999999
7.5799999 -3.5650001 -0.018999999
7.6020002 -3.5539999 -0.018999999
7.5960002 -3.529 -0.018999999
7.631 -3.523 -0.018999999
7.6399999 -3.5050001 -0.018999999
7.652 -3.4890001 -0.018999999
7.671 -3.4749999 -0.018999999
7.6810002 -3.4579999 -0.018999999
7.6900001 -3.4400001 -0.018999999
7.7010002 -3.4219999 -0.018999999
7.7030001 -3.401 -0.018999999
7.723 -3.388 -0.018999999
7.7470002 -3.3759999 -0.018999999
7.7550001 -3.3570001 -0.018999999
7.763 -3.3380001 -0.018999999
7.7709999 -3.319 -0.018999999
7.7849998 -3.302 -0.018999999
7.8099999 -3.29 -0.018999999
7.8099999 -3.2679999 -0.018999999
7.835 -3.256 -0.018999999
7.8449998 -3.237 -0.017999999
7.8509998 -3.217 -0.017999999
7.8660002 -3.201 -0.017999999
7.8829999 -3.1849999 -0.017999999
7.8959999 -3.1670001 -0.017999999
7.9120002 -3.151 -0.017999999
7.9239998 -3.132 -0.017999999
7.9439998 -3.118 -0.017999999
7.9530001 -3.098 -0.017999999
7.961 -3.0780001 -0.017999999
7.9879999 -3.066 -0.017999999
8.0030003 -3.0480001 -0.017999999
8.0290003 -3.0350001 -0.017999999
8.0360003 -3.0139999 -0.017999999
8.0530005 -2.997 -0.017999999
8.0769997 -2.983 -0.017999999
8.0869999 -2.964 -0.017999999
8.1020002 -2.9460001 -0.017999999
8.1070004 -2.924 -0.017999999
8.1239996 -2.9070001 -0.017999999
8.1529999 -2.8940001 -0.017999999
8.1599998 -2.8729999 -0.017999999
8.184 -2.8570001 -0.017999999
8.2049999 -2.8410001 -0.017999999
8.2069998 -2.8180001 -0.017999999
8.2360001 -2.8039999 -0.017999999
8.243 -2.783 -0.017000001
8.2539997 -2.763 -0.017000001
8.2840004 -2.7490001 -0.017000001
8.2910004 -2.7279999 -0.017000001
8.3039999 -2.7079999 -0.017000001
8.3190002 -2.6889999 -0.017000001
8.3210001 -2.665 -0.017000001
8.342 -2.648 -0.017000001
8.3800001 -2.6359999 -0.017000001
8.3870001 -2.6140001 -0.017000001
8.408 -2.596 -0.017000001
8.4180002 -2.575 -0.017000001
8.4359999 -2.5569999 -0.017000001
8.4689999 -2.5420001 -0.017000001
8.5010004 -2.527 -0.017000001
8.5039997 -2.5039999 -0.017000001
8.5170002 -2.483 -0.017000001
8.5410004 -2.4660001 -0.017000001
8.5369997 -2.4400001 -0.017000001
8.5539999 -2.4200001 -0.017000001
8.5769997 -2.402 -0.017000001
8.5819998 -2.3789999 -0.017000001
8.6219997 -2.365 -0.017000001
8.6379995 -2.345 -0.017000001
8.658 -2.325 -0.017000001
8.6780005 -2.306 -0.016000001
8.691 -2.2839999 -0.016000001
8.7139997 -2.2650001 -0.016000001
8.7519999 -2.25 -0.016000001
8.7550001 -2.2260001 -0.016000001
8.776 -2.2060001 -0.016000001
8.7969999 -2.1860001 -0.016000001
8.8140001 -2.165 -0.016000001
8.816 -2.1400001 -0.016000001
8.8459997 -2.122 -0.016000001
8.8830004 -2.1059999 -0.016000001
8.8959999 -2.0829999 -0.016000001
8.915 -2.062 -0.016000001
8.9420004 -2.043 -0.016000001
8.967 -2.023 -0.016000001
8.9879999 -2.0020001 -0.016000001
9.0200005 -1.983 -0.016000001
9.0810003 -1.971 -0.016000001
9.0939999 -1.947 -0.016000001
9.085 -1.92 -0.016000001
9.085 -1.8940001 -0.016000001
9.0959997 -1.87 -0.016000001
9.1160002 -1.848 -0.016000001
9.1289997 -1.824 -0.016000001
9.1639996 -1.8049999 -0.016000001
9.2010002 -1.786 -0.015
9.2340002 -1.766 -0.015
9.2539997 -1.744 -0.015
9.2720003 -1.721 -0.015
9.2969999 -1.699 -0.015
9.3149996 -1.675 -0.015
9.3269997 -1.651 -0.015
9.3500004 -1.628 -0.015
9.401 -1.6109999 -0.015
9.4219999 -1.587 -0.015
9.4379997 -1.563 -0.015
9.4469995 -1.538 -0.015
9.4700003 -1.5140001 -0.015
9.5129995 -1.494 -0.015
9.552 -1.473 -0.015
9.5790005 -1.45 -0.015
9.5900002 -1.424 -0.015
9.6389999 -1.404 -0.015
9.6619997 -1.38 -0.015
9.717 -1.36 -0.015
9.7259998 -1.334 -0.015
9.7629995 -1.311 -0.015
9.7939997 -1.2869999 -0.015
9.816 -1.262 -0.015
9.8610001 -1.24 -0.015
9.8870001 -1.215 -0.015
9.9239998 -1.192 -0.015
9.9750004 -1.169 -0.015
9.974 -1.141 -0.014
10.022 -1.118 -0.014
10.072 -1.095 -0.014
10.098 -1.069 -0.014
10.147 -1.045 -0.014
10.168 -1.0190001 -0.014
10.194 -0.99199998 -0.014
10.257 -0.96899998 -0.014
10.267 -0.94099998 -0.014
10.313 -0.91600001 -0.014
10.366 -0.89099997 -0.014
10.433 -0.86699998 -0.014
10.455 -0.83999997 -0.014
10.549 -0.81699997 -0.014
10.645 -0.79400003 -0.014
10.559 0.23199999 -0.14300001
10.613 0.24699999 -0.14399999
10.483 0.25799999 -0.14300001
10.514 0.27200001 -0.14300001
10.469 0.285 -0.14300001
10.482 0.30000001 -0.14300001
10.443 0.31400001 -0.14300001
10.427 0.32800001 -0.14300001
10.431 0.34400001 -0.14300001
10.439 0.359 -0.14300001
10.426 0.375 -0.14300001
10.414 0.38999999 -0.14300001
10.41 0.40599999 -0.14300001
10.367 0.421 -0.14300001
10.417 0.43900001 -0.14399999
10.4 0.45500001 -0.14399999
10.404 0.47299999 -0.14399999
10.4 0.49000001 -0.14399999
10.402 0.50700003 -0.14399999
10.417 0.52600002 -0.145
10.416 0.54400003 -0.145
10.414 0.56199998 -0.145
10.443 0.58200002 -0.146
10.437 0.60000002 -0.146
10.442 0.62 -0.146
10.473 0.64099997 -0.147
10.446 0.65799999 -0.146
10.476 0.68000001 -0.147
10.476 0.69999999 -0.147
10.474 0.72000003 -0.147
10.506 0.74199998 -0.148
10.505 0.76300001 -0.148
10.517 0.78500003 -0.149
10.529 0.80699998 -0.149
10.548 0.829 -0.149
10.548 0.85100001 -0.15000001
10.555 0.87300003 -0.15000001
10.575 0.89700001 -0.15000001
10.573 0.91900003 -0.15099999
10.595 0.94400001 -0.15099999
10.604 0.96700001 -0.152
10.609 0.991 -0.152
10.636 1.016 -0.153
10.652 1.041 -0.153
10.664 1.066 -0.153
10.689 1.092 -0.154
10.698 1.118 -0.154
10.71 1.143 -0.155
10.732 1.17 -0.155
10.745 1.197 -0.156
10.769 1.224 -0.156
10.772 1.25 -0.15700001
10.778 1.276 -0.15700001
10.785 1.303 -0.15700001
10.812 1.332 -0.15800001
10.835 1.3609999 -0.15899999
10.856 1.391 -0.15899999
10.87 1.419 -0.16
10.864 1.4450001 -0.16
10.904 1.478 -0.161
10.927 1.5089999 -0.161
10.926 1.536 -0.162
10.953 1.568 -0.162
10.957 1.597 -0.163
10.992 1.63 -0.164
10.994 1.659 -0.164
11.022 1.692 -0.16500001
11.026 1.722 -0.16500001
11.042 1.7539999 -0.16500001
11.071 1.788 -0.16599999
11.099 1.823 -0.167
11.108 1.854 -0.167
11.157 1.893 -0.168
11.18 1.928 -0.169
11.211 1.964 -0.17
11.258 2.003 -0.171
11.279 2.039 -0.17200001
11.278 2.0699999 -0.17200001
11.306 2.1070001 -0.17299999
11.319 2.142 -0.17299999
11.353 2.181 -0.17399999
11.401 2.223 -0.175
11.428 2.2609999 -0.176
11.434 2.296 -0.176
11.474 2.3369999 -0.177
11.494 2.375 -0.178
11.534 2.418 -0.17900001
11.548 2.4549999 -0.18000001
11.567 2.494 -0.18000001
11.61 2.5380001 -0.18099999
11.617 2.575 -0.182
11.664 2.6210001 -0.183
11.678 2.6589999 -0.183
11.698 2.7 -0.184
11.718 2.7409999 -0.185
11.77 2.789 -0.186
11.765 2.825 -0.186
11.81 2.8729999 -0.18700001
11.829 2.915 -0.18799999
11.829 2.9519999 -0.189
11.859 2.9979999 -0.189
11.899 3.046 -0.191
11.9 3.0840001 -0.191
11.957 3.138 -0.192
11.988 3.1849999 -0.193
11.984 3.223 -0.19400001
12.032 3.2750001 -0.19499999
12.036 3.316 -0.19499999
12.054 3.3610001 -0.19599999
12.084 3.4089999 -0.197
12.112 3.4579999 -0.198
12.124 3.5020001 -0.198
12.142 3.5480001 -0.199
12.162 3.595 -0.2
12.185 3.6429999 -0.20100001
12.208 3.6919999 -0.20200001
12.231 3.7409999 -0.20200001
12.256 3.7909999 -0.20299999
12.27 3.8369999 -0.204
12.267 3.8789999 -0.205
12.291 3.9300001 -0.205
12.312 3.98 -0.206
12.325 4.0279999 -0.207
12.376 4.0879998 -0.208
12.392 4.1370001 -0.20900001
12.415 4.1890001 -0.20999999
12.427 4.2379999 -0.211
12.419 4.2800002 -0.211
12.433 4.3299999 -0.212
12.446 4.3790002 -0.212
12.47 4.4330001 -0.213
12.499 4.4889998 -0.214
12.509 4.539 -0.215
12.537 4.5949998 -0.21600001
12.566 4.6529999 -0.21699999
12.573 4.7020001 -0.21799999
12.633 4.7719998 -0.219
12.661 4.8299999 -0.22
12.697 4.8909998 -0.222
12.728 4.9520001 -0.223
12.724 4.9980001 -0.223
12.743 5.0539999 -0.22400001
12.755 5.1079998 -0.22499999
12.763 5.1599998 -0.22499999
12.797 5.223 -0.227
12.8 5.2740002 -0.227
12.835 5.3390002 -0.228
12.854 5.3959999 -0.229
12.888 5.461 -0.23100001
8.382 3.585 -0.15000001
12.947 5.5370002 -0.23199999
8.1969995 3.5380001 -0.147
8.1429996 3.5469999 -0.147
8.1280003 3.573 -0.147
8.1269999 3.605 -0.147
8.1409998 3.6440001 -0.148
8.2480001 3.7249999 -0.15000001
8.2379999 3.7539999 -0.15000001
8.2019997 3.7709999 -0.15000001
8.2080002 3.8069999 -0.15000001
8.2390003 3.855 -0.15099999
8.408 3.9679999 -0.155
13.197 6.2290001 -0.244
13.16 6.2649999 -0.243
13.17 6.3249998 -0.244
13.18 6.3839998 -0.245
13.208 6.4530001 -0.24600001
13.222 6.5149999 -0.24699999
12.351 6.1370001 -0.23100001
12.223 6.125 -0.23
12.29 6.211 -0.23199999
12.253 6.296 -0.23199999
12.178 6.309 -0.23100001
12.079 6.3099999 -0.23
12.098 6.3720002 -0.23100001
12.269 6.5679998 -0.236
12.173 6.5689998 -0.234
12.175 6.6240001 -0.235
10.768 6.2399998 -0.212
10.593 6.1859999 -0.20999999
10.485 6.1700001 -0.208
10.409 6.1729999 -0.207
10.325 6.1700001 -0.206
10.255 6.1750002 -0.205
10.178 6.1750002 -0.204
10.096 6.171 -0.20299999
10.041 6.184 -0.20299999
9.9799995 6.1929998 -0.20200001
9.9180002 6.1999998 -0.20100001
9.8800001 6.223 -0.20100001
9.8710003 6.263 -0.20100001
9.915 6.3369999 -0.20299999
10.132 6.5229998 -0.208
9.8030005 6.7789998 -0.207
9.823 6.8410001 -0.208
9.6660004 6.7779999 -0.205
9.599 6.7779999 -0.205
9.5530005 6.7930002 -0.204
9.4940004 6.7969999 -0.20299999
9.4160004 6.7880001 -0.20200001
6.868 -4.5310001 -0.0040000002
6.8959999 -4.506 -0.0040000002
6.9310002 -4.4860001 -0.0040000002
6.9580002 -4.46 -0.0040000002
6.9850001 -4.434 -0.0040000002
7.0139999 -4.4099998 -0.0040000002
7.026 -4.3759999 -0.0040000002
7.0549998 -4.3520002 -0.003
7.0760002 -4.323 -0.003
7.0949998 -4.2930002 -0.003
7.118 -4.2659998 -0.003
7.1209998 -4.2259998 -0.003
7.145 -4.1999998 -0.003
7.1789999 -4.1789999 -0.003
7.1890001 -4.145 -0.003
7.2129998 -4.119 -0.003
7.2280002 -4.0869999 -0.003
7.2509999 -4.0609999 -0.003
7.2519999 -4.0219998 -0.003
7.2080002 -3.9590001 -0.003
7.197 -3.914 -0.003
7.2680001 -3.915 -0.003
7.329 -3.9089999 -0.003
7.3769999 -3.8959999 -0.0020000001
7.3850002 -3.8629999 -0.0020000001
7.4130001 -3.8399999 -0.0020000001
7.4369998 -3.8139999 -0.0020000001
7.4439998 -3.7809999 -0.0020000001
7.4720001 -3.757 -0.0020000001
7.4790001 -3.724 -0.0020000001
7.4959998 -3.6960001 -0.0020000001
7.5289998 -3.675 -0.0020000001
7.5430002 -3.6459999 -0.0020000001
7.5689998 -3.622 -0.0020000001
7.5890002 -3.595 -0.0020000001
7.5970001 -3.5639999 -0.0020000001
7.6350002 -3.546 -0.0020000001
7.638 -3.5109999 -0.0020000001
7.664 -3.4879999 -0.0020000001
7.6929998 -3.4660001 -0.001
7.71 -3.4389999 -0.001
7.7259998 -3.411 -0.001
7.7550001 -3.3889999 -0.001
7.7750001 -3.3629999 -0.001
7.7930002 -3.3369999 -0.001
7.8119998 -3.3110001 -0.001
7.8280001 -3.2839999 -0.001
7.8390002 -3.2539999 -0.001
7.869 -3.233 -0.001
7.9070001 -3.2149999 -0.001
7.9180002 -3.1860001 -0.001
7.9429998 -3.1630001 -0.001
7.9629998 -3.138 -0.001
7.9910002 -3.1159999 -0.001
8.0220003 -3.095 -0.001
8.04 -3.0699999 -0
8.0629997 -3.046 -0
8.0880003 -3.023 -0
8.1210003 -3.003 -0
8.1359997 -2.9760001 -0
8.1669998 -2.9549999 -0
8.1890001 -2.931 -0
8.2209997 -2.911 -0
8.217 -2.878 -0
8.2589998 -2.8610001 -0
8.2709999 -2.8340001 -0
8.3179998 -2.8180001 -0
8.335 -2.793 -0
8.3470001 -2.766 -0
8.3739996 -2.744 -0
8.3850002 -2.717 -0
8.4040003 -2.6919999 -0
8.434 -2.6719999 -0
8.4799995 -2.6559999 -0
8.4890003 -2.628 -0
8.5170002 -2.6070001 -0
8.5550003 -2.5880001 -0
8.5970001 -2.5710001 -0
8.5830002 -2.5369999 -0
8.5889997 -2.5079999 -0
8.6199999 -2.4879999 -0
8.6490002 -2.467 -0
8.698 -2.451 -0
8.7279997 -2.431 -0
8.7419996 -2.405 -0
8.7670002 -2.3829999 0.001
8.7889996 -2.3599999 0.001
8.8170004 -2.3380001 0.001
8.835 -2.3139999 0.001
8.8649998 -2.2939999 0.001
8.8800001 -2.2690001 0.001
8.9110003 -2.2479999 0.001
8.9429998 -2.2279999 0.001
8.9540005 -2.2019999 0.001
8.9709997 -2.178 0.001
9.0100002 -2.1600001 0.001
9.0419998 -2.1400001 0.001
9.0649996 -2.1170001 0.001
9.0950003 -2.096 0.001
9.1160002 -2.073 0.001
9.1389999 -2.0510001 0.0020000001
9.1619997 -2.029 0.0020000001
9.1780005 -2.0050001 0.0020000001
9.198 -1.982 0.0020000001
9.224 -1.961 0.0020000001
9.2360001 -1.936 0.0020000001
9.257 -1.914 0.0020000001
9.2819996 -1.892 0.0020000001
9.3380003 -1.877 0.0020000001
9.3100004 -1.845 0.0020000001
9.3599997 -1.8279999 0.0020000001
9.408 -1.811 0.0020000001
9.427 -1.788 0.0020000001
9.4510002 -1.767 0.0020000001
9.5109997 -1.752 0.003
9.5179996 -1.727 0.003
9.5089998 -1.699 0.003
9.5480003 -1.6799999 0.003
9.5679998 -1.658 0.003
9.5889997 -1.636 0.003
9.6260004 -1.617 0.003
9.6560001 -1.597 0.003
9.6750002 -1.574 0.003
9.8280001 -1.574 0.003
9.7819996 -1.541 0.003
9.743 -1.51 0.003
9.7530003 -1.4859999 0.003
9.7869997 -1.467 0.003
9.8190002 -1.447 0.0040000002
9.8439999 -1.426 0.0040000002
9.875 -1.406 0.0040000002
9.9160004 -1.387 0.0040000002
9.9589996 -1.368 0.0040000002
9.9709997 -1.346 0.0040000002
9.9770002 -1.322 0.0040000002
10.006 -1.302 0.0040000002
10.037 -1.2819999 0.0040000002
10.068 -1.262 0.0040000002
10.106 -1.243 0.0040000002
10.126 -1.222 0.0040000002
10.141 -1.2 0.0040000002
10.147 -1.177 0.0049999999
10.189 -1.158 0.0049999999
10.212 -1.138 0.0049999999
10.248 -1.118 0.0049999999
10.288 -1.099 0.0049999999
10.351 -1.0829999 0.0049999999
10.343 -1.059 0.0049999999
10.361 -1.038 0.0049999999
10.405 -1.02 0.0049999999
10.428 -0.99900001 0.0049999999
10.482 -0.98100001 0.0049999999
10.531 -0.963 0.0049999999
10.548 -0.94199997 0.0049999999
10.543 -0.92000002 0.0060000001
10.602 -0.90200001 0.0060000001
10.619 -0.88200003 0.0060000001
10.649 -0.86199999 0.0060000001
10.674 -0.84200001 0.0060000001
10.667 -0.81900001 0.0060000001
10.731 -0.80299997 0.0060000001
10.832 -0.78799999 0.0060000001
11.02 -0.77999997 0.0060000001
10.887 -0.74900001 0.0060000001
10.915 -0.72899997 0.0060000001
10.966 -0.71100003 0.0060000001
10.989 -0.69099998 0.0070000002
10.373 0.13 -0.112
10.378 0.148 -0.112
10.354 0.167 -0.112
10.38 0.186 -0.112
10.402 0.206 -0.113
10.427 0.226 -0.113
10.44 0.24699999 -0.114
10.424 0.266 -0.114
10.427 0.287 -0.114
10.44 0.308 -0.114
10.44 0.32800001 -0.114
10.451 0.34999999 -0.115
10.45 0.37099999 -0.115
10.447 0.39199999 -0.115
10.464 0.41499999 -0.115
10.472 0.43700001 -0.116
10.451 0.458 -0.116
10.482 0.48199999 -0.116
10.499 0.505 -0.116
10.501 0.528 -0.117
10.499 0.551 -0.117
10.553 0.57700002 -0.118
10.548 0.60000002 -0.118
10.555 0.62400001 -0.118
10.561 0.64899999 -0.118
10.573 0.67400002 -0.119
10.588 0.699 -0.119
10.612 0.72500002 -0.12
10.602 0.74900001 -0.12
10.635 0.77700001 -0.12
10.646 0.80299997 -0.121
10.65 0.82800001 -0.121
10.669 0.85500002 -0.121
10.681 0.88200003 -0.122
10.692 0.90899998 -0.122
10.704 0.93699998 -0.122
10.741 0.96600002 -0.123
10.754 0.99400002 -0.123
10.762 1.022 -0.124
10.782 1.051 -0.124
10.8 1.08 -0.125
10.812 1.109 -0.125
10.831 1.1390001 -0.126
10.854 1.169 -0.126
10.863 1.199 -0.126
10.889 1.23 -0.127
10.904 1.26 -0.127
10.911 1.29 -0.12800001
10.919 1.3200001 -0.12800001
10.941 1.352 -0.12899999
10.953 1.383 -0.12899999
10.98 1.416 -0.13
11.002 1.449 -0.13
11.028 1.483 -0.131
11.05 1.516 -0.131
11.07 1.549 -0.132
11.095 1.584 -0.132
11.097 1.615 -0.133
11.132 1.651 -0.133
11.148 1.6849999 -0.134
11.172 1.72 -0.134
11.18 1.753 -0.13500001
11.211 1.79 -0.13500001
11.24 1.827 -0.13600001
11.273 1.865 -0.13699999
11.316 1.905 -0.138
11.329 1.9400001 -0.138
11.386 1.984 -0.139
11.418 2.023 -0.14
11.425 2.0580001 -0.14
11.457 2.0969999 -0.141
11.474 2.135 -0.141
11.494 2.1730001 -0.142
11.544 2.217 -0.14300001
11.572 2.257 -0.14399999
11.622 2.302 -0.145
11.648 2.3429999 -0.145
11.677 2.3840001 -0.146
11.711 2.427 -0.147
11.733 2.4679999 -0.147
11.763 2.51 -0.148
11.799 2.5550001 -0.149
11.798 2.5910001 -0.149
11.857 2.641 -0.15000001
11.875 2.6819999 -0.15099999
11.908 2.727 -0.152
11.939 2.7720001 -0.152
11.963 2.8150001 -0.153
11.97 2.855 -0.154
11.976 2.8940001 -0.154
11.998 2.938 -0.155
12.034 2.9849999 -0.155
12.079 3.036 -0.156
12.119 3.085 -0.15700001
12.124 3.125 -0.15800001
12.147 3.171 -0.15800001
12.146 3.21 -0.15899999
12.182 3.2590001 -0.16
12.176 3.2980001 -0.16
12.197 3.3440001 -0.161
12.215 3.3889999 -0.161
12.266 3.4430001 -0.162
12.257 3.4820001 -0.163
12.277 3.5280001 -0.163
12.289 3.572 -0.164
12.32 3.6229999 -0.16500001
12.341 3.6700001 -0.16500001
12.378 3.723 -0.16599999
12.401 3.7720001 -0.167
12.404 3.8139999 -0.168
12.428 3.8640001 -0.168
12.413 3.901 -0.168
12.437 3.951 -0.169
12.427 3.99 -0.17
12.461 4.0440001 -0.17
12.472 4.0900002 -0.171
12.501 4.1430001 -0.17200001
12.523 4.1929998 -0.17299999
12.574 4.2540002 -0.17399999
12.55 4.289 -0.17399999
12.551 4.3330002 -0.17399999
12.563 4.381 -0.175
12.575 4.428 -0.176
12.606 4.4829998 -0.176
12.624 4.5339999 -0.177
12.635 4.5819998 -0.178
12.679 4.6420002 -0.17900001
12.71 4.698 -0.18000001
12.76 4.7620001 -0.18099999
12.767 4.809 -0.182
12.817 4.8730001 -0.183
12.834 4.9260001 -0.184
12.889 4.9920001 -0.185
12.927 5.053 -0.186
12.966 5.1139998 -0.18700001
12.964 5.1599998 -0.18700001
12.959 5.204 -0.18799999
12.98 5.2589998 -0.189
12.983 5.3060002 -0.189
13.011 5.3639998 -0.19
13.039 5.4229999 -0.191
13.045 5.4720001 -0.192
13.07 5.5289998 -0.192
13.085 5.5830002 -0.193
8.4569998 3.6389999 -0.125
13.16 5.6620002 -0.19499999
8.2340002 3.572 -0.122
8.1599998 3.5699999 -0.121
8.1199999 3.582 -0.121
8.1059999 3.605 -0.121
8.0939999 3.6289999 -0.121
8.1389999 3.6789999 -0.122
8.2150002 3.743 -0.124
8.2270002 3.7780001 -0.124
8.1969995 3.7939999 -0.124
8.1809998 3.8169999 -0.124
8.1960001 3.8529999 -0.125
8.2329998 3.901 -0.126
13.638 6.4619999 -0.20900001
13.454 6.4239998 -0.206
13.484 6.487 -0.207
13.478 6.533 -0.208
13.555 6.6199999 -0.20999999
12.397 6.191 -0.193
12.215 6.1440001 -0.191
12.219 6.191 -0.192
12.232 6.2870002 -0.193
12.352 6.3940001 -0.19499999
12.257 6.3889999 -0.19400001
12.067 6.335 -0.192
12.033 6.3610001 -0.192
12.097 6.4390001 -0.193
12.164 6.5190001 -0.19499999
12.134 6.5469999 -0.19499999
12.205 6.6300001 -0.197
12.182 6.6609998 -0.197
10.636 6.125 -0.176
10.505 6.0869999 -0.17399999
10.429 6.0819998 -0.17299999
10.374 6.0869999 -0.17299999
10.314 6.0879998 -0.17200001
10.257 6.0910001 -0.17200001
10.204 6.0960002 -0.17200001
10.144 6.0970001 -0.171
10.092 6.1020002 -0.171
10.042 6.1079998 -0.17
10.004 6.1199999 -0.17
9.9499998 6.1230001 -0.17
9.9239998 6.1420002 -0.17
9.9309998 6.1810002 -0.17
9.9840002 6.25 -0.17200001
10.222 6.434 -0.176
9.6300001 6.7459998 -0.176
9.5760002 6.7399998 -0.176
9.5609999 6.7600002 -0.176
9.5279999 6.7659998 -0.176
9.5179996 6.789 -0.176
9.5109997 6.8150001 -0.176
9.4940004 6.8319998 -0.177
9.4849997 6.855 -0.177
9.5220003 6.9109998 -0.178
9.5299997 6.9460001 -0.17900001
7.336 -4.3130002 0.013
7.3610001 -4.3070002 0.013
7.3660002 -4.289 0.013
7.3699999 -4.27 0.013
7.388 -4.2600002 0.013
7.3969998 -4.244 0.013
7.3990002 -4.224 0.013
7.4060001 -4.2069998 0.013
7.428 -4.1989999 0.013
7.4330001 -4.1810002 0.013
7.4450002 -4.1659999 0.013
7.4569998 -4.152 0.013
7.467 -4.1360002 0.014
7.4699998 -4.1160002 0.014
7.4770002 -4.099 0.014
7.494 -4.086 0.014
7.5029998 -4.0700002 0.014
7.5110002 -4.053 0.014
7.52 -4.0359998 0.014
7.5479999 -4.0300002 0.014
7.5409999 -4.0050001 0.014
7.546 -3.9860001 0.014
7.5669999 -3.9749999 0.014
7.552 -3.9449999 0.014
7.5609999 -3.928 0.015
7.5830002 -3.918 0.015
7.5970001 -3.904 0.015
7.6079998 -3.8870001 0.015
7.6220002 -3.8729999 0.015
7.6440001 -3.862 0.015
7.638 -3.8369999 0.015
7.6479998 -3.8199999 0.015
7.6630001 -3.806 0.015
7.677 -3.79 0.015
7.6939998 -3.776 0.015
7.6900001 -3.7520001 0.015
7.7119999 -3.7409999 0.016000001
7.7140002 -3.72 0.016000001
7.7350001 -3.707 0.016000001
7.7319999 -3.684 0.016000001
7.776 -3.6819999 0.016000001
7.7610002 -3.6530001 0.016000001
7.7820001 -3.6400001 0.016000001
7.7940001 -3.6229999 0.016000001
7.7940001 -3.6010001 0.016000001
7.822 -3.5910001 0.016000001
7.8249998 -3.5699999 0.016000001
7.849 -3.5580001 0.017000001
7.8530002 -3.5380001 0.017000001
7.862 -3.5190001 0.017000001
7.8699999 -3.5 0.017000001
7.8860002 -3.484 0.017000001
7.9120002 -3.4719999 0.017000001
7.9289999 -3.457 0.017000001
7.9369998 -3.438 0.017000001
7.9580002 -3.424 0.017000001
7.967 -3.405 0.017000001
7.9889998 -3.391 0.017999999
8.0089998 -3.3759999 0.017999999
8.0170002 -3.3559999 0.017999999
8.0249996 -3.3369999 0.017999999
8.0419998 -3.3199999 0.017999999
8.0480003 -3.3 0.017999999
8.0780001 -3.2880001 0.017999999
8.066 -3.26 0.017999999
8.1049995 -3.253 0.017999999
8.1160002 -3.234 0.017999999
8.1219997 -3.2130001 0.017999999
8.158 -3.2030001 0.018999999
8.1520004 -3.177 0.018999999
8.1569996 -3.1559999 0.018999999
8.1949997 -3.1470001 0.018999999
8.2119999 -3.1289999 0.018999999
8.2370005 -3.115 0.018999999
8.2589998 -3.0999999 0.018999999
8.2770004 -3.082 0.018999999
8.2819996 -3.0599999 0.018999999
8.2880001 -3.039 0.018999999
8.2969999 -3.0179999 0.02
8.3059998 -2.997 0.02
8.3299999 -2.9820001 0.02
8.3599997 -2.9679999 0.02
8.3620005 -2.9449999 0.02
8.368 -2.9230001 0.02
8.401 -2.9100001 0.02
8.4130001 -2.8900001 0.02
8.4460001 -2.8770001 0.02
8.4230003 -2.845 0.02
8.467 -2.835 0.021
8.4790001 -2.8150001 0.021
8.4870005 -2.793 0.021
8.5170002 -2.7780001 0.021
8.5319996 -2.7590001 0.021
8.5430002 -2.7379999 0.021
8.5640001 -2.72 0.021
8.5909996 -2.7030001 0.021
8.599 -2.681 0.021
8.6169996 -2.6619999 0.022
8.6899996 -2.6589999 0.022
8.6879997 -2.6340001 0.022
8.6639996 -2.602 0.022
8.7030001 -2.5880001 0.022
8.724 -2.569 0.022
8.7440004 -2.55 0.022
8.7489996 -2.526 0.022
8.7700005 -2.507 0.023
8.7790003 -2.4849999 0.023
8.8260002 -2.4719999 0.023
8.8590002 -2.4560001 0.023
8.8830004 -2.437 0.023
8.8690004 -2.408 0.023
8.8920002 -2.3889999 0.023
8.9230003 -2.3710001 0.023
8.9460001 -2.352 0.024
8.9440002 -2.326 0.024
8.9989996 -2.3139999 0.024
9.0080004 -2.2909999 0.024
9.0209999 -2.2679999 0.024
9.0410004 -2.247 0.024
9.0530005 -2.224 0.024
9.0869999 -2.207 0.024
9.1079998 -2.1849999 0.024
9.1210003 -2.1619999 0.025
9.132 -2.1389999 0.025
9.1669998 -2.1210001 0.025
9.1859999 -2.099 0.025
9.2060003 -2.0769999 0.025
9.243 -2.059 0.025
9.2720003 -2.039 0.025
9.2860003 -2.0150001 0.025
9.3129997 -1.995 0.026000001
9.3240004 -1.97 0.026000001
9.3500004 -1.949 0.026000001
9.3850002 -1.929 0.026000001
9.382 -1.902 0.026000001
9.4219999 -1.883 0.026000001
9.4700003 -1.8660001 0.026000001
9.4809999 -1.841 0.027000001
9.5360003 -1.824 0.027000001
9.5450001 -1.799 0.027000001
9.5880003 -1.779 0.027000001
9.6070004 -1.755 0.027000001
9.6420002 -1.734 0.027000001
9.6590004 -1.71 0.027000001
9.6750002 -1.6849999 0.028000001
9.7119999 -1.664 0.028000001
9.7370005 -1.64 0.028000001
9.7589998 -1.6160001 0.028000001
9.7950001 -1.594 0.028000001
9.8540001 -1.576 0.028000001
9.9359999 -1.5599999 0.028999999
9.8990002 -1.526 0.028999999
9.9119997 -1.5 0.028999999
9.9429998 -1.476 0.028999999
9.9980001 -1.456 0.028999999
10.052 -1.4349999 0.028999999
10.075 -1.41 0.029999999
10.114 -1.387 0.029999999
10.151 -1.363 0.029999999
10.181 -1.3380001 0.029999999
10.214 -1.313 0.029999999
10.209 -1.283 0.029999999
10.269 -1.262 0.030999999
10.333 -1.24 0.030999999
10.352 -1.2130001 0.030999999
10.426 -1.192 0.030999999
10.447 -1.165 0.030999999
10.483 -1.1390001 0.032000002
10.543 -1.115 0.032000002
10.642 -1.096 0.032000002
10.686 -1.0700001 0.032000002
10.705 -1.041 0.033
10.722 -1.012 0.033
10.742 -0.98400003 0.033
10.778 -0.95599997 0.033
10.842 -0.93099999 0.033
10.896 -0.90499997 0.034000002
10.967 -0.88 0.034000002
10.99 -0.85000002 0.034000002
11.023 -0.82200003 0.034000002
11.088 -0.79500002 0.034000002
11.086 -0.76300001 0.034000002
11.196 -0.73900002 0.035
11.27 0.32499999 -0.097999997
11.147 0.33700001 -0.097000003
11.109 0.352 -0.097000003
11.038 0.366 -0.096000001
11.063 0.38299999 -0.097000003
11.031 0.39899999 -0.096000001
11.063 0.417 -0.097000003
11.03 0.43200001 -0.097000003
10.981 0.44800001 -0.097000003
10.98 0.465 -0.097000003
10.955 0.48199999 -0.097000003
10.973 0.5 -0.097000003
11.001 0.51999998 -0.097000003
10.991 0.53799999 -0.097000003
10.99 0.55699998 -0.097999997
10.984 0.57499999 -0.097999997
10.992 0.59500003 -0.097999997
10.99 0.61400002 -0.097999997
10.972 0.63300002 -0.097999997
10.988 0.65399998 -0.098999999
10.986 0.67400002 -0.098999999
10.992 0.69400001 -0.098999999
10.981 0.71399999 -0.098999999
10.965 0.73400003 -0.098999999
10.991 0.75700003 -0.1
11.003 0.77899998 -0.1
11.006 0.801 -0.1
11.043 0.82499999 -0.101
11.048 0.84799999 -0.101
11.049 0.87 -0.101
11.056 0.89300001 -0.101
11.045 0.91500002 -0.102
11.073 0.94099998 -0.102
11.071 0.96399999 -0.102
11.084 0.98799998 -0.102
11.093 1.013 -0.103
11.106 1.038 -0.103
11.13 1.0650001 -0.104
11.135 1.09 -0.104
11.152 1.1160001 -0.104
11.162 1.142 -0.105
11.174 1.168 -0.105
11.195 1.196 -0.105
11.19 1.221 -0.106
11.216 1.25 -0.106
11.256 1.281 -0.107
11.268 1.309 -0.107
11.255 1.334 -0.107
11.264 1.362 -0.107
11.276 1.39 -0.108
11.29 1.419 -0.108
11.297 1.448 -0.108
11.34 1.4809999 -0.109
11.361 1.512 -0.11
11.374 1.5420001 -0.11
11.386 1.573 -0.11
11.409 1.605 -0.111
11.433 1.637 -0.111
11.455 1.67 -0.112
11.488 1.704 -0.112
11.526 1.74 -0.113
11.525 1.77 -0.113
11.546 1.804 -0.114
11.574 1.839 -0.114
11.599 1.874 -0.115
11.65 1.914 -0.116
11.675 1.949 -0.116
11.678 1.982 -0.116
11.696 2.017 -0.117
11.7 2.05 -0.117
11.732 2.0880001 -0.118
11.75 2.1240001 -0.118
11.789 2.164 -0.119
11.815 2.2019999 -0.12
11.845 2.2420001 -0.12
11.877 2.2820001 -0.121
11.907 2.322 -0.121
11.938 2.362 -0.122
11.949 2.3989999 -0.122
11.986 2.4419999 -0.123
11.996 2.4790001 -0.124
12.007 2.517 -0.124
12.037 2.559 -0.125
12.062 2.5999999 -0.125
12.053 2.635 -0.125
12.098 2.681 -0.126
12.121 2.723 -0.127
12.165 2.77 -0.12800001
12.189 2.813 -0.12800001
12.207 2.855 -0.12899999
12.222 2.8970001 -0.12899999
12.236 2.938 -0.13
12.243 2.9779999 -0.13
12.272 3.0239999 -0.131
12.271 3.062 -0.131
12.293 3.1070001 -0.132
12.316 3.152 -0.132
12.304 3.1889999 -0.133
12.317 3.2320001 -0.133
12.319 3.273 -0.133
12.349 3.3210001 -0.134
12.38 3.3699999 -0.13500001
12.393 3.414 -0.13500001
12.417 3.4619999 -0.13600001
12.426 3.5050001 -0.13600001
12.459 3.556 -0.13699999
12.453 3.596 -0.138
12.497 3.651 -0.138
12.498 3.694 -0.139
12.507 3.7390001 -0.139
12.527 3.7880001 -0.14
12.519 3.8280001 -0.14
12.545 3.8800001 -0.141
12.562 3.928 -0.141
12.577 3.977 -0.142
12.591 4.0250001 -0.14300001
12.615 4.0770001 -0.14300001
12.631 4.1269999 -0.14399999
12.656 4.1799998 -0.145
12.681 4.2329998 -0.145
12.709 4.2880001 -0.146
12.738 4.3429999 -0.147
12.757 4.3959999 -0.147
12.755 4.441 -0.148
12.769 4.4920001 -0.148
12.774 4.54 -0.149
12.805 4.598 -0.15000001
12.832 4.6550002 -0.15000001
12.915 4.7329998 -0.152
12.971 4.802 -0.153
12.985 4.855 -0.154
13.04 4.9239998 -0.155
13.051 4.9780002 -0.155
13.112 5.0500002 -0.156
13.175 5.1240001 -0.15800001
13.194 5.1820002 -0.15800001
13.227 5.2449999 -0.15899999
13.224 5.2950001 -0.16
13.273 5.3649998 -0.161
13.261 5.4120002 -0.161
13.282 5.4720001 -0.162
13.297 5.5289998 -0.162
13.351 5.6040001 -0.164
13.393 5.6739998 -0.16500001
13.462 5.757 -0.16599999
8.2469997 3.559 -0.102
8.1639996 3.556 -0.101
8.118 3.5680001 -0.101
8.1169996 3.5999999 -0.101
8.1090002 3.6289999 -0.101
8.1479998 3.6789999 -0.102
8.2180004 3.744 -0.103
8.21 3.773 -0.103
8.1899996 3.7980001 -0.104
8.1940002 3.8329999 -0.104
8.2390003 3.888 -0.105
13.681 6.5120001 -0.175
13.709 6.5819998 -0.176
13.797 6.6810002 -0.177
12.277 6.151 -0.16
12.221 6.1750002 -0.16
12.19 6.2620001 -0.16
12.241 6.3410001 -0.161
12.251 6.3979998 -0.162
12.068 6.3540001 -0.16
12.038 6.3909998 -0.16
12.091 6.4710002 -0.161
12.119 6.539 -0.162
12.205 6.638 -0.164
12.177 6.677 -0.164
12.157 6.7189999 -0.164
10.805 6.2600002 -0.149
10.56 6.1659999 -0.146
10.432 6.138 -0.145
10.366 6.1459999 -0.14399999
10.292 6.1490002 -0.14399999
10.243 6.1659999 -0.14300001
10.174 6.171 -0.14300001
10.106 6.177 -0.142
10.053 6.1900001 -0.142
9.9969997 6.2020001 -0.142
9.9449997 6.2160001 -0.141
9.8909998 6.2280002 -0.141
9.8549995 6.2509999 -0.141
9.8450003 6.2909999 -0.141
9.8990002 6.3720002 -0.14300001
10.089 6.5419998 -0.146
9.6219997 6.888 -0.146
9.533 6.8709998 -0.145
7.0370002 -4.6409998 0.028999999
7.066 -4.6149998 0.028999999
7.0929999 -4.5890002 0.028999999
7.1129999 -4.5580001 0.029999999
7.1399999 -4.5310001 0.029999999
7.165 -4.5029998 0.029999999
7.1919999 -4.4770002 0.029999999
7.2160001 -4.4489999 0.029999999
7.2329998 -4.4169998 0.029999999
7.2610002 -4.3920002 0.029999999
7.2709999 -4.355 0.030999999
7.3039999 -4.3330002 0.030999999
7.3270001 -4.3049998 0.030999999
7.3449998 -4.2740002 0.030999999
7.3639998 -4.244 0.030999999
7.3940001 -4.2199998 0.030999999
7.4169998 -4.1929998 0.030999999
7.4419999 -4.1659999 0.032000002
7.4489999 -4.1300001 0.032000002
7.4689999 -4.1009998 0.032000002
7.4710002 -4.0619998 0.032000002
7.4899998 -4.033 0.032000002
7.5120001 -4.006 0.032000002
7.5500002 -3.987 0.032000002
7.5710001 -3.9590001 0.032000002
7.5949998 -3.9319999 0.033
7.6020002 -3.898 0.033
7.6230001 -3.8699999 0.033
7.6500001 -3.846 0.033
7.665 -3.8150001 0.033
7.6799998 -3.7850001 0.033
7.71 -3.763 0.033
7.723 -3.7320001 0.033
