# .PCD v0.7 - Point Cloud Data file format
VERSION 0.7
FIELDS x y z
SIZE 4 4 4
TYPE F F F
COUNT 1 1 1
WIDTH 1827
HEIGHT 1
VIEWPOINT 0 0 0 1 0 0 0
POINTS 1827
DATA ascii
9.2600002 -1.605 -0.037999999
9.309 -1.5880001 -0.037999999
9.3120003 -1.564 -0.037999999
9.3439999 -1.545 -0.037999999
9.3699999 -1.524 -0.039000001
9.3800001 -1.502 -0.037999999
9.4110003 -1.482 -0.039000001
9.415 -1.459 -0.037999999
9.441 -1.439 -0.039000001
9.4809999 -1.42 -0.039000001
9.4969997 -1.399 -0.039000001
9.5229998 -1.3789999 -0.039000001
9.533 -1.357 -0.039000001
9.5570002 -1.336 -0.039000001
9.5889997 -1.317 -0.039000001
9.6140003 -1.2970001 -0.039000001
9.6339998 -1.276 -0.039000001
9.6619997 -1.257 -0.039000001
9.665 -1.234 -0.039000001
9.6969995 -1.215 -0.039000001
9.7060003 -1.193 -0.039000001
9.7299995 -1.173 -0.039000001
9.7460003 -1.153 -0.039000001
9.7849998 -1.1339999 -0.039000001
9.8079996 -1.115 -0.039000001
9.8409996 -1.096 -0.039000001
9.8620005 -1.076 -0.039000001
9.8629999 -1.054 -0.039000001
9.8830004 -1.033 -0.039000001
9.9219999 -1.015 -0.039000001
9.9540005 -0.99699998 -0.039000001
9.9650002 -0.97600001 -0.039000001
9.9700003 -0.95499998 -0.039000001
10.002 -0.93599999 -0.039000001
10.032 -0.917 -0.039000001
10.062 -0.898 -0.039000001
10.064 -0.87699997 -0.039000001
10.094 -0.85799998 -0.039000001
10.096 -0.83700001 -0.039000001
10.133 -0.81900001 -0.039000001
10.171 -0.801 -0.039000001
10.185 -0.78200001 -0.039000001
10.246 -0.76499999 -0.039000001
10.26 -0.74599999 -0.039000001
10.27 -0.72600001 -0.039000001
10.307 -0.708 -0.039000001
10.36 -0.69099998 -0.039999999
10.353 -0.67000002 -0.039999999
10.455 -0.65600002 -0.039999999
10.562 -0.64200002 -0.039999999
9.9300003 0.123 -0.15700001
9.9779997 0.141 -0.15800001
9.9870005 0.15899999 -0.15800001
9.9919996 0.178 -0.15899999
9.9910002 0.197 -0.15899999
10.015 0.21600001 -0.15899999
9.9969997 0.235 -0.15899999
10.009 0.25400001 -0.16
10.017 0.27399999 -0.16
10.023 0.294 -0.16
10.036 0.315 -0.161
10.022 0.33399999 -0.16
10.062 0.35600001 -0.161
10.061 0.377 -0.161
10.081 0.398 -0.162
10.072 0.419 -0.162
10.066 0.44 -0.162
10.064 0.46200001 -0.162
10.084 0.484 -0.163
10.082 0.50599998 -0.163
10.067 0.52700001 -0.163
10.081 0.55000001 -0.163
10.08 0.57300001 -0.164
10.09 0.59600002 -0.164
10.125 0.62099999 -0.16500001
10.125 0.64399999 -0.16500001
10.156 0.67000002 -0.16599999
10.166 0.69400001 -0.16599999
10.179 0.71799999 -0.16599999
10.184 0.74299997 -0.167
10.209 0.76899999 -0.167
10.213 0.79400003 -0.168
10.232 0.81999999 -0.168
10.257 0.847 -0.169
10.29 0.87400001 -0.17
10.288 0.89899999 -0.17
10.312 0.92699999 -0.171
10.296 0.95099998 -0.171
10.308 0.97799999 -0.171
10.347 1.008 -0.17200001
10.342 1.034 -0.17200001
10.376 1.064 -0.17299999
10.379 1.091 -0.17299999
10.417 1.122 -0.17399999
10.435 1.151 -0.175
10.448 1.1799999 -0.175
10.467 1.209 -0.176
10.5 1.2410001 -0.177
10.524 1.272 -0.177
10.52 1.3 -0.177
10.543 1.331 -0.178
10.553 1.3609999 -0.17900001
10.584 1.3940001 -0.17900001
10.601 1.425 -0.18000001
10.621 1.457 -0.18099999
10.634 1.488 -0.18099999
10.655 1.521 -0.182
10.665 1.552 -0.182
10.69 1.585 -0.183
10.701 1.617 -0.184
10.738 1.653 -0.184
10.747 1.6849999 -0.185
10.782 1.722 -0.186
10.801 1.756 -0.18700001
10.833 1.7920001 -0.18700001
10.841 1.825 -0.18799999
10.87 1.862 -0.189
10.881 1.896 -0.189
10.906 1.932 -0.19
10.929 1.9680001 -0.191
10.962 2.007 -0.192
11.01 2.0480001 -0.193
11.027 2.085 -0.193
11.065 2.125 -0.19400001
11.097 2.165 -0.19499999
11.129 2.2049999 -0.19599999
11.154 2.244 -0.197
11.186 2.2839999 -0.198
11.207 2.323 -0.199
11.258 2.368 -0.2
11.285 2.4089999 -0.20100001
11.304 2.448 -0.20200001
11.342 2.4909999 -0.20299999
11.362 2.5309999 -0.20299999
11.371 2.569 -0.204
11.394 2.6099999 -0.205
11.42 2.652 -0.206
11.438 2.6919999 -0.206
11.486 2.74 -0.208
11.504 2.7809999 -0.208
11.531 2.8239999 -0.20900001
11.603 2.8789999 -0.211
11.627 2.9219999 -0.212
11.617 2.957 -0.212
11.649 3.003 -0.213
11.657 3.043 -0.214
11.709 3.095 -0.215
11.708 3.1329999 -0.21600001
11.721 3.175 -0.21600001
11.732 3.217 -0.21699999
11.774 3.267 -0.21799999
11.805 3.3139999 -0.219
11.847 3.365 -0.22
11.935 3.4300001 -0.222
11.97 3.48 -0.22400001
11.979 3.523 -0.22400001
12.014 3.5739999 -0.22499999
12.021 3.6159999 -0.226
12.052 3.6659999 -0.227
12.072 3.7130001 -0.228
12.079 3.756 -0.228
12.113 3.8080001 -0.23
12.114 3.849 -0.23
12.135 3.8970001 -0.23100001
12.168 3.95 -0.23199999
12.187 3.9979999 -0.233
12.22 4.0500002 -0.234
12.25 4.1030002 -0.235
12.254 4.1459999 -0.236
12.265 4.1919999 -0.237
12.294 4.2449999 -0.23800001
12.29 4.2859998 -0.23800001
12.316 4.3379998 -0.23899999
12.331 4.3860002 -0.23999999
12.354 4.4380002 -0.241
12.385 4.4920001 -0.242
12.383 4.5349998 -0.243
12.407 4.5869999 -0.244
12.399 4.6279998 -0.244
12.41 4.6760001 -0.245
12.446 4.7340002 -0.24600001
12.49 4.7950001 -0.24699999
12.515 4.848 -0.248
12.51 4.8909998 -0.249
12.52 4.9390001 -0.25
12.536 4.9899998 -0.25099999
12.565 5.0469999 -0.252
12.588 5.1009998 -0.25299999
12.605 5.1529999 -0.25400001
12.62 5.204 -0.255
12.637 5.257 -0.255
12.627 5.2979999 -0.25600001
12.647 5.3520002 -0.257
12.668 5.4060001 -0.25799999
12.709 5.4699998 -0.259
12.747 5.5320001 -0.26100001
12.75 5.579 -0.26100001
12.751 5.6259999 -0.26199999
12.745 5.6690001 -0.26300001
12.778 5.73 -0.264
12.774 5.7750001 -0.264
12.805 5.835 -0.266
12.82 5.8889999 -0.26699999
12.86 5.954 -0.26800001
12.858 6 -0.26899999
12.917 6.0739999 -0.271
12.915 6.1209998 -0.271
12.945 6.1820002 -0.27200001
12.976 6.244 -0.27399999
13.006 6.3060002 -0.27500001
13.03 6.3649998 -0.27599999
13.035 6.4159999 -0.27700001
13.06 6.4749999 -0.278
13.083 6.5349998 -0.27900001
12.273 6.1750002 -0.26300001
12.183 6.1739998 -0.26100001
12.267 6.2620001 -0.264
12.22 6.3270001 -0.264
12.147 6.3330002 -0.26300001
12.074 6.3390002 -0.26199999
12.074 6.3839998 -0.26300001
12.281 6.5380001 -0.26800001
12.197 6.5819998 -0.26699999
12.173 6.6139998 -0.26800001
12.227 6.6880002 -0.26899999
13.608 7.592 -0.30199999
13.592 7.632 -0.30199999
13.568 7.6680002 -0.303
10.609 6.1880002 -0.23999999
10.504 6.164 -0.23800001
10.441 6.165 -0.237
10.358 6.1529999 -0.236
10.29 6.1500001 -0.235
10.23 6.1500001 -0.234
10.139 6.132 -0.23199999
10.092 6.1389999 -0.23199999
10.044 6.1459999 -0.23100001
9.9809999 6.1430001 -0.23
9.9399996 6.1529999 -0.23
9.9219999 6.177 -0.23
9.9289999 6.2160001 -0.23100001
10.041 6.3210001 -0.234
9.7060003 6.7059999 -0.237
9.6210003 6.6789999 -0.235
9.5539999 6.6630001 -0.234
9.4750004 6.6389999 -0.233
9.4230003 6.6329999 -0.23199999
9.3710003 6.6259999 -0.23100001
9.3509998 6.6420002 -0.23100001
9.3260002 6.6539998 -0.23100001
9.3179998 6.678 -0.23199999
9.309 6.6999998 -0.23199999
9.3079996 6.7280002 -0.233
9.3100004 6.7579999 -0.233
9.3059998 6.7839999 -0.234
7.165 -4.2090001 -0.021
7.1810002 -4.198 -0.021
7.1950002 -4.1859999 -0.021
7.1989999 -4.1680002 -0.021
7.211 -4.1550002 -0.021
7.2290001 -4.145 -0.021
7.23 -4.125 -0.021
7.2399998 -4.1100001 -0.021
7.2540002 -4.0970001 -0.021
7.257 -4.0780001 -0.021
7.2729998 -4.0669999 -0.021
7.2810001 -4.0500002 -0.021
7.2969999 -4.039 -0.021
7.2930002 -4.0159998 -0.02
7.3070002 -4.0019999 -0.02
7.3039999 -3.98 -0.02
7.3189998 -3.967 -0.02
7.3410001 -3.9579999 -0.02
7.349 -3.9419999 -0.02
7.3629999 -3.928 -0.02
7.348 -3.8989999 -0.02
7.335 -3.872 -0.02
7.3070002 -3.836 -0.02
7.2969999 -3.809 -0.02
7.3189998 -3.8 -0.02
7.3730001 -3.8069999 -0.02
7.4180002 -3.809 -0.02
7.4400001 -3.799 -0.02
7.447 -3.7809999 -0.02
7.4439998 -3.7579999 -0.02
7.4590001 -3.744 -0.02
7.473 -3.73 -0.02
7.4829998 -3.714 -0.02
7.4970002 -3.6989999 -0.02
7.5040002 -3.681 -0.02
7.5209999 -3.6670001 -0.02
7.5289998 -3.6500001 -0.018999999
7.5380001 -3.632 -0.018999999
7.553 -3.618 -0.018999999
7.5710001 -3.605 -0.018999999
7.5650001 -3.5799999 -0.018999999
7.5949998 -3.572 -0.018999999
7.5929999 -3.549 -0.018999999
7.6020002 -3.5320001 -0.018999999
7.6230001 -3.52 -0.018999999
7.632 -3.5020001 -0.018999999
7.6459999 -3.4860001 -0.018999999
7.6620002 -3.471 -0.018999999
7.6760001 -3.4560001 -0.018999999
7.6810002 -3.4360001 -0.018999999
7.6999998 -3.4219999 -0.018999999
7.7090001 -3.404 -0.018999999
7.723 -3.388 -0.018999999
7.737 -3.3710001 -0.018999999
7.7449999 -3.352 -0.018999999
7.7529998 -3.3340001 -0.018999999
7.7750001 -3.3210001 -0.018999999
7.783 -3.302 -0.018999999
7.79 -3.2820001 -0.018999999
7.802 -3.2650001 -0.018999999
7.8150001 -3.247 -0.017999999
7.8369999 -3.234 -0.017999999
7.862 -3.2219999 -0.017999999
7.855 -3.1960001 -0.017999999
7.8709998 -3.1800001 -0.017999999
7.8870001 -3.164 -0.017999999
7.9070001 -3.148 -0.017999999
7.9089999 -3.1270001 -0.017999999
7.9359999 -3.1140001 -0.017999999
7.9530001 -3.098 -0.017999999
7.9720001 -3.0829999 -0.017999999
7.9710002 -3.059 -0.017999999
7.9879999 -3.0420001 -0.017999999
8.0120001 -3.029 -0.017999999
8.0360003 -3.0139999 -0.017999999
8.052 -2.997 -0.017999999
8.0559998 -2.9760001 -0.017999999
8.0719995 -2.9579999 -0.017999999
8.0860004 -2.9400001 -0.017999999
8.1000004 -2.921 -0.017999999
8.1090002 -2.901 -0.017999999
8.1289997 -2.885 -0.017999999
8.158 -2.872 -0.017999999
8.1820002 -2.8570001 -0.017999999
8.1780005 -2.832 -0.017999999
8.1940002 -2.8139999 -0.017999999
8.2329998 -2.803 -0.017999999
8.2200003 -2.7750001 -0.017000001
8.243 -2.7590001 -0.017000001
8.2670002 -2.743 -0.017000001
8.2819996 -2.724 -0.017000001
8.2919998 -2.704 -0.017000001
8.316 -2.688 -0.017000001
8.3369999 -2.671 -0.017000001
8.3360004 -2.6459999 -0.017000001
8.3579998 -2.6289999 -0.017000001
8.382 -2.6129999 -0.017000001
8.4060001 -2.596 -0.017000001
8.4259996 -2.5780001 -0.017000001
8.434 -2.556 -0.017000001
8.4549999 -2.5380001 -0.017000001
8.4870005 -2.523 -0.017000001
8.4879999 -2.4990001 -0.017000001
8.5139999 -2.4820001 -0.017000001
8.5190001 -2.4590001 -0.017000001
8.5279999 -2.437 -0.017000001
8.5419998 -2.4170001 -0.017000001
8.5830002 -2.404 -0.017000001
8.5699997 -2.3759999 -0.017000001
8.6070004 -2.3610001 -0.017000001
8.6370001 -2.3440001 -0.017000001
8.6560001 -2.325 -0.017000001
8.6619997 -2.302 -0.016000001
8.6820002 -2.2820001 -0.016000001
8.7019997 -2.2620001 -0.016000001
8.7410002 -2.247 -0.016000001
8.7440004 -2.223 -0.016000001
8.7819996 -2.2079999 -0.016000001
8.7880001 -2.184 -0.016000001
8.8079996 -2.1630001 -0.016000001
8.8000002 -2.1359999 -0.016000001
8.8540001 -2.1240001 -0.016000001
8.8809996 -2.105 -0.016000001
8.901 -2.0840001 -0.016000001
8.9209995 -2.063 -0.016000001
8.9390001 -2.0420001 -0.016000001
8.9589996 -2.0209999 -0.016000001
8.9790001 -2 -0.016000001
9.026 -1.984 -0.016000001
9.0740004 -1.969 -0.016000001
9.1090002 -1.951 -0.016000001
9.0830002 -1.919 -0.016000001
9.0760002 -1.892 -0.016000001
9.1049995 -1.872 -0.016000001
9.1029997 -1.845 -0.016000001
9.1470003 -1.8279999 -0.016000001
9.1660004 -1.806 -0.016000001
9.1780005 -1.7819999 -0.015
9.2040005 -1.761 -0.015
9.25 -1.743 -0.015
9.2700005 -1.72 -0.015
9.3000002 -1.699 -0.015
9.3140001 -1.675 -0.015
9.3369999 -1.653 -0.015
9.3599997 -1.63 -0.015
9.3929996 -1.609 -0.015
9.4160004 -1.586 -0.015
9.4280005 -1.561 -0.015
9.4540005 -1.539 -0.015
9.4720001 -1.515 -0.015
9.5190001 -1.495 -0.015
9.5459995 -1.472 -0.015
9.5769997 -1.45 -0.015
9.6070004 -1.427 -0.015
9.6239996 -1.402 -0.015
9.6590004 -1.38 -0.015
9.6879997 -1.3559999 -0.015
9.724 -1.334 -0.015
9.7639999 -1.311 -0.015
9.7869997 -1.286 -0.015
9.8129997 -1.262 -0.015
9.8549995 -1.239 -0.015
9.8839998 -1.215 -0.015
9.9300003 -1.192 -0.015
9.9619999 -1.168 -0.015
9.9860001 -1.142 -0.014
10.01 -1.117 -0.014
10.056 -1.0930001 -0.014
10.083 -1.067 -0.014
10.141 -1.045 -0.014
10.173 -1.0190001 -0.014
10.196 -0.99199998 -0.014
10.242 -0.96799999 -0.014
10.265 -0.94099998 -0.014
10.31 -0.91600001 -0.014
10.321 -0.88700002 -0.014
10.422 -0.86699998 -0.014
10.47 -0.84100002 -0.014
10.529 -0.81599998 -0.014
10.629 -0.79299998 -0.014
10.563 0.23199999 -0.14399999
10.626 0.24699999 -0.145
10.514 0.25799999 -0.14300001
10.481 0.27200001 -0.14300001
10.501 0.28600001 -0.14300001
10.479 0.30000001 -0.14300001
10.447 0.31400001 -0.14300001
10.427 0.32800001 -0.14300001
10.431 0.34400001 -0.14300001
10.441 0.36000001 -0.14300001
10.417 0.37400001 -0.14300001
10.435 0.391 -0.14300001
10.435 0.40700001 -0.14399999
10.388 0.42199999 -0.14300001
10.385 0.43799999 -0.14300001
10.385 0.45500001 -0.14300001
10.413 0.47299999 -0.14399999
10.404 0.49000001 -0.14399999
10.397 0.50700003 -0.14399999
10.395 0.52499998 -0.14399999
10.413 0.54400003 -0.145
10.429 0.56300002 -0.145
10.434 0.58200002 -0.145
10.44 0.60100001 -0.146
10.444 0.62 -0.146
10.477 0.64099997 -0.147
10.478 0.66000003 -0.147
10.48 0.68000001 -0.147
10.488 0.70099998 -0.147
10.48 0.72000003 -0.147
10.503 0.74199998 -0.148
10.505 0.76300001 -0.148
10.515 0.78500003 -0.149
10.529 0.80699998 -0.149
10.554 0.82999998 -0.15000001
10.537 0.85000002 -0.149
10.571 0.875 -0.15000001
10.575 0.89700001 -0.15000001
10.581 0.92000002 -0.15099999
10.585 0.94300002 -0.15099999
10.596 0.96600002 -0.15099999
10.615 0.991 -0.152
10.633 1.016 -0.152
10.659 1.0420001 -0.153
10.668 1.067 -0.153
10.684 1.092 -0.154
10.699 1.118 -0.154
10.708 1.143 -0.155
10.742 1.171 -0.155
10.745 1.197 -0.156
10.775 1.225 -0.156
10.794 1.253 -0.15700001
10.775 1.276 -0.15700001
10.781 1.303 -0.15700001
10.811 1.332 -0.15800001
10.826 1.36 -0.15899999
10.846 1.3890001 -0.15899999
10.86 1.418 -0.16
10.893 1.449 -0.16
10.886 1.476 -0.161
10.904 1.505 -0.161
10.915 1.535 -0.162
10.95 1.568 -0.162
10.96 1.597 -0.163
10.986 1.6289999 -0.163
10.993 1.659 -0.164
11.03 1.694 -0.16500001
11.031 1.723 -0.16500001
11.046 1.755 -0.16599999
11.07 1.788 -0.16599999
11.077 1.819 -0.167
11.107 1.854 -0.167
11.148 1.891 -0.168
11.171 1.926 -0.169
11.225 1.966 -0.17
11.233 1.999 -0.171
11.263 2.036 -0.171
11.284 2.0710001 -0.17200001
11.304 2.1070001 -0.17299999
11.312 2.141 -0.17299999
11.354 2.181 -0.17399999
11.367 2.2160001 -0.175
11.399 2.256 -0.175
11.407 2.29 -0.176
11.468 2.336 -0.177
11.487 2.3740001 -0.178
11.534 2.418 -0.17900001
11.521 2.4489999 -0.17900001
11.547 2.4890001 -0.18000001
11.592 2.5339999 -0.18099999
11.625 2.576 -0.182
11.639 2.615 -0.182
11.663 2.6559999 -0.183
11.696 2.7 -0.184
11.714 2.74 -0.185
11.759 2.7869999 -0.186
11.777 2.8280001 -0.18700001
11.788 2.868 -0.18700001
11.8 2.908 -0.18799999
11.817 2.9489999 -0.18799999
11.835 2.9909999 -0.189
11.9 3.046 -0.191
11.896 3.0829999 -0.191
11.94 3.1329999 -0.192
11.952 3.175 -0.193
11.972 3.2190001 -0.193
12 3.267 -0.19400001
12.031 3.3139999 -0.19499999
12.06 3.362 -0.19599999
12.076 3.4070001 -0.197
12.092 3.4519999 -0.197
12.1 3.4949999 -0.198
12.124 3.543 -0.199
12.141 3.589 -0.2
12.171 3.6389999 -0.20100001
12.2 3.6900001 -0.20200001
12.22 3.737 -0.20200001
12.225 3.7809999 -0.20299999
12.262 3.835 -0.204
12.278 3.8829999 -0.205
12.289 3.9289999 -0.205
12.302 3.977 -0.206
12.315 4.0240002 -0.207
12.341 4.0760002 -0.208
12.372 4.131 -0.20900001
12.398 4.184 -0.20999999
12.396 4.2270002 -0.20999999
12.422 4.2810001 -0.211
12.429 4.3280001 -0.212
12.453 4.382 -0.213
12.457 4.4289999 -0.213
12.475 4.4809999 -0.214
12.506 4.5380001 -0.215
12.523 4.5900002 -0.21600001
12.557 4.6500001 -0.21699999
12.596 4.711 -0.21799999
12.606 4.7620001 -0.219
12.666 4.8319998 -0.22
12.687 4.8870001 -0.221
12.71 4.9439998 -0.222
12.731 5.0009999 -0.223
12.759 5.0609999 -0.22400001
12.749 5.1059999 -0.22499999
12.769 5.1630001 -0.226
12.785 5.2179999 -0.226
12.812 5.2789998 -0.227
12.819 5.3319998 -0.228
12.851 5.395 -0.229
12.858 5.4489999 -0.23
12.903 5.5180001 -0.23100001
12.901 5.5689998 -0.23199999
12.946 5.6399999 -0.233
12.96 5.697 -0.234
12.985 5.7600002 -0.235
13.02 5.8280001 -0.236
13.026 5.8829999 -0.237
13.049 5.9460001 -0.23800001
13.084 6.0149999 -0.23999999
13.114 6.0819998 -0.241
13.142 6.1490002 -0.242
13.113 6.1890001 -0.242
13.137 6.2550001 -0.243
13.165 6.322 -0.244
13.181 6.3850002 -0.245
13.215 6.4559999 -0.24600001
13.235 6.5209999 -0.24699999
12.455 6.1890001 -0.233
12.243 6.1350002 -0.23
12.233 6.1820002 -0.23
12.25 6.2940001 -0.23199999
12.174 6.3080001 -0.23100001
12.076 6.3080001 -0.23
12.084 6.3639998 -0.23100001
12.299 6.5840001 -0.236
12.155 6.5599999 -0.234
12.194 6.6339998 -0.235
10.612 6.197 -0.20999999
10.476 6.165 -0.208
10.406 6.171 -0.207
10.338 6.177 -0.206
10.254 6.1739998 -0.205
10.178 6.1750002 -0.204
10.111 6.1810002 -0.20299999
10.034 6.1799998 -0.20200001
9.9849997 6.1950002 -0.20200001
9.9230003 6.2030001 -0.20100001
9.8730001 6.2179999 -0.20100001
9.8590002 6.2550001 -0.20100001
9.8889999 6.3200002 -0.20200001
10.08 6.4899998 -0.207
9.7270002 6.8210001 -0.207
9.6120005 6.7870002 -0.205
9.5539999 6.7940001 -0.204
9.4759998 6.7849998 -0.20299999
9.4209995 6.7909999 -0.20299999
6.8660002 -4.5300002 -0.0040000002
6.8909998 -4.5029998 -0.0040000002
6.9229999 -4.4809999 -0.0040000002
6.9549999 -4.4580002 -0.0040000002
6.9790001 -4.4310002 -0.0040000002
6.9990001 -4.401 -0.0040000002
7.0300002 -4.3779998 -0.0040000002
7.0450001 -4.3460002 -0.003
7.0679998 -4.3179998 -0.003
7.0840001 -4.2870002 -0.003
7.1030002 -4.256 -0.003
7.1279998 -4.23 -0.003
7.138 -4.1960001 -0.003
7.164 -4.1700001 -0.003
7.1859999 -4.1430001 -0.003
7.217 -4.1209998 -0.003
7.2259998 -4.086 -0.003
7.25 -4.0599999 -0.003
7.2360001 -4.013 -0.003
7.1989999 -3.954 -0.003
7.224 -3.9289999 -0.003
7.2649999 -3.9130001 -0.003
7.3460002 -3.918 -0.003
7.3670001 -3.891 -0.0020000001
7.3959999 -3.868 -0.0020000001
7.4109998 -3.839 -0.0020000001
7.4190001 -3.8050001 -0.0020000001
7.4419999 -3.779 -0.0020000001
7.4640002 -3.753 -0.0020000001
7.4770002 -3.723 -0.0020000001
7.4990001 -3.697 -0.0020000001
7.5079999 -3.665 -0.0020000001
7.5339999 -3.641 -0.0020000001
7.5669999 -3.6210001 -0.0020000001
7.5739999 -3.589 -0.0020000001
7.6030002 -3.566 -0.0020000001
7.6129999 -3.5350001 -0.0020000001
7.6300001 -3.5079999 -0.0020000001
7.6479998 -3.4809999 -0.0020000001
7.6880002 -3.464 -0.001
7.7010002 -3.4349999 -0.001
7.723 -3.4100001 -0.001
7.7470002 -3.3859999 -0.001
7.7670002 -3.3599999 -0.001
7.7849998 -3.3329999 -0.001
7.803 -3.3069999 -0.001
7.8340001 -3.286 -0.001
7.8410001 -3.2550001 -0.001
7.8730001 -3.2349999 -0.001
7.8979998 -3.2119999 -0.001
7.9169998 -3.1860001 -0.001
7.934 -3.1600001 -0.001
7.9520001 -3.1340001 -0.001
7.9850001 -3.1140001 -0.001
8.0010004 -3.0869999 -0.001
8.033 -3.0669999 -0
8.0550003 -3.043 -0
8.0740004 -3.017 -0
8.1169996 -3.0009999 -0
8.1339998 -2.9749999 -0
8.1590004 -2.9519999 -0
8.1890001 -2.931 -0
8.2130003 -2.908 -0
8.2069998 -2.8740001 -0
8.2390003 -2.8540001 -0
8.2620001 -2.8310001 -0
8.3039999 -2.8139999 -0
8.3290005 -2.7909999 -0
8.3409996 -2.7639999 -0
8.3599997 -2.7390001 -0
8.382 -2.7160001 -0
8.4060001 -2.6930001 -0
8.441 -2.674 -0
8.4630003 -2.6500001 -0
8.4779997 -2.625 -0
8.5150003 -2.6059999 -0
8.5550003 -2.5880001 -0
8.5939999 -2.5699999 -0
8.5780001 -2.5350001 -0
8.5889997 -2.5079999 -0
8.6330004 -2.4920001 -0
8.6470003 -2.4660001 -0
8.6809998 -2.447 -0
8.7019997 -2.4230001 -0
8.717 -2.398 -0
8.7670002 -2.3829999 0.001
8.7889996 -2.3599999 0.001
8.802 -2.3340001 0.001
8.8280001 -2.313 0.001
8.8570004 -2.2909999 0.001
8.8780003 -2.2679999 0.001
8.8909998 -2.243 0.001
8.934 -2.2260001 0.001
8.9530001 -2.2019999 0.001
8.9750004 -2.1789999 0.001
9.0010004 -2.158 0.001
9.0279999 -2.1359999 0.001
9.0550003 -2.115 0.001
9.0830002 -2.0940001 0.001
9.1110001 -2.072 0.001
9.1239996 -2.0480001 0.0020000001
9.1450005 -2.0250001 0.0020000001
9.1689997 -2.003 0.0020000001
9.1870003 -1.98 0.0020000001
9.2189999 -1.96 0.0020000001
9.2360001 -1.936 0.0020000001
9.2469997 -1.9119999 0.0020000001
9.2819996 -1.892 0.0020000001
9.3280001 -1.875 0.0020000001
9.3249998 -1.848 0.0020000001
9.3529997 -1.827 0.0020000001
9.3990002 -1.809 0.0020000001
9.4180002 -1.7869999 0.0020000001
9.4440002 -1.765 0.0020000001
9.4969997 -1.749 0.003
9.4899998 -1.722 0.003
9.5 -1.698 0.003
9.54 -1.679 0.003
9.5500002 -1.655 0.003
9.5799999 -1.635 0.003
9.6020002 -1.613 0.003
9.6210003 -1.591 0.003
9.6730003 -1.574 0.003
9.7919998 -1.568 0.003
9.7810001 -1.541 0.003
9.7279997 -1.507 0.003
9.7600002 -1.487 0.003
9.7919998 -1.467 0.003
9.809 -1.4450001 0.0040000002
9.8299999 -1.424 0.0040000002
9.8599997 -1.403 0.0040000002
9.9049997 -1.385 0.0040000002
9.9379997 -1.3660001 0.0040000002
9.9610004 -1.344 0.0040000002
9.9790001 -1.323 0.0040000002
10.012 -1.303 0.0040000002
10.031 -1.281 0.0040000002
10.067 -1.262 0.0040000002
10.09 -1.2410001 0.0040000002
10.106 -1.219 0.0040000002
10.139 -1.199 0.0040000002
10.149 -1.177 0.0049999999
10.18 -1.1569999 0.0049999999
10.196 -1.136 0.0049999999
10.238 -1.117 0.0049999999
10.28 -1.099 0.0049999999
10.324 -1.08 0.0049999999
10.34 -1.059 0.0049999999
10.359 -1.038 0.0049999999
10.367 -1.016 0.0049999999
10.434 -1 0.0049999999
10.472 -0.98100001 0.0049999999
10.517 -0.96200001 0.0049999999
10.547 -0.94199997 0.0049999999
10.555 -0.921 0.0060000001
10.615 -0.90399998 0.0060000001
10.596 -0.88 0.0060000001
10.606 -0.85799998 0.0060000001
10.664 -0.84100002 0.0060000001
10.666 -0.81900001 0.0060000001
10.731 -0.80299997 0.0060000001
10.839 -0.78899997 0.0060000001
10.95 -0.77499998 0.0060000001
10.892 -0.74900001 0.0060000001
10.909 -0.72799999 0.0060000001
11.035 -0.71499997 0.0070000002
10.968 -0.68900001 0.0070000002
10.97 -0.66799998 0.0070000002
11.027 -0.64999998 0.0070000002
10.36 0.12899999 -0.112
10.381 0.148 -0.112
10.378 0.167 -0.112
10.395 0.18700001 -0.113
10.393 0.206 -0.113
10.415 0.226 -0.113
10.446 0.24699999 -0.114
10.432 0.26699999 -0.114
10.447 0.287 -0.114
10.425 0.30700001 -0.114
10.431 0.32800001 -0.114
10.437 0.34900001 -0.114
10.444 0.37099999 -0.115
10.443 0.39199999 -0.115
10.455 0.414 -0.115
10.463 0.43700001 -0.115
10.468 0.45899999 -0.116
10.476 0.48199999 -0.116
10.493 0.505 -0.116
10.505 0.528 -0.117
10.511 0.55199999 -0.117
10.525 0.57599998 -0.117
10.545 0.60000002 -0.118
10.549 0.62400001 -0.118
10.575 0.64999998 -0.119
10.558 0.67299998 -0.119
10.578 0.69800001 -0.119
10.595 0.72399998 -0.119
10.616 0.75 -0.12
10.622 0.77600002 -0.12
10.646 0.80299997 -0.121
10.669 0.82999998 -0.121
10.675 0.85600001 -0.121
10.672 0.88200003 -0.122
10.697 0.91000003 -0.122
10.71 0.93699998 -0.123
10.737 0.96600002 -0.123
10.738 0.99299997 -0.123
10.75 1.021 -0.124
10.782 1.051 -0.124
10.791 1.079 -0.125
10.822 1.11 -0.125
10.824 1.138 -0.126
10.836 1.1670001 -0.126
10.843 1.196 -0.126
10.858 1.226 -0.127
10.892 1.2589999 -0.127
10.913 1.29 -0.12800001
10.922 1.3200001 -0.12800001
10.934 1.351 -0.12899999
10.948 1.382 -0.12899999
10.986 1.4170001 -0.13
10.996 1.448 -0.13
11.019 1.4809999 -0.131
11.027 1.513 -0.131
11.05 1.546 -0.132
11.074 1.581 -0.132
11.097 1.615 -0.133
11.126 1.65 -0.133
11.147 1.6849999 -0.134
11.178 1.721 -0.13500001
11.185 1.7539999 -0.13500001
11.207 1.79 -0.13500001
11.243 1.8279999 -0.13600001
11.262 1.864 -0.13699999
11.306 1.904 -0.138
11.334 1.941 -0.138
11.361 1.979 -0.139
11.397 2.0190001 -0.14
11.418 2.056 -0.14
11.465 2.099 -0.141
11.48 2.1359999 -0.142
11.5 2.174 -0.142
11.526 2.214 -0.14300001
11.564 2.256 -0.14399999
11.602 2.2980001 -0.14399999
11.63 2.339 -0.145
11.652 2.3789999 -0.146
11.707 2.4260001 -0.147
11.745 2.47 -0.147
11.746 2.507 -0.148
11.785 2.552 -0.149
11.801 2.592 -0.149
11.831 2.635 -0.15000001
11.873 2.6819999 -0.15099999
11.914 2.7279999 -0.152
11.93 2.77 -0.152
11.955 2.813 -0.153
11.987 2.859 -0.154
12.011 2.9030001 -0.154
12.015 2.9419999 -0.155
12.019 2.9820001 -0.155
12.048 3.0280001 -0.156
12.104 3.0810001 -0.15700001
12.139 3.1289999 -0.15800001
12.136 3.168 -0.15800001
12.158 3.2130001 -0.15899999
12.174 3.257 -0.16
12.187 3.3010001 -0.16
12.206 3.346 -0.161
12.209 3.3870001 -0.161
12.242 3.437 -0.162
12.253 3.48 -0.163
12.27 3.526 -0.163
12.299 3.575 -0.164
12.314 3.6210001 -0.16500001
12.347 3.6719999 -0.16500001
12.379 3.723 -0.16599999
12.381 3.7650001 -0.167
12.397 3.812 -0.167
12.425 3.8629999 -0.168
12.426 3.905 -0.169
12.432 3.9489999 -0.169
12.44 3.994 -0.17
12.461 4.0440001 -0.17
12.488 4.0949998 -0.171
12.519 4.1479998 -0.17200001
12.531 4.1960001 -0.17299999
12.552 4.2459998 -0.17299999
12.545 4.2870002 -0.17399999
12.559 4.335 -0.17399999
12.557 4.3779998 -0.175
12.581 4.4299998 -0.176
12.59 4.4770002 -0.176
12.629 4.5359998 -0.177
12.655 4.5890002 -0.178
12.672 4.6399999 -0.17900001
12.69 4.691 -0.18000001
12.763 4.763 -0.18099999
12.77 4.8109999 -0.182
12.812 4.8720002 -0.183
12.848 4.9310002 -0.184
12.883 4.9899998 -0.185
12.93 5.0539999 -0.186
12.941 5.1040001 -0.18700001
12.982 5.1669998 -0.18799999
12.984 5.2140002 -0.18799999
12.989 5.2620001 -0.189
13.016 5.3200002 -0.19
13.024 5.3699999 -0.19
13.058 5.4310002 -0.191
13.061 5.4790001 -0.192
13.069 5.5289998 -0.192
13.108 5.5929999 -0.19400001
13.142 5.6550002 -0.19499999
13.206 5.73 -0.19599999
13.233 5.789 -0.197
13.269 5.8530002 -0.198
13.29 5.9109998 -0.199
13.289 5.9580002 -0.199
13.359 6.0380001 -0.20100001
13.354 6.0840001 -0.20200001
13.341 6.1269999 -0.20200001
13.39 6.198 -0.20299999
13.383 6.244 -0.204
13.415 6.3070002 -0.205
13.446 6.3709998 -0.206
13.451 6.4219999 -0.206
13.492 6.4910002 -0.208
13.483 6.5359998 -0.208
13.552 6.619 -0.20999999
12.47 6.2270002 -0.19400001
12.207 6.1399999 -0.191
12.251 6.2069998 -0.192
12.268 6.3060002 -0.193
12.278 6.355 -0.19400001
12.264 6.3930001 -0.19400001
12.069 6.336 -0.192
12.039 6.3639998 -0.192
12.094 6.4369998 -0.193
12.141 6.506 -0.19499999
12.146 6.553 -0.19499999
12.206 6.6300001 -0.197
12.164 6.652 -0.197
10.661 6.1389999 -0.176
10.492 6.0799999 -0.17399999
10.421 6.0760002 -0.17299999
10.379 6.0900002 -0.17299999
10.313 6.0879998 -0.17200001
10.262 6.0939999 -0.17200001
10.204 6.0970001 -0.17200001
10.147 6.099 -0.171
10.09 6.1009998 -0.171
10.04 6.1059999 -0.17
9.9960003 6.1149998 -0.17
9.9549999 6.1259999 -0.17
9.9289999 6.1440001 -0.17
9.9239998 6.177 -0.17
9.9790001 6.2459998 -0.17200001
10.239 6.4450002 -0.177
9.7449999 6.796 -0.178
9.6300001 6.7459998 -0.176
9.592 6.7509999 -0.176
9.5679998 6.7649999 -0.176
9.5299997 6.7680001 -0.176
9.5100002 6.7839999 -0.176
9.5139999 6.8169999 -0.176
9.5209999 6.8520002 -0.177
9.5039997 6.869 -0.177
9.5059996 6.9000001 -0.178
9.5080004 6.9299998 -0.178
7.335 -4.3119998 0.013
7.3530002 -4.302 0.013
7.3569999 -4.2839999 0.013
7.3639998 -4.2670002 0.013
7.3730001 -4.2509999 0.013
7.395 -4.243 0.013
7.4050002 -4.2270002 0.013
7.414 -4.2119999 0.013
7.415 -4.191 0.013
7.4310002 -4.1789999 0.013
7.4429998 -4.165 0.013
7.4499998 -4.1469998 0.013
7.4580002 -4.131 0.014
7.46 -4.1110001 0.014
7.4759998 -4.098 0.014
7.4910002 -4.085 0.014
7.4879999 -4.0619998 0.014
7.5089998 -4.052 0.014
7.5120001 -4.0320001 0.014
7.5339999 -4.0219998 0.014
7.5359998 -4.0019999 0.014
7.539 -3.9820001 0.014
7.553 -3.967 0.014
7.5560002 -3.948 0.014
7.539 -3.9170001 0.014
7.5739999 -3.9130001 0.015
7.5960002 -3.9030001 0.015
7.6030002 -3.885 0.015
7.619 -3.8710001 0.015
7.6230001 -3.8510001 0.015
7.6420002 -3.839 0.015
7.6399999 -3.816 0.015
7.6599998 -3.8039999 0.015
7.6630001 -3.783 0.015
7.6799998 -3.77 0.015
7.6890001 -3.7520001 0.015
7.7090001 -3.7390001 0.016000001
7.717 -3.721 0.016000001
7.7340002 -3.707 0.016000001
7.7350001 -3.6849999 0.016000001
7.7550001 -3.6719999 0.016000001
7.7529998 -3.6489999 0.016000001
7.7779999 -3.638 0.016000001
7.789 -3.6210001 0.016000001
7.7989998 -3.6029999 0.016000001
7.8000002 -3.5810001 0.016000001
7.823 -3.569 0.016000001
7.8280001 -3.549 0.017000001
7.8509998 -3.536 0.017000001
7.8610001 -3.5179999 0.017000001
7.881 -3.5050001 0.017000001
7.8779998 -3.48 0.017000001
7.8979998 -3.4660001 0.017000001
7.9190001 -3.4530001 0.017000001
7.9369998 -3.438 0.017000001
7.9419999 -3.4170001 0.017000001
7.9710002 -3.4059999 0.017000001
7.9790001 -3.3870001 0.017000001
8.0010004 -3.3729999 0.017999999
8.0030003 -3.3510001 0.017999999
8.0039997 -3.3280001 0.017999999
8.026 -3.3139999 0.017999999
8.0469999 -3.299 0.017999999
8.0620003 -3.2820001 0.017999999
8.0769997 -3.2650001 0.017999999
8.0979996 -3.25 0.017999999
8.099 -3.227 0.017999999
8.1269999 -3.214 0.017999999
8.1549997 -3.2019999 0.018999999
8.151 -3.177 0.018999999
8.165 -3.1589999 0.018999999
8.1870003 -3.1429999 0.018999999
8.2089996 -3.128 0.018999999
8.2390003 -3.1159999 0.018999999
8.25 -3.096 0.018999999
8.2550001 -3.0739999 0.018999999
8.2740002 -3.0569999 0.018999999
8.2930002 -3.04 0.018999999
8.2969999 -3.0179999 0.02
8.3030005 -2.9960001 0.02
8.3330002 -2.983 0.02
8.3439999 -2.9630001 0.02
8.3660002 -2.9460001 0.02
8.3780003 -2.9260001 0.02
8.3950005 -2.908 0.02
8.4040003 -2.8870001 0.02
8.4350004 -2.8729999 0.02
8.4300003 -2.8469999 0.02
8.4619999 -2.8340001 0.021
8.4720001 -2.812 0.021
8.4870005 -2.793 0.021
8.5 -2.773 0.021
8.5209999 -2.7550001 0.021
8.5489998 -2.74 0.021
8.5620003 -2.7190001 0.021
8.5830002 -2.701 0.021
8.5979996 -2.681 0.021
8.6090002 -2.6600001 0.022
8.6590004 -2.6500001 0.022
8.6789999 -2.631 0.022
8.658 -2.5999999 0.022
8.6940002 -2.586 0.022
8.6859999 -2.5580001 0.022
8.7209997 -2.543 0.022
8.7489996 -2.526 0.022
8.7609997 -2.5050001 0.022
8.79 -2.4879999 0.023
8.8170004 -2.47 0.023
8.8500004 -2.454 0.023
8.8850002 -2.438 0.023
8.8839998 -2.4119999 0.023
8.9049997 -2.392 0.023
8.8990002 -2.365 0.023
8.9130001 -2.3429999 0.023
8.9440002 -2.326 0.024
8.9910002 -2.312 0.024
9.0059996 -2.29 0.024
9.0200005 -2.2679999 0.024
9.0380001 -2.2460001 0.024
9.0410004 -2.221 0.024
9.0740004 -2.2030001 0.024
9.1120005 -2.1860001 0.024
9.1049995 -2.1589999 0.025
9.1230001 -2.1370001 0.025
9.1639996 -2.1199999 0.025
9.1700001 -2.095 0.025
9.2180004 -2.0799999 0.025
9.2259998 -2.0550001 0.025
9.2629995 -2.0369999 0.025
9.2659998 -2.0109999 0.025
9.2919998 -1.99 0.026000001
9.316 -1.9680001 0.026000001
9.349 -1.949 0.026000001
9.3900003 -1.9299999 0.026000001
9.3809996 -1.902 0.026000001
9.427 -1.8839999 0.026000001
9.4759998 -1.867 0.026000001
9.4960003 -1.844 0.027000001
9.526 -1.822 0.027000001
9.5389996 -1.798 0.027000001
9.5760002 -1.777 0.027000001
9.6049995 -1.755 0.027000001
9.6459999 -1.735 0.027000001
9.6789999 -1.7130001 0.028000001
9.6789999 -1.686 0.028000001
9.7010002 -1.6619999 0.028000001
9.7349997 -1.64 0.028000001
9.7740002 -1.619 0.028000001
9.7799997 -1.592 0.028000001
9.8389997 -1.573 0.028000001
9.9219999 -1.558 0.028999999
9.8850002 -1.524 0.028999999
9.8970003 -1.498 0.028999999
9.934 -1.475 0.028999999
9.9770002 -1.4529999 0.028999999
10.05 -1.4349999 0.028999999
10.068 -1.409 0.029999999
10.093 -1.3839999 0.029999999
10.127 -1.359 0.029999999
10.187 -1.339 0.029999999
10.206 -1.312 0.029999999
10.194 -1.281 0.029999999
10.275 -1.262 0.030999999
10.321 -1.239 0.030999999
10.319 -1.209 0.030999999
10.399 -1.189 0.030999999
10.418 -1.161 0.030999999
10.463 -1.137 0.032000002
10.51 -1.112 0.032000002
10.609 -1.092 0.032000002
10.675 -1.069 0.032000002
10.704 -1.041 0.033
10.726 -1.013 0.033
10.737 -0.98299998 0.033
10.746 -0.954 0.033
10.83 -0.93000001 0.033
10.889 -0.90399998 0.034000002
10.933 -0.87699997 0.034000002
10.963 -0.84799999 0.034000002
10.996 -0.81999999 0.034000002
11.063 -0.79299998 0.034000002
11.107 -0.76499999 0.035
11.122 -0.73400003 0.035
11.141 0.322 -0.097000003
11.126 0.33700001 -0.097000003
11.113 0.352 -0.097000003
11.043 0.366 -0.096000001
11.064 0.38299999 -0.097000003
11.076 0.40000001 -0.097000003
11.038 0.41600001 -0.097000003
11.029 0.43200001 -0.097000003
10.972 0.447 -0.096000001
10.985 0.465 -0.097000003
10.991 0.48300001 -0.097000003
10.972 0.5 -0.097000003
10.983 0.51899999 -0.097000003
11.01 0.53899997 -0.097999997
10.988 0.55699998 -0.097999997
10.993 0.57599998 -0.097999997
10.958 0.59299999 -0.097999997
10.991 0.61400002 -0.097999997
10.971 0.63300002 -0.097999997
10.991 0.65399998 -0.098999999
10.998 0.67400002 -0.098999999
11 0.69499999 -0.098999999
10.984 0.71499997 -0.098999999
10.977 0.73500001 -0.098999999
10.984 0.75599998 -0.1
11.006 0.77899998 -0.1
11.035 0.80299997 -0.1
11.046 0.82599998 -0.101
11.044 0.84799999 -0.101
11.057 0.87099999 -0.101
11.061 0.89399999 -0.101
11.074 0.91799998 -0.102
11.088 0.94199997 -0.102
11.062 0.963 -0.102
11.075 0.98799998 -0.102
11.093 1.013 -0.103
11.116 1.039 -0.103
11.136 1.0650001 -0.104
11.14 1.09 -0.104
11.144 1.115 -0.104
11.169 1.143 -0.105
11.192 1.17 -0.105
11.186 1.1950001 -0.105
11.214 1.224 -0.106
11.24 1.253 -0.106
11.24 1.279 -0.106
11.267 1.308 -0.107
11.243 1.332 -0.107
11.282 1.364 -0.108
11.279 1.391 -0.108
11.302 1.421 -0.108
11.311 1.45 -0.109
11.335 1.4809999 -0.109
11.36 1.512 -0.11
11.369 1.5420001 -0.11
11.398 1.574 -0.11
11.417 1.6059999 -0.111
11.416 1.635 -0.111
11.439 1.668 -0.112
11.497 1.706 -0.112
11.508 1.737 -0.113
11.53 1.771 -0.113
11.55 1.804 -0.114
11.578 1.84 -0.114
11.596 1.874 -0.115
11.644 1.913 -0.116
11.663 1.947 -0.116
11.673 1.9809999 -0.116
11.697 2.017 -0.117
11.73 2.0550001 -0.118
11.727 2.0869999 -0.118
11.766 2.1270001 -0.119
11.78 2.1630001 -0.119
11.819 2.2030001 -0.12
11.854 2.243 -0.12
11.863 2.279 -0.121
11.885 2.3169999 -0.121
11.929 2.3610001 -0.122
11.958 2.401 -0.123
11.984 2.441 -0.123
12.018 2.484 -0.124
12.022 2.52 -0.124
12.04 2.5599999 -0.125
12.055 2.599 -0.125
12.094 2.6440001 -0.126
12.12 2.6860001 -0.127
12.14 2.727 -0.127
12.176 2.773 -0.12800001
12.186 2.813 -0.12800001
12.206 2.855 -0.12899999
12.228 2.898 -0.12899999
12.262 2.944 -0.13
12.259 2.9820001 -0.13
12.269 3.023 -0.131
12.276 3.0639999 -0.131
12.285 3.105 -0.132
12.328 3.155 -0.132
12.306 3.1889999 -0.133
12.309 3.23 -0.133
12.334 3.276 -0.134
12.349 3.3210001 -0.134
12.385 3.3710001 -0.13500001
12.387 3.4119999 -0.13500001
12.422 3.4630001 -0.13600001
12.426 3.5050001 -0.13600001
12.459 3.556 -0.13699999
12.487 3.6059999 -0.138
12.509 3.655 -0.139
12.503 3.6949999 -0.139
12.506 3.7390001 -0.139
12.534 3.79 -0.14
12.545 3.836 -0.14
12.554 3.882 -0.141
12.575 3.9319999 -0.142
12.584 3.9790001 -0.142
12.605 4.0300002 -0.14300001
12.615 4.0770001 -0.14300001
12.638 4.1290002 -0.14399999
12.659 4.1810002 -0.145
12.678 4.2319999 -0.145
12.703 4.2859998 -0.146
12.729 4.3400002 -0.147
12.747 4.3920002 -0.147
12.752 4.4400001 -0.148
12.783 4.4970002 -0.149
12.8 4.5500002 -0.149
12.824 4.605 -0.15000001
12.859 4.665 -0.15099999
12.921 4.7350001 -0.152
12.994 4.8099999 -0.153
13.003 4.862 -0.154
13.046 4.927 -0.155
13.055 4.9790001 -0.155
13.108 5.0489998 -0.156
13.169 5.1220002 -0.15800001
13.206 5.1859999 -0.15800001
13.228 5.2459998 -0.15899999
13.243 5.302 -0.16
13.266 5.362 -0.161
13.264 5.4130001 -0.161
13.291 5.4749999 -0.162
13.354 5.553 -0.163
13.343 5.6009998 -0.163
13.41 5.6820002 -0.16500001
13.404 5.7319999 -0.16500001
13.435 5.7979999 -0.16599999
13.498 5.8790002 -0.167
13.511 5.9380002 -0.168
13.588 6.026 -0.17
13.619 6.0939999 -0.17
13.618 6.1490002 -0.171
13.651 6.2189999 -0.17200001
13.644 6.2709999 -0.17200001
13.628 6.3189998 -0.17299999
13.637 6.3790002 -0.17299999
13.654 6.4429998 -0.17399999
13.664 6.5040002 -0.175
13.711 6.5830002 -0.176
13.745 6.6570001 -0.177
12.236 6.1300001 -0.15899999
12.202 6.165 -0.15899999
12.209 6.2719998 -0.16
12.291 6.3670001 -0.162
12.217 6.3800001 -0.162
12.049 6.3449998 -0.16
12.038 6.3909998 -0.16
12.093 6.473 -0.161
12.104 6.5310001 -0.162
12.221 6.6469998 -0.164
12.174 6.6750002 -0.164
12.145 6.7119999 -0.164
10.751 6.2290001 -0.148
10.553 6.1620002 -0.146
10.415 6.1279998 -0.14399999
10.361 6.1430001 -0.14399999
10.293 6.1490002 -0.14399999
10.235 6.1609998 -0.14300001
10.169 6.1680002 -0.14300001
10.112 6.1799998 -0.142
10.053 6.1900001 -0.142
9.9919996 6.1989999 -0.142
9.9469995 6.217 -0.141
9.8920002 6.2280002 -0.141
9.8549995 6.2509999 -0.141
9.8500004 6.2940001 -0.141
9.9099998 6.3790002 -0.14300001
10.133 6.5700002 -0.146
9.6049995 6.8759999 -0.145
9.526 6.8660002 -0.145
7.027 -4.6339998 0.028999999
7.0479999 -4.6040001 0.028999999
7.086 -4.5840001 0.028999999
7.118 -4.5609999 0.029999999
7.1370001 -4.5289998 0.029999999
7.1700001 -4.507 0.029999999
7.1950002 -4.4790001 0.029999999
7.2090001 -4.4450002 0.029999999
7.2399998 -4.421 0.029999999
7.2589998 -4.3899999 0.029999999
7.283 -4.3629999 0.030999999
7.3070002 -4.335 0.030999999
7.3189998 -4.3010001 0.030999999
7.3400002 -4.2709999 0.030999999
7.3629999 -4.243 0.030999999
7.3909998 -4.2189999 0.030999999
7.4089999 -4.1880002 0.030999999
7.4190001 -4.1529999 0.030999999
7.4429998 -4.1259999 0.032000002
7.474 -4.1030002 0.032000002
7.4770002 -4.066 0.032000002
7.4689999 -4.0219998 0.032000002
7.5089998 -4.0040002 0.032000002
7.5500002 -3.987 0.032000002
7.5679998 -3.957 0.032000002
7.5710001 -3.9200001 0.032000002
7.6059999 -3.9000001 0.033
7.6209998 -3.869 0.033
7.6360002 -3.839 0.033
7.664 -3.8150001 0.033
7.6659999 -3.7780001 0.033
7.7069998 -3.7609999 0.033
7.7220001 -3.7309999 0.033
7.743 -3.704 0.034000002
7.7779999 -3.684 0.034000002
7.7870002 -3.651 0.034000002
7.8249998 -3.6329999 0.034000002
7.8239999 -3.596 0.034000002
7.8509998 -3.572 0.034000002
7.8660002 -3.543 0.034000002
7.8899999 -3.5179999 0.034000002
7.9050002 -3.4890001 0.035
7.9229999 -3.4619999 0.035
7.9499998 -3.438 0.035
7.9819999 -3.4170001 0.035
8.0200005 -3.398 0.035
8.0480003 -3.375 0.035
8.0609999 -3.346 0.035999998
8.0710001 -3.3150001 0.035999998
8.1099997 -3.2969999 0.035999998
8.1129999 -3.2639999 0.035999998
8.1529999 -3.2460001 0.035999998
8.1619997 -3.2160001 0.035999998
8.184 -3.191 0.035999998
8.2080002 -3.1659999 0.037
8.2489996 -3.148 0.037
8.283 -3.128 0.037
8.302 -3.102 0.037
8.3179998 -3.075 0.037
8.3299999 -3.046 0.037
8.3529997 -3.0220001 0.037
8.3780003 -2.9979999 0.037999999
8.4020004 -2.974 0.037999999
8.4110003 -2.9449999 0.037999999
8.4420004 -2.924 0.037999999
8.4860001 -2.9070001 0.037999999
8.5100002 -2.8829999 0.037999999
8.5450001 -2.8629999 0.039000001
8.5559998 -2.835 0.039000001
8.5790005 -2.8110001 0.039000001
8.6079998 -2.789 0.039000001
8.6260004 -2.763 0.039000001
8.6379995 -2.7360001 0.039000001
8.6750002 -2.7160001 0.039999999
8.7189999 -2.6989999 0.039999999
8.7819996 -2.687 0.039999999
8.7709999 -2.6530001 0.039999999
8.7709999 -2.622 0.039999999
8.8079996 -2.6029999 0.039999999
8.8509998 -2.585 0.041000001
8.8809996 -2.563 0.041000001
8.9289999 -2.5469999 0.041000001
8.9779997 -2.53 0.041000001
8.9829998 -2.5009999 0.041999999
8.9940004 -2.474 0.041999999
9.0220003 -2.4519999 0.041999999
9.0299997 -2.424 0.041999999
9.0539999 -2.401 0.041999999
9.0790005 -2.378 0.041999999
9.1210003 -2.3599999 0.041999999
9.1409998 -2.335 0.043000001
9.184 -2.3169999 0.043000001
9.1890001 -2.289 0.043000001
9.224 -2.2690001 0.043000001
9.2399998 -2.244 0.043000001
9.2379999 -2.214 0.043000001
9.2989998 -2.2 0.044
9.3000002 -2.1719999 0.044
9.3570004 -2.1570001 0.044
9.3830004 -2.1340001 0.044
9.4090004 -2.112 0.044
9.4440002 -2.0910001 0.045000002
9.4770002 -2.0699999 0.045000002
9.4969997 -2.0469999 0.045000002
9.5240002 -2.0239999 0.045000002
9.5360003 -1.999 0.045000002
9.585 -1.982 0.046
9.6029997 -1.9579999 0.046
9.6569996 -1.941 0.046
9.6709995 -1.916 0.046
9.7010002 -1.895 0.046
9.7229996 -1.872 0.046
9.7600002 -1.852 0.046999998
9.7709999 -1.827 0.046999998
9.8210001 -1.809 0.046999998
9.8409996 -1.786 0.046999998
9.8450003 -1.76 0.046999998
9.8640003 -1.7359999 0.046999998
9.9049997 -1.717 0.048
9.9449997 -1.697 0.048
9.9630003 -1.674 0.048
9.9949999 -1.653 0.048
10.026 -1.632 0.048999999
10.092 -1.6160001 0.048999999
10.161 -1.601 0.048999999
10.142 -1.572 0.048999999
10.107 -1.541 0.048999999
10.147 -1.521 0.048999999
10.179 -1.5 0.050000001
10.208 -1.479 0.050000001
10.256 -1.46 0.050000001
10.295 -1.4400001 0.050000001
10.304 -1.416 0.050000001
10.323 -1.3940001 0.050999999
10.341 -1.3710001 0.050999999
10.373 -1.35 0.050999999
10.419 -1.331 0.050999999
10.436 -1.309 0.050999999
10.468 -1.288 0.052000001
10.528 -1.271 0.052000001
10.579 -1.252 0.052000001
10.561 -1.226 0.052000001
10.621 -1.2079999 0.052999999
10.638 -1.186 0.052999999
10.662 -1.164 0.052999999
10.685 -1.143 0.052999999
10.718 -1.122 0.052999999
10.74 -1.1 0.052999999
10.764 -1.079 0.054000001
10.801 -1.059 0.054000001
10.811 -1.036 0.054000001
10.828 -1.015 0.054000001
10.858 -0.99400002 0.054000001
10.86 -0.97100002 0.054000001
10.867 -0.949 0.055
10.887 -0.92699999 0.055
10.923 -0.90799999 0.055
10.939 -0.88599998 0.055
10.97 -0.866 0.055
10.979 -0.84399998 0.055
11.031 -0.82599998 0.056000002
11.077 -0.80699998 0.056000002
11.118 -0.787 0.056000002
11.141 -0.76700002 0.056000002
11.142 -0.745 0.056000002
11.182 -0.72500002 0.057
11.219 -0.70599997 0.057
11.29 -0.68900001 0.057
11.261 -0.66500002 0.057
11.401 -0.65200001 0.057999998
11.404 -0.63 0.057999998
10.871 0.13699999 -0.063000001
10.881 0.15700001 -0.063000001
10.878 0.177 -0.063000001
10.886 0.197 -0.063000001
10.894 0.21799999 -0.064000003
10.894 0.23800001 -0.064000003
10.938 0.25999999 -0.064000003
10.938 0.28099999 -0.064000003
10.923 0.30199999 -0.064999998
10.929 0.324 -0.064999998
10.928 0.345 -0.064999998
10.927 0.36700001 -0.064999998
10.934 0.38999999 -0.064999998
10.923 0.412 -0.064999998
10.925 0.43399999 -0.066
10.924 0.45699999 -0.066
10.916 0.47999999 -0.066
10.93 0.50400001 -0.066
10.942 0.528 -0.067000002
10.955 0.55199999 -0.067000002
10.959 0.57599998 -0.067000002
10.952 0.60000002 -0.067000002
10.957 0.625 -0.067000002
10.976 0.64999998 -0.068000004
10.98 0.67500001 -0.068000004
10.974 0.69999999 -0.068000004
10.986 0.72600001 -0.068000004
10.997 0.75199997 -0.068999998
11.01 0.77899998 -0.068999998
11.023 0.80599999 -0.068999998
11.034 0.833 -0.07
11.04 0.85900003 -0.07
11.069 0.88800001 -0.07
11.093 0.917 -0.071000002
11.099 0.94499999 -0.071000002
11.113 0.97299999 -0.071000002
11.11 1 -0.071000002
11.119 1.029 -0.071999997
11.15 1.0599999 -0.071999997
11.174 1.09 -0.071999997
11.206 1.122 -0.072999999
11.195 1.149 -0.072999999
11.221 1.181 -0.072999999
11.237 1.211 -0.074000001
11.255 1.242 -0.074000001
11.266 1.273 -0.074000001
11.274 1.304 -0.075000003
11.312 1.3380001 -0.075000003
11.322 1.369 -0.075000003
11.339 1.402 -0.075999998
11.352 1.434 -0.075999998
11.385 1.469 -0.077
11.408 1.503 -0.077
11.436 1.538 -0.077
11.46 1.572 -0.078000002
11.482 1.607 -0.078000002
11.519 1.6440001 -0.079000004
11.562 1.683 -0.079000004
11.583 1.7180001 -0.079999998
11.626 1.758 -0.079999998
11.651 1.794 -0.081
11.69 1.834 -0.081
11.7 1.869 -0.082000002
11.754 1.911 -0.082000002
11.803 1.9529999 -0.082999997
11.811 1.989 -0.082999997
11.845 2.029 -0.083999999
11.894 2.072 -0.083999999
11.913 2.1099999 -0.085000001
11.933 2.1489999 -0.085000001
11.989 2.1949999 -0.086000003
12.017 2.2360001 -0.086000003
12.019 2.2720001 -0.086999997
12.062 2.316 -0.086999997
12.089 2.358 -0.088
12.135 2.404 -0.088
12.182 2.45 -0.089000002
12.2 2.4909999 -0.089000002
12.226 2.5339999 -0.090000004
12.259 2.5780001 -0.090000004
12.273 2.619 -0.090999998
12.303 2.6630001 -0.090999998
12.3 2.701 -0.092
12.349 2.75 -0.092
12.372 2.7939999 -0.093000002
12.385 2.836 -0.093000002
12.391 2.8759999 -0.093999997
12.401 2.918 -0.093999997
12.411 2.96 -0.093999997
12.437 3.006 -0.094999999
12.46 3.0510001 -0.094999999
12.483 3.0969999 -0.096000001
12.491 3.1389999 -0.096000001
12.518 3.1860001 -0.097000003
12.535 3.2309999 -0.097000003
12.571 3.2809999 -0.097999997
12.594 3.3280001 -0.097999997
12.604 3.372 -0.098999999
12.632 3.421 -0.098999999
12.641 3.4649999 -0.1
12.671 3.5139999 -0.1
12.672 3.5569999 -0.101
12.707 3.609 -0.101
12.713 3.6530001 -0.102
12.717 3.6960001 -0.102
12.699 3.733 -0.102
12.707 3.7780001 -0.103
12.722 3.826 -0.103
12.768 3.882 -0.104
12.802 3.9360001 -0.105
12.835 3.99 -0.105
12.856 4.04 -0.106
12.875 4.0890002 -0.106
12.883 4.1360002 -0.107
12.922 4.1929998 -0.108
12.959 4.2490001 -0.108
12.986 4.302 -0.109
13.057 4.3709998 -0.11
13.074 4.4219999 -0.11
13.088 4.4720001 -0.111
13.115 4.526 -0.111
13.123 4.5749998 -0.112
13.166 4.6350002 -0.113
13.229 4.704 -0.114
13.281 4.7690001 -0.114
13.305 4.8239999 -0.115
13.377 4.8969998 -0.116
13.407 4.9549999 -0.117
13.456 5.02 -0.118
13.485 5.079 -0.118
13.549 5.151 -0.119
13.592 5.2150002 -0.12
13.61 5.27 -0.121
13.669 5.342 -0.122
13.708 5.4060001 -0.122
13.749 5.4710002 -0.123
13.795 5.5380001 -0.124
13.811 5.5939999 -0.125
13.846 5.658 -0.125
13.87 5.717 -0.126
13.902 5.7800002 -0.127
13.909 5.8330002 -0.127
13.897 5.8779998 -0.12800001
13.92 5.9380002 -0.12800001
13.972 6.0110002 -0.12899999
13.993 6.0700002 -0.13
14.07 6.1539998 -0.131
14.107 6.2210002 -0.132
14.039 6.2420001 -0.132
13.863 6.2140002 -0.13
13.807 6.2399998 -0.13
12.245 6.158 -0.121
12.182 6.171 -0.121
12.173 6.256 -0.122
12.101 6.263 -0.122
12.119 6.316 -0.122
12.108 6.355 -0.123
12.056 6.3709998 -0.123
12.04 6.4070001 -0.123
12.099 6.4829998 -0.124
12.118 6.5370002 -0.125
12.223 6.638 -0.126
10.636 6.1630001 -0.114
10.536 6.1420002 -0.113
10.424 6.1149998 -0.112
10.362 6.1149998 -0.112
10.303 6.118 -0.112
10.259 6.1279998 -0.111
10.201 6.131 -0.111
10.144 6.132 -0.111
10.105 6.145 -0.111
10.067 6.158 -0.111
10.025 6.1680002 -0.111
9.9870005 6.1789999 -0.111
9.9659996 6.2020001 -0.111
9.9820004 6.2470002 -0.112
10.079 6.3429999 -0.113
7.5089998 -4.4180002 0.048999999
7.5050001 -4.395 0.048999999
7.5209999 -4.382 0.048999999
7.5370002 -4.3699999 0.048999999
7.539 -4.3499999 0.048999999
7.5479999 -4.3340001 0.048999999
7.5570002 -4.3179998 0.048999999
7.585 -4.3119998 0.050000001
7.6009998 -4.3000002 0.050000001
7.6110001 -4.2839999 0.050000001
7.6199999 -4.2670002 0.050000001
7.6220002 -4.2470002 0.050000001
7.6259999 -4.2270002 0.050000001
7.6399999 -4.2129998 0.050000001
7.6500001 -4.1960001 0.050000001
7.6609998 -4.1810002 0.050000001
7.6700001 -4.164 0.050999999
7.6789999 -4.1469998 0.050999999
7.6989999 -4.1350002 0.050999999
7.7090001 -4.119 0.050999999
7.7119999 -4.098 0.050999999
7.7140002 -4.0770001 0.050999999
7.73 -4.0640001 0.050999999
7.756 -4.0549998 0.052000001
7.7680001 -4.039 0.052000001
7.7820001 -4.0240002 0.052000001
7.7670002 -3.993 0.052000001
7.7810001 -3.9790001 0.052000001
7.7800002 -3.9560001 0.052000001
7.8070002 -3.947 0.052000001
7.809 -3.925 0.052000001
7.8319998 -3.914 0.052999999
7.8530002 -3.902 0.052999999
7.855 -3.881 0.052999999
7.869 -3.865 0.052999999
7.8920002 -3.8529999 0.052999999
7.895 -3.832 0.052999999
7.9169998 -3.8199999 0.052999999
7.9320002 -3.8039999 0.054000001
7.927 -3.779 0.054000001
7.9569998 -3.77 0.054000001
7.9499998 -3.744 0.054000001
7.9679999 -3.7290001 0.054000001
8.0030003 -3.723 0.054000001
8.0039997 -3.7 0.054000001
8.0200005 -3.684 0.055
8.0349998 -3.668 0.055
8.052 -3.652 0.055
8.0579996 -3.632 0.055
8.066 -3.612 0.055
8.0780001 -3.5940001 0.055
8.1120005 -3.586 0.056000002
8.1140003 -3.563 0.056000002
8.1280003 -3.546 0.056000002
8.1429996 -3.529 0.056000002
8.1660004 -3.5150001 0.056000002
8.1680002 -3.4920001 0.056000002
8.1850004 -3.4760001 0.056000002
8.2040005 -3.46 0.057
8.2189999 -3.4430001 0.057
8.2299995 -3.4230001 0.057
8.25 -3.408 0.057
8.2659998 -3.391 0.057
8.2880001 -3.3759999 0.057
8.2939997 -3.3540001 0.057
8.316 -3.339 0.057999998
8.3249998 -3.319 0.057999998
8.3459997 -3.303 0.057999998
8.3690004 -3.2869999 0.057999998
8.3690004 -3.2639999 0.057999998
8.3850002 -3.2449999 0.057999998
8.4020004 -3.227 0.059
8.415 -3.2079999 0.059
8.4379997 -3.1930001 0.059
8.4650002 -3.178 0.059
8.4659996 -3.154 0.059
8.4809999 -3.135 0.059
8.5010004 -3.118 0.059999999
8.5089998 -3.0969999 0.059999999
8.5170002 -3.075 0.059999999
8.5389996 -3.0580001 0.059999999
8.5629997 -3.0420001 0.059999999
8.5799999 -3.023 0.059999999
8.5930004 -3.003 0.061000001
8.6029997 -2.9820001 0.061000001
8.6110001 -2.9590001 0.061000001
8.6450005 -2.9460001 0.061000001
8.6540003 -2.924 0.061000001
8.665 -2.9030001 0.061000001
8.7089996 -2.8929999 0.061999999
8.7110004 -2.868 0.061999999
8.724 -2.8469999 0.061999999
8.7460003 -2.829 0.061999999
8.7659998 -2.8099999 0.061999999
8.7720003 -2.7869999 0.061999999
8.7950001 -2.7690001 0.063000001
8.8219995 -2.7520001 0.063000001
8.8780003 -2.744 0.063000001
8.9130001 -2.7290001 0.064000003
8.9069996 -2.701 0.064000003
8.9069996 -2.6760001 0.064000003
8.9280005 -2.6559999 0.064000003
8.948 -2.6359999 0.064000003
8.9809999 -2.6199999 0.064000003
8.9879999 -2.596 0.064999998
9.0109997 -2.5769999 0.064999998
9.0570002 -2.5639999 0.064999998
