# .PCD v0.7 - Point Cloud Data file format
VERSION 0.7
FIELDS x y z
SIZE 4 4 4
TYPE F F F
COUNT 1 1 1
WIDTH 1806
HEIGHT 1
VIEWPOINT 0 0 0 1 0 0 0
POINTS 1806
DATA ascii
30.993 4.441 5.4380002
30.986 4.5180001 5.4400001
31.006001 4.599 5.447
30.982 4.6750002 5.4460001
31.004999 4.7579999 5.4530001
30.993999 4.836 5.454
30.98 4.915 5.4549999
30.983 4.9959998 5.4590001
30.964001 5.0749998 5.4590001
30.976 5.1589999 5.4650002
30.985001 5.244 5.4699998
30.995001 5.329 5.4759998
30.964001 5.408 5.474
30.966 5.4920001 5.4780002
30.976999 5.5799999 5.4840002
30.983 5.6659999 5.4889998
30.973 5.7509999 5.4910002
30.983 5.8390002 5.4970002
30.973 5.9250002 5.4990001
30.982 6.0139999 5.5050001
30.974001 6.1009998 5.5079999
30.98 6.191 5.513
30.983 6.2810001 5.5180001
31.006001 6.3759999 5.527
30.992001 6.4629998 5.5289998
30.986 6.553 5.5320001
30.990999 6.645 5.5380001
30.992001 6.7379999 5.5419998
30.993999 6.8309999 5.5479999
31.004 6.9260001 5.5539999
31.011999 7.0219998 5.5609999
31.014 7.1160002 5.566
31.009001 7.21 5.5700002
30.996 7.302 5.573
31.016001 7.402 5.5819998
31.024 7.5009999 5.5879998
31.049 7.6040001 5.598
31.045 7.6999998 5.6030002
31.039 7.796 5.6069999
31.063999 7.901 5.6170001
31.068001 8.0010004 5.6230001
31.073999 8.1020002 5.6300001
31.069 8.2010002 5.6350002
31.046 8.2950001 5.6360002
31.066999 8.4020004 5.6459999
31.055 8.5 5.6500001
31.054001 8.6020002 5.6550002
31.061001 8.7060003 5.6630001
31.059999 8.809 5.6690001
31.098 8.9230003 5.6820002
31.084999 9.0229998 5.6849999
31.093 9.1309996 5.6929998
31.09 9.2349997 5.6989999
31.111 9.3470001 5.7090001
31.177999 9.4729996 5.7280002
31.142 9.5690002 5.7280002
31.1 9.6630001 5.7270002
31.131001 9.7810001 5.7389998
31.120001 9.8850002 5.744
31.141001 10.001 5.7550001
31.132999 10.107 5.7600002
31.150999 10.223 5.7709999
31.167999 10.339 5.7810001
31.16 10.447 5.7859998
31.150999 10.556 5.7919998
31.159 10.67 5.8010001
31.173 10.787 5.8099999
31.184 10.904 5.8200002
31.186001 11.018 5.8280001
31.184999 11.132 5.835
31.209999 11.255 5.8470001
31.207001 11.369 5.8540001
31.240999 11.497 5.868
31.223 11.607 5.8730001
31.225 11.724 5.881
31.242001 11.847 5.8920002
31.306 11.99 5.9130001
31.268999 12.094 5.914
31.311001 12.229 5.9299998
31.284 12.338 5.9330001
31.271 12.452 5.9390001
31.364 12.61 5.9650002
31.333 12.718 5.967
31.309 12.83 5.9710002
31.351 12.969 5.9879999
26.641001 -10.374 4.6950002
26.601999 -10.25 4.6849999
26.584 -10.136 4.6799998
26.547001 -10.015 4.671
26.542999 -9.908 4.6680002
26.572001 -9.8129997 4.671
26.58 -9.7119999 4.6700001
26.601 -9.6160002 4.6719999
26.622999 -9.5200005 4.6729999
26.594999 -9.408 4.6659999
26.612 -9.3120003 4.6669998
26.65 -9.224 4.6719999
11.354 -1.342 1.948
11.229 -1.301 1.927
11.205 -1.272 1.9220001
11.234 -1.25 1.927
11.275 -1.228 1.934
30.971001 3.598 5.5029998
30.964001 3.677 5.5040002
30.955 3.757 5.5040002
30.938 3.836 5.5029998
30.915001 3.915 5.5009999
30.924 3.9979999 5.5050001
30.940001 4.0819998 5.5110002
30.910999 4.1609998 5.5079999
30.885 4.2410002 5.506
30.900999 4.3270001 5.5110002
30.898001 4.4109998 5.513
30.906 4.4970002 5.5170002
30.902 4.5819998 5.5190001
30.884001 4.665 5.5190001
30.898001 4.7529998 5.5240002
30.919001 4.8429999 5.5310001
30.896999 4.9260001 5.5300002
30.91 5.0149999 5.5349998
30.940001 5.1079998 5.5440001
30.931 5.1950002 5.5450001
30.937 5.2849998 5.5489998
30.943001 5.375 5.553
30.917999 5.46 5.552
30.912001 5.5489998 5.5549998
30.951 5.6469998 5.5650001
30.931999 5.7340002 5.5650001
30.91 5.8210001 5.5640001
30.976999 5.9260001 5.5799999
30.947001 6.0120001 5.5780001
30.964001 6.1079998 5.585
30.985001 6.2049999 5.5929999
30.976999 6.2969999 5.5949998
30.986 6.3930001 5.6009998
30.982 6.4860001 5.6040001
30.982 6.5799999 5.6079998
30.975 6.6739998 5.6100001
31.003 6.7750001 5.6199999
31.007 6.8720002 5.6240001
30.997999 6.9660001 5.6269999
31.009001 7.0650001 5.6329999
31.004 7.1609998 5.6370001
31.007999 7.2589998 5.6420002
31.011999 7.3569999 5.6469998
31.042 7.4619999 5.6570001
31.073999 7.5679998 5.6669998
31.063 7.665 5.6700001
31.063999 7.7639999 5.6750002
31.068001 7.8639998 5.6799998
31.058001 7.9619999 5.6830001
31.08 8.0670004 5.6919999
31.084 8.1689997 5.697
31.084999 8.2700005 5.7030001
31.146 8.3879995 5.7189999
31.23 8.5129995 5.7389998
31.115999 8.5830002 5.723
31.121 8.6870003 5.7290001
31.120001 8.7889996 5.7350001
31.136 8.8970003 5.743
31.174 9.0109997 5.7550001
31.139999 9.1049995 5.7540002
31.162001 9.2150002 5.7639999
31.139 9.3129997 5.7649999
31.209 9.4379997 5.7839999
31.231001 9.9729996 5.816
31.198999 10.069 5.816
31.224001 10.291 5.8330002
31.214001 10.395 5.8369999
31.257 10.517 5.8509998
31.235001 10.617 5.8530002
31.26 10.734 5.8639998
26.441 -10.833 4.7740002
26.382999 -10.73 4.7620001
26.400999 -10.657 4.7639999
26.437 -10.592 4.77
26.416 -10.503 4.7649999
26.426001 -10.427 4.7649999
26.431 -10.349 4.7649999
26.434 -10.27 4.7639999
26.437 -10.192 4.7639999
26.458 -10.12 4.7659998
26.481001 -10.049 4.7690001
26.485001 -9.9700003 4.7690001
26.497 -9.8950005 4.77
26.511999 -9.8199997 4.7709999
26.49 -9.7320004 4.7659998
26.527 -9.6660004 4.7709999
26.516001 -9.5819998 4.7680001
26.534 -9.5080004 4.77
26.523001 -9.4239998 4.7670002
26.554001 -9.3559999 4.7709999
26.552999 -9.2749996 4.77
30.958 3.138 5.546
30.966 3.2060001 5.5500002
31.084999 3.286 5.573
30.957001 3.3410001 5.552
30.966999 3.411 5.5560002
30.951 3.4790001 5.5560002
30.983 3.553 5.5640001
30.987 3.6240001 5.5669999
30.937 3.6900001 5.5599999
30.948999 3.763 5.5650001
30.948999 3.835 5.5669999
30.962999 3.9100001 5.572
30.962 3.984 5.5749998
30.952999 4.0570002 5.5760002
30.931999 4.1290002 5.5749998
30.927 4.204 5.5770001
30.903999 4.277 5.5760002
30.945999 4.3600001 5.586
30.934 4.4349999 5.5869999
30.951 4.5149999 5.5929999
30.952 4.5939999 5.5970001
30.938 4.671 5.598
30.954 4.7529998 5.6040001
30.940001 4.8299999 5.605
30.969999 4.9159999 5.6139998
30.952 4.994 5.6139998
30.962 5.0770001 5.619
30.961 5.1599998 5.6230001
30.973 5.2449999 5.6290002
30.965 5.3270001 5.631
30.955 5.4089999 5.6329999
30.965 5.4949999 5.6389999
30.962 5.5799999 5.6420002
30.99 5.6700001 5.651
30.969 5.7529998 5.652
30.982 5.842 5.658
30.997 5.9320002 5.665
30.966 6.0139999 5.664
30.958 6.1009998 5.6669998
31.004999 6.1989999 5.6799998
31.002001 6.2880001 5.684
30.981001 6.3730001 5.6849999
30.98 6.4640002 5.6890001
30.99 6.5570002 5.6960001
30.999001 6.6500001 5.7020001
31.016001 6.7459998 5.71
31.018999 6.8390002 5.7160001
31.014 6.9310002 5.7199998
31.007 7.0229998 5.723
31.013 7.119 5.73
31.047001 7.2220001 5.7410002
31.018999 7.3109999 5.7410002
31.006001 7.4029999 5.744
31.000999 7.4980001 5.7490001
31.033001 7.6030002 5.7600002
31.055 7.7059999 5.77
31.025999 7.796 5.77
31.052999 7.901 5.7800002
31.080999 8.0080004 5.7909999
31.080999 8.1070004 5.7969999
31.040001 8.1969995 5.796
31.047001 8.2989998 5.803
31.097 8.4130001 5.8179998
31.08 8.5100002 5.8210001
31.066 8.6079998 5.8239999
31.075001 8.7139997 5.8319998
31.083 8.8190002 5.8400002
31.108 8.9300003 5.8509998
31.114 9.0360003 5.8590002
31.098 9.1359997 5.862
31.106001 9.243 5.8699999
31.128 9.3559999 5.881
31.132 9.4630003 5.8889999
31.164 9.5799999 5.901
31.129999 9.677 5.902
31.176001 9.7989998 5.9180002
31.15 9.8990002 5.9190001
31.159 10.011 5.928
31.124001 10.109 5.9289999
31.158001 10.23 5.9419999
31.17 10.344 5.9520001
31.16 10.452 5.9569998
31.145 10.558 5.9619999
31.184 10.683 5.9770002
31.202 10.802 5.9879999
31.184999 10.909 5.9920001
31.188999 11.024 6.0009999
31.216999 11.148 6.0139999
31.214001 11.261 6.0209999
31.240999 11.386 6.0339999
31.223 11.611 6.0469999
31.218 11.726 6.0539999
31.257999 11.859 6.0700002
31.304001 11.994 6.0869999
31.305 12.113 6.0960002
26.479 -11.551 4.8179998
26.472 -11.432 4.8140001
26.499001 -11.327 4.816
26.458 -11.195 4.8060002
26.486 -11.092 4.8080001
26.459999 -10.968 4.8010001
26.444 -10.849 4.7950001
26.556 -10.452 4.8049998
26.52 -10.329 4.796
26.535 -10.227 4.7969999
26.530001 -10.117 4.7930002
26.500999 -10 4.7859998
26.549 -9.9119997 4.7919998
26.565001 -9.8129997 4.7930002
26.59 -9.717 4.7950001
26.556999 -9.6009998 4.7870002
26.577 -9.5059996 4.7880001
26.604 -9.4130001 4.7909999
26.586 -9.3039999 4.7849998
26.646999 -9.2250004 4.7940001
26.601999 -9.1079998 4.7839999
26.618 -9.0139999 4.7849998
26.708 -8.9449997 4.7989998
26.676001 -8.835 4.7909999
26.753 -6.0890002 4.7519999
26.757999 -6.0089998 4.7519999
26.798 -5.9380002 4.757
30.917 2.457 5.6269999
30.900999 2.5280001 5.6259999
30.879999 2.599 5.6230001
30.863001 2.6700001 5.6209998
30.85 2.743 5.6199999
30.834 2.816 5.619
30.860001 2.8929999 5.625
30.864 2.9679999 5.6279998
30.864 3.0439999 5.6290002
30.872999 3.1210001 5.632
30.872 3.198 5.6339998
30.867001 3.2750001 5.6350002
30.853001 3.3510001 5.6339998
30.889999 3.434 5.6430001
30.844 3.5079999 5.6370001
30.870001 3.5899999 5.6430001
30.916 3.675 5.6539998
30.875 3.7509999 5.6490002
30.882 3.8329999 5.652
30.862 3.9119999 5.651
30.871 3.9949999 5.6550002
30.91 4.0819998 5.664
30.889 4.1620002 5.6630001
30.849001 4.2399998 5.658
30.860001 4.3249998 5.6630001
30.865999 4.4099998 5.6669998
30.861 4.494 5.6690001
30.896999 4.585 5.678
30.893 4.6700001 5.6799998
30.878 4.7529998 5.6799998
30.889 4.8410001 5.6849999
30.907 4.9310002 5.6919999
30.915001 5.02 5.6960001
30.9 5.105 5.697
30.896999 5.1929998 5.6989999
30.92 5.2859998 5.7069998
30.92 5.375 5.71
30.934 5.467 5.7160001
30.955 5.5609999 5.723
30.948 5.6500001 5.7259998
30.931999 5.7379999 5.7259998
30.924999 5.8280001 5.7290001
30.962 5.927 5.7389998
30.965 6.0190001 5.743
30.976999 6.1139998 5.75
30.997 6.211 5.757
30.973 6.3000002 5.757
30.966 6.3920002 5.7589998
30.952999 6.4840002 5.7610002
30.983 6.5840001 5.7709999
31.030001 6.6900001 5.783
31.041 6.7870002 5.79
31.039 6.8829999 5.7940001
31.011999 6.973 5.7930002
31.007999 7.0689998 5.7969999
31.044001 7.1739998 5.8080001
31.017 7.2649999 5.8070002
31.052 7.3709998 5.8179998
31.068001 7.4720001 5.8260002
31.066 7.5710001 5.8299999
31.061001 7.6680002 5.8340001
31.047001 7.7639999 5.836
31.072001 7.869 5.8460002
31.052 7.9640002 5.8470001
31.082001 8.0719995 5.8579998
31.079 8.1719999 5.862
31.070999 8.2709999 5.8660002
31.184999 8.4029999 5.8920002
31.181 8.5030003 5.8969998
31.099001 8.5830002 5.8870001
31.098 8.6850004 5.8920002
31.127001 8.7959995 5.9029999
31.138 8.9020004 5.9099998
31.156 9.0100002 5.9190001
31.136 9.2119999 5.9260001
31.184 9.3299999 5.941
26.253 -12.359 4.888
26.236 -12.271 4.8829999
26.219999 -12.183 4.8790002
26.252001 -12.118 4.8839998
26.263 -12.044 4.8850002
26.26 -11.962 4.8829999
26.254 -11.88 4.881
26.337 -11.837 4.895
26.309999 -11.745 4.8889999
26.243999 -11.636 4.875
26.301001 -11.581 4.8850002
26.26 -11.483 4.8759999
26.312 -11.426 4.8839998
26.375999 -11.373 4.895
26.365999 -11.289 4.8920002
26.320999 -11.19 4.882
26.334999 -11.116 4.8839998
26.339001 -11.037 4.8829999
26.361 -10.967 4.8860002
26.386999 -10.897 4.8899999
26.360001 -10.806 4.8839998
26.400999 -10.743 4.8899999
26.386 -10.657 4.8860002
26.393 -10.58 4.8860002
26.365 -10.489 4.8800001
26.403999 -10.424 4.8860002
26.413 -10.348 4.8860002
26.412001 -10.267 4.8850002
26.462999 -10.207 4.8930001
26.483999 -10.135 4.8959999
26.468 -10.049 4.8909998
26.497 -9.9799995 4.895
26.497999 -9.8999996 4.8940001
26.530001 -9.8319998 4.8990002
26.524 -9.7489996 4.8969998
26.538 -9.6739998 4.8979998
26.525999 -9.5900002 4.8940001
26.502001 -9.5010004 4.8889999
26.521 -9.4280005 4.8909998
26.547001 -9.3570004 4.895
26.551001 -9.2790003 4.8940001
26.566999 -9.2040005 4.8959999
26.546 -9.1169996 4.8909998
26.545 -9.0369997 4.8889999
26.580999 -8.9689999 4.895
26.563 -8.8830004 4.8899999
26.599001 -8.8149996 4.895
26.559 -8.7220001 4.8870001
26.639999 -8.6680002 4.9000001
26.799999 -6.6360002 4.895
26.736 -6.54 4.882
26.733999 -6.46 4.8800001
26.757 -6.3860002 4.8829999
26.750999 -6.3049998 4.881
26.752001 -6.2259998 4.8800001
26.780001 -6.1529999 4.8829999
26.792 -6.0760002 4.8839998
26.746 -5.9860001 4.8740001
26.733 -5.9039998 4.8709998
26.767 -5.8319998 4.875
26.849001 -5.77 4.8889999
30.972 3.414 5.717
30.948999 3.4809999 5.7150002
30.979 3.5550001 5.723
30.944 3.622 5.7189999
30.952999 3.694 5.723
30.933001 3.7639999 5.7220001
30.944 3.8369999 5.7259998
30.971001 3.914 5.7340002
30.966 3.987 5.7360001
30.940001 4.0580001 5.7340002
30.952 4.1350002 5.7389998
30.958 4.211 5.743
30.947001 4.2859998 5.744
30.966 4.3649998 5.7509999
30.976 4.4439998 5.756
30.955 4.5180001 5.7550001
30.961 4.598 5.7589998
30.958 4.6760001 5.7620001
30.962 4.756 5.7659998
30.959999 4.836 5.77
30.990999 4.9219999 5.7789998
30.973 5 5.7789998
30.983999 5.0840001 5.7849998
30.964001 5.1630001 5.7849998
30.976999 5.2480001 5.7909999
30.989 5.3330002 5.7969999
30.993999 5.4180002 5.802
31.011 5.506 5.8099999
30.973 5.5840001 5.8070002
30.976 5.671 5.8109999
30.98 5.757 5.816
30.997999 5.848 5.8239999
31.066999 5.948 5.842
31.009001 6.0250001 5.835
30.992001 6.1100001 5.836
31.002001 6.2010002 5.8429999
31.002001 6.2909999 5.848
31.011999 6.3829999 5.8540001
30.990999 6.4689999 5.855
31.007999 6.5630002 5.8629999
31.009001 6.6550002 5.868
31.027 6.7509999 5.8769999
31.024 6.8429999 5.881
31.014999 6.9349999 5.8850002
31.041 7.0339999 5.895
31.047001 7.1300001 5.901
31.028999 7.2210002 5.9029999
31.035999 7.3179998 5.9099998
31.023001 7.4099998 5.9130001
31.062 7.5159998 5.9260001
31.035999 7.6069999 5.927
31.084 7.7160001 5.9419999
31.075001 7.8119998 5.9460001
31.037001 7.901 5.9439998
31.052999 8.1029997 5.9590001
31.065001 8.2069998 5.9679999
31.046 8.302 5.9699998
31.1 8.4180002 5.987
31.063999 8.5100002 5.9860001
31.076 8.6149998 5.9949999
31.091 8.7220001 6.0040002
31.075001 8.8199997 6.007
31.098 8.9309998 6.0180001
31.09 9.033 6.0229998
31.167 9.1599998 6.0450001
31.148001 9.5790005 6.0689998
31.1 9.6709995 6.0669999
31.150999 9.7950001 6.0840001
31.129 9.8959999 6.086
31.162001 10.016 6.0999999
31.128 10.114 6.1009998
31.143999 10.23 6.112
31.202 10.47 6.138
31.190001 10.578 6.1430001
31.233 10.705 6.1589999
31.256001 11.629 6.2280002
31.284 11.756 6.2420001
26.381001 -12.105 4.9390001
26.341 -11.966 4.928
26.32 -11.837 4.921
26.327999 -11.722 4.9200001
26.374001 -11.625 4.9250002
26.375999 -11.508 4.9229999
26.407 -11.406 4.9260001
26.415001 -11.294 4.9250002
26.42 -11.181 4.9229999
26.443001 -11.077 4.9239998
26.504999 -10.989 4.9330001
26.417999 -10.841 4.914
26.468 -10.749 4.921
26.469 -10.639 4.9180002
26.496 -10.54 4.921
26.511 -10.436 4.921
26.51 -10.327 4.9180002
26.504999 -10.217 4.915
26.500999 -10.108 4.9120002
26.523001 -10.01 4.9130001
26.575001 -9.9239998 4.921
26.612 -9.8319998 4.9250002
26.587999 -9.7180004 4.9180002
26.608999 -9.6219997 4.9200001
26.613001 -9.5200005 4.9180002
26.577999 -9.4049997 4.9089999
26.568001 -9.3000002 4.9050002
26.618 -9.2159996 4.9120002
26.591999 -9.1070004 4.9050002
26.608 -9.0120001 4.9060001
26.618999 -8.9169998 4.9060001
26.601999 -8.8129997 4.901
26.597 -8.7130003 4.8979998
26.625999 -8.625 4.901
26.634001 -8.5310001 4.9000001
26.652 -8.441 4.902
26.75 -8.3760004 4.9180002
26.745001 -7.1830001 4.8930001
26.684 -7.0799999 4.8800001
26.724001 -7.0029998 4.8860002
26.722 -6.9159999 4.8839998
26.705 -6.7410002 4.8779998
26.691 -6.6529999 4.8730001
26.704 -6.572 4.8740001
26.691 -6.4850001 4.8699999
26.733 -6.4120002 4.8759999
26.705999 -6.323 4.8699999
26.746 -6.25 4.8759999
26.695999 -6.1570001 4.8649998
26.728001 -6.0830002 4.8699999
26.749001 -6.007 4.8720002
26.723 -5.921 4.8660002
30.914 2.46 5.7859998
30.858999 2.5280001 5.777
30.82 2.5969999 5.7709999
30.837999 2.6719999 5.776
30.865999 2.7479999 5.7820001
30.833 2.819 5.7779999
30.813999 2.892 5.776
30.860001 2.9719999 5.7859998
30.834999 3.0450001 5.783
30.844999 3.122 5.7870002
30.839001 3.1989999 5.7870002
30.84 3.276 5.789
30.858999 3.3559999 5.7950001
30.839001 3.4319999 5.7930002
30.855 3.513 5.7979999
30.834999 3.5899999 5.7969999
30.834 3.6689999 5.7989998
30.83 3.7490001 5.8000002
30.83 3.8299999 5.803
30.843 3.9130001 5.8070002
30.839001 3.994 5.809
30.868 4.0799999 5.8169999
30.830999 4.158 5.8130002
30.846001 4.243 5.8179998
30.862 4.329 5.8239999
30.872999 4.415 5.829
30.875 4.5 5.8319998
30.878 4.585 5.835
30.865 4.6690001 5.836
30.865999 4.7550001 5.8390002
30.865 4.842 5.842
30.886999 4.9320002 5.849
30.885 5.0190001 5.8520002
30.905001 5.1100001 5.8590002
30.906 5.198 5.8629999
30.882 5.283 5.862
30.924999 5.3800001 5.8730001
30.902 5.4650002 5.8720002
30.926001 5.559 5.8800001
30.92 5.6490002 5.8829999
30.934 5.7420001 5.8889999
30.931999 5.8330002 5.8930001
30.950001 5.928 5.9000001
30.962 6.0229998 5.9060001
30.959 6.1149998 5.9089999
30.938999 6.204 5.9089999
30.981001 6.3060002 5.9219999
30.973 6.3979998 5.9239998
30.978001 6.493 5.9289999
30.99 6.5900002 5.9359999
30.989 6.6849999 5.9400001
30.985001 6.7789998 5.9439998
30.992001 6.8759999 5.9489999
30.98 6.9699998 5.9510002
31.007 7.072 5.961
30.995001 7.1659999 5.9629998
31.042999 7.2750001 5.9770002
31.054001 7.375 5.9840002
31.046 7.4710002 5.987
31.039 7.5679998 5.9910002
31.056999 7.671 5.9990001
31.096001 7.7800002 6.0120001
31.073 7.8740001 6.0120001
31.048 7.967 6.013
31.055 8.0690002 6.0190001
31.073 8.1750002 6.0279999
31.066999 8.2740002 6.0320001
31.124001 8.3900003 6.0479999
31.139999 8.4960003 6.0570002
31.094 8.5860004 6.053
31.087 8.6859999 6.0570002
31.155001 8.8079996 6.0760002
31.153 8.9099998 6.0809999
26.247999 -12.284 5.0100002
26.190001 -12.177 4.9980001
26.225 -12.113 5.0040002
26.236 -12.039 5.0050001
26.257 -11.968 5.007
26.228001 -11.875 5.0009999
26.24 -11.801 5.0019999
26.243 -11.722 5.0009999
26.229 -11.636 4.9970002
26.323 -11.597 5.0139999
26.257 -11.488 5
26.332001 -11.441 5.013
26.323999 -11.197 5.0079999
26.326 -11.118 5.007
26.316999 -11.034 5.0040002
26.389 -10.984 5.0159998
26.354 -10.89 5.0089998
26.354 -10.809 5.007
26.355 -10.73 5.006
26.386999 -10.663 5.0110002
26.377001 -10.579 5.0079999
26.388 -10.503 5.0089998
26.365999 -10.414 5.0029998
26.386999 -10.343 5.006
26.372 -10.257 5.0019999
26.417999 -10.195 5.0089998
26.459999 -10.131 5.0159998
26.452999 -10.048 5.0139999
26.465 -9.9720001 5.0139999
26.493999 -9.9029999 5.0190001
26.509001 -9.8280001 5.02
26.472 -9.7349997 5.0120001
26.486 -9.6599998 5.013
26.482 -9.5780001 5.0110002
26.504 -9.5059996 5.0139999
26.511999 -9.4289999 5.0139999
26.525 -9.3540001 5.0149999
26.506001 -9.2670002 5.0100002
26.570999 -9.2089996 5.0209999
26.535999 -9.1169996 5.0139999
26.549999 -9.0419998 5.0149999
26.563999 -8.967 5.0159998
26.566999 -8.8879995 5.0149999
26.57 -8.809 5.0149999
26.608 -8.7410002 5.0209999
26.594 -8.6569996 5.0170002
26.591 -8.5760002 5.0149999
26.622 -8.5059996 5.0190001
26.620001 -8.4250002 5.0170002
26.666 -8.3590002 5.0250001
26.684999 -7.9650002 5.0219998
26.636999 -7.8709998 5.0110002
26.743999 -7.822 5.0300002
26.673 -7.6409998 5.0139999
26.695 -7.5679998 5.0170002
26.742001 -7.1810002 5.0190001
26.676001 -7.0840001 5.0050001
26.671 -7.0029998 5.0029998
26.725 -6.9369998 5.0110002
26.695999 -6.8499999 5.0040002
26.714001 -6.7750001 5.007
26.691999 -6.6900001 5.0009999
26.694 -6.6110001 5
26.712 -6.5359998 5.0019999
26.700001 -6.4530001 4.9980001
26.712999 -6.3769999 4.9990001
26.714001 -6.2969999 4.9980001
26.728001 -6.2210002 4.9990001
26.733 -6.1430001 4.9990001
26.715 -6.059 4.994
26.707001 -5.9780002 4.9910002
26.732 -5.9039998 4.9949999
26.76 -5.8309999 4.9980001
26.827999 -5.7659998 5.0100002
30.947001 3.345 5.8709998
30.98 3.418 5.8790002
30.962999 3.4849999 5.8779998
31.030001 3.563 5.8930001
30.923 3.622 5.8759999
30.945 3.6960001 5.882
30.924999 3.7650001 5.881
30.962 3.842 5.8909998
30.933001 3.9119999 5.888
30.934999 3.9860001 5.8909998
30.93 4.059 5.8930001
30.903 4.131 5.8909998
30.955 4.2129998 5.9039998
30.909 4.283 5.8990002
30.969999 4.368 5.9130001
30.964001 4.4439998 5.915
30.929001 4.5170002 5.9120002
30.93 4.5960002 5.9159999
30.990999 4.684 5.9310002
30.906 4.75 5.9180002
30.955 4.8379998 5.9310002
30.951 4.9180002 5.934
30.938 4.9970002 5.9349999
30.93 5.0780001 5.9380002
30.937 5.1609998 5.9429998
30.93 5.243 5.9460001
30.945 5.329 5.9520001
30.938999 5.4120002 5.9549999
30.933001 5.4949999 5.9590001
30.979 5.5879998 5.9720001
30.968 5.6719999 5.974
30.936001 5.7519999 5.9720001
30.951 5.842 5.9790001
30.968 5.9320002 5.987
30.985001 6.0229998 5.9949999
30.976999 6.1100001 5.9980001
30.940001 6.1919999 5.9959998
30.974001 6.2880001 6.007
30.993 6.382 6.0159998
31.021999 6.4780002 6.026
31.006001 6.566 6.0279999
30.973 6.651 6.027
30.982 6.7449999 6.0339999
31.007999 6.8429999 6.0440001
31.000999 6.9349999 6.0479999
30.972 7.0219998 6.0479999
31.002001 7.1230001 6.059
31.025999 7.223 6.0700002
31.02 7.3169999 6.0739999
31.038 7.4169998 6.0830002
31.017 7.5089998 6.085
31.025999 7.6079998 6.092
31.128 7.7309999 6.118
31.037001 7.8060002 6.1059999
31.059 7.9099998 6.1170001
31.035999 8.1020002 6.1240001
31.054001 8.2069998 6.1339998
31.021 8.2989998 6.1339998
31.052 8.408 6.1469998
31.025999 8.5030003 6.1479998
31.127001 8.6330004 6.1739998
31.114 8.7320004 6.178
31.091 9.0369997 6.1939998
31.120001 9.1499996 6.2069998
31.158001 9.2670002 6.2210002
31.146 9.3690004 6.2259998
31.159 9.4790001 6.2360001
31.125 9.6829996 6.243
31.169001 9.8050003 6.2600002
31.164 10.021 6.2740002
31.188999 10.139 6.2859998
31.153 10.237 6.2870002
31.162001 10.35 6.296
24.777 -16.278999 4.8930001
24.868999 -16.184999 4.9060001
24.988001 -16.108 4.9250002
25.070999 -16.007999 4.9369998
25.166 -15.916 4.9510002
25.362 -15.439 4.9720001
25.421 -15.328 4.9790001
25.42 -15.181 4.9749999
25.516001 -15.093 4.9899998
26.198 -12.513 5.0409999
26.209999 -12.395 5.04
26.236 -12.284 5.0419998
26.287001 -12.186 5.0479999
26.313 -11.956 5.0469999
26.305 -11.833 5.0430002
26.348 -11.734 5.0479999
26.358999 -11.621 5.0469999
26.356001 -11.502 5.0430002
26.375 -11.394 5.0440001
26.400999 -11.29 5.046
26.448 -11.195 5.052
26.483999 -11.096 5.0560002
26.447001 -10.967 5.0469999
26.412001 -10.841 5.0370002
26.441999 -10.741 5.04
26.485001 -10.647 5.046
26.483999 -10.537 5.0430002
26.479 -10.426 5.039
26.487 -10.32 5.0380001
26.465 -10.203 5.0310001
26.483999 -10.104 5.0320001
26.488001 -9.9989996 5.0310001
26.516001 -9.9040003 5.0339999
26.541 -9.8079996 5.0359998
26.535999 -9.7010002 5.0320001
26.58 -9.6129999 5.0380001
26.549 -9.4989996 5.0300002
26.542 -9.3940001 5.026
26.573 -9.3030005 5.0300002
26.559 -9.1969995 5.0250001
26.583 -9.1049995 5.027
26.586 -9.0059996 5.026
26.645 -8.927 5.0349998
26.607 -8.816 5.0250001
26.593 -8.7130003 5.0209999
26.627001 -8.6269999 5.0250001
26.587 -8.5179996 5.0149999
26.625999 -8.434 5.02
26.658001 -8.349 5.0240002
26.681 -7.9790001 5.0209999
26.653999 -7.8790002 5.0139999
26.702 -7.8010001 5.0209999
26.694 -7.7069998 5.0170002
26.677999 -7.6110001 5.013
26.790001 -7.553 5.0320001
26.688 -7.257 5.007
26.660999 -7.1620002 5.0009999
26.683001 -7.0799999 5.0029998
26.677999 -6.9920001 5
26.676001 -6.9050002 4.9980001
26.667999 -6.8169999 4.9949999
26.653999 -6.7290001 4.9910002
26.681999 -6.651 4.9949999
26.695 -6.5700002 4.9959998
26.688 -6.4850001 4.9920001
26.676001 -6.3990002 4.9889998
26.700001 -6.322 4.9920001
26.672001 -6.2329998 4.9850001
26.704 -6.1589999 4.9889998
26.735001 -6.085 4.994
26.691 -5.994 4.9840002
26.746 -5.927 4.993
30.924999 2.6099999 5.9510002
30.879 2.6789999 5.9439998
30.851999 2.7509999 5.9400001
30.833 2.823 5.9380002
30.885 2.9030001 5.9499998
30.875 2.977 5.9489999
30.872 3.053 5.9510002
30.906 3.132 5.9590001
30.868999 3.2060001 5.954
30.886999 3.2850001 5.9590001
30.843 3.358 5.9530001
30.864 3.4389999 5.9590001
30.843 3.5150001 5.9569998
30.855 3.596 5.961
30.865999 3.677 5.9660001
30.854 3.756 5.9660001
30.829 3.8340001 5.9629998
30.863001 3.9189999 5.973
30.851999 4 5.973
30.870001 4.0840001 5.9790001
30.851 4.165 5.9780002
30.844999 4.2470002 5.98
30.882999 4.336 5.9899998
30.879999 4.4200001 5.9920001
30.844999 4.4990001 5.9879999
30.865 4.5869999 5.9949999
30.895 4.677 6.0040002
30.872 4.7600002 6.0029998
30.891001 4.849 6.0089998
30.886999 4.9359999 6.0120001
30.863001 5.0190001 6.0110002
30.9 5.1129999 6.0209999
30.896 5.2010002 6.0240002
30.879 5.2859998 6.0240002
30.899 5.3790002 6.0310001
30.886 5.4660001 6.0320001
30.931 5.5640001 6.0450001
30.907 5.6500001 6.0440001
30.924999 5.7449999 6.0510001
30.909 5.8330002 6.052
30.924 5.927 6.059
30.924 6.0190001 6.0630002
30.931999 6.1129999 6.0689998
30.986 6.217 6.0830002
30.959 6.3049998 6.0819998
30.969999 6.401 6.0890002
30.997 6.5009999 6.098
30.995001 6.5949998 6.1020002
30.978001 6.6859999 6.1030002
30.966999 6.7789998 6.1059999
31.004 6.8829999 6.1170001
30.997 6.9780002 6.1209998
31.017 7.079 6.1290002
31.063 7.1859999 6.1430001
31.034 7.277 6.1420002
31.084999 7.3870001 6.1570001
31.106001 7.4899998 6.1659999
31.107 7.8870001 6.1869998
31.075001 7.9790001 6.1859999
31.083 8.0810003 6.1919999
31.101999 8.1870003 6.2020001
31.115 8.2910004 6.21
31.079 8.3830004 6.2080002
26.097 -12.86 5.1160002
26.110001 -12.786 5.118
26.101999 -12.702 5.1149998
26.117001 -12.63 5.1170001
26.142 -12.562 5.1199999
26.132999 -12.478 5.1170001
26.172001 -12.416 5.1240001
26.173 -12.337 5.1230001
26.215 -12.277 5.1300001
26.222 -12.2 5.1300001
26.186001 -12.103 5.1220002
26.246 -12.051 5.132
26.243 -11.969 5.1300001
26.243999 -11.889 5.1290002
26.239 -11.727 5.1259999
26.237 -11.646 5.1240001
26.273001 -11.582 5.1300001
26.254 -11.494 5.125
26.264 -11.418 5.125
26.289 -11.349 5.1290002
26.263 -11.258 5.1230001
26.285999 -11.188 5.1259999
26.298 -11.113 5.1269999
26.295 -11.031 5.125
26.278 -10.944 5.1199999
26.283001 -10.866 5.1199999
26.322001 -10.802 5.1259999
26.348 -10.733 5.1300001
26.358 -10.657 5.131
26.326 -10.564 5.1230001
26.35 -10.494 5.1269999
26.365 -10.419 5.1279998
26.382999 -10.347 5.131
26.356001 -10.256 5.1240001
26.399 -10.192 5.131
26.410999 -10.117 5.132
26.431 -10.044 5.1350002
26.459 -9.9750004 5.1389999
26.424 -9.882 5.131
26.438999 -9.8070002 5.132
26.434 -9.7250004 5.1300001
26.465 -9.6569996 5.1350002
26.462 -9.5760002 5.1329999
26.455999 -9.493 5.1300001
26.473 -9.4189997 5.132
26.483999 -9.3430004 5.1329999
26.490999 -9.2659998 5.1329999
26.539 -9.2019997 5.1409998
26.525999 -9.118 5.1370001
26.541 -9.0430002 5.1389999
26.584999 -8.9779997 5.1459999
26.58 -8.8959999 5.1430001
26.577 -8.8140001 5.1409998
26.584999 -8.7370005 5.1420002
26.577999 -8.6549997 5.1389999
26.573 -8.573 5.1370001
26.577999 -8.4949999 5.1360002
26.587 -8.4169998 5.1360002
26.634001 -8.3520002 5.1440001
26.690001 -8.1289997 5.151
26.594999 -8.0209999 5.131
26.608 -7.9450002 5.132
26.618999 -7.868 5.1329999
26.648001 -7.5570002 5.1329999
26.691 -7.4889998 5.1399999
26.704 -7.4130001 5.1409998
26.743 -7.263 5.1459999
26.679001 -7.1659999 5.132
26.667 -7.0830002 5.1279998
26.676001 -7.006 5.1279998
26.667999 -6.9239998 5.1259999
26.673 -6.8460002 5.125
26.687 -6.77 5.1259999
26.67 -6.6859999 5.1220002
26.649 -6.6009998 5.1160002
26.712 -6.5370002 5.1269999
26.724001 -6.46 5.1279998
26.688 -6.3720002 5.119
26.688 -6.2919998 5.118
26.681999 -6.2119999 5.1149998
26.711 -6.1389999 5.119
26.735001 -6.0650001 5.1220002
26.702 -5.9780002 5.1149998
26.695 -5.8969998 5.112
26.726 -5.8239999 5.1160002
26.757 -5.7509999 5.1209998
26.787001 -5.678 5.125
30.975 4.2189999 6.0710001
30.936001 4.289 6.0669999
30.997 4.3740001 6.0819998
31.021999 4.533 6.0939999
30.969 4.6040001 6.0869999
30.958 4.6820002 6.0879998
30.947001 5.0830002 6.105
30.966999 5.1690001 6.1129999
30.983 5.3379998 6.125
30.959999 5.4180002 6.1240001
30.997999 5.5949998 6.1409998
31.016001 5.684 6.1490002
30.965 5.8470001 6.1479998
30.997999 5.941 6.1589999
31.024 6.0339999 6.1690001
31.052999 6.1279998 6.1789999
31.059 6.2179999 6.1859999
31.011 6.3889999 6.1859999
31.072001 6.4920001 6.2030001
31.000999 6.5679998 6.1939998
31.007999 6.6609998 6.2010002
31.086 6.7709999 6.2220001
31.021 6.849 6.2140002
31.045 7.5190001 6.2589998
31.094999 7.6279998 6.2750001
31.048 8.4110003 6.316
31.056999 8.5150003 6.3249998
24.743999 -16.261999 5.007
24.844999 -16.174 5.0229998
24.921 -16.069 5.0339999
24.976999 -15.952 5.04
25.048 -15.846 5.0500002
25.132 -15.748 5.0630002
25.174999 -15.625 5.0669999
25.236 -15.514 5.0739999
25.292 -15.4 5.0809999
25.35 -15.289 5.0890002
25.409 -15.179 5.0960002
25.476999 -15.074 5.1059999
25.495001 -14.941 5.105
25.542999 -14.826 5.1100001
25.625999 -14.732 5.1230001
25.665001 -14.613 5.1269999
25.684999 -14.485 5.1269999
26.16 -12.622 5.1620002
26.164 -12.5 5.1589999
26.198 -12.392 5.1630001
26.200001 -12.27 5.1599998
26.232 -12.163 5.1630001
26.264 -12.057 5.1659999
26.297001 -11.952 5.1690001
26.313999 -11.84 5.1690001
26.32 -11.724 5.1680002
26.355 -11.622 5.171
26.372999 -11.512 5.1719999
26.398001 -11.407 5.1739998
26.391001 -11.288 5.1690001
26.379999 -11.169 5.164
26.408001 -11.067 5.1669998
26.412001 -10.955 5.165
26.382999 -10.831 5.1560001
26.417999 -10.734 5.1599998
26.437 -10.631 5.1609998
26.448999 -10.525 5.1609998
26.472 -10.425 5.1630001
26.48 -10.319 5.1609998
26.459999 -10.204 5.1550002
26.457001 -10.095 5.152
26.509001 -10.009 5.1589999
26.513 -9.9040003 5.1570001
26.513 -9.7989998 5.1550002
26.516001 -9.6960001 5.1529999
26.509001 -9.5900002 5.1490002
26.542 -9.4980001 5.1529999
26.517 -9.3870001 5.1459999
26.527 -9.2889996 5.145
26.537001 -9.1920004 5.145
26.559999 -9.099 5.1469998
26.577999 -9.0050001 5.1479998
26.604 -8.915 5.151
26.586 -8.8100004 5.145
26.624001 -8.7250004 5.151
26.603001 -8.6210003 5.1440001
26.584 -8.5179996 5.1389999
26.622 -8.434 5.1440001
26.596001 -8.3299999 5.1370001
26.610001 -8.2399998 5.1370001
26.639 -8.1549997 5.1409998
26.615999 -8.0539999 5.1339998
26.608999 -7.9590001 5.131
26.614 -7.868 5.1300001
26.674999 -7.7940001 5.1399999
26.746 -7.362 5.1440001
26.638 -7.244 5.1209998
26.652 -7.1599998 5.1220002
26.643999 -7.0710001 5.119
26.653999 -6.987 5.119
26.660999 -6.902 5.119
26.652 -6.8140001 5.1160002
26.636999 -6.7249999 5.1110001
26.66 -6.6459999 5.1139998
26.667 -6.5640001 5.1139998
26.684 -6.4840002 5.1149998
26.650999 -6.3930001 5.1069999
26.674999 -6.316 5.1100001
26.684999 -6.237 5.1110001
26.73 -6.165 5.118
26.700001 -6.0770001 5.1100001
26.702 -5.9970002 5.1090002
26.691999 -5.915 5.1059999
26.743999 -5.8470001 5.1149998
30.865 3.056 6.1110001
30.931999 3.1389999 6.1259999
30.875999 3.21 6.1170001
30.889 3.289 6.1220002
30.855 3.3629999 6.1170001
30.839001 3.4400001 6.1160002
30.816 3.516 6.1139998
30.871 3.602 6.1269999
30.870001 3.6819999 6.1290002
30.864 3.7609999 6.131
30.813 3.836 6.1230001
30.847 3.921 6.132
30.841999 4.0019999 6.1339998
30.875 4.0890002 6.1430001
30.864 4.1700001 6.1440001
30.877001 4.2550001 6.1490002
30.913 4.3439999 6.1589999
30.856001 4.4200001 6.151
30.867001 4.507 6.1560001
30.893999 4.5960002 6.164
30.892 4.6810002 6.1669998
30.879999 4.7649999 6.1680002
30.898001 4.8540001 6.1750002
30.899 4.9419999 6.178
30.931999 5.0339999 6.1880002
30.927 5.1209998 6.191
30.952 5.2140002 6.1989999
30.892 5.2930002 6.191
30.906 5.3839998 6.197
30.950001 5.4819999 6.21
30.959999 5.5739999 6.2160001
30.944 5.6609998 6.217
30.951 5.7529998 6.2220001
30.989 5.8520002 6.2340002
30.964001 5.9390001 6.2319999
30.985001 6.0349998 6.2410002
31.004999 6.132 6.2490001
31.068001 6.2379999 6.2659998
30.943001 6.3060002 6.2449999
30.978001 6.4070001 6.257
30.985001 6.5019999 6.2620001
31.014999 6.6989999 6.2779999
31.004 6.7919998 6.2800002
25.997 -13.296 5.2290001
26.035999 -13.237 5.2360001
26.024 -13.151 5.2319999
26.062 -13.09 5.2389998
26.059 -12.929 5.2360001
26.066 -12.853 5.2360001
26.073 -12.776 5.2360001
26.093 -12.706 5.2389998
26.094999 -12.628 5.2379999
26.082001 -12.541 5.2340002
26.129 -12.484 5.2420001
26.112 -12.396 5.2379999
26.177999 -12.347 5.25
26.176001 -12.266 5.2480001
26.193001 -12.194 5.25
26.193001 -12.034 5.2480001
26.296 -12.001 5.2670002
26.177999 -11.867 5.2420001
26.209 -11.801 5.2470002
26.23 -11.73 5.25
26.198 -11.636 5.2420001
26.257999 -11.583 5.2529998
26.218 -11.485 5.243
26.254 -11.42 5.2490001
26.288 -11.355 5.2550001
26.273001 -11.268 5.25
26.268 -11.186 5.2480001
26.280001 -11.111 5.2490001
26.26 -11.023 5.244
26.292 -10.956 5.2490001
26.309999 -10.883 5.2509999
26.316999 -10.806 5.2509999
26.297001 -10.718 5.2459998
26.348 -10.659 5.2550001
26.353001 -10.58 5.2540002
26.337999 -10.494 5.25
26.334999 -10.413 5.2480001
26.365999 -10.345 5.2529998
26.361 -10.263 5.2509999
26.396999 -10.197 5.257
26.399 -10.117 5.256
26.389 -10.033 5.2519999
26.398001 -9.9569998 5.2529998
26.4 -9.8780003 5.2519999
26.423 -9.8059998 5.2550001
26.415001 -9.7229996 5.2519999
26.434 -9.6499996 5.2540002
26.415001 -9.5629997 5.2490001
26.445999 -9.4940004 5.2540002
26.457001 -9.4180002 5.2550001
26.466999 -9.342 5.2550001
26.466 -9.2609997 5.2540002
26.504 -9.1940002 5.2600002
26.5 -9.1129999 5.2579999
26.486 -9.0279999 5.2540002
26.523001 -8.96 5.2589998
26.542 -8.8870001 5.2620001
26.57 -8.816 5.2659998
26.565001 -8.7340002 5.2639999
26.572001 -8.6560001 5.2639999
26.555 -8.5710001 5.2589998
26.554001 -8.4899998 5.257
26.559 -8.4119997 5.257
26.561001 -8.3330002 5.256
26.577999 -8.2580004 5.2579999
26.594 -8.1829996 5.2600002
26.573999 -8.0970001 5.2540002
26.551001 -8.0100002 5.2480001
26.575001 -7.9369998 5.2519999
26.591 -7.862 5.2529998
26.614 -7.789 5.256
26.650999 -7.2399998 5.2529998
26.636999 -7.1570001 5.2490001
26.646 -7.079 5.2490001
26.693001 -7.0120001 5.257
26.681 -6.9289999 5.2540002
26.634001 -6.8369999 5.243
26.666 -6.7659998 5.2480001
26.672001 -6.6869998 5.2470002
26.66 -6.605 5.244
26.676001 -6.5289998 5.2449999
26.674 -6.4489999 5.243
26.667999 -6.368 5.2410002
26.66 -6.2870002 5.2379999
26.700001 -6.217 5.244
26.724001 -6.1420002 5.2470002
26.672001 -6.0510001 5.2350001
26.705999 -5.9790001 5.2410002
26.694 -5.8969998 5.237
26.721001 -5.823 5.2410002
26.731001 -5.7459998 5.2410002
26.745001 -5.6700001 5.2420001
30.976999 3.9219999 6.224
30.993999 3.9990001 6.23
30.968 4.296 6.2379999
30.996 4.3769999 6.2470002
30.957001 5.2529998 6.2810001
30.995001 5.3429999 6.2930002
30.999001 5.428 6.2989998
31.016001 5.5149999 6.3070002
30.974001 5.5929999 6.303
31.009001 5.7719998 6.3189998
31.068001 5.8699999 6.336
30.988001 5.9419999 6.3239999
30.983 6.5679998 6.3590002
30.958 6.6539998 6.3590002
30.975 6.842 6.3740001
30.983 6.9369998 6.381
30.986 7.0320001 6.388
24.738001 -16.261999 5.1279998
24.813999 -16.158001 5.1389999
24.895 -16.056999 5.151
24.969 -15.951 5.1609998
25.035999 -15.843 5.171
25.104 -15.735 5.1799998
25.127001 -15.6 5.1799998
25.195999 -15.494 5.1900001
25.263 -15.387 5.1989999
25.313999 -15.271 5.2049999
25.341 -15.142 5.2059999
25.413 -15.04 5.217
25.450001 -14.918 5.2199998
25.493 -14.801 5.224
25.544001 -14.689 5.2309999
25.584 -14.571 5.2350001
25.639 -14.463 5.2420001
25.736 -14.378 5.257
25.764999 -14.256 5.2589998
25.747 -14.109 5.2519999
25.809 -14.007 5.2600002
25.844999 -13.891 5.2639999
25.926001 -13.8 5.276
25.964001 -13.687 5.2800002
26.056999 -13.34 5.2880001
26.014 -13.188 5.2750001
26.025 -13.065 5.2740002
26.051001 -12.95 5.276
26.08 -12.837 5.2779999
26.107 -12.725 5.2800002
26.153 -12.622 5.2859998
26.159 -12.5 5.2839999
26.164 -12.379 5.2810001
26.209999 -12.278 5.2870002
26.205999 -12.154 5.283
26.243 -12.05 5.2870002
26.257 -11.937 5.2870002
26.313999 -11.843 5.2950001
26.312 -11.723 5.2909999
26.315001 -11.607 5.289
26.309999 -11.488 5.2849998
26.306 -11.37 5.2810001
26.325001 -11.263 5.2820001
26.389999 -11.062 5.289
26.364 -10.938 5.2800002
26.379999 -10.832 5.2810001
26.392 -10.726 5.2800002
26.445 -10.636 5.2880001
26.444 -10.526 5.2849998
26.448999 -10.418 5.283
26.444 -10.308 5.2800002
26.444 -10.2 5.277
26.452999 -10.096 5.276
26.471001 -9.9969997 5.277
26.493 -9.8990002 5.2789998
26.479 -9.7889996 5.2729998
26.507999 -9.6949997 5.276
26.496 -9.5869999 5.2719998
26.511999 -9.4899998 5.2719998
26.518 -9.3889999 5.2709999
26.525 -9.29 5.27
26.51 -9.184 5.2639999
26.540001 -9.0939999 5.2680001
26.548 -8.9969997 5.2670002
26.547001 -8.8979998 5.2649999
26.576 -8.809 5.2680001
26.613001 -8.7229996 5.2729998
26.59 -8.618 5.2670002
26.591999 -8.5220003 5.2649999
26.561001 -8.4160004 5.256
26.601999 -8.3339996 5.2620001
26.606001 -8.2399998 5.2610002
26.594 -8.1420002 5.257
26.580999 -8.0450001 5.2519999
26.622 -7.9640002 5.2579999
26.614 -7.869 5.2540002
26.601999 -7.7740002 5.25
26.667999 -7.7020001 5.2610002
26.667 -7.4310002 5.2550001
26.625999 -7.3299999 5.2449999
26.643999 -7.2470002 5.2470002
26.690001 -7.171 5.2540002
26.667 -7.0780001 5.2480001
26.643 -6.9840002 5.2410002
26.639 -6.8969998 5.2389998
26.658001 -6.816 5.2410002
26.648001 -6.7280002 5.237
26.672001 -6.6500001 5.2399998
26.643 -6.559 5.2329998
26.656 -6.4780002 5.2329998
26.646999 -6.3930001 5.23
26.652 -6.3109999 5.23
26.677 -6.2350001 5.2329998
26.695 -6.158 5.2350001
26.701 -6.0780001 5.2340002
26.715 -6 5.2360001
26.731001 -5.9239998 5.237
26.726999 -5.8429999 5.2350001
30.844999 3.2880001 6.277
30.877001 3.3699999 6.2859998
30.84 3.444 6.2800002
30.802 3.5179999 6.2750001
30.836 3.602 6.2839999
30.841 3.6819999 6.2880001
30.785 3.7550001 6.2789998
30.825001 3.8410001 6.289
30.823999 3.9219999 6.2919998
30.83 4.0050001 6.296
30.841 4.0879998 6.3010001
30.844 4.171 6.3039999
30.837999 4.2540002 6.3060002
30.895 4.3460002 6.3210001
30.846001 4.4229999 6.3140001
30.851 4.5079999 6.3179998
30.839001 4.5910001 6.3179998
30.851 4.6789999 6.3239999
30.847 4.7639999 6.3270001
30.858 4.8520002 6.3319998
30.872999 4.941 6.3390002
30.882999 5.0300002 6.3439999
30.854 5.1129999 6.342
30.862 5.2030001 6.3470001
30.860001 5.2909999 6.3499999
30.889999 5.3850002 6.3600001
30.889999 5.4749999 6.3639998
30.877001 5.5630002 6.3660002
30.915001 5.6599998 6.3769999
30.902 5.7480001 6.3790002
30.92 5.8429999 6.3860002
30.905001 5.9320002 6.388
30.944 6.0310001 6.4000001
30.972 6.1290002 6.4099998
30.965 6.2210002 6.4130001
30.973 6.316 6.4190001
30.961 6.4070001 6.421
30.965 6.5019999 6.4260001
31.059999 6.6170001 6.4510002
30.981001 6.6950002 6.4390001
30.997999 6.7950001 6.447
31.021 6.895 6.4569998
31.042 7.0929999 6.4710002
31.035 7.1890001 6.4749999
30.962 7.2690001 6.4650002
31.063999 7.6859999 6.507
31.016001 7.7729998 6.5019999
31.028 7.8759999 6.5100002
25.927 -13.907 5.3509998
25.91 -13.818 5.3460002
25.968 -13.689 5.3559999
25.978001 -13.615 5.3569999
25.990999 -13.542 5.3579998
25.986 -13.46 5.3559999
25.965 -13.369 5.3499999
25.993 -13.304 5.355
26.004999 -13.23 5.3559999
26.011999 -13.154 5.3559999
26.024 -13.08 5.3579998
26.106001 -13.041 5.3730001
26.056999 -12.937 5.362
26.059 -12.858 5.3610001
26.1 -12.798 5.368
26.065001 -12.701 5.3590002
26.070999 -12.624 5.3590002
26.07 -12.544 5.3579998
26.105 -12.481 5.3639998
26.086 -12.392 5.3590002
26.115 -12.325 5.3629999
26.153999 -12.264 5.3699999
26.205999 -12.127 5.3779998
26.155001 -12.024 5.3660002
26.165001 -11.948 5.3670001
26.177999 -11.874 5.368
26.207001 -11.807 5.3730001
26.146 -11.7 5.3590002
26.167 -11.629 5.362
26.235001 -11.579 5.375
26.215 -11.49 5.369
26.215 -11.41 5.368
26.240999 -11.341 5.3720002
26.219999 -11.252 5.3660002
26.259001 -11.189 5.3730001
26.292 -11.123 5.3779998
26.259001 -11.028 5.3699999
26.275 -10.955 5.3720002
26.271999 -10.874 5.3699999
26.299999 -10.805 5.3740001
26.297001 -10.724 5.3720002
26.311001 -10.649 5.3740001
26.299 -10.564 5.3699999
26.306 -10.487 5.3699999
26.325001 -10.414 5.3730001
26.349001 -10.344 5.3759999
26.332001 -10.257 5.3709998
26.403999 -10.124 5.3829999
26.413 -10.048 5.3839998
26.395 -9.9610004 5.3790002
26.374001 -9.8730001 5.3730001
26.382999 -9.7959995 5.3730001
26.399 -9.7220001 5.375
26.4 -9.6420002 5.3740001
26.422001 -9.5699997 5.3769999
26.412001 -9.4860001 5.3730001
26.434 -9.4139996 5.3759999
26.457001 -9.342 5.3800001
26.448999 -9.2589998 5.3769999
26.487 -9.1920004 5.3829999
26.469999 -9.1059999 5.3779998
26.471001 -9.0270004 5.3769999
26.525999 -8.9650002 5.3870001
26.572001 -8.8999996 5.3940001
26.577999 -8.8219995 5.3940001
26.582001 -8.743 5.3940001
26.551001 -8.6529999 5.3860002
26.546 -8.5710001 5.3829999
26.556 -8.4940004 5.3839998
26.542 -8.4099998 5.3800001
26.558001 -8.3339996 5.381
26.566999 -8.257 5.382
26.577999 -8.1809998 5.3829999
26.552 -8.0930004 5.3759999
26.556 -8.0139999 5.375
26.542999 -7.9299998 5.3709998
26.57 -7.8579998 5.375
26.605 -7.789 5.381
26.649 -7.7220001 5.388
26.628 -7.6350002 5.382
26.611 -7.5510001 5.3769999
26.648001 -7.4809999 5.3839998
26.628 -7.3959999 5.3779998
26.632 -7.3169999 5.3769999
26.601999 -7.2290001 5.3699999
26.653 -7.1630001 5.3790002
26.705 -7.0970001 5.388
26.724001 -7.0219998 5.3899999
26.747999 -6.948 5.3930001
26.636999 -6.8390002 5.369
26.653 -6.7639999 5.3709998
26.666 -6.6869998 5.3720002
26.646999 -6.6030002 5.3670001
26.656 -6.526 5.3670001
26.674 -6.4499998 5.369
26.677 -6.3709998 5.368
26.653999 -6.2859998 5.362
26.66 -6.2080002 5.362
26.666 -6.1300001 5.3610001
26.726 -6.0640001 5.3720002
26.702 -5.9790001 5.3660002
26.728001 -5.9050002 5.369
26.690001 -5.8169999 5.3600001
26.700001 -5.7399998 5.3610001
26.740999 -5.6690001 5.3670001
30.971001 5.5110002 6.4660001
30.990999 5.599 6.474
31.011999 5.6890001 6.4840002
24.719999 -16.254999 5.2470002
24.806999 -16.158001 5.2600002
24.879999 -16.052 5.2709999
24.948999 -15.943 5.2800002
25.028999 -15.842 5.2919998
25.091999 -15.732 5.3010001
25.153 -15.62 5.309
25.209999 -15.507 5.3169999
25.238001 -15.376 5.3179998
25.299999 -15.268 5.3260002
25.354 -15.154 5.3330002
25.4 -15.037 5.3379998
25.450001 -14.923 5.3439999
25.493 -14.805 5.349
25.539 -14.69 5.3540001
25.584 -14.575 5.3600001
25.608 -14.449 5.3600001
25.681999 -14.352 5.3720002
25.716999 -14.233 5.375
25.742001 -14.11 5.3759999
25.775 -13.992 5.3790002
25.785999 -13.863 5.3769999
25.806999 -13.74 5.3769999
25.855 -13.633 5.3829999
25.889999 -13.519 5.3870001
25.929001 -13.408 5.3909998
25.934999 -13.281 5.388
25.968 -13.168 5.3920002
26.003 -13.057 5.395
26.042 -12.949 5.4000001
26.058001 -12.83 5.3990002
26.096001 -12.723 5.4039998
26.143999 -12.621 5.4099998
26.122999 -12.486 5.402
26.172001 -12.386 5.4089999
26.17 -12.263 5.4050002
26.205999 -12.157 5.4089999
26.229 -12.047 5.4099998
26.235001 -11.93 5.408
26.291 -11.836 5.4159999
26.295 -11.719 5.414
26.281 -11.595 5.408
26.329 -11.499 5.414
26.311001 -11.375 5.408
26.306 -11.258 5.4029999
26.355 -11.164 5.4099998
26.354 -11.05 5.4070001
26.347 -10.934 5.4029999
26.356001 -10.825 5.402
26.413 -10.737 5.4099998
26.427 -10.632 5.4099998
26.393999 -10.509 5.401
26.437 -10.416 5.4070001
26.403 -10.294 5.3969998
26.447001 -10.204 5.4029999
26.424 -10.088 5.3959999
26.492001 -10.007 5.4070001
26.507 -9.9069996 5.4070001
26.518999 -9.8059998 5.4070001
26.476999 -9.6859999 5.3959999
26.483999 -9.585 5.395
26.500999 -9.4879999 5.395
26.488001 -9.3809996 5.3899999
26.482 -9.2770004 5.3870001
26.540001 -9.1969995 5.3959999
26.556999 -9.1020002 5.3969998
26.569 -8.9069996 5.395
26.525999 -8.7939997 5.3829999
26.620001 -8.7270002 5.4000001
26.601 -8.5270004 5.3920002
26.563 -8.4189997 5.382
26.593 -8.3319998 5.3860002
26.569 -8.2299995 5.3790002
26.594999 -8.1440001 5.382
26.579 -8.0450001 5.3759999
26.569 -7.9499998 5.3720002
26.548 -7.8509998 5.3660002
26.608 -7.777 5.3759999
26.649 -7.697 5.382
26.624001 -7.5999999 5.375
26.615 -7.507 5.3709998
26.584 -7.4089999 5.3629999
26.606001 -7.3260002 5.3660002
26.629999 -7.244 5.369
26.664 -7.165 5.3740001
26.684999 -7.0830002 5.3759999
26.666 -6.9910002 5.3699999
26.624001 -6.8940001 5.3600001
26.645 -6.8140001 5.3629999
26.632999 -6.7259998 5.3590002
26.615999 -6.6360002 5.3530002
26.641001 -6.559 5.3569999
26.659 -6.4790001 5.3579998
26.65 -6.3940001 5.355
26.641001 -6.309 5.3520002
26.649 -6.2290001 5.3509998
26.631001 -6.1430001 5.3460002
26.700001 -6.0780001 5.3590002
26.726 -6.0029998 5.362
26.688999 -5.914 5.3530002
26.664 -5.829 5.3470001
30.862 3.529 6.4530001
30.871 3.6099999 6.4569998
30.906 3.694 6.467
30.85 3.848 6.46
30.818001 3.925 6.4559999
30.889999 4.0170002 6.474
30.843 4.0929999 6.467
30.85 4.1760001 6.4720001
30.85 4.2600002 6.4749999
30.868 4.3460002 6.4809999
30.856001 4.428 6.4819999
30.862 4.5139999 6.4860001
30.877001 4.6009998 6.493
30.858999 4.684 6.4920001
30.832001 4.7659998 6.4899998
30.856001 4.8559999 6.4990001
30.93 4.9549999 6.5180001
30.921 5.0409999 6.52
30.889999 5.1240001 6.5170002
30.875 5.2090001 6.5170002
30.878 5.2979999 6.5219998
30.972 5.4039998 6.546
30.938 5.4879999 6.5419998
25.988001 -13.471 5.4829998
25.969999 -13.381 5.4780002
25.997999 -13.156 5.48
26.014 -13.084 5.4819999
26.080999 -12.718 5.4899998
26.098 -12.645 5.4920001
26.108999 -12.571 5.493
26.160999 -12.516 5.5029998
26.146 -12.428 5.4980001
26.216 -11.738 5.5009999
26.18 -11.642 5.4920001
26.216999 -11.578 5.4980001
26.186001 -11.485 5.4899998
26.218 -11.418 5.4949999
26.25 -11.352 5.5009999
26.266001 -11.279 5.5029998
26.266001 -11.198 5.5009999
26.247999 -11.11 5.4959998
26.264999 -11.037 5.4980001
26.287001 -10.966 5.5019999
26.296 -10.89 5.5019999
26.298 -10.81 5.5009999
26.323 -10.74 5.5050001
26.302 -10.651 5.4990001
26.316999 -10.577 5.5009999
26.308001 -10.493 5.4970002
26.32 -10.418 5.4990001
26.330999 -10.342 5.4990001
26.406 -10.05 5.5089998
26.393999 -9.9650002 5.5050001
26.43 -9.8979998 5.5110002
26.43 -9.8179998 5.5100002
26.4 -9.7270002 5.5019999
26.406 -9.6490002 5.5019999
26.405001 -9.5679998 5.5
26.441999 -9.5010004 5.507
26.437 -9.4189997 5.5040002
26.450001 -9.3439999 5.5050001
26.466 -9.0290003 5.5029998
26.488001 -8.9560003 5.506
26.528 -8.8889999 5.513
26.552999 -8.6569996 5.513
26.52 -8.566 5.5050001
26.528 -8.4879999 5.5050001
26.576 -8.4239998 5.5139999
26.566 -8.3400002 5.5100002
26.549 -8.2550001 5.5050001
26.545 -8.1730003 5.5029998
26.539 -8.092 5.5
26.556999 -8.0170002 5.5019999
26.559 -7.9380002 5.5009999
26.521 -7.8460002 5.4920001
26.568001 -7.7800002 5.5
26.603001 -7.71 5.506
26.618999 -7.6350002 5.507
26.591 -7.5469999 5.5
26.579 -7.4640002 5.4959998
26.597 -7.3889999 5.4980001
26.607 -7.3119998 5.4990001
26.583 -7.2249999 5.4920001
26.624001 -7.1570001 5.4990001
26.635 -7.0799999 5.5
26.684 -7.013 5.5089998
26.635 -6.8400002 5.4949999
26.652 -6.7649999 5.4970002
26.615999 -6.6760001 5.4879999
26.631001 -6.5999999 5.4899998
26.674999 -6.5310001 5.4980001
26.658001 -6.447 5.4920001
26.643999 -6.3649998 5.4879999
26.663 -6.289 5.4899998
26.653999 -6.2080002 5.487
26.694 -6.1370001 5.494
26.66 -6.0500002 5.4850001
26.676001 -5.974 5.487
26.719 -5.9039998 5.494
26.750999 -5.8309999 5.4990001
26.733999 -5.7480001 5.494
26.735001 -5.6680002 5.4920001
24.747 -16.278 5.375
24.836 -16.181999 5.3899999
24.919001 -16.082001 5.4029999
24.992001 -15.976 5.414
25.042 -15.856 5.4190001
25.139999 -15.766 5.4359999
25.16 -15.629 5.4349999
25.233 -15.526 5.4460001
25.271999 -15.402 5.4499998
25.315001 -15.281 5.454
25.384001 -15.177 5.4650002
25.455999 -15.075 5.4749999
25.549999 -14.986 5.4910002
25.525 -14.828 5.4809999
25.562 -14.708 5.4850001
25.601 -14.589 5.4889998
25.641001 -14.472 5.493
25.752001 -14.257 5.5079999
25.780001 -14.135 5.5100002
25.816999 -14.019 5.5139999
25.806 -13.878 5.507
25.832001 -13.758 5.5089998
25.872 -13.646 5.513
25.903 -13.53 5.5159998
25.924 -13.409 5.5159998
25.954 -13.294 5.5190001
25.98 -13.178 5.52
26.017 -13.068 5.5240002
26.037001 -12.95 5.5250001
26.051001 -12.831 5.5240002
26.108999 -12.733 5.533
26.139999 -12.623 5.5359998
26.145 -12.501 5.533
26.15 -12.379 5.5310001
26.202 -12.281 5.5380001
26.191 -12.154 5.5320001
26.299999 -12.083 5.552
26.346001 -11.745 5.5510001
26.344 -11.626 5.5469999
26.358 -11.515 5.5469999
26.351 -11.395 5.5419998
26.375999 -11.29 5.5440001
26.398001 -11.185 5.546
26.358999 -11.055 5.5349998
26.346001 -10.936 5.5289998
26.365999 -10.832 5.5300002
26.409 -10.738 5.5359998
26.412001 -10.629 5.5339999
26.396999 -10.513 5.5279999
26.427999 -10.415 5.5310001
26.441999 -10.312 5.5310001
26.434999 -10.202 5.527
26.479 -10.111 5.533
26.521 -10.02 5.539
26.528 -9.7069998 5.533
26.531 -9.6040001 5.5300002
26.469 -9.4790001 5.5149999
26.459 -9.3730001 5.5100002
26.559 -9.3059998 5.5289998
26.551001 -9.2019997 5.5240002
26.629 -8.9289999 5.533
26.549999 -8.8039999 5.5139999
26.583 -8.427 5.5120001
