# .PCD v0.7 - Point Cloud Data file format
VERSION 0.7
FIELDS x y z
SIZE 4 4 4
TYPE F F F
COUNT 1 1 1
WIDTH 1832
HEIGHT 1
VIEWPOINT 0 0 0 1 0 0 0
POINTS 1832
DATA ascii
12.698 -0.33399999 1.207
12.696 -0.29699999 1.207
12.688 -0.26100001 1.206
12.714 -0.22499999 1.2079999
12.716 -0.18799999 1.2079999
12.755 -0.152 1.211
12.833 -0.116 1.2180001
13.114 -0.079999998 1.244
13.12 0.912 1.197
13.051 0.93199998 1.191
13.064 0.95700002 1.192
8.3170004 0.625 0.759
13.137 0.98799998 1.199
8.1859999 0.63099998 0.74699998
8.118 0.64200002 0.741
8.0869999 0.65600002 0.73799998
8.1020002 0.67299998 0.74000001
8.1289997 0.69199997 0.74199998
8.132 0.708 0.74299997
8.1239996 0.72399998 0.74199998
8.1099997 0.74000001 0.741
8.0950003 0.75599998 0.74000001
8.0799999 0.77100003 0.73900002
8.0780001 0.78899997 0.73900002
8.0629997 0.80400002 0.73699999
8.0640001 0.82200003 0.73799998
8.059 0.83899999 0.73699999
8.0629997 0.85799998 0.73799998
8.0819998 0.87800002 0.74000001
8.0880003 0.89700001 0.741
8.0930004 0.91600001 0.741
8.1049995 0.93599999 0.74299997
8.1289997 0.95700002 0.745
8.1859999 0.98299998 0.75099999
8.2860003 1.015 0.75999999
8.3509998 1.0420001 0.76599997
8.3459997 1.062 0.76599997
8.3610001 1.084 0.76800001
23.075001 2.9920001 2.1199999
8.4329996 1.114 0.77499998
22.919001 3.027 2.1070001
22.879999 3.0780001 2.1040001
22.871 3.1329999 2.1040001
22.879 3.191 2.1059999
22.879 3.2479999 2.1070001
22.907 3.3099999 2.1110001
22.955 3.375 2.1159999
22.923 3.4289999 2.1140001
22.893999 3.484 2.1129999
22.91 3.546 2.115
22.910999 3.6059999 2.1170001
22.937 3.6700001 2.1199999
22.938999 3.7309999 2.1210001
22.926001 3.79 2.1210001
22.945 3.8540001 2.1240001
22.945 3.9159999 2.1259999
22.943001 3.9779999 2.1270001
22.962 4.0440001 2.1300001
22.969 4.1090002 2.132
22.969 4.1719999 2.1329999
22.962999 4.2350001 2.1340001
22.961 4.2989998 2.135
22.962999 4.3639998 2.1370001
22.971001 4.4310002 2.1389999
22.978001 4.4970002 2.141
22.988001 4.5650001 2.1429999
22.992001 4.6329999 2.145
22.995001 4.6999998 2.1470001
23.011 4.77 2.1500001
23.011999 4.8379998 2.152
23.035 4.9109998 2.1559999
23.059 4.9840002 2.1600001
23.094999 5.0609999 2.165
23.205999 5.1550002 2.177
9.0679998 2.6500001 0.86699998
8.882 2.6259999 0.85000002
8.8140001 2.635 0.84500003
8.7790003 2.655 0.84200001
8.7749996 2.6830001 0.84299999
8.7510004 2.7060001 0.84100002
8.7250004 2.7279999 0.83999997
8.7089996 2.753 0.83899999
8.6800003 2.7739999 0.83700001
8.6929998 2.809 0.83999997
8.6700001 2.832 0.838
8.6479998 2.855 0.83700001
8.6409998 2.8840001 0.83700001
8.6280003 2.9100001 0.83700001
8.6280003 2.941 0.838
8.6350002 2.974 0.83999997
8.6210003 3 0.83899999
8.6079998 3.027 0.83899999
8.6409998 3.0699999 0.84299999
8.7349997 3.135 0.85299999
22.604 10.66 2.2969999
22.606001 10.754 2.3010001
11.373 6.3340001 1.193
11.238 6.3080001 1.1799999
11.198 6.336 1.178
11.183 6.3769999 1.179
11.172 6.421 1.179
11.184 6.4780002 1.183
11.265 6.5760002 1.193
29.424999 19.223 3.2030001
29.327999 19.299999 3.198
29.134001 19.312 3.1830001
28.023001 19.660999 3.108
27.898001 19.711 3.1010001
27.777 19.763 3.0929999
27.635 19.798 3.0829999
27.445999 19.798 3.0680001
22.372999 -3.138 2.171
22.316 -3.075 2.165
22.419001 -3.0350001 2.175
22.389 -2.977 2.1719999
22.438999 -2.9300001 2.1760001
13.04 -0.354 1.262
12.931 -0.329 1.251
12.837 -0.30599999 1.242
12.784 -0.28299999 1.237
12.765 -0.26199999 1.2359999
12.766 -0.241 1.2359999
12.775 -0.221 1.237
12.776 -0.20100001 1.237
12.818 -0.18099999 1.2410001
12.868 -0.161 1.2460001
12.914 -0.142 1.251
12.98 -0.123 1.257
12.924 0.204 1.221
12.937 0.227 1.222
12.975 0.25 1.225
12.97 0.27399999 1.225
12.992 0.29800001 1.226
13.023 0.322 1.229
13.084 0.34799999 1.235
13.066 0.37200001 1.233
13.23 0.93199998 1.248
13.13 0.95499998 1.239
13.165 0.98799998 1.242
8.2390003 0.63700002 0.77700001
8.1490002 0.64899999 0.76899999
8.0869999 0.66399997 0.76300001
8.0780001 0.68199998 0.76300001
8.1029997 0.704 0.76499999
8.1239996 0.72500002 0.76700002
8.1199999 0.745 0.76700002
8.1029997 0.76300001 0.76499999
8.0769997 0.77999997 0.76300001
8.0780001 0.801 0.76300001
8.059 0.81900001 0.76200002
8.0629997 0.83999997 0.76200002
8.0539999 0.85900003 0.76200002
8.0530005 0.88 0.76200002
8.0699997 0.90200001 0.764
8.0679998 0.92299998 0.764
8.0799999 0.94499999 0.76499999
8.1059999 0.96899998 0.76800001
8.1479998 0.99599999 0.77200001
8.2510004 1.03 0.78200001
8.3319998 1.063 0.79000002
8.3520002 1.087 0.792
8.3780003 1.114 0.79500002
22.988001 3.056 2.1819999
8.5179996 1.155 0.80900002
22.882 3.1040001 2.1730001
22.868 3.164 2.1719999
22.862 3.2260001 2.1719999
22.877001 3.2909999 2.175
22.875999 3.3540001 2.175
22.924 3.425 2.181
22.931 3.49 2.1819999
22.893 3.5480001 2.1800001
22.895 3.6129999 2.181
22.91 3.6800001 2.1830001
22.92 3.747 2.1849999
22.92 3.813 2.1860001
22.933001 3.881 2.1889999
22.938 3.948 2.1900001
22.951 4.0170002 2.1930001
22.945 4.0830002 2.1930001
22.961 4.1529999 2.1960001
22.954 4.2189999 2.1960001
22.968 4.289 2.1989999
22.968 4.3579998 2.2
22.973 4.427 2.2019999
22.987 4.4980001 2.204
22.983999 4.5669999 2.2049999
22.995001 4.638 2.2079999
23.028 4.7150002 2.2119999
23.024 4.7839999 2.2130001
23.039 4.8569999 2.2160001
23.056999 4.9320002 2.2190001
23.091999 5.0100002 2.224
23.138 5.092 2.23
9.1160002 2.6500001 0.89300001
8.9040003 2.618 0.87300003
8.8249998 2.6240001 0.866
8.79 2.6429999 0.86299998
8.7770004 2.6689999 0.86299998
8.7559996 2.6919999 0.861
8.7279997 2.7130001 0.85900003
8.7040005 2.7349999 0.85799998
8.7040005 2.7639999 0.85799998
8.6890001 2.789 0.85799998
8.6750002 2.8139999 0.85699999
8.665 2.8410001 0.85699999
8.6599998 2.869 0.85699999
8.6479998 2.8940001 0.85699999
8.6330004 2.9189999 0.85600001
8.6269999 2.947 0.85600001
8.6210003 2.9749999 0.85699999
8.6110001 3.0009999 0.85699999
8.6160002 3.033 0.85799998
8.6440001 3.072 0.86199999
8.7749996 3.1500001 0.87599999
22.740999 10.769 2.3529999
22.629 10.799 2.3440001
22.375999 -3.175 2.2490001
22.216 -3.0869999 2.2320001
22.311001 -3.036 2.2409999
22.351999 -2.977 2.2449999
13.026 -0.41600001 1.296
12.914 -0.375 1.284
12.847 -0.336 1.277
12.833 -0.29899999 1.275
12.855 -0.26199999 1.277
12.912 -0.226 1.2819999
12.974 -0.19 1.288
13.054 -0.153 1.296
8.2659998 0.62199998 0.79299998
8.1700001 0.63099998 0.78399998
8.1149998 0.64300001 0.77899998
8.0869999 0.65600002 0.77600002
8.0860004 0.67199999 0.77600002
8.1049995 0.69 0.778
8.1129999 0.708 0.77899998
8.1059999 0.72399998 0.77899998
8.0930004 0.73900002 0.778
8.0760002 0.755 0.77600002
8.0710001 0.77100003 0.77600002
8.0699997 0.78799999 0.77600002
8.0640001 0.80500001 0.77600002
8.0629997 0.82300001 0.77600002
8.0670004 0.84100002 0.77600002
8.0620003 0.85799998 0.77600002
8.066 0.87699997 0.77700001
8.0760002 0.89600003 0.778
8.0880003 0.91600001 0.77899998
8.099 0.93599999 0.78100002
8.1389999 0.95899999 0.78500003
8.1829996 0.98299998 0.78899997
8.2659998 1.013 0.79799998
8.3199997 1.039 0.80299997
8.3559999 1.064 0.80699998
8.4099998 1.091 0.81300002
22.924999 2.974 2.2160001
8.7159996 1.152 0.84299999
22.879999 3.0239999 2.2119999
22.868999 3.0780001 2.2119999
22.872999 3.135 2.214
22.886 3.194 2.2160001
22.892 3.2520001 2.2179999
22.893999 3.3099999 2.2190001
22.929001 3.3729999 2.223
22.921 3.4300001 2.224
22.907 3.487 2.224
22.917999 3.5480001 2.2260001
22.906 3.6059999 2.2260001
22.923 3.6689999 2.2290001
22.924999 3.73 2.23
22.924 3.7909999 2.2309999
22.938999 3.855 2.234
22.945999 3.918 2.2360001
22.962 3.983 2.2390001
22.969 4.0469999 2.2409999
22.972 4.1100001 2.243
22.973 4.1739998 2.244
22.968 4.237 2.2449999
22.990999 4.3060002 2.2490001
23.003 4.3730001 2.2520001
23.003 4.4380002 2.253
23.014 4.506 2.256
23.009001 4.5710001 2.257
23.024 4.6399999 2.26
23.042 4.711 2.2639999
23.038 4.777 2.2650001
23.056 4.848 2.2679999
23.077999 4.921 2.2720001
23.087999 4.9920001 2.2750001
23.105 5.0650001 2.2780001
23.153999 5.145 2.2850001
23.271 5.2410002 2.2980001
9.0080004 2.6630001 0.90799999
8.8520002 2.6470001 0.89300001
8.7889996 2.658 0.88700002
8.7700005 2.6819999 0.88599998
8.7440004 2.704 0.88499999
8.7309999 2.73 0.884
8.7049999 2.7520001 0.88300002
8.698 2.7809999 0.88300002
8.6949997 2.8099999 0.884
8.6700001 2.832 0.88200003
8.6569996 2.859 0.88200003
8.6479998 2.8859999 0.88200003
8.6389999 2.914 0.88200003
8.6289997 2.9419999 0.88200003
8.6110001 2.9660001 0.88099998
8.6110001 2.997 0.88200003
8.618 3.0309999 0.884
8.6470003 3.072 0.88800001
8.8210001 3.1670001 0.90700001
22.709999 10.711 2.4300001
22.752001 10.825 2.438
29.481001 19.264999 3.3800001
29.261 19.26 3.3610001
27.777 19.768 3.2579999
27.562 19.750999 3.2390001
22.282 -3.125 2.2590001
22.222 -3.062 2.253
22.250999 -3.0120001 2.2550001
22.302999 -2.9649999 2.26
22.385 -2.9219999 2.2679999
22.591 -1.84 2.2850001
22.676001 -1.8 2.293
22.622999 -1.75 2.2880001
22.712999 -1.71 2.2969999
13.148 -0.29100001 1.329
13.071 -0.26800001 1.322
13.117 -0.24699999 1.326
13.15 -0.206 1.33
13.196 -0.186 1.335
13.709 0.69499999 1.357
13.728 0.72500002 1.359
13.794 0.75800002 1.3660001
13.825 0.79000002 1.369
8.3170004 0.64399999 0.824
8.158 0.65100002 0.80800003
8.1049995 0.66600001 0.80299997
8.0819998 0.68300003 0.801
8.0699997 0.70200002 0.80000001
8.092 0.72299999 0.80199999
8.1079998 0.74400002 0.80400002
8.0959997 0.76300001 0.80299997
8.0799999 0.78200001 0.80199999
8.0649996 0.80000001 0.80000001
8.0629997 0.81999999 0.80000001
8.052 0.83899999 0.80000001
8.0530005 0.86000001 0.80000001
8.0550003 0.88099998 0.80000001
8.052 0.90100002 0.80000001
8.0710001 0.92400002 0.80199999
8.0769997 0.94599998 0.80299997
8.0950003 0.96899998 0.80500001
8.1199999 0.99299997 0.80800003
8.1920004 1.024 0.815
8.3009996 1.059 0.82700002
8.3249998 1.085 0.829
8.3900003 1.1160001 0.83600003
22.912001 3.0480001 2.2839999
22.858 3.102 2.279
22.85 3.1630001 2.279
22.868 3.2279999 2.2820001
22.877001 3.293 2.2839999
22.878 3.3559999 2.2850001
22.886 3.421 2.2869999
22.882999 3.484 2.2869999
22.893999 3.55 2.289
22.898001 3.615 2.2909999
22.912001 3.6819999 2.293
22.922001 3.7490001 2.2950001
22.931999 3.816 2.2980001
22.93 3.882 2.2980001
22.951 3.9519999 2.302
22.964001 4.0209999 2.3039999
22.955999 4.086 2.3050001
22.973 4.1560001 2.3080001
22.988001 4.2270002 2.3099999
22.995001 4.296 2.312
22.999001 4.3649998 2.3139999
23.004 4.434 2.316
23.014 4.5050001 2.3180001
23.025 4.5760002 2.3210001
23.042999 4.6500001 2.3239999
23.073 4.7249999 2.3280001
23.082001 4.7979999 2.3310001
23.091 4.8699999 2.3329999
23.118 4.9460001 2.3369999
23.15 5.0240002 2.342
23.197001 5.1059999 2.348
23.304001 5.2020001 2.3610001
8.9689999 2.638 0.92400002
8.8450003 2.631 0.912
8.7799997 2.641 0.90600002
8.7629995 2.665 0.90499997
8.7519999 2.691 0.90499997
8.7379999 2.717 0.90399998
8.7189999 2.74 0.903
8.6999998 2.763 0.90200001
8.6850004 2.7880001 0.90100002
8.677 2.8150001 0.90100002
8.6669998 2.842 0.90100002
8.651 2.8659999 0.89999998
8.6440001 2.8929999 0.89999998
8.6370001 2.921 0.89999998
8.6400003 2.9519999 0.90100002
8.6309996 2.9779999 0.90100002
8.6269999 3.007 0.90200001
8.6549997 3.0469999 0.90600002
8.75 3.1110001 0.91600001
22.332001 -3.1670001 2.3429999
22.242001 -3.0899999 2.3329999
22.250999 -3.027 2.3329999
22.316 -2.971 2.339
22.618 -2.6170001 2.3670001
22.51 -2.54 2.355
22.518 -2.4749999 2.355
22.559 -2.415 2.359
22.599001 -2.3529999 2.362
22.582001 -2.286 2.3599999
22.591 -2.1559999 2.3599999
22.572001 -2.089 2.3570001
22.593 -2.026 2.359
22.544001 -1.956 2.3529999
22.573999 -1.893 2.355
13.17 -0.26699999 1.365
13.061 -0.227 1.354
13.219 -0.191 1.37
8.3170004 0.62699997 0.83700001
8.1870003 0.63300002 0.824
8.1269999 0.64399999 0.81800002
8.0950003 0.65799999 0.815
8.0819998 0.67299998 0.81400001
8.0780001 0.68900001 0.81400001
8.092 0.70599997 0.815
8.1020002 0.72399998 0.81699997
8.092 0.74000001 0.81599998
8.0740004 0.755 0.81400001
8.0710001 0.77200001 0.81400001
8.0780001 0.79000002 0.815
8.0869999 0.80800003 0.81599998
8.0780001 0.82499999 0.815
8.0810003 0.84299999 0.81599998
8.0609999 0.85900003 0.81400001
8.0629997 0.87699997 0.815
8.0749998 0.89700001 0.81599998
8.0819998 0.91600001 0.81699997
8.1029997 0.93699998 0.81999999
8.1160002 0.95700002 0.82099998
8.1330004 0.97799999 0.82300001
8.1969995 1.005 0.82999998
8.2659998 1.033 0.83700001
8.2869997 1.056 0.83999997
8.3269997 1.081 0.84399998
23.082001 2.9960001 2.3410001
8.4569998 1.118 0.85799998
22.966 3.0369999 2.3299999
22.940001 3.0899999 2.329
22.948999 3.1470001 2.3310001
22.945999 3.204 2.3310001
22.959 3.263 2.3340001
22.971001 3.323 2.336
22.966 3.3800001 2.3369999
22.972 3.4400001 2.339
22.975 3.4990001 2.3399999
22.966999 3.5569999 2.3410001
22.993 3.6210001 2.345
23.014999 3.6849999 2.348
23.01 3.7449999 2.349
23.006001 3.806 2.3499999
23.028 3.8710001 2.3540001
23.031 3.934 2.355
23.034 3.997 2.3570001
23.031 4.059 2.358
23.042999 4.125 2.3610001
23.049999 4.1900001 2.3629999
23.065001 4.256 2.3659999
23.073999 4.323 2.369
23.094 4.3920002 2.3729999
23.091 4.4559999 2.3740001
23.084999 4.5209999 2.375
23.117001 4.5929999 2.3800001
23.094 4.6560001 2.3789999
23.104 4.7249999 2.382
23.105 4.7919998 2.3840001
23.124001 4.8639998 2.388
23.122999 4.9320002 2.3889999
23.139999 5.0040002 2.3929999
23.184999 5.0830002 2.4000001
23.351999 5.1900001 2.4189999
8.9110003 2.665 0.94400001
8.8059998 2.664 0.93300003
8.7650003 2.681 0.93000001
8.7510004 2.707 0.93000001
8.7340002 2.7320001 0.92900002
8.7229996 2.7590001 0.92900002
8.7060003 2.7839999 0.92799997
8.6940002 2.8099999 0.92799997
8.6739998 2.8340001 0.92699999
8.6560001 2.859 0.926
8.6560001 2.8889999 0.92699999
8.6520004 2.9189999 0.92699999
8.6479998 2.9489999 0.92799997
8.6350002 2.9749999 0.92799997
8.6459999 3.01 0.93000001
8.6809998 3.053 0.935
8.849 3.145 0.954
12.449 -8.1639996 1.396
12.521 -8.1330004 1.403
12.588 -8.1000004 1.41
12.669 -8.0740004 1.4170001
12.749 -8.0480003 1.425
12.845 -8.0319996 1.434
12.967 -8.0310001 1.447
13.074 -8.0190001 1.4579999
22.415001 -3.1989999 2.3699999
22.344999 -3.1340001 2.3629999
22.313999 -3.075 2.359
22.268 -3.0139999 2.3540001
22.285 -2.9630001 2.355
22.344999 -2.9170001 2.3610001
22.507999 -2.8840001 2.378
22.535999 -2.5209999 2.3789999
22.475 -2.4630001 2.372
22.511999 -2.4159999 2.3759999
22.528999 -2.368 2.378
22.580999 -2.323 2.3829999
22.521 -2.267 2.3770001
22.559 -2.221 2.3800001
22.566999 -2.1730001 2.381
22.584999 -1.839 2.382
22.608 -1.794 2.3840001
22.597 -1.747 2.3829999
8.4420004 0.63499999 0.87599999
8.2320004 0.63800001 0.85399997
8.1420002 0.65100002 0.84500003
8.1079998 0.667 0.84200001
8.0760002 0.68400002 0.83899999
8.0690002 0.70200002 0.838
8.073 0.722 0.83899999
8.0939999 0.74400002 0.84100002
8.092 0.764 0.84100002
8.0719995 0.78200001 0.83899999
8.0860004 0.80299997 0.84100002
8.0900002 0.824 0.84100002
8.0909996 0.84399998 0.84200001
8.0740004 0.86299998 0.83999997
8.0629997 0.88200003 0.83899999
8.0699997 0.90399998 0.83999997
8.0749998 0.92500001 0.84100002
8.0799999 0.94700003 0.84200001
8.0950003 0.97000003 0.84399998
8.1059999 0.99199998 0.84500003
8.1660004 1.021 0.852
8.2349997 1.052 0.85900003
8.2609997 1.077 0.86199999
8.2919998 1.103 0.866
8.4090004 1.142 0.87800002
23.129 3.141 2.4170001
23.087 3.198 2.4130001
23.059 3.257 2.411
23.112 3.3280001 2.418
23.079 3.3870001 2.415
23.108 3.4560001 2.4189999
23.101 3.5190001 2.4200001
23.112 3.586 2.4219999
23.108 3.6500001 2.4230001
23.188999 3.928 2.4360001
23.198999 3.9960001 2.438
23.231001 4.0689998 2.4430001
23.214001 4.2020001 2.444
23.254999 4.2779999 2.4489999
23.289 4.631 2.46
23.188999 4.6810002 2.451
23.125999 4.7379999 2.4460001
23.124001 4.8080001 2.447
23.165001 4.8870001 2.4530001
23.169001 4.9590001 2.4549999
23.219 5.0409999 2.4619999
23.355 5.1430001 2.4779999
8.96 2.6659999 0.96799999
8.8389997 2.6589999 0.95599997
8.7910004 2.674 0.95200002
8.7790003 2.7 0.95099998
8.7519999 2.721 0.949
8.743 2.7479999 0.949
8.7209997 2.7709999 0.94800001
8.7010002 2.7939999 0.94599998
8.7049999 2.825 0.94800001
8.6809998 2.8469999 0.94599998
8.6599998 2.8699999 0.94499999
8.6630001 2.9000001 0.94599998
8.6529999 2.927 0.94599998
8.6590004 2.9590001 0.94700003
8.6750002 2.994 0.94999999
8.7049999 3.0350001 0.954
8.8760004 3.125 0.97399998
12.761 -7.651 1.442
12.792 -7.632 1.446
12.833 -7.619 1.45
12.87 -7.6030002 1.454
12.912 -7.5900002 1.4579999
12.98 -7.5910001 1.466
13.102 -7.6240001 1.479
15.08 -7.027 1.691
15.066 -6.9759998 1.689
15.103 -6.948 1.693
15.071 -6.888 1.689
15.072 -6.8429999 1.688
15.194 -6.8540001 1.702
22.388 -3.174 2.447
22.309999 -3.098 2.438
22.299999 -3.0320001 2.4360001
22.357 -2.9749999 2.441
22.370001 -2.9119999 2.4419999
22.497999 -2.602 2.4530001
22.468 -2.533 2.4489999
22.49 -2.471 2.451
22.503 -2.4070001 2.451
22.497 -2.3410001 2.45
22.542 -2.28 2.454
22.570999 -2.0869999 2.4549999
22.686001 -2.0320001 2.467
22.601999 -1.959 2.457
14.647 0.58499998 1.543
14.52 0.60100001 1.53
14.525 0.62300003 1.53
14.491 0.64399999 1.527
14.503 0.667 1.528
14.513 0.69 1.529
14.525 0.713 1.53
8.3590002 0.61500001 0.88099998
8.1780005 0.61699998 0.86199999
8.0930004 0.62699997 0.85299999
8.0799999 0.64099997 0.852
8.059 0.65600002 0.85000002
8.0550003 0.671 0.84899998
8.0679998 0.68900001 0.85100001
8.0839996 0.70700002 0.85299999
8.0939999 0.72399998 0.85399997
8.085 0.74000001 0.85299999
8.0760002 0.75599998 0.85299999
8.0760002 0.773 0.85299999
8.0790005 0.79100001 0.85299999
8.092 0.81 0.85500002
8.085 0.82599998 0.85500002
8.0799999 0.84399998 0.85399997
8.0749998 0.861 0.85399997
8.0710001 0.87900001 0.85399997
8.0839996 0.898 0.85500002
8.0869999 0.917 0.85600001
8.0900002 0.93599999 0.85699999
8.1040001 0.95599997 0.85900003
8.1289997 0.97799999 0.861
8.1730003 1.003 0.866
8.2349997 1.03 0.87300003
8.2580004 1.052 0.87599999
8.2810001 1.075 0.87900001
8.368 1.107 0.889
23.200001 4.678 2.503
23.143 4.7340002 2.4990001
23.153 4.8039999 2.5020001
23.159 4.8730001 2.5039999
23.164 4.9419999 2.507
23.271999 5.0339999 2.52
9.1169996 2.727 1.011
8.8839998 2.688 0.98699999
8.8190002 2.698 0.98000002
8.7869997 2.7190001 0.97799999
8.7690001 2.743 0.977
8.7519999 2.7679999 0.97600001
8.724 2.79 0.97399998
8.7320004 2.823 0.97600001
8.6969995 2.842 0.97299999
8.6680002 2.8629999 0.97100002
8.6630001 2.892 0.972
8.6750002 2.927 0.97399998
8.6780005 2.9590001 0.97600001
8.6879997 2.994 0.97799999
8.7740002 3.0550001 0.98900002
35.289001 18.281 4.2270002
35.266998 18.422001 4.2319999
12.333 -8.0880003 1.441
12.398 -8.0539999 1.447
12.466 -8.0209999 1.454
12.521 -7.98 1.459
12.596 -7.9510002 1.466
12.678 -7.927 1.474
12.794 -7.9229999 1.487
12.867 -7.8920002 1.494
12.954 -7.8699999 1.503
13.038 -7.8460002 1.511
13.142 -7.8330002 1.522
13.276 -7.8369999 1.536
14.835 -7.5009999 1.697
14.843 -7.4320002 1.697
15.032 -6.954 1.71
14.976 -6.8590002 1.702
15.054 -6.8260002 1.71
15.089 -6.7740002 1.7130001
15.101 -6.711 1.7130001
15.265 -6.7160001 1.7309999
22.313 -3.1289999 2.4560001
22.296 -3.072 2.454
22.35 -3.0250001 2.4590001
22.341999 -2.97 2.4579999
22.379999 -2.921 2.4619999
22.412001 -2.872 2.4649999
22.499001 -2.516 2.473
22.445999 -2.4590001 2.467
22.469999 -2.411 2.4690001
22.497999 -2.3640001 2.4719999
22.497 -2.3139999 2.4719999
22.5 -2.2639999 2.4719999
22.518999 -2.217 2.474
22.539 -2.1700001 2.4760001
22.593 -2.1259999 2.4809999
14.505 0.50300002 1.573
14.435 0.52899998 1.566
14.422 0.55699998 1.564
14.417 0.58600003 1.563
14.431 0.616 1.5650001
14.438 0.64499998 1.566
14.455 0.676 1.568
14.532 0.70999998 1.576
8.3210001 0.62699997 0.903
8.1540003 0.63300002 0.88499999
8.0769997 0.64600003 0.87699997
8.0500002 0.66299999 0.87400001
8.0340004 0.68099999 0.87199998
8.0430002 0.70099998 0.87400001
8.0500002 0.72100002 0.87400001
8.0550003 0.741 0.875
8.0649996 0.76200002 0.87699997
8.0649996 0.78200001 0.87699997
8.066 0.80199999 0.87699997
8.0609999 0.82099998 0.87699997
8.0710001 0.84299999 0.87800002
8.0699997 0.86299998 0.87800002
8.0620003 0.88300002 0.87800002
8.0600004 0.903 0.87800002
8.0780001 0.926 0.88
8.0860004 0.94800001 0.88099998
8.085 0.96899998 0.88099998
8.1090002 0.99299997 0.884
8.1420002 1.0190001 0.88800001
8.1999998 1.048 0.89499998
8.2550001 1.077 0.90100002
8.2639999 1.1 0.90200001
8.3929996 1.14 0.917
23.218 4.618 2.5650001
23.149 4.6739998 2.559
23.163 4.7470002 2.562
23.167999 4.8189998 2.5650001
23.242001 4.9050002 2.5739999
23.329 4.9949999 2.586
8.9829998 2.7030001 1.017
8.8920002 2.7060001 1.007
8.8409996 2.72 1.002
8.8039999 2.7379999 0.99900001
8.7869997 2.763 0.99800003
8.7589998 2.783 0.99599999
8.7410002 2.8069999 0.995
8.7010002 2.8239999 0.991
8.6470003 2.836 0.986
8.6409998 2.8640001 0.986
8.6890001 2.9100001 0.99299997
8.7159996 2.9489999 0.99699998
8.7620001 2.994 1.003
8.9020004 3.073 1.02
12.753 -7.6529999 1.5
12.782 -7.6329999 1.503
12.806 -7.6090002 1.506
12.833 -7.5869999 1.5089999
12.866 -7.5689998 1.512
12.917 -7.5609999 1.518
12.961 -7.5479999 1.523
13.018 -7.5419998 1.529
13.068 -7.533 1.535
13.135 -7.533 1.543
13.213 -7.5380001 1.552
13.293 -7.5450001 1.561
13.418 -7.5760002 1.575
14.948 -7.059 1.745
14.824 -6.9559999 1.73
14.836 -6.9169998 1.7309999
14.911 -6.908 1.739
22.271 -5.4330001 2.5550001
22.218 -5.355 2.5480001
22.254 -5.2329998 2.5510001
22.247 -5.1669998 2.55
22.341 -3.102 2.539
22.319 -3.0339999 2.536
22.305 -2.967 2.5339999
22.518 -2.668 2.5539999
22.438 -2.5940001 2.5450001
22.431 -2.5280001 2.543
22.426001 -2.4619999 2.5420001
22.471001 -2.402 2.546
22.474001 -2.3369999 2.546
22.479 -2.2720001 2.546
22.5 -2.2090001 2.5469999
22.563 -2.1500001 2.5539999
22.559999 -2.0840001 2.553
14.554 0.62599999 1.602
14.537 0.648 1.6
14.536 0.67000002 1.6
14.535 0.69199997 1.6
8.2329998 0.62199998 0.90700001
8.1169996 0.62900001 0.89399999
8.0740004 0.64200002 0.889
8.0480003 0.65600002 0.88700002
8.0469999 0.671 0.88700002
8.0640001 0.68900001 0.889
8.0710001 0.70599997 0.88999999
8.0699997 0.72299999 0.88999999
8.0679998 0.73900002 0.88999999
8.0369997 0.75300002 0.88700002
8.0439997 0.77100003 0.88800001
8.0489998 0.78899997 0.88800001
8.0419998 0.80500001 0.88800001
8.0600004 0.82499999 0.88999999
8.0620003 0.84200001 0.89099997
8.0690002 0.861 0.89200002
8.0670004 0.87900001 0.89200002
8.0760002 0.898 0.89300001
8.0889997 0.91799998 0.89499998
8.1070004 0.93900001 0.89700001
8.1120005 0.958 0.898
8.1300001 0.97899997 0.89999998
8.1689997 1.003 0.90499997
8.2279997 1.03 0.912
8.2550001 1.053 0.91500002
8.2819996 1.076 0.91900003
8.3929996 1.1109999 0.93199998
23.228001 4.552 2.6159999
23.167999 4.6069999 2.6110001
23.17 4.6739998 2.6129999
23.223 4.7519999 2.6210001
23.27 4.829 2.628
8.9949999 2.783 1.046
8.8929996 2.783 1.036
8.8470001 2.799 1.0319999
8.8039999 2.816 1.028
8.7650003 2.8340001 1.024
8.6239996 2.819 1.0089999
8.599 2.8410001 1.007
8.6149998 2.8770001 1.01
8.6999998 2.9360001 1.021
8.8540001 3.02 1.041
35.484001 18.235001 4.4390001
35.292999 18.288 4.4219999
35.216999 18.4 4.4200001
12.34 -8.092 1.499
12.399 -8.0539999 1.505
12.464 -8.0190001 1.511
12.516 -7.9759998 1.516
12.57 -7.934 1.521
12.634 -7.8990002 1.528
12.714 -7.8740001 1.536
12.785 -7.842 1.544
12.877 -7.823 1.553
12.972 -7.8060002 1.563
13.065 -7.7870002 1.573
13.19 -7.7870002 1.587
13.342 -7.8010001 1.604
14.95 -6.9159999 1.768
14.86 -6.8060002 1.756
14.935 -6.7719998 1.7640001
15.67 -6.4850001 1.842
15.623 -6.3990002 1.835
15.792 -6.402 1.854
22.231001 -5.5359998 2.566
22.211 -5.4619999 2.563
22.417999 -3.4809999 2.5680001
22.357 -3.414 2.5599999
22.422001 -2.5580001 2.562
22.421 -2.507 2.562
22.417 -2.4560001 2.5610001
22.406 -2.404 2.559
22.396 -2.3529999 2.5580001
22.35 -2.2980001 2.553
22.346001 -2.2479999 2.552
22.341999 -2.1989999 2.5510001
22.382 -2.154 2.556
22.452999 -2.112 2.5639999
22.517 -2.0699999 2.5710001
22.524 -2.0220001 2.5710001
14.7 0.51200002 1.664
14.529 0.53399998 1.6440001
14.48 0.56099999 1.6390001
14.473 0.58999997 1.638
14.478 0.61900002 1.6390001
14.488 0.64999998 1.64
14.493 0.68000001 1.64
14.637 0.71700001 1.656
8.2650003 0.64300001 0.93599999
8.1120005 0.64999998 0.91900003
8.066 0.66500002 0.91399997
8.0380001 0.68199998 0.91100001
8.0419998 0.70200002 0.912
8.0469999 0.722 0.912
8.059 0.74199998 0.91399997
8.0550003 0.76200002 0.91399997
8.0439997 0.77999997 0.91299999
8.0389996 0.80000001 0.912
8.0360003 0.81999999 0.912
8.0319996 0.83999997 0.912
8.0530005 0.86199999 0.91500002
8.0550003 0.88300002 0.91500002
8.0550003 0.90399998 0.91600001
8.073 0.926 0.91799998
8.0830002 0.94800001 0.91900003
8.0889997 0.97000003 0.92000002
8.1040001 0.99299997 0.92199999
8.1370001 1.0190001 0.926
8.1879997 1.0470001 0.93300003
8.2290001 1.074 0.93800002
8.2550001 1.1 0.94099998
8.3850002 1.14 0.95599997
23.291 4.4949999 2.6830001
23.18 4.5430002 2.6719999
23.194 4.6149998 2.675
23.261999 4.6989999 2.6849999
9.1110001 2.865 1.081
8.9569998 2.8469999 1.063
8.7530003 2.812 1.04
8.6429996 2.806 1.028
8.6020002 2.822 1.024
8.592 2.848 1.024
8.6370001 2.8929999 1.03
8.8030005 2.9790001 1.051
12.864 -7.7249999 1.572
12.87 -7.691 1.573
12.902 -7.6719999 1.576
12.91 -7.6389999 1.577
12.95 -7.625 1.582
12.987 -7.6079998 1.586
13.04 -7.5999999 1.592
13.135 -7.6170001 1.604
13.213 -7.6230001 1.613
13.288 -7.6259999 1.622
13.368 -7.6329999 1.631
13.511 -7.6739998 1.648
14.964 -7.027 1.814
14.887 -6.9460001 1.8049999
14.923 -6.9180002 1.809
15.048 -6.9310002 1.823
15.505 -6.632 1.874
15.432 -6.5549998 1.865
15.461 -6.5209999 1.868
15.543 -6.5089998 1.878
15.676 -6.5180001 1.893
15.824 -6.5320001 1.911
22.315001 -5.5100002 2.6600001
22.158001 -5.4070001 2.6400001
22.252001 -5.3639998 2.651
22.337 -3.425 2.6400001
22.343 -3.3610001 2.641
22.402 -2.6530001 2.6400001
22.374001 -2.585 2.635
22.323999 -2.5139999 2.6289999
22.239 -2.4400001 2.618
22.163 -2.3670001 2.608
22.15 -2.3010001 2.6059999
22.259001 -2.2479999 2.618
22.431999 -2.2 2.638
22.462999 -2.138 2.641
22.531 -2.079 2.648
13.447 0.52100003 1.544
13.408 0.53899997 1.54
13.383 0.55800003 1.5369999
13.392 0.57800001 1.5369999
13.472 0.602 1.546
8.4099998 0.63700002 0.96600002
8.2139997 0.63800001 0.94400001
8.1140003 0.64600003 0.93199998
8.0749998 0.65799999 0.92799997
8.0550003 0.67299998 0.926
8.0600004 0.69 0.92699999
8.0530005 0.70499998 0.926
8.0480003 0.72100002 0.926
8.0579996 0.73900002 0.92699999
8.0480003 0.755 0.926
8.0489998 0.77200001 0.926
8.0450001 0.78899997 0.926
8.0430002 0.80599999 0.926
8.052 0.824 0.92799997
8.0530005 0.84200001 0.92799997
8.0430002 0.85900003 0.92699999
8.0760002 0.88099998 0.93099999
8.0810003 0.89899999 0.93199998
8.0819998 0.91799998 0.93300003
8.1099997 0.94 0.93599999
8.1120005 0.95899999 0.93699998
8.1400003 0.98100001 0.94
8.1590004 1.002 0.94300002
8.1949997 1.026 0.94800001
8.2460003 1.052 0.954
8.2670002 1.075 0.95700002
8.4020004 1.113 0.97299999
23.388 4.3210001 2.74
23.329 4.375 2.7349999
23.267 4.4289999 2.73
23.247999 4.4910002 2.7290001
23.239 4.5560002 2.73
23.361 4.6459999 2.747
8.717 2.819 1.063
8.6079998 2.8139999 1.051
8.5719995 2.8329999 1.048
8.5880003 2.868 1.051
8.651 2.9200001 1.0599999
8.974 3.0610001 1.101
12.371 -8.1129999 1.5599999
12.439 -8.0799999 1.568
12.489 -8.0349998 1.572
12.541 -7.9920001 1.5779999
12.6 -7.9530001 1.584
12.675 -7.9250002 1.592
12.757 -7.9000001 1.601
12.843 -7.8779998 1.61
12.948 -7.8670001 1.622
13.027 -7.8390002 1.63
13.13 -7.8260002 1.642
13.241 -7.8169999 1.654
13.372 -7.8189998 1.669
14.992 -6.8670001 1.84
14.95 -6.7789998 1.8329999
15.101 -6.7789998 1.851
15.514 -6.421 1.893
15.501 -6.3499999 1.89
15.629 -6.336 1.905
15.814 -6.3449998 1.927
22.159 -5.5890002 2.6559999
22.115999 -5.5079999 2.6500001
22.245001 -5.4699998 2.664
22.327 -5.421 2.6730001
22.266001 -5.3369999 2.665
22.18 -5.2480001 2.654
22.416 -3.5380001 2.6659999
22.372999 -3.474 2.6600001
22.301001 -3.4059999 2.651
22.288 -3.3469999 2.6489999
22.382 -3.3050001 2.6600001
22.528 -2.674 2.6730001
22.381001 -2.605 2.655
22.364 -2.5510001 2.6530001
22.363001 -2.5 2.652
22.323 -2.4449999 2.6470001
22.233999 -2.385 2.6359999
22.181 -2.329 2.6300001
22.125999 -2.2739999 2.6229999
22.089001 -2.2219999 2.619
22.076 -2.1719999 2.6170001
22.110001 -2.1270001 2.6210001
22.208 -2.0880001 2.632
22.438 -2.062 2.6589999
22.459999 -2.016 2.661
22.464001 -1.9680001 2.6619999
22.535 -1.927 2.6700001
13.394 0.221 1.581
13.385 0.244 1.58
13.358 0.26800001 1.577
13.325 0.29100001 1.573
13.359 0.31600001 1.576
13.326 0.33899999 1.572
13.316 0.36399999 1.571
13.312 0.389 1.5700001
13.298 0.41299999 1.568
13.299 0.43900001 1.568
13.296 0.465 1.568
13.286 0.49000001 1.567
13.294 0.51700002 1.568
13.322 0.54500002 1.571
13.395 0.57499999 1.58
8.3369999 0.64899999 0.98400003
8.1700001 0.65499997 0.96499997
8.0880003 0.66799998 0.95499998
8.0459995 0.68400002 0.94999999
8.0369997 0.70200002 0.949
8.033 0.72100002 0.949
8.04 0.741 0.94999999
8.0439997 0.76099998 0.95099998
8.0489998 0.78200001 0.95200002
8.0410004 0.801 0.95099998
8.0360003 0.81999999 0.95099998
8.0369997 0.84100002 0.95099998
8.0369997 0.861 0.95099998
8.0369997 0.88200003 0.95200002
8.0509996 0.90399998 0.954
8.0649996 0.926 0.95599997
8.0869999 0.94999999 0.958
8.0880003 0.97100002 0.95899999
8.118 0.99599999 0.963
8.1450005 1.021 0.96600002
8.1680002 1.045 0.96899998
8.2189999 1.074 0.97600001
8.257 1.101 0.98100001
8.4519997 1.15 1.0039999
23.150999 3.1500001 2.7520001
23.148001 3.2130001 2.753
23.346001 4.0949998 2.7939999
23.294001 4.1539998 2.789
23.292999 4.2220001 2.79
23.292 4.29 2.7920001
23.282 4.3569999 2.7920001
23.367001 4.4419999 2.8039999
23.447001 4.527 2.8150001
8.7370005 2.8069999 1.082
8.6120005 2.7969999 1.068
8.5790005 2.8150001 1.0650001
8.5760002 2.8440001 1.0650001
8.5699997 2.8710001 1.066
8.6610003 2.9319999 1.0779999
8.7869997 3.0050001 1.095
15.483 -6.5799999 1.942
15.502 -6.5419998 1.944
15.579 -6.5279999 1.9529999
15.681 -6.5240002 1.965
15.83 -6.5380001 1.983
22.246 -5.4289999 2.75
22.226 -5.3590002 2.747
22.312 -5.3140001 2.757
22.146999 -5.145 2.7349999
22.124001 -5.0739999 2.7320001
22.447001 -3.507 2.753
22.346001 -3.4260001 2.74
22.304001 -3.3540001 2.734
22.296 -3.2880001 2.733
22.358 -3.2320001 2.7390001
22.375999 -2.714 2.7360001
22.357 -2.6459999 2.7320001
22.344 -2.5799999 2.73
22.257 -2.5050001 2.7190001
22.145 -2.428 2.704
22.063 -2.355 2.694
22.075001 -2.2920001 2.694
22.181 -2.2379999 2.7060001
22.444 -2.2 2.7379999
22.452999 -2.135 2.7379999
22.513 -2.076 2.7449999
22.516001 -2.0109999 2.744
8.2740002 0.64300001 0.99000001
8.1490002 0.64899999 0.97500002
8.0939999 0.66100001 0.96899998
8.066 0.67500001 0.96600002
8.0500002 0.68900001 0.96399999
8.0509996 0.70599997 0.96399999
8.0550003 0.72299999 0.96499997
8.0570002 0.74000001 0.96499997
8.0439997 0.755 0.96399999
8.0500002 0.773 0.96499997
8.0419998 0.78899997 0.96399999
8.0389996 0.80599999 0.96399999
8.0489998 0.82499999 0.96600002
8.0469999 0.84200001 0.96600002
8.0679998 0.86199999 0.96899998
8.0699997 0.88099998 0.96899998
8.0830002 0.89999998 0.97100002
8.0950003 0.92000002 0.97299999
8.1190004 0.94099998 0.97600001
8.132 0.96200001 0.97799999
8.1569996 0.98400003 0.98199999
8.1739998 1.005 0.98400003
8.1879997 1.026 0.986
8.2320004 1.051 0.99199998
8.2939997 1.079 1
8.5579996 1.1339999 1.0319999
23.235001 3.309 2.8080001
23.280001 3.3740001 2.8150001
23.254 3.4289999 2.8139999
23.256001 3.4890001 2.8150001
23.25 3.5480001 2.816
23.280001 3.6129999 2.822
23.327 3.681 2.829
23.895 4.4829998 2.918
23.785999 4.5289998 2.9070001
8.6890001 2.8110001 1.104
8.5930004 2.8099999 1.0930001
8.5629997 2.8299999 1.091
8.5629997 2.8610001 1.092
8.599 2.9030001 1.098
8.6569996 2.954 1.107
8.8629999 3.056 1.1339999
12.367 -8.1099997 1.618
12.425 -8.0699997 1.624
12.487 -8.0340004 1.63
12.546 -7.9949999 1.637
12.613 -7.9619999 1.6440001
12.687 -7.9320002 1.652
12.794 -7.9229999 1.665
12.881 -7.901 1.674
12.976 -7.8839998 1.6849999
13.06 -7.8590002 1.6950001
13.204 -7.8699999 1.712
15.717 -6.5050001 1.989
15.584 -6.3839998 1.971
15.697 -6.3639998 1.984
15.879 -6.3709998 2.006
22.360001 -3.414 2.756
22.312 -3.3510001 2.7490001
22.285999 -3.2909999 2.7460001
22.288 -3.2349999 2.7460001
22.306999 -3.1819999 2.747
22.308001 -3.128 2.747
22.364 -3.0799999 2.7539999
22.377001 -3.0280001 2.7550001
22.438999 -2.9820001 2.7620001
22.405001 -2.9230001 2.7579999
22.434999 -2.8729999 2.7609999
22.396999 -2.658 2.7550001
22.367001 -2.602 2.7509999
22.372 -2.5510001 2.7509999
22.384001 -2.5020001 2.7520001
22.375 -2.45 2.7509999
22.347 -2.3959999 2.747
22.302999 -2.342 2.7409999
22.239 -2.2850001 2.733
22.173 -2.2290001 2.7249999
22.149 -2.178 2.7219999
22.200001 -2.135 2.7279999
22.370001 -2.1029999 2.7490001
22.535 -2.0699999 2.7690001
22.486 -2.017 2.7620001
22.538 -1.974 2.7690001
13.377 0.223 1.643
13.418 0.24699999 1.648
13.43 0.271 1.649
13.401 0.294 1.645
13.421 0.31900001 1.648
13.429 0.34400001 1.648
13.485 0.37 1.655
8.2480001 0.66299999 1.013
8.1219997 0.67199999 0.99800003
8.0609999 0.68599999 0.991
8.0410004 0.70300001 0.98799998
8.0369997 0.722 0.98799998
8.0380001 0.74199998 0.98799998
8.0430002 0.76200002 0.98900002
8.0380001 0.78200001 0.98900002
8.0299997 0.801 0.98799998
8.0340004 0.82099998 0.98900002
8.0349998 0.84100002 0.98900002
8.0439997 0.86299998 0.991
8.0539999 0.884 0.99199998
8.0629997 0.90600002 0.99400002
8.0760002 0.92799997 0.99599999
8.0860004 0.94999999 0.99699998
8.1040001 0.97399998 1
8.1359997 0.99900001 1.0039999
8.1599998 1.023 1.007
8.1780005 1.0470001 1.01
8.2119999 1.074 1.015
8.283 1.105 1.024
8.948 2.846 1.153
8.6949997 2.7950001 1.1210001
8.6079998 2.796 1.1109999
8.5670004 2.812 1.107
8.5550003 2.8380001 1.107
8.5719995 2.8729999 1.11
8.6309996 2.9219999 1.119
8.7040005 2.977 1.1289999
19.09 -7.0339999 2.47
19.027 -6.9549999 2.4619999
19.098 -6.9239998 2.47
22.26 -5.368 2.8510001
22.280001 -5.3070002 2.852
22.365999 -3.3629999 2.8410001
22.309 -3.289 2.8329999
22.295 -3.2219999 2.8299999
22.264 -3.1530001 2.825
22.285999 -3.0910001 2.8269999
22.306999 -3.029 2.829
22.315001 -2.9649999 2.8299999
22.361 -2.9059999 2.835
22.372999 -2.7119999 2.8340001
22.368999 -2.6459999 2.832
22.386 -2.5829999 2.8340001
22.361 -2.5150001 2.8299999
22.337999 -2.447 2.826
22.278 -2.3759999 2.8180001
22.254 -2.309 2.8139999
22.424 -2.2609999 2.835
22.409 -2.194 2.832
22.513 -2.1389999 2.8440001
8.2259998 0.65600002 1.024
8.1219997 0.66399997 1.011
8.0760002 0.676 1.005
8.0530005 0.69 1.003
8.0570002 0.70700002 1.003
8.0450001 0.72299999 1.002
8.0539999 0.74000001 1.0039999
8.0439997 0.75599998 1.003
8.0489998 0.77399999 1.0039999
8.0500002 0.79100001 1.0039999
8.0629997 0.80900002 1.006
8.073 0.82800001 1.007
8.0719995 0.84600002 1.008
8.0670004 0.86299998 1.007
8.0799999 0.88200003 1.0089999
8.0959997 0.90200001 1.012
8.1040001 0.92199999 1.013
8.118 0.94199997 1.015
8.1370001 0.963 1.018
8.158 0.98400003 1.021
8.1750002 1.006 1.024
8.1859999 1.026 1.025
8.2360001 1.052 1.0319999
8.29 1.079 1.039
8.6780005 2.8080001 1.147
8.5719995 2.8039999 1.135
8.5380001 2.823 1.132
8.5489998 2.8570001 1.1339999
8.5710001 2.895 1.1390001
8.6440001 2.95 1.15
12.465 -8.1750002 1.689
12.537 -8.1429996 1.697
12.598 -8.1059999 1.704
12.674 -8.0769997 1.712
12.774 -8.0640001 1.724
12.847 -8.033 1.733
13 -8.0509996 1.752
19.143 -6.9109998 2.4920001
18.995001 -6.7849998 2.4719999
19.09 -6.7449999 2.483
22.337999 -3.2980001 2.8499999
22.306 -3.237 2.845
22.285999 -3.1789999 2.842
22.295 -3.125 2.8429999
22.298 -3.0710001 2.8429999
22.313999 -3.0190001 2.845
22.304001 -2.9630001 2.8429999
22.343 -2.915 2.848
22.358999 -2.8629999 2.849
22.478001 -2.825 2.8640001
22.455 -2.7690001 2.8610001
22.422001 -2.6600001 2.8559999
22.402 -2.6059999 2.8529999
22.372999 -2.5510001 2.849
22.402 -2.503 2.852
22.398001 -2.4519999 2.8510001
22.427 -2.404 2.855
22.518999 -2.3629999 2.8659999
22.42 -2.303 2.8529999
22.455 -2.257 2.858
22.452999 -2.207 2.8570001
22.49 -2.1619999 2.862
22.485001 -2.0639999 2.8599999
22.561001 -2.023 2.8699999
8.3830004 0.67400002 1.0700001
8.1859999 0.67799997 1.045
8.1040001 0.69 1.035
8.0539999 0.70499998 1.029
8.0450001 0.72399998 1.028
8.0360003 0.74299997 1.027
8.0410004 0.76300001 1.028
8.0380001 0.78200001 1.028
8.052 0.80400002 1.03
8.0559998 0.824 1.03
8.0530005 0.84399998 1.03
8.0600004 0.86500001 1.031
8.0629997 0.88599998 1.0319999
8.0760002 0.90799999 1.034
8.085 0.93000001 1.036
8.1009998 0.95300001 1.038
8.1219997 0.977 1.041
8.1440001 1.001 1.044
8.1829996 1.027 1.05
8.1820002 1.049 1.05
8.2299995 1.077 1.057
8.316 1.11 1.068
8.6820002 2.7909999 1.164
8.5819998 2.789 1.152
8.5500002 2.8069999 1.148
8.5439997 2.835 1.149
8.5690002 2.8729999 1.153
8.6070004 2.915 1.159
8.7299995 2.987 1.177
19.176001 -7.1269999 2.569
18.962999 -6.9910002 2.54
18.924999 -6.9200001 2.5339999
18.969999 -6.8800001 2.54
22.257 -4.8449998 2.9430001
22.226999 -4.7729998 2.9389999
22.333 -3.2260001 2.934
22.323 -3.1600001 2.9319999
22.351 -3.099 2.934
22.326 -3.03 2.9300001
22.32 -2.964 2.9289999
22.344 -2.902 2.931
22.385 -2.842 2.9360001
22.382999 -2.777 2.934
22.445 -2.7190001 2.9419999
22.389 -2.6470001 2.934
22.379999 -2.5810001 2.9319999
22.400999 -2.5179999 2.934
8.4820004 0.67699999 1.096
8.217 0.67199999 1.062
8.1160002 0.68000001 1.049
8.0900002 0.69400001 1.046
8.073 0.70899999 1.044
8.0640001 0.72500002 1.043
8.0559998 0.741 1.0420001
8.0690002 0.759 1.044
8.0710001 0.77600002 1.045
8.0780001 0.79400003 1.046
8.0769997 0.81199998 1.046
8.0839996 0.82999998 1.048
8.0790005 0.847 1.0470001
8.0909996 0.866 1.049
8.0889997 0.884 1.049
8.1049995 0.90399998 1.052
8.1409998 0.926 1.057
8.151 0.94599998 1.059
8.1719999 0.96799999 1.062
8.1990004 0.99000001 1.066
8.2030001 1.01 1.067
8.2449999 1.034 1.073
8.3280001 1.0650001 1.084
8.6529999 2.8010001 1.189
8.573 2.8050001 1.179
8.5620003 2.8310001 1.179
8.552 2.859 1.179
8.5909996 2.902 1.186
8.6750002 2.961 1.199
12.482 -8.1859999 1.749
12.565 -8.1619997 1.7589999
12.635 -8.1300001 1.768
12.722 -8.1079998 1.778
12.796 -8.0780001 1.7869999
12.896 -8.0629997 1.799
13.039 -8.0749998 1.818
13.382 -8.0539999 1.8609999
13.396 -7.9850001 1.8609999
13.434 -7.9310002 1.865
19.174 -6.9229999 2.582
19.01 -6.7909999 2.559
19.122999 -6.757 2.573
22.166 -4.9759998 2.9430001
22.108999 -4.8979998 2.934
22.33 -4.8800001 2.9630001
22.472 -3.0940001 2.964
22.415001 -3.0320001 2.9560001
22.424999 -2.925 2.9560001
22.4 -2.868 2.9519999
22.427 -2.8180001 2.9560001
22.441999 -2.767 2.957
22.462999 -2.717 2.96
22.455 -2.6630001 2.9579999
22.447001 -2.6099999 2.957
22.402 -2.553 2.951
22.419001 -2.5039999 2.9519999
22.424 -2.454 2.9530001
8.3400002 0.69199997 1.105
8.177 0.69700003 1.0829999
8.1029997 0.71100003 1.074
8.0649996 0.727 1.069
8.059 0.74599999 1.068
8.0539999 0.76499999 1.068
8.0600004 0.78500003 1.069
8.0819998 0.80699998 1.072
8.0769997 0.82700002 1.072
8.0780001 0.84799999 1.072
8.0749998 0.86799997 1.072
8.0790005 0.889 1.073
8.0830002 0.91000003 1.074
8.0930004 0.93199998 1.076
8.1190004 0.95599997 1.08
8.1400003 0.98000002 1.0829999
8.1639996 1.0039999 1.087
8.2119999 1.031 1.0930001
8.2589998 1.059 1.1
8.3800001 1.097 1.117
8.7209997 2.8050001 1.214
8.632 2.806 1.202
8.5839996 2.819 1.197
8.5869999 2.8499999 1.198
8.6059999 2.8859999 1.202
8.6700001 2.937 1.2130001
8.823 3.0190001 1.235
14.906 -7.1069999 2.0810001
14.844 -7.033 2.072
14.914 -7.0209999 2.0810001
19.155001 -7.0650001 2.6530001
19.094999 -6.9860001 2.6440001
22.115 -4.8140001 3.0239999
22.065001 -4.7379999 3.016
22.243999 -4.711 3.04
22.468 -2.655 3.043
22.434999 -2.586 3.0380001
22.554001 -2.533 3.053
8.4560003 0.70999998 1.1339999
8.2440004 0.708 1.1059999
8.1789999 0.71899998 1.097
8.1330004 0.73199999 1.091
8.1099997 0.74699998 1.089
8.0959997 0.76200002 1.087
8.0950003 0.77899998 1.087
8.0970001 0.79699999 1.0880001
8.0909996 0.81400001 1.087
8.1040001 0.833 1.09
8.1020002 0.85000002 1.09
8.0930004 0.86699998 1.089
8.0819998 0.884 1.0880001
8.0970001 0.90399998 1.09
8.0830002 0.921 1.089
8.0950003 0.94 1.091
8.1090002 0.96100003 1.0930001
8.1569996 0.98500001 1.1
8.2860003 1.021 1.118
8.7690001 2.839 1.25
8.6400003 2.8280001 1.233
8.6040001 2.846 1.229
8.6049995 2.8770001 1.2309999
8.6440001 2.921 1.238
8.7810001 2.9990001 1.2589999
12.479 -8.184 1.808
12.562 -8.1610003 1.818
12.636 -8.1309996 1.827
12.71 -8.1009998 1.836
12.8 -8.0810003 1.847
12.898 -8.0649996 1.86
13.059 -8.0880003 1.881
14.991 -7.007 2.1140001
14.901 -6.8959999 2.1010001
22.084 -4.9580002 3.03
22.004 -4.8740001 3.0179999
22.073 -4.8239999 3.026
8.2440004 0.74400002 1.133
8.177 0.75700003 1.124
8.1379995 0.77399999 1.119
8.1239996 0.792 1.117
8.1009998 0.81 1.114
8.1009998 0.83099997 1.114
8.0970001 0.85000002 1.114
8.0860004 0.87 1.113
8.0799999 0.88999999 1.113
8.066 0.90899998 1.1109999
8.0690002 0.93000001 1.112
8.0620003 0.94999999 1.1109999
8.0609999 0.97100002 1.112
8.0600004 0.99199998 1.112
8.1339998 1.022 1.122
8.4720001 1.087 1.17
8.7449999 2.8429999 1.263
8.658 2.845 1.252
8.6490002 2.8710001 1.252
8.6829996 2.9119999 1.258
8.8380003 2.9949999 1.2819999
19.709999 -6.802 2.8139999
19.726999 -6.7490001 2.816
19.931 -6.7600002 2.8440001
22.065001 -4.8039999 3.1159999
22.031 -4.7309999 3.1099999
22.214001 -4.7049999 3.135
8.3190002 0.78399998 1.1569999
8.2379999 0.79400003 1.146
8.2089996 0.80900002 1.143
8.1669998 0.82200003 1.137
8.1379995 0.83700001 1.1339999
8.1070004 0.85100001 1.13
8.0799999 0.866 1.126
8.0790005 0.884 1.127
8.0620003 0.89999998 1.125
8.0480003 0.917 1.123
8.026 0.93300003 1.12
8.0380001 0.95300001 1.123
8.0410004 0.972 1.124
8.0719995 0.995 1.128
8.1639996 1.025 1.142
8.7980003 2.911 1.303
8.7930002 2.941 1.304
12.428 -8.1520004 1.859
12.511 -8.1280003 1.869
12.586 -8.099 1.8789999
12.673 -8.0780001 1.89
12.744 -8.0459995 1.899
12.828 -8.0220003 1.91
12.942 -8.0170002 1.925
19.663 -6.652 2.8180001
19.785 -6.619 2.8340001
22.108 -4.8979998 3.1300001
22.223 -4.8569999 3.1459999
8.3039999 0.83200002 1.183
8.2320004 0.84500003 1.173
8.1829996 0.86000001 1.166
8.1309996 0.875 1.159
8.0860004 0.89099997 1.153
8.073 0.91000003 1.151
8.0500002 0.92900002 1.149
8.0290003 0.94700003 1.146
8.0120001 0.96600002 1.1440001
8.0150003 0.98699999 1.145
8.033 1.011 1.148
8.0509996 1.034 1.151
8.2010002 1.075 1.173
19.052 -6.9770002 2.8110001
19.052999 -6.9200001 2.8110001
19.299999 -6.9520001 2.846
19.719 -6.8670001 2.905
19.618 -6.7729998 2.8900001
19.664 -6.73 2.8959999
19.844 -6.7329998 2.9219999
20.184 -6.7880001 2.971
22.221001 -4.7729998 3.237
22.204 -4.7030001 3.233
22.214001 -4.6399999 3.234
22.275999 -4.5879998 3.2420001
22.372999 -4.5419998 3.2550001
8.3179998 0.85600001 1.199
8.158 0.85699999 1.177
8.1040001 0.87 1.169
8.0670004 0.884 1.164
8.0450001 0.89899999 1.1619999
8.0200005 0.91500002 1.158
8.0059996 0.93099999 1.1569999
8.0170002 0.95099998 1.159
8.0240002 0.97100002 1.16
8.0279999 0.99000001 1.161
8.0579996 1.013 1.166
8.1420002 1.043 1.179
12.395 -8.1309996 1.9119999
12.47 -8.1020002 1.9220001
12.539 -8.0699997 1.931
12.621 -8.0459995 1.942
12.716 -8.0290003 1.955
12.866 -8.0469999 1.976
12.974 -8.0369997 1.9910001
19.047001 -6.8060002 2.822
19.104 -6.7519999 2.829
19.711 -6.6690001 2.9130001
19.882 -6.6529999 2.937
22.108999 -4.8979998 3.2279999
22.1 -4.8299999 3.2260001
22.099001 -4.7649999 3.2249999
22.207001 -4.723 3.24
22.278 -4.6729999 3.25
22.598 -4.6750002 3.296
8.2340002 0.88700002 1.214
8.1020002 0.89399999 1.1950001
8.0600004 0.91000003 1.189
8.0270004 0.92699999 1.1849999
8.0010004 0.94400001 1.181
7.9860001 0.96399999 1.179
7.9840002 0.98400003 1.1799999
8.0010004 1.007 1.183
8.0080004 1.03 1.184
8.0959997 1.062 1.197
19.15 -7.073 2.914
19.017 -6.967 2.8929999
19.069 -6.9289999 2.9000001
19.249001 -6.9369998 2.927
21.792 -7.3969998 3.3080001
21.818001 -7.3400002 3.3110001
22.237 -4.776 3.339
22.201 -4.7030001 3.3329999
22.239 -4.6459999 3.3380001
22.358 -4.605 3.3540001
8.2040005 0.86299998 1.223
8.0819998 0.86799997 1.206
8.0609999 0.884 1.2029999
8.0459995 0.89999998 1.201
8.0129995 0.91500002 1.197
8.0089998 0.93199998 1.197
7.9980001 0.94999999 1.196
7.9920001 0.96700001 1.1950001
8.007 0.98799998 1.198
8.0170002 1.008 1.2
8.0670004 1.034 1.2079999
8.1949997 1.0700001 1.228
12.448 -8.1660004 1.979
12.518 -8.1339998 1.989
12.599 -8.1099997 2
12.696 -8.0939999 2.013
12.794 -8.0799999 2.027
13.011 -8.1379995 2.059
19.209 -6.8639998 2.9330001
19.347 -6.8390002 2.9519999
8.2010002 0.88499999 1.249
8.0830002 0.89300001 1.232
8.0340004 0.90799999 1.225
8.0200005 0.92699999 1.223
8.0170002 0.94700003 1.223
7.9879999 0.96499997 1.219
7.9629998 0.98299998 1.216
7.9829998 1.006 1.219
7.9920001 1.028 1.221
8.0380001 1.056 1.229
8.1199999 1.0880001 1.242
8.2110004 0.86400002 1.265
8.1029997 0.87099999 1.249
8.0760002 0.88599998 1.245
8.0450001 0.90100002 1.2410001
8.0380001 0.91799998 1.24
8.0229998 0.935 1.238
8.0010004 0.95099998 1.2359999
7.9980001 0.96899998 1.2359999
8.0039997 0.98799998 1.237
8.0059996 1.008 1.238
8.026 1.029 1.242
8.0950003 1.057 1.253
31.392 12.722 5.283
31.362 12.832 5.2849998
31.334 12.942 5.2880001
8.2600002 0.89200002 1.299
8.1269999 0.898 1.279
8.0810003 0.91399997 1.272
8.0500002 0.93099999 1.268
8.0240002 0.949 1.2640001
8.007 0.96799999 1.262
7.9749999 0.98500001 1.257
7.9809999 1.007 1.2589999
7.9790001 1.027 1.2589999
7.9980001 1.051 1.262
8.0670004 1.082 1.274
8.2729998 1.132 1.307
31.379999 11.745 5.2649999
31.384001 11.857 5.2709999
31.365999 11.961 5.2740002
31.362 12.071 5.2800002
31.379 12.189 5.289
31.434999 12.322 5.3039999
31.403 12.534 5.3109999
31.360001 12.628 5.3099999
31.377001 12.748 5.3189998
31.417999 12.877 5.3330002
31.370001 12.97 5.3309999
8.2189999 0.866 1.307
8.1490002 0.87699997 1.2970001
8.1090002 0.88999999 1.291
8.0810003 0.90499997 1.2869999
8.0950003 0.92500001 1.289
8.0900002 0.94300002 1.289
8.0679998 0.95899999 1.286
8.0369997 0.97399998 1.2819999
8.0159998 0.99000001 1.279
8.0139999 1.0089999 1.279
8.0439997 1.0319999 1.285
8.1009998 1.059 1.294
8.2379999 1.097 1.317
31.319 10.6 5.3140001
31.285999 10.702 5.3150001
31.252001 10.803 5.316
31.247999 10.914 5.322
31.226 11.02 5.3249998
31.246 11.141 5.335
31.233999 11.251 5.3400002
31.236 11.367 5.3470001
31.240999 11.484 5.355
31.242001 11.6 5.3629999
31.245001 11.718 5.3699999
31.278 11.847 5.3829999
31.271999 11.963 5.3889999
31.271999 12.081 5.3969998
31.329 12.221 5.414
31.308001 12.333 5.4180002
31.309 12.453 5.4250002
31.313999 12.575 5.434
31.322001 12.699 5.4429998
31.32 12.819 5.4499998
31.330999 12.946 5.46
8.2939997 0.89700001 1.346
8.1309996 0.89999998 1.3200001
8.0900002 0.91600001 1.314
8.0839996 0.93599999 1.313
8.0900002 0.958 1.3150001
8.0939999 0.97899997 1.316
8.0509996 0.995 1.309
8.0209999 1.013 1.3049999
8.0120001 1.033 1.304
8.0430002 1.058 1.3099999
8.1129999 1.089 1.322
8.2969999 1.136 1.352
31.25 9.9659996 5.3189998
31.229 10.066 5.3210001
31.221001 10.277 5.3299999
31.226999 10.386 5.3369999
31.252001 10.502 5.3470001
31.247999 10.608 5.3520002
31.24 10.714 5.3559999
31.232 10.819 5.3600001
31.249001 10.934 5.369
31.256001 11.045 5.3759999
31.294001 11.167 5.388
31.266001 11.267 5.3889999
31.298 11.388 5.401
31.296 11.497 5.4060001
31.296 11.607 5.4120002
31.304001 11.72 5.4200001
31.313999 11.835 5.428
31.330999 11.952 5.4369998
31.322001 12.06 5.4419999
31.341999 12.179 5.4510002
31.374001 12.303 5.4629998
31.412001 12.43 5.4759998
31.415001 12.768 5.4959998
31.391001 12.871 5.4990001
8.2519999 0.88800001 1.354
8.184 0.89899999 1.344
8.1800003 0.917 1.3430001
8.2049999 0.93800002 1.348
8.1809998 0.954 1.345
8.1400003 0.96899998 1.339
8.1029997 0.98299998 1.3329999
8.0900002 1 1.331
8.0749998 1.017 1.329
8.1490002 1.046 1.342
31.239 8.6459999 5.3569999
31.315001 8.7709999 5.3759999
31.184999 8.8380003 5.3590002
31.246 8.9589996 5.3759999
31.191999 9.0480003 5.3720002
31.17 9.1459999 5.3740001
31.146999 9.2440004 5.3759999
31.163 9.3549995 5.3850002
31.177 9.4659996 5.3940001
31.129 9.5579996 5.3909998
31.172001 9.6780005 5.4050002
31.145 9.7779999 5.4070001
31.129999 9.8809996 5.4099998
31.136 9.9910002 5.4180002
31.159 10.108 5.428
31.15 10.215 5.4330001
31.171 10.332 5.4439998
31.177 10.445 5.4510002
31.171 10.554 5.4569998
31.17 10.666 5.4629998
31.188999 10.784 5.474
31.204 10.903 5.4829998
31.205 11.017 5.4899998
31.208 11.132 5.4980001
31.233 11.255 5.5089998
31.209999 11.362 5.513
