# .PCD v0.7 - Point Cloud Data file format
VERSION 0.7
FIELDS x y z
SIZE 4 4 4
TYPE F F F
COUNT 1 1 1
WIDTH 1935
HEIGHT 1
VIEWPOINT 0 0 0 1 0 0 0
POINTS 1935
DATA ascii
9.427 -2.7850001 0.12899999
9.4659996 -2.7639999 0.13
9.4949999 -2.74 0.13
9.5299997 -2.717 0.131
9.5609999 -2.694 0.131
9.5939999 -2.671 0.132
9.6300001 -2.6489999 0.132
9.6820002 -2.631 0.133
9.7390003 -2.6140001 0.134
9.7740002 -2.592 0.134
9.802 -2.5669999 0.13500001
9.8240004 -2.5409999 0.13500001
9.8730001 -2.5220001 0.13600001
9.9060001 -2.4990001 0.13600001
9.9110003 -2.4690001 0.13600001
9.9280005 -2.4419999 0.13600001
9.9750004 -2.4219999 0.13699999
10.008 -2.3989999 0.138
10.022 -2.3710001 0.138
10.049 -2.3469999 0.138
10.038 -2.3139999 0.138
10.061 -2.289 0.138
10.125 -2.2720001 0.139
10.151 -2.2479999 0.14
10.195 -2.227 0.14
10.222 -2.2030001 0.141
10.238 -2.1760001 0.141
10.276 -2.155 0.142
10.293 -2.128 0.142
10.337 -2.108 0.142
10.367 -2.0840001 0.14300001
10.405 -2.062 0.14300001
10.424 -2.036 0.14399999
10.43 -2.0079999 0.14399999
10.477 -1.988 0.145
10.483 -1.96 0.145
10.549 -1.943 0.146
10.549 -1.915 0.146
10.566 -1.8890001 0.146
10.594 -1.865 0.146
10.619 -1.841 0.147
10.665 -1.821 0.147
10.69 -1.796 0.148
10.709 -1.771 0.148
10.766 -1.753 0.149
10.774 -1.726 0.149
10.781 -1.699 0.149
10.836 -1.6799999 0.15000001
10.864 -1.6569999 0.15000001
10.879 -1.631 0.15099999
10.936 -1.612 0.15099999
10.95 -1.587 0.152
10.971 -1.563 0.152
10.977 -1.5369999 0.152
10.984 -1.511 0.152
11.009 -1.487 0.153
11.019 -1.462 0.153
11.075 -1.443 0.154
11.072 -1.416 0.154
11.108 -1.3940001 0.154
11.114 -1.368 0.154
11.177 -1.35 0.155
11.195 -1.326 0.156
11.238 -1.3049999 0.156
11.265 -1.2819999 0.15700001
11.297 -1.26 0.15700001
11.336 -1.239 0.15800001
11.342 -1.214 0.15800001
11.406 -1.1950001 0.15899999
11.409 -1.17 0.15899999
11.453 -1.149 0.15899999
11.467 -1.126 0.16
11.5 -1.104 0.16
11.546 -1.0829999 0.161
11.584 -1.062 0.161
11.612 -1.04 0.162
11.65 -1.018 0.162
11.701 -0.99800003 0.163
11.787 -0.98100001 0.16500001
11.937 -0.96799999 0.167
11.961 -0.94599998 0.167
11.965 0.155 0.048
11.992 0.177 0.048
12.033 0.199 0.048
12.044 0.221 0.048
12.059 0.244 0.048
12.073 0.26699999 0.048
12.053 0.28999999 0.048
12.057 0.31299999 0.046999998
12.069 0.33700001 0.046999998
12.072 0.36000001 0.046999998
12.085 0.38499999 0.046999998
12.082 0.40900001 0.046999998
12.099 0.43399999 0.046999998
12.11 0.45899999 0.046999998
12.085 0.48300001 0.046
12.121 0.50999999 0.046
12.134 0.53600001 0.046
12.162 0.56300002 0.046
12.135 0.588 0.046
12.14 0.61400002 0.046
12.14 0.64099997 0.045000002
12.166 0.66900003 0.045000002
12.197 0.69800001 0.045000002
12.193 0.72500002 0.045000002
12.2 0.75300002 0.045000002
12.207 0.78100002 0.045000002
12.216 0.81 0.044
12.243 0.83999997 0.044
12.251 0.86900002 0.044
12.236 0.89600003 0.044
12.258 0.92699999 0.044
12.277 0.958 0.044
12.294 0.98799998 0.044
12.303 1.0190001 0.043000001
12.316 1.05 0.043000001
12.339 1.082 0.043000001
12.361 1.115 0.043000001
12.379 1.147 0.043000001
12.412 1.181 0.043000001
12.396 1.211 0.043000001
12.424 1.245 0.043000001
12.42 1.276 0.041999999
12.432 1.309 0.041999999
12.438 1.342 0.041999999
12.441 1.375 0.041999999
12.478 1.411 0.041999999
12.529 1.45 0.041999999
12.542 1.485 0.041999999
12.524 1.516 0.041000001
12.552 1.553 0.041000001
12.555 1.587 0.041000001
12.577 1.624 0.041000001
12.608 1.6619999 0.041000001
12.651 1.702 0.041000001
12.679 1.7410001 0.041000001
12.7 1.779 0.039999999
8.066 1.152 0.025
12.756 1.822 0.039999999
7.8239999 1.1390001 0.024
12.971 1.8890001 0.041000001
7.7199998 1.146 0.024
7.6960001 1.164 0.024
7.6789999 1.183 0.024
7.6729999 1.204 0.024
7.665 1.224 0.023
7.6950002 1.251 0.023
7.7779999 1.2869999 0.023
7.8699999 1.325 0.024
7.9330001 1.359 0.024
12.938 2.2160001 0.039000001
12.939 2.2550001 0.039000001
12.924 2.29 0.039000001
12.929 2.329 0.037999999
12.967 2.3740001 0.037999999
12.966 2.4119999 0.037999999
13.012 2.46 0.037999999
13.016 2.5 0.037999999
13.048 2.5450001 0.037999999
13.073 2.5899999 0.037
13.08 2.631 0.037
13.102 2.675 0.037
13.128 2.72 0.037
13.142 2.7639999 0.037
13.191 2.8150001 0.037
13.18 2.8529999 0.035999998
13.216 2.902 0.035999998
13.249 2.95 0.035999998
13.259 2.994 0.035999998
13.315 3.049 0.035999998
8.9840002 2.085 0.024
13.532 3.141 0.035999998
8.9040003 2.095 0.024
8.8809996 2.118 0.023
8.8739996 2.1440001 0.023
8.8979998 2.178 0.023
8.967 2.224 0.023
9.1149998 2.29 0.023
9.1190004 2.3199999 0.023
9.1260004 2.352 0.023
9.1739998 2.3940001 0.023
9.3959999 2.4820001 0.024
13.745 3.631 0.035
13.702 3.665 0.034000002
13.74 3.72 0.034000002
13.749 3.767 0.034000002
13.785 3.823 0.034000002
13.846 3.885 0.034000002
13.886 3.9430001 0.034000002
13.918 3.9979999 0.033
13.932 4.0479999 0.033
13.977 4.1079998 0.033
13.978 4.1550002 0.033
13.991 4.2059999 0.033
14.039 4.2680001 0.033
14.076 4.3260002 0.032000002
14.135 4.3920002 0.032000002
14.199 4.46 0.032000002
14.25 4.5250001 0.032000002
14.226 4.566 0.032000002
14.319 4.6440001 0.032000002
14.313 4.6919999 0.032000002
14.351 4.7529998 0.030999999
14.404 4.8200002 0.030999999
14.421 4.8759999 0.030999999
14.451 4.9359999 0.030999999
14.529 5.013 0.030999999
14.636 5.0999999 0.030999999
14.69 5.1700001 0.030999999
14.717 5.2309999 0.029999999
14.79 5.309 0.029999999
14.816 5.3699999 0.029999999
14.803 5.4169998 0.029999999
14.945 5.5209999 0.029999999
15.101 5.632 0.029999999
15.132 5.697 0.029999999
15.165 5.763 0.028999999
15.296 5.8670001 0.028999999
15.191 5.8800001 0.028999999
15.197 5.9369998 0.028999999
15.244 6.0089998 0.028999999
15.28 6.0780001 0.028000001
15.342 6.1570001 0.028000001
15.315 6.2010002 0.028000001
15.357 6.2729998 0.028000001
15.397 6.3449998 0.027000001
15.5 6.4419999 0.027000001
12.159 5.9790001 0.017000001
12.057 5.973 0.016000001
11.983 5.98 0.016000001
11.936 6.0009999 0.016000001
12.008 6.0799999 0.016000001
12.174 6.2090001 0.016000001
12.207 6.2709999 0.015
12.181 6.302 0.015
12.2 6.3559999 0.015
12.099 6.3920002 0.014
12.034 6.401 0.014
12.14 6.5019999 0.014
7.8860002 -4.6469998 0.126
7.895 -4.6300001 0.126
7.908 -4.6160002 0.126
7.9130001 -4.5960002 0.126
7.9349999 -4.586 0.127
7.934 -4.5630002 0.127
7.9419999 -4.5450001 0.127
7.96 -4.5320001 0.127
7.974 -4.5180001 0.127
7.9910002 -4.5050001 0.12800001
8.007 -4.4910002 0.12800001
8.0109997 -4.4699998 0.12800001
8.0200005 -4.4520001 0.12800001
8.0299997 -4.4349999 0.12899999
8.0459995 -4.421 0.12899999
8.0600004 -4.4050002 0.12899999
8.073 -4.3889999 0.12899999
8.0799999 -4.3699999 0.13
8.092 -4.3530002 0.13
8.1129999 -4.3410001 0.13
8.1199999 -4.3210001 0.13
8.1450005 -4.3109999 0.131
8.1529999 -4.2919998 0.131
8.1619997 -4.2729998 0.131
8.1739998 -4.256 0.131
8.1829996 -4.237 0.132
8.1990004 -4.2220001 0.132
8.2220001 -4.21 0.132
8.2440004 -4.197 0.133
8.2620001 -4.1830001 0.133
8.2670002 -4.1609998 0.133
8.2679996 -4.138 0.133
8.2889996 -4.1240001 0.133
8.2959995 -4.1040001 0.134
8.3100004 -4.0869999 0.134
8.3260002 -4.0700002 0.134
8.3529997 -4.0599999 0.13500001
8.3649998 -4.0409999 0.13500001
8.3620005 -4.0159998 0.13500001
8.382 -4.0009999 0.13500001
8.3879995 -3.98 0.13500001
8.4139996 -3.967 0.13600001
8.4350004 -3.9530001 0.13600001
8.4549999 -3.938 0.13699999
8.4689999 -3.9200001 0.13699999
8.4879999 -3.904 0.13699999
8.507 -3.888 0.138
8.5200005 -3.869 0.138
8.5450001 -3.8559999 0.138
8.5600004 -3.8380001 0.139
8.5629997 -3.8139999 0.139
8.5719995 -3.7939999 0.139
8.5930004 -3.7780001 0.139
8.6000004 -3.756 0.139
8.6120005 -3.7360001 0.14
8.6409998 -3.724 0.14
8.6499996 -3.7030001 0.14
8.6800003 -3.6900001 0.141
8.6879997 -3.668 0.141
8.6899996 -3.6440001 0.141
8.71 -3.6270001 0.141
8.7270002 -3.609 0.142
8.7650003 -3.599 0.142
8.7729998 -3.5769999 0.142
8.7880001 -3.5580001 0.14300001
8.8030005 -3.5380001 0.14300001
8.8190002 -3.5190001 0.14300001
8.8290005 -3.497 0.14399999
8.8260002 -3.471 0.14300001
8.8649998 -3.46 0.14399999
8.9049997 -3.45 0.145
8.8959999 -3.421 0.145
8.9219999 -3.405 0.145
8.9390001 -3.385 0.146
8.948 -3.3629999 0.146
8.9700003 -3.345 0.146
9.0059996 -3.3329999 0.147
9.0270004 -3.3139999 0.147
9.0019999 -3.279 0.147
9.0179996 -3.2579999 0.147
9.0579996 -3.247 0.148
9.0799999 -3.2279999 0.148
9.1029997 -3.21 0.148
9.1160002 -3.188 0.149
9.1529999 -3.175 0.149
9.177 -3.1570001 0.15000001
9.2040005 -3.1389999 0.15000001
9.2340002 -3.1229999 0.15099999
9.2440004 -3.099 0.15099999
9.2620001 -3.079 0.15099999
9.3039999 -3.066 0.152
9.3459997 -3.052 0.153
9.3690004 -3.033 0.153
9.4020004 -3.016 0.154
9.4440002 -3.003 0.154
9.5550003 -3.01 0.156
9.6049995 -2.9979999 0.15700001
9.6499996 -2.984 0.15800001
9.5959997 -2.9400001 0.15700001
9.6009998 -2.914 0.15700001
9.6190004 -2.891 0.15800001
9.6160002 -2.8629999 0.15700001
9.6409998 -2.842 0.15800001
9.6789999 -2.826 0.15899999
9.7139997 -2.8080001 0.15899999
9.7299995 -2.7839999 0.15899999
9.7550001 -2.763 0.16
9.7629995 -2.737 0.16
9.7840004 -2.7149999 0.16
9.8260002 -2.6989999 0.161
9.8450003 -2.675 0.162
9.8610001 -2.651 0.162
9.8900003 -2.631 0.162
9.9200001 -2.6099999 0.163
9.9309998 -2.5840001 0.163
9.9530001 -2.5610001 0.163
9.9589996 -2.5339999 0.164
10.007 -2.5179999 0.164
10.007 -2.4890001 0.164
10.056 -2.4719999 0.16500001
10.065 -2.4449999 0.16500001
10.062 -2.4159999 0.16500001
10.102 -2.3959999 0.16599999
10.132 -2.3740001 0.167
10.138 -2.3469999 0.167
10.176 -2.326 0.167
10.185 -2.299 0.168
10.213 -2.276 0.168
10.254 -2.256 0.169
10.271 -2.23 0.169
10.277 -2.2019999 0.169
10.313 -2.1800001 0.17
10.351 -2.158 0.171
10.389 -2.1359999 0.171
10.416 -2.112 0.17200001
10.442 -2.0869999 0.17200001
10.462 -2.0610001 0.17200001
10.518 -2.0420001 0.17299999
10.541 -2.016 0.17399999
10.547 -1.987 0.17399999
10.581 -1.964 0.175
10.623 -1.941 0.175
10.64 -1.914 0.176
10.685 -1.891 0.176
10.725 -1.867 0.177
10.736 -1.839 0.177
10.785 -1.816 0.178
10.821 -1.791 0.17900001
10.835 -1.763 0.17900001
10.895 -1.7410001 0.18000001
10.9 -1.711 0.18000001
10.937 -1.6849999 0.18099999
10.968 -1.659 0.18099999
11 -1.632 0.182
11.047 -1.608 0.183
11.071 -1.58 0.183
11.1 -1.552 0.184
11.115 -1.522 0.184
11.155 -1.4960001 0.185
11.22 -1.473 0.186
11.261 -1.446 0.186
11.29 -1.4170001 0.18700001
11.339 -1.391 0.18799999
11.392 -1.365 0.189
11.445 -1.339 0.189
11.502 -1.313 0.19
11.552 -1.286 0.191
11.569 -1.255 0.192
11.599 -1.225 0.192
11.695 -1.202 0.19400001
11.747 -1.173 0.19499999
11.81 -1.146 0.19599999
11.915 -1.122 0.197
11.965 -1.0930001 0.198
12.022 -1.064 0.199
12.082 -1.035 0.2
12.177 -1.008 0.20200001
12.202 -0.97600001 0.20200001
12.711 0.39199999 0.075999998
12.701 0.41 0.075999998
12.583 0.42399999 0.075000003
12.682 0.44600001 0.075999998
12.634 0.463 0.075000003
12.596 0.48100001 0.075000003
12.659 0.50300002 0.075000003
12.61 0.52100003 0.075000003
12.601 0.54000002 0.074000001
12.609 0.56099999 0.074000001
12.605 0.58099997 0.074000001
12.591 0.60100001 0.074000001
12.581 0.62199998 0.074000001
12.586 0.64300001 0.072999999
12.591 0.66500002 0.072999999
12.591 0.68699998 0.072999999
12.591 0.70899999 0.072999999
12.599 0.73199999 0.072999999
12.593 0.755 0.072999999
12.593 0.778 0.071999997
12.586 0.80000001 0.071999997
12.608 0.82499999 0.071999997
12.646 0.852 0.071999997
12.62 0.87400001 0.071999997
12.643 0.89999998 0.071999997
12.65 0.92500001 0.071999997
12.667 0.95099998 0.071999997
12.664 0.97600001 0.071000002
12.702 1.005 0.071000002
12.707 1.031 0.071000002
12.738 1.0599999 0.071000002
12.763 1.0880001 0.071000002
12.767 1.1160001 0.071000002
12.776 1.143 0.071000002
12.756 1.169 0.071000002
12.808 1.201 0.071000002
12.793 1.227 0.071000002
12.794 1.256 0.07
12.802 1.285 0.07
12.8 1.313 0.07
12.841 1.346 0.07
12.853 1.377 0.07
12.885 1.41 0.07
12.889 1.4400001 0.07
12.907 1.472 0.07
12.888 1.5 0.07
12.903 1.5319999 0.068999998
12.912 1.564 0.068999998
12.925 1.596 0.068999998
12.922 1.627 0.068999998
12.942 1.661 0.068999998
12.946 1.694 0.068999998
12.961 1.728 0.068999998
12.971 1.761 0.068999998
13.014 1.8 0.068999998
7.882 1.11 0.041000001
13.08 1.842 0.068999998
7.7729998 1.114 0.041000001
7.7140002 1.126 0.039999999
7.6849999 1.141 0.039999999
7.6690001 1.159 0.039999999
7.6550002 1.177 0.039999999
7.6630001 1.198 0.039999999
7.6729999 1.22 0.039999999
7.717 1.248 0.039999999
7.7989998 1.2819999 0.039999999
7.8639998 1.314 0.039999999
7.908 1.3430001 0.039999999
13.352 2.267 0.068999998
8.059 1.39 0.041000001
13.257 2.2869999 0.068000004
13.247 2.322 0.068000004
13.242 2.358 0.067000002
13.289 2.4030001 0.068000004
13.317 2.4460001 0.067000002
13.326 2.4849999 0.067000002
13.377 2.5320001 0.067000002
13.384 2.572 0.067000002
13.407 2.615 0.067000002
13.412 2.655 0.067000002
13.431 2.697 0.067000002
13.462 2.743 0.067000002
13.496 2.79 0.067000002
13.526 2.836 0.067000002
13.543 2.8800001 0.067000002
13.576 2.927 0.067000002
13.581 2.9690001 0.067000002
13.6 3.0139999 0.067000002
13.625 3.0610001 0.067000002
13.689 3.1170001 0.067000002
9.0979996 2.0999999 0.044
13.734 3.1700001 0.067000002
8.9390001 2.0899999 0.043000001
8.8830004 2.105 0.043000001
8.868 2.1289999 0.043000001
8.868 2.1570001 0.043000001
8.8900003 2.1900001 0.043000001
8.9399996 2.2309999 0.043000001
9.0880003 2.296 0.043000001
9.1210003 2.3340001 0.043000001
9.1169996 2.362 0.043000001
9.151 2.4000001 0.043000001
9.368 2.4879999 0.044
14.071 3.737 0.067000002
14.065 3.7809999 0.067000002
14.101 3.8369999 0.067000002
14.141 3.8940001 0.067000002
14.168 3.9489999 0.066
14.173 3.997 0.066
14.233 4.0609999 0.066
14.275 4.1209998 0.066
14.28 4.171 0.066
14.298 4.224 0.066
14.346 4.2870002 0.066
14.412 4.3559999 0.066
14.424 4.4089999 0.066
14.49 4.4790001 0.066
14.541 4.5450001 0.067000002
14.583 4.6090002 0.067000002
14.608 4.6680002 0.066
14.609 4.7189999 0.066
14.687 4.796 0.067000002
14.74 4.8660002 0.067000002
14.85 4.9549999 0.067000002
14.865 5.013 0.067000002
14.886 5.073 0.067000002
15.012 5.1700001 0.067000002
15.162 5.277 0.068000004
15.159 5.3309999 0.067000002
15.136 5.3779998 0.067000002
15.184 5.4499998 0.067000002
15.197 5.5110002 0.067000002
15.247 5.585 0.067000002
15.336 5.6739998 0.067000002
15.424 5.7639999 0.068000004
15.461 5.836 0.068000004
15.464 5.895 0.067000002
15.521 5.9749999 0.067000002
15.555 6.0469999 0.067000002
15.622 6.132 0.068000004
15.631 6.1950002 0.067000002
15.665 6.2690001 0.067000002
15.735 6.3569999 0.067000002
15.748 6.4229999 0.067000002
15.773 6.494 0.067000002
12.343 5.974 0.050000001
12.175 5.9429998 0.048999999
12.026 5.921 0.048
11.958 5.9380002 0.048
11.914 5.9660001 0.048
12.014 6.0669999 0.048
12.204 6.2140002 0.048999999
12.199 6.2639999 0.048
12.151 6.2909999 0.048
12.289 6.415 0.048
12.123 6.3800001 0.048
12.055 6.3959999 0.046999998
12.221 6.5370002 0.048
9.8889999 6.8340001 0.035
9.8610001 6.8629999 0.035
7.546 -4.9710002 0.14
7.586 -4.9489999 0.141
7.6059999 -4.915 0.141
7.6290002 -4.882 0.141
7.6620002 -4.8569999 0.142
7.6939998 -4.8299999 0.142
7.717 -4.7989998 0.14300001
7.7319999 -4.7620001 0.14300001
7.763 -4.7350001 0.14399999
7.79 -4.7059999 0.14399999
7.823 -4.6810002 0.145
7.836 -4.6430001 0.145
7.8579998 -4.612 0.145
7.881 -4.5809999 0.145
7.9120002 -4.5549998 0.146
7.9380002 -4.526 0.146
7.9559999 -4.493 0.147
7.98 -4.4629998 0.147
8.0120001 -4.4369998 0.148
8.0360003 -4.4070001 0.148
8.0609999 -4.3779998 0.148
8.0579996 -4.335 0.148
8.0679998 -4.2979999 0.148
8.1269999 -4.2870002 0.15000001
8.1689997 -4.2670002 0.15000001
8.1929998 -4.2379999 0.15099999
8.2080002 -4.204 0.15099999
8.2329998 -4.1760001 0.15099999
8.2480001 -4.1430001 0.152
8.29 -4.1220002 0.152
8.2969999 -4.085 0.152
8.3290005 -4.0609999 0.153
8.3769999 -4.0440001 0.154
8.3789997 -4.0050001 0.154
8.3950005 -3.9719999 0.154
8.415 -3.9430001 0.154
8.4639997 -3.9260001 0.155
8.4949999 -3.901 0.156
8.526 -3.8759999 0.156
8.5550003 -3.8499999 0.15700001
8.5889997 -3.8269999 0.15700001
8.6029997 -3.7939999 0.15800001
8.6260004 -3.766 0.15800001
8.6429996 -3.7349999 0.15800001
8.677 -3.7119999 0.15899999
8.6999998 -3.684 0.15899999
8.724 -3.6559999 0.16
8.7580004 -3.632 0.16
8.7679996 -3.599 0.16
8.8030005 -3.576 0.161
8.8470001 -3.5569999 0.162
8.868 -3.5280001 0.162
8.8959999 -3.503 0.163
8.9309998 -3.4790001 0.163
8.9530001 -3.451 0.164
8.9840002 -3.427 0.164
9.0179996 -3.4030001 0.16500001
9.0369997 -3.3740001 0.16500001
9.0620003 -3.348 0.16599999
9.1190004 -3.3329999 0.167
9.1490002 -3.3080001 0.167
9.1700001 -3.28 0.168
9.2150002 -3.26 0.168
9.2399998 -3.234 0.169
9.2770004 -3.211 0.169
9.3330002 -3.1949999 0.17
9.3739996 -3.174 0.171
9.4020004 -3.148 0.17200001
9.4490004 -3.1289999 0.17299999
9.5200005 -3.118 0.17399999
9.5480003 -3.092 0.17399999
9.5749998 -3.066 0.175
9.6850004 -3.066 0.177
9.7040005 -3.0369999 0.177
9.7139997 -3.006 0.177
9.7150002 -2.971 0.177
9.7609997 -2.951 0.178
9.7620001 -2.9170001 0.178
9.7919998 -2.892 0.17900001
9.8219995 -2.8670001 0.17900001
9.8509998 -2.842 0.18000001
9.8830004 -2.8180001 0.18000001
9.9049997 -2.79 0.18099999
9.9209995 -2.7609999 0.18099999
9.9569998 -2.7379999 0.182
9.9809999 -2.7119999 0.182
10.009 -2.6860001 0.183
10.041 -2.6619999 0.183
10.08 -2.6400001 0.184
10.097 -2.612 0.184
10.12 -2.585 0.185
10.145 -2.559 0.185
10.163 -2.5309999 0.186
10.206 -2.51 0.186
10.229 -2.484 0.18700001
10.244 -2.4549999 0.18700001
10.28 -2.4319999 0.18799999
10.314 -2.4089999 0.18799999
10.326 -2.3800001 0.189
10.366 -2.358 0.189
10.387 -2.3310001 0.19
10.41 -2.3050001 0.19
10.437 -2.28 0.191
10.491 -2.2609999 0.192
10.507 -2.234 0.192
10.556 -2.2130001 0.193
10.56 -2.184 0.193
10.61 -2.1630001 0.19400001
10.64 -2.1389999 0.19400001
10.654 -2.112 0.19499999
10.688 -2.0880001 0.19499999
10.723 -2.0650001 0.19599999
10.754 -2.0409999 0.197
10.792 -2.0179999 0.197
10.819 -1.993 0.198
10.827 -1.965 0.198
10.885 -1.946 0.199
10.898 -1.919 0.199
10.928 -1.895 0.2
10.941 -1.868 0.2
10.979 -1.845 0.20100001
11.009 -1.821 0.20100001
11.049 -1.799 0.20200001
11.134 -1.784 0.204
11.175 -1.762 0.205
11.167 -1.732 0.204
11.164 -1.7029999 0.204
11.198 -1.6799999 0.205
11.227 -1.656 0.206
11.275 -1.635 0.207
11.277 -1.607 0.207
11.34 -1.5880001 0.208
11.361 -1.563 0.208
11.401 -1.541 0.20900001
11.445 -1.5190001 0.20999999
11.474 -1.495 0.20999999
11.501 -1.471 0.211
11.507 -1.444 0.211
11.549 -1.4220001 0.212
11.592 -1.401 0.213
11.604 -1.375 0.213
11.646 -1.353 0.214
11.718 -1.334 0.215
11.732 -1.309 0.215
11.786 -1.289 0.21600001
11.81 -1.265 0.21699999
11.824 -1.24 0.21699999
11.887 -1.22 0.21799999
11.862 -1.191 0.21799999
11.909 -1.17 0.219
11.996 -1.152 0.22
12.037 -1.13 0.221
12.045 -1.105 0.221
12.11 -1.085 0.223
12.191 -1.066 0.22400001
12.21 -1.0420001 0.22499999
12.198 -1.016 0.22400001
12.226 -0.99299997 0.22499999
12.293 -0.97299999 0.226
12.262 -0.94499999 0.226
12.284 -0.92199999 0.226
12.352 -0.90200001 0.228
12.468 -0.88499999 0.23
12.386 0.162 0.111
12.433 0.185 0.111
12.45 0.208 0.111
12.457 0.23100001 0.111
12.483 0.255 0.111
12.53 0.27900001 0.111
12.509 0.30199999 0.111
12.536 0.32699999 0.111
12.547 0.352 0.111
12.548 0.37599999 0.111
12.558 0.40099999 0.111
12.584 0.428 0.111
12.598 0.45300001 0.111
12.618 0.47999999 0.111
12.659 0.50800002 0.111
12.613 0.53200001 0.11
12.633 0.55900002 0.11
12.622 0.58600003 0.11
12.617 0.61299998 0.11
12.64 0.64099997 0.11
12.642 0.66900003 0.109
12.658 0.69700003 0.109
12.645 0.72500002 0.109
12.668 0.75400001 0.109
12.674 0.78299999 0.109
12.676 0.81199998 0.109
12.686 0.84200001 0.109
12.681 0.87099999 0.109
12.702 0.90200001 0.109
12.739 0.93400002 0.109
12.772 0.96700001 0.109
12.755 0.99599999 0.108
12.775 1.028 0.108
12.822 1.063 0.109
12.832 1.095 0.109
12.879 1.131 0.109
12.892 1.163 0.109
12.907 1.197 0.109
12.892 1.228 0.108
12.898 1.261 0.108
12.906 1.294 0.108
12.909 1.327 0.108
12.909 1.36 0.108
12.92 1.395 0.108
12.93 1.429 0.108
12.961 1.467 0.108
12.97 1.502 0.108
12.975 1.5369999 0.108
12.973 1.571 0.107
12.993 1.608 0.107
13.04 1.649 0.108
13.036 1.683 0.107
13.037 1.719 0.107
13.058 1.757 0.107
13.092 1.798 0.107
13.111 1.837 0.107
13.143 1.877 0.107
7.8369999 1.141 0.064000003
13.259 1.931 0.108
7.723 1.146 0.063000001
7.6880002 1.163 0.061999999
7.6719999 1.182 0.061999999
7.6539998 1.201 0.061999999
7.6589999 1.224 0.061999999
7.6680002 1.247 0.061999999
7.7319999 1.28 0.061999999
7.8340001 1.319 0.063000001
7.8889999 1.352 0.063000001
8.0100002 1.396 0.064000003
13.474 2.348 0.108
13.452 2.3840001 0.108
13.451 2.4230001 0.108
13.489 2.47 0.108
13.519 2.5150001 0.108
13.565 2.5639999 0.108
13.584 2.609 0.108
13.622 2.6570001 0.108
13.635 2.701 0.108
13.674 2.75 0.108
13.702 2.7969999 0.108
13.734 2.846 0.108
13.79 2.9000001 0.109
13.811 2.947 0.109
13.826 2.993 0.109
13.858 3.043 0.109
13.914 3.098 0.109
13.96 3.152 0.109
9.0340004 2.0680001 0.07
14.11 3.23 0.11
8.9219999 2.0710001 0.068999998
8.8979998 2.0929999 0.068999998
8.8800001 2.1170001 0.068999998
8.8909998 2.148 0.068999998
8.9090004 2.181 0.068999998
9.0450001 2.243 0.07
9.1169996 2.29 0.07
9.1300001 2.323 0.07
9.1610003 2.3599999 0.07
9.349 2.4389999 0.071999997
14.442 3.7679999 0.111
14.435 3.813 0.111
14.453 3.865 0.111
14.485 3.921 0.111
14.565 3.9909999 0.111
14.567 4.039 0.111
14.59 4.0929999 0.111
14.644 4.1570001 0.112
14.706 4.224 0.112
14.721 4.277 0.112
14.766 4.3390002 0.112
14.793 4.3969998 0.112
14.871 4.4699998 0.112
14.875 4.5209999 0.112
14.941 4.592 0.113
15.022 4.6669998 0.113
15.081 4.737 0.113
15.097 4.7930002 0.113
15.133 4.8559999 0.113
15.235 4.941 0.114
15.233 4.9920001 0.114
15.272 5.0580001 0.114
15.35 5.1360002 0.114
15.383 5.1999998 0.114
15.439 5.2729998 0.115
15.526 5.3559999 0.115
15.559 5.421 0.115
15.623 5.4980001 0.115
15.653 5.5630002 0.116
15.688 5.6300001 0.116
15.781 5.7189999 0.116
15.808 5.7839999 0.116
15.829 5.8470001 0.116
15.895 5.927 0.116
15.905 5.987 0.116
15.953 6.0619998 0.117
16.013 6.1409998 0.117
16.023001 6.2020001 0.117
16.077999 6.2800002 0.117
16.139 6.3610001 0.117
16.158001 6.4260001 0.117
16.263 6.526 0.118
14.78 6.0359998 0.107
14.794 6.0949998 0.107
12.356 5.9400001 0.086000003
12.272 5.9450002 0.086000003
12.24 5.974 0.085000001
12.024 5.9120002 0.083999999
11.933 5.9109998 0.082999997
11.919 5.948 0.082999997
11.894 5.9790001 0.082000002
11.96 6.0549998 0.082999997
12.229 6.2360001 0.083999999
12.185 6.2579999 0.083999999
12.287 6.3559999 0.085000001
12.217 6.3639998 0.083999999
12.164 6.381 0.083999999
12.084 6.3829999 0.082999997
12.047 6.408 0.082000002
12.164 6.5139999 0.082999997
8.2019997 -4.8379998 0.169
8.1969995 -4.8109999 0.169
8.2250004 -4.8049998 0.17
8.2270002 -4.7820001 0.17
8.2460003 -4.7690001 0.17
8.2530003 -4.75 0.171
8.2690001 -4.7360001 0.171
8.2790003 -4.7179999 0.171
8.2910004 -4.7010002 0.17200001
8.3039999 -4.6849999 0.17200001
8.3039999 -4.6609998 0.17200001
8.309 -4.6399999 0.17200001
8.3310003 -4.6290002 0.17200001
8.3450003 -4.612 0.17299999
8.3549995 -4.5939999 0.17299999
8.3669996 -4.5760002 0.17299999
8.382 -4.5609999 0.17399999
8.3950005 -4.5430002 0.17399999
8.4110003 -4.5279999 0.17399999
8.4259996 -4.5120001 0.175
8.4309998 -4.4899998 0.175
8.46 -4.4809999 0.175
8.4619999 -4.4580002 0.176
8.4709997 -4.4380002 0.176
8.5249996 -4.4419999 0.177
8.5380001 -4.4239998 0.177
8.585 -4.4239998 0.178
8.5699997 -4.3909998 0.178
8.559 -4.3610001 0.178
8.5769997 -4.3449998 0.178
8.5819998 -4.322 0.178
8.5939999 -4.3039999 0.17900001
8.6079998 -4.2859998 0.17900001
8.6280003 -4.2709999 0.17900001
8.651 -4.257 0.18000001
8.6639996 -4.2389998 0.18000001
8.6879997 -4.2249999 0.18099999
8.6969995 -4.204 0.18099999
8.6780005 -4.1700001 0.18000001
8.7110004 -4.1609998 0.18099999
8.7049999 -4.1329999 0.18099999
8.7530003 -4.1300001 0.182
8.7709999 -4.1129999 0.183
8.7729998 -4.0879998 0.183
8.7989998 -4.0749998 0.183
8.8000002 -4.0500002 0.183
8.8260002 -4.0370002 0.184
8.8599997 -4.026 0.185
8.8479996 -3.9949999 0.184
8.8739996 -3.9809999 0.185
8.8889999 -3.9619999 0.185
8.9119997 -3.9460001 0.186
8.9200001 -3.924 0.186
8.9130001 -3.895 0.186
8.9460001 -3.8829999 0.18700001
8.9689999 -3.8670001 0.18700001
8.9910002 -3.8510001 0.18700001
9.0190001 -3.8369999 0.18799999
9.0220003 -3.812 0.18799999
9.0459995 -3.7950001 0.189
9.0749998 -3.7809999 0.189
9.0839996 -3.7579999 0.19
9.1070004 -3.7420001 0.19
9.1280003 -3.724 0.191
9.1389999 -3.7019999 0.191
9.1619997 -3.6849999 0.191
9.177 -3.664 0.192
9.198 -3.6459999 0.192
9.2069998 -3.6229999 0.192
9.2489996 -3.612 0.193
9.2729998 -3.595 0.19400001
9.2790003 -3.5699999 0.19400001
9.3129997 -3.556 0.19499999
9.3280001 -3.5350001 0.19499999
9.342 -3.513 0.19499999
9.3730001 -3.497 0.19599999
9.4069996 -3.483 0.197
9.4300003 -3.464 0.197
9.4490004 -3.4430001 0.198
9.46 -3.4200001 0.198
9.4770002 -3.3989999 0.198
9.5109997 -3.3829999 0.199
9.5220003 -3.359 0.199
9.5500002 -3.3410001 0.2
9.5869999 -3.3269999 0.20100001
9.5670004 -3.2920001 0.2
9.5970001 -3.2750001 0.20100001
9.6309996 -3.2579999 0.20200001
9.651 -3.237 0.20200001
9.6940002 -3.224 0.20299999
9.6829996 -3.1919999 0.20299999
9.7200003 -3.1760001 0.204
9.7559996 -3.1589999 0.204
9.7959995 -3.1440001 0.205
9.8409996 -3.1300001 0.206
9.8339996 -3.099 0.206
9.8280001 -3.069 0.206
9.8570004 -3.049 0.207
9.8509998 -3.0190001 0.206
9.8850002 -3.0009999 0.207
9.8959999 -2.9749999 0.207
9.9180002 -2.954 0.208
9.9370003 -2.931 0.208
9.9320002 -2.9000001 0.208
9.9499998 -2.8770001 0.20900001
9.9750004 -2.855 0.20900001
9.9960003 -2.832 0.20999999
10.045 -2.8169999 0.211
10.054 -2.7909999 0.211
10.088 -2.7709999 0.212
10.104 -2.7460001 0.212
10.118 -2.721 0.212
10.157 -2.7019999 0.213
10.176 -2.678 0.213
10.191 -2.652 0.214
10.23 -2.6329999 0.215
10.237 -2.605 0.215
10.279 -2.5869999 0.21600001
10.292 -2.5599999 0.21600001
10.326 -2.539 0.21699999
10.332 -2.5109999 0.21699999
10.368 -2.49 0.21799999
10.374 -2.461 0.21799999
10.399 -2.437 0.21799999
10.429 -2.414 0.219
10.465 -2.3929999 0.22
10.469 -2.3629999 0.22
10.498 -2.3399999 0.22
10.534 -2.3169999 0.221
10.567 -2.2939999 0.222
10.587 -2.2679999 0.222
10.618 -2.2449999 0.223
10.654 -2.221 0.22400001
10.703 -2.201 0.22499999
10.722 -2.174 0.22499999
10.73 -2.145 0.22499999
10.754 -2.119 0.226
10.812 -2.099 0.227
10.839 -2.073 0.228
10.884 -2.0510001 0.229
10.927 -2.0280001 0.23
10.95 -2 0.23
10.988 -1.976 0.23100001
11.008 -1.948 0.23100001
11.055 -1.925 0.23199999
11.073 -1.896 0.233
11.116 -1.872 0.234
11.148 -1.845 0.234
11.159 -1.8150001 0.235
11.27 -1.801 0.237
11.334 -1.779 0.23800001
11.316 -1.744 0.23800001
11.344 -1.715 0.23899999
11.381 -1.688 0.23899999
11.462 -1.668 0.241
11.449 -1.633 0.241
11.524 -1.6109999 0.242
11.57 -1.584 0.243
11.616 -1.557 0.244
11.657 -1.529 0.245
11.676 -1.499 0.24600001
11.743 -1.474 0.24699999
11.768 -1.443 0.248
11.867 -1.421 0.25
11.9 -1.391 0.25
11.939 -1.362 0.25099999
11.967 -1.331 0.252
11.996 -1.3 0.252
12.082 -1.275 0.25400001
12.116 -1.244 0.255
12.227 -1.22 0.257
12.257 -1.188 0.25799999
12.299 -1.158 0.259
12.345 -1.127 0.25999999
12.316 -1.089 0.259
12.414 -1.062 0.26100001
13.251 0.46900001 0.14399999
13.245 0.48800001 0.14399999
13.134 0.50400001 0.142
13.168 0.52600002 0.142
13.11 0.54400003 0.141
13.135 0.565 0.142
13.121 0.58600003 0.141
13.157 0.60900003 0.141
13.128 0.62900001 0.141
13.101 0.64999998 0.14
13.096 0.67199999 0.14
13.091 0.69400001 0.14
13.117 0.71799999 0.14
13.107 0.74000001 0.14
13.111 0.764 0.14
13.125 0.78799999 0.14
13.136 0.81300002 0.14
13.137 0.83700001 0.14
13.11 0.86000001 0.139
13.132 0.88599998 0.139
13.12 0.91000003 0.139
13.121 0.93599999 0.139
13.105 0.95999998 0.138
13.1 0.986 0.138
13.122 1.013 0.138
13.112 1.039 0.138
13.15 1.069 0.138
13.191 1.099 0.138
13.24 1.131 0.139
13.239 1.158 0.139
13.205 1.183 0.138
13.192 1.21 0.138
13.196 1.239 0.138
13.191 1.267 0.138
13.187 1.295 0.13699999
13.197 1.326 0.13699999
13.215 1.357 0.13699999
13.22 1.387 0.13699999
13.248 1.42 0.13699999
13.28 1.454 0.138
13.289 1.485 0.138
13.27 1.5140001 0.13699999
13.296 1.548 0.13699999
13.287 1.579 0.13699999
13.315 1.614 0.13699999
13.324 1.647 0.13699999
13.359 1.683 0.13699999
13.37 1.717 0.13699999
13.404 1.755 0.138
13.417 1.789 0.138
13.419 1.823 0.138
13.456 1.862 0.138
13.472 1.898 0.138
7.8330002 1.123 0.079999998
13.649 1.9579999 0.14
7.7350001 1.1289999 0.079000004
7.6880002 1.142 0.078000002
7.6609998 1.158 0.078000002
7.6490002 1.176 0.078000002
7.6550002 1.197 0.078000002
7.652 1.217 0.078000002
7.678 1.242 0.078000002
7.7189999 1.2690001 0.078000002
7.7979999 1.303 0.079000004
7.8309999 1.33 0.079000004
7.8779998 1.359 0.079999998
7.974 1.398 0.079999998
13.803 2.4200001 0.14
13.8 2.4579999 0.139
13.87 2.5090001 0.14
13.879 2.549 0.14
13.869 2.5869999 0.14
13.897 2.631 0.14
13.912 2.674 0.14
13.95 2.721 0.14
14 2.7709999 0.141
14.019 2.816 0.141
14.078 2.869 0.141
14.12 2.9189999 0.142
14.115 2.9590001 0.141
14.14 3.007 0.142
14.201 3.062 0.142
14.226 3.1099999 0.142
14.266 3.1619999 0.14300001
14.307 3.214 0.14300001
14.352 3.2679999 0.14300001
9.1110001 2.1029999 0.090999998
14.534 3.3540001 0.145
8.9359999 2.0899999 0.089000002
8.8929996 2.1070001 0.088
8.875 2.131 0.088
8.868 2.1570001 0.088
8.8590002 2.1819999 0.088
8.901 2.221 0.088
9.0059996 2.276 0.089000002
9.092 2.326 0.090000004
9.0970001 2.3570001 0.090000004
9.1499996 2.4000001 0.090000004
15.104 3.9619999 0.15000001
14.807 3.9319999 0.147
14.839 3.9890001 0.147
14.821 4.033 0.147
14.87 4.0949998 0.147
14.943 4.164 0.148
14.954 4.217 0.148
14.999 4.2800002 0.148
15.043 4.3429999 0.148
15.084 4.4050002 0.149
15.148 4.4749999 0.149
15.2 4.5419998 0.15000001
15.238 4.605 0.15000001
15.339 4.6890001 0.15099999
15.352 4.7449999 0.15099999
15.423 4.8210001 0.15099999
15.477 4.8909998 0.152
15.535 4.9640002 0.152
15.642 5.053 0.153
15.677 5.119 0.154
15.724 5.1900001 0.154
15.782 5.2649999 0.154
15.782 5.3210001 0.154
15.782 5.3779998 0.154
15.87 5.4650002 0.155
15.914 5.5380001 0.155
15.976 5.6170001 0.156
16.003 5.6849999 0.156
16.111 5.7820001 0.15700001
16.124001 5.8460002 0.15700001
16.200001 5.9330001 0.15800001
16.183001 5.987 0.15800001
16.271 6.0799999 0.15800001
16.216999 6.1199999 0.15800001
12.257 5.9310002 0.118
12.002 5.8579998 0.116
11.954 5.8839998 0.115
11.964 5.9390001 0.115
12.005 6.0100002 0.116
12.314 6.217 0.119
12.232 6.2270002 0.118
12.286 6.3070002 0.118
12.23 6.3299999 0.118
12.151 6.342 0.117
12.093 6.3629999 0.116
12.111 6.4250002 0.117
12.271 6.5630002 0.118
12.275 6.619 0.118
7.816 -5.1459999 0.182
7.855 -5.1220002 0.183
7.8969998 -5.1009998 0.184
7.9250002 -5.0700002 0.185
7.9699998 -5.0500002 0.186
7.987 -5.0120001 0.186
8.0019999 -4.974 0.186
8.04 -4.9499998 0.18700001
8.0690002 -4.9200001 0.18700001
8.0959997 -4.8899999 0.18799999
8.1230001 -4.8590002 0.189
8.151 -4.8280001 0.189
8.1739998 -4.796 0.19
8.2040005 -4.7670002 0.19
8.2349997 -4.7389998 0.191
8.2600002 -4.7080002 0.191
8.302 -4.6859999 0.192
8.3059998 -4.6440001 0.192
8.3310003 -4.612 0.193
8.3699999 -4.5890002 0.193
8.4069996 -4.5650001 0.19400001
8.4549999 -4.5469999 0.19499999
8.4949999 -4.5240002 0.19599999
8.4989996 -4.4819999 0.19599999
8.4890003 -4.4330001 0.19599999
8.5279999 -4.4099998 0.197
8.5439997 -4.375 0.197
8.5760002 -4.348 0.198
8.6120005 -4.3239999 0.198
8.6420002 -4.2969999 0.199
8.6660004 -4.2659998 0.199
8.6759996 -4.2290001 0.2
8.7110004 -4.204 0.2
8.7340002 -4.1739998 0.20100001
8.7539997 -4.1409998 0.20100001
8.7989998 -4.1209998 0.20200001
8.7989998 -4.0799999 0.20200001
8.8360004 -4.0560002 0.20299999
8.8730001 -4.033 0.204
8.8879995 -3.9990001 0.204
8.915 -3.971 0.205
8.9589996 -3.95 0.205
8.9689999 -3.915 0.206
8.9969997 -3.8870001 0.206
9.0389996 -3.8659999 0.207
9.066 -3.8380001 0.208
9.1000004 -3.812 0.208
9.1309996 -3.786 0.20900001
9.1669998 -3.7620001 0.20999999
9.1750002 -3.727 0.20999999
9.2080002 -3.701 0.211
9.2290001 -3.671 0.211
9.2679996 -3.648 0.212
9.3199997 -3.6300001 0.213
9.3430004 -3.6010001 0.214
9.3599997 -3.569 0.214
9.4189997 -3.5539999 0.215
9.4519997 -3.529 0.21600001
9.4750004 -3.5 0.21600001
9.5220003 -3.48 0.21799999
9.5430002 -3.45 0.21799999
9.5600004 -3.4189999 0.21799999
9.5769997 -3.388 0.219
9.6339998 -3.3710001 0.22
9.6709995 -3.3469999 0.221
9.6940002 -3.3180001 0.221
9.7189999 -3.29 0.222
9.7559996 -3.266 0.223
9.7550001 -3.23 0.223
9.7910004 -3.2060001 0.223
9.8299999 -3.1819999 0.22400001
9.927 -3.178 0.226
9.9530001 -3.1500001 0.227
9.9289999 -3.1070001 0.226
9.9449997 -3.0769999 0.227
9.9490004 -3.043 0.227
9.9969997 -3.0220001 0.228
10.007 -2.99 0.228
10.047 -2.967 0.229
10.065 -2.938 0.229
10.08 -2.908 0.23
10.118 -2.8840001 0.23
10.142 -2.8570001 0.23100001
10.174 -2.832 0.23199999
10.209 -2.8069999 0.23199999
10.235 -2.7809999 0.233
10.263 -2.7539999 0.234
10.285 -2.727 0.234
10.326 -2.704 0.235
10.377 -2.684 0.236
10.414 -2.6600001 0.237
10.426 -2.6300001 0.237
10.446 -2.602 0.23800001
10.468 -2.5739999 0.23800001
10.496 -2.5480001 0.23899999
10.523 -2.5220001 0.23899999
10.54 -2.494 0.23999999
10.56 -2.4660001 0.23999999
10.595 -2.4419999 0.241
10.634 -2.4189999 0.242
10.661 -2.3929999 0.243
10.703 -2.3699999 0.243
10.722 -2.3429999 0.244
10.759 -2.319 0.245
10.776 -2.2909999 0.245
10.829 -2.2709999 0.24600001
10.847 -2.243 0.24699999
10.877 -2.2179999 0.24699999
10.913 -2.194 0.248
10.933 -2.1670001 0.249
10.999 -2.1489999 0.25
11.048 -2.1270001 0.25099999
11.084 -2.1029999 0.252
11.11 -2.0780001 0.25299999
11.176 -2.059 0.25400001
11.161 -2.026 0.25400001
11.194 -2.0020001 0.255
11.231 -1.978 0.25600001
11.275 -1.955 0.257
11.306 -1.931 0.257
11.349 -1.908 0.25799999
11.372 -1.882 0.259
11.408 -1.858 0.25999999
11.474 -1.839 0.26100001
11.52 -1.816 0.26199999
11.555 -1.7920001 0.26300001
11.545 -1.761 0.26300001
11.643 -1.747 0.26499999
11.639 -1.717 0.26499999
11.691 -1.6950001 0.266
11.74 -1.673 0.26699999
11.752 -1.646 0.26800001
11.819 -1.626 0.26899999
11.814 -1.597 0.26899999
11.862 -1.575 0.27000001
11.866 -1.546 0.27000001
11.886 -1.521 0.271
11.915 -1.4960001 0.271
11.938 -1.471 0.27200001
11.966 -1.446 0.273
12.013 -1.424 0.27399999
12.058 -1.401 0.27500001
12.095 -1.378 0.27599999
12.103 -1.351 0.27599999
12.125 -1.326 0.27599999
12.173 -1.304 0.27700001
12.198 -1.279 0.278
12.239 -1.256 0.27900001
12.263 -1.232 0.28
12.298 -1.2079999 0.28
12.359 -1.187 0.28200001
12.442 -1.169 0.28400001
12.586 -1.155 0.287
12.647 -1.1339999 0.289
12.59 -1.102 0.287
12.628 -1.0779999 0.28799999
12.634 -1.053 0.28799999
12.894 0.171 0.17900001
12.927 0.19400001 0.17900001
12.956 0.21799999 0.17900001
12.987 0.243 0.17900001
13.014 0.26699999 0.17900001
13.02 0.292 0.17900001
13.046 0.317 0.17900001
13.06 0.34200001 0.17900001
13.057 0.368 0.17900001
13.059 0.39300001 0.17900001
13.056 0.419 0.17900001
13.06 0.44499999 0.17900001
13.048 0.47099999 0.178
13.035 0.49700001 0.178
13.07 0.52600002 0.178
13.057 0.55199999 0.178
13.072 0.57999998 0.178
13.057 0.60699999 0.178
13.104 0.63800001 0.178
13.099 0.66600001 0.178
13.089 0.69400001 0.177
13.126 0.72399998 0.178
13.11 0.75300002 0.177
13.129 0.78299999 0.177
13.123 0.81199998 0.177
13.118 0.84200001 0.177
13.123 0.87199998 0.177
13.133 0.903 0.177
13.14 0.93400002 0.177
13.129 0.96399999 0.176
13.133 0.995 0.176
13.124 1.026 0.176
13.137 1.058 0.176
13.176 1.0930001 0.176
13.203 1.128 0.177
13.262 1.165 0.177
13.308 1.202 0.178
13.256 1.23 0.177
13.257 1.263 0.177
13.244 1.295 0.176
13.248 1.329 0.176
13.277 1.3660001 0.177
13.282 1.4 0.176
13.314 1.438 0.177
13.346 1.476 0.177
13.343 1.511 0.177
13.353 1.5470001 0.177
13.389 1.586 0.177
13.39 1.622 0.177
13.406 1.66 0.177
13.431 1.699 0.177
13.468 1.74 0.178
13.487 1.779 0.178
13.522 1.8200001 0.178
13.571 1.864 0.17900001
13.575 1.902 0.17900001
13.621 1.946 0.17900001
7.8449998 1.143 0.103
13.794 2.0090001 0.18099999
7.7249999 1.147 0.101
7.678 1.161 0.1
7.6680002 1.182 0.1
7.6479998 1.2 0.1
7.6420002 1.221 0.1
7.6680002 1.247 0.1
7.7199998 1.278 0.101
7.7940001 1.313 0.102
7.8249998 1.341 0.102
7.8660002 1.3710001 0.102
7.9990001 1.4170001 0.104
14.039 2.4879999 0.183
14.036 2.529 0.183
14.073 2.5769999 0.183
14.099 2.6240001 0.183
14.15 2.675 0.184
14.157 2.7190001 0.184
14.227 2.7750001 0.185
14.257 2.8239999 0.185
14.305 2.8770001 0.185
14.332 2.9260001 0.186
14.395 2.983 0.186
14.469 3.043 0.18700001
14.53 3.0999999 0.18799999
14.595 3.1589999 0.189
14.671 3.221 0.189
14.689 3.2709999 0.19
14.715 3.323 0.19
9.2679996 2.122 0.119
14.849 3.4000001 0.191
8.9689999 2.0810001 0.115
8.9040003 2.0940001 0.114
8.8769999 2.1159999 0.114
8.8710003 2.1429999 0.114
8.8699999 2.171 0.114
8.8959999 2.2060001 0.114
8.9759998 2.2550001 0.115
9.0749998 2.309 0.116
9.0900002 2.342 0.116
9.1660004 2.391 0.117
15.472 4.0370002 0.198
15.199 4.0149999 0.19499999
15.229 4.072 0.19499999
15.284 4.1370001 0.19599999
15.365 4.2090001 0.197
15.419 4.2750001 0.197
15.474 4.3410001 0.198
15.516 4.4039998 0.198
15.589 4.4770002 0.199
15.595 4.5310001 0.199
15.681 4.6079998 0.2
15.745 4.6789999 0.20100001
15.805 4.75 0.20100001
15.846 4.816 0.20200001
15.935 4.8959999 0.20299999
15.945 4.954 0.20299999
16.030001 5.0339999 0.204
16.148001 5.1259999 0.205
16.113001 5.1700001 0.205
16.174 5.2449999 0.206
16.268999 5.3309999 0.207
16.281 5.3909998 0.207
16.309999 5.4569998 0.207
16.332001 5.52 0.207
16.409 5.6030002 0.208
16.403999 5.658 0.208
16.499001 5.7480001 0.20900001
16.503 5.8070002 0.20900001
16.565001 5.8860002 0.20999999
16.577999 5.9489999 0.20999999
16.610001 6.0190001 0.20999999
16.665001 6.0970001 0.211
16.747 6.1859999 0.212
13.062 5.5679998 0.164
12.856 5.527 0.162
12.706 5.5079999 0.16
12.623 5.5180001 0.15899999
12.887 5.6799998 0.162
12.35 5.8920002 0.155
12.272 5.8990002 0.154
12.179 6.0320001 0.152
12.147 6.0609999 0.152
12.154 6.1079998 0.152
12.266 6.2989998 0.153
12.2 6.3099999 0.152
12.253 6.382 0.153
8.5489998 -5.046 0.21699999
8.5509996 -5.0229998 0.21699999
8.5649996 -5.007 0.21699999
8.573 -4.987 0.21699999
8.5760002 -4.9640002 0.21799999
8.5930004 -4.9499998 0.21799999
8.6169996 -4.9390001 0.219
8.6129999 -4.9120002 0.219
8.6379995 -4.902 0.219
8.6540003 -4.8860002 0.22
8.6630001 -4.8660002 0.22
8.6879997 -4.855 0.221
8.691 -4.8319998 0.221
8.7089996 -4.8169999 0.221
8.7130003 -4.7940001 0.221
8.7180004 -4.7719998 0.221
8.7340002 -4.7550001 0.222
8.7360001 -4.7309999 0.222
8.7449999 -4.711 0.222
8.7659998 -4.697 0.223
8.776 -4.677 0.223
8.7810001 -4.6539998 0.223
8.7969999 -4.638 0.22400001
8.8339996 -4.632 0.22499999
8.8570004 -4.618 0.22499999
8.8839998 -4.6059999 0.226
8.8760004 -4.5770001 0.226
8.8629999 -4.5440001 0.22499999
8.8590002 -4.5170002 0.22499999
8.8719997 -4.4970002 0.226
8.8970003 -4.4840002 0.226
8.8979998 -4.4590001 0.226
8.9250002 -4.447 0.227
8.9379997 -4.428 0.227
8.9610004 -4.4130001 0.228
8.9849997 -4.3990002 0.229
8.9879999 -4.3740001 0.229
8.9980001 -4.3530002 0.229
8.9890003 -4.323 0.229
9.026 -4.3140001 0.23
9.0450001 -4.2969999 0.23
9.0710001 -4.283 0.23100001
9.0780001 -4.2600002 0.23100001
9.1020002 -4.244 0.23199999
9.1070004 -4.2199998 0.23199999
9.1149998 -4.197 0.23199999
9.1409998 -4.1830001 0.233
9.1590004 -4.165 0.233
9.1820002 -4.1479998 0.234
9.1870003 -4.1240001 0.234
9.1999998 -4.1030002 0.234
9.224 -4.0869999 0.235
9.2410002 -4.0679998 0.235
9.2550001 -4.0469999 0.236
9.2749996 -4.0289998 0.236
9.2939997 -4.0100002 0.237
9.3120003 -3.99 0.237
9.3439999 -3.977 0.23800001
9.3570004 -3.9549999 0.23800001
9.3739996 -3.9349999 0.23899999
9.3889999 -3.914 0.23899999
9.3999996 -3.891 0.23999999
9.4209995 -3.8729999 0.23999999
9.4469995 -3.8559999 0.241
9.4440002 -3.8269999 0.241
9.4790001 -3.8139999 0.242
9.4940004 -3.7920001 0.242
9.5100002 -3.7709999 0.242
9.5360003 -3.7539999 0.243
9.5620003 -3.7360001 0.244
9.5550003 -3.7060001 0.244
9.5889997 -3.691 0.245
9.6129999 -3.6719999 0.245
9.6040001 -3.641 0.245
9.651 -3.631 0.24600001
9.6680002 -3.609 0.24699999
9.6879997 -3.5880001 0.24699999
9.7139997 -3.5699999 0.248
9.7049999 -3.5380001 0.248
9.7299995 -3.5190001 0.248
9.7419996 -3.4949999 0.249
9.7810001 -3.4809999 0.25
9.783 -3.4530001 0.25
9.8129997 -3.4349999 0.25
9.842 -3.4170001 0.25099999
9.8369999 -3.3859999 0.25099999
9.8719997 -3.3699999 0.252
9.8830004 -3.345 0.252
9.8999996 -3.322 0.25299999
9.9379997 -3.306 0.25400001
9.9429998 -3.279 0.25400001
9.9549999 -3.2539999 0.25400001
10.02 -3.2460001 0.25600001
10.072 -3.234 0.257
10.065 -3.2019999 0.257
10.088 -3.1800001 0.257
10.094 -3.1530001 0.25799999
10.076 -3.118 0.257
10.094 -3.0940001 0.25799999
10.133 -3.0769999 0.259
10.161 -3.056 0.259
10.17 -3.029 0.25999999
10.195 -3.0079999 0.25999999
10.191 -2.977 0.25999999
10.24 -2.961 0.26100001
10.256 -2.937 0.26199999
10.258 -2.908 0.26199999
10.276 -2.8829999 0.26199999
10.316 -2.8640001 0.26300001
10.35 -2.8440001 0.264
10.372 -2.8199999 0.26499999
10.394 -2.796 0.26499999
10.439 -2.7780001 0.266
10.447 -2.75 0.26699999
10.474 -2.727 0.26699999
10.523 -2.7090001 0.26899999
10.54 -2.6830001 0.26899999
10.572 -2.661 0.27000001
10.586 -2.6340001 0.27000001
10.598 -2.6059999 0.271
10.618 -2.5810001 0.271
10.616 -2.55 0.271
10.654 -2.5280001 0.27200001
10.68 -2.503 0.273
10.703 -2.4779999 0.273
10.748 -2.457 0.27399999
10.784 -2.4349999 0.27500001
10.808 -2.4089999 0.27599999
10.85 -2.3870001 0.27700001
10.88 -2.3629999 0.278
10.895 -2.3340001 0.278
10.943 -2.313 0.27900001
10.975 -2.289 0.28
11.005 -2.263 0.28099999
11.032 -2.237 0.28200001
11.05 -2.2090001 0.28200001
11.099 -2.187 0.28299999
11.165 -2.168 0.285
11.215 -2.145 0.28600001
11.253 -2.1199999 0.287
11.297 -2.096 0.28799999
11.348 -2.073 0.28999999
11.367 -2.0439999 0.28999999
11.395 -2.016 0.29100001
11.433 -1.99 0.292
11.5 -1.969 0.294
11.544 -1.944 0.29499999
11.562 -1.914 0.29499999
11.609 -1.888 0.296
11.628 -1.858 0.29699999
11.737 -1.842 0.30000001
11.763 -1.812 0.30000001
11.771 -1.779 0.30000001
11.821 -1.753 0.30199999
11.865 -1.726 0.303
11.904 -1.697 0.30399999
11.942 -1.669 0.30500001
11.973 -1.6390001 0.30599999
11.993 -1.607 0.30599999
12.01 -1.575 0.30599999
12.053 -1.546 0.308
12.114 -1.52 0.30899999
12.139 -1.488 0.31
12.203 -1.461 0.31099999
12.236 -1.4299999 0.31200001
12.298 -1.402 0.31400001
12.346 -1.372 0.315
12.361 -1.339 0.315
12.463 -1.314 0.31799999
12.519 -1.284 0.31900001
12.698 -1.267 0.324
13.539 0.48100001 0.213
13.47 0.49900001 0.211
13.51 0.52100003 0.212
13.495 0.54100001 0.211
13.464 0.56099999 0.211
13.439 0.58099997 0.20999999
13.452 0.60299999 0.20999999
13.44 0.62400001 0.20999999
13.441 0.64600003 0.20999999
13.416 0.667 0.20900001
13.436 0.69099998 0.20900001
13.444 0.71499997 0.20900001
13.419 0.736 0.20900001
13.429 0.76099998 0.20900001
13.455 0.78600001 0.20900001
13.442 0.80900002 0.208
13.423 0.833 0.208
13.436 0.85799998 0.208
13.444 0.884 0.208
13.439 0.90899998 0.208
13.44 0.93400002 0.208
13.46 0.96200001 0.208
13.463 0.98799998 0.208
13.483 1.016 0.208
13.48 1.043 0.208
13.492 1.071 0.208
13.515 1.1 0.208
13.578 1.133 0.20900001
13.62 1.165 0.20900001
13.658 1.196 0.20999999
13.631 1.223 0.20900001
13.614 1.25 0.20900001
13.598 1.278 0.208
13.598 1.307 0.208
13.617 1.339 0.208
13.657 1.373 0.20900001
13.698 1.408 0.20900001
13.764 1.4450001 0.20999999
13.785 1.479 0.211
13.775 1.5089999 0.20999999
13.777 1.541 0.20999999
13.825 1.579 0.211
13.853 1.614 0.211
13.838 1.645 0.211
13.872 1.682 0.211
13.899 1.719 0.212
13.927 1.756 0.212
13.937 1.791 0.212
13.94 1.826 0.212
13.997 1.868 0.213
14.026 1.906 0.213
8.026 1.1109999 0.122
14.101 1.952 0.214
7.8140001 1.101 0.118
7.7199998 1.107 0.117
7.6799998 1.1210001 0.116
7.6570001 1.138 0.116
7.6420002 1.155 0.116
7.6389999 1.175 0.115
7.651 1.197 0.116
7.6659999 1.22 0.116
7.7090001 1.247 0.116
7.8010001 1.283 0.118
7.816 1.306 0.118
7.836 1.331 0.118
7.8899999 1.362 0.119
14.64 2.527 0.221
8.1079998 1.4220001 0.122
14.496 2.5420001 0.219
14.559 2.5929999 0.22
14.564 2.635 0.22
14.598 2.6819999 0.22
14.683 2.7390001 0.221
14.748 2.793 0.222
14.805 2.846 0.223
14.826 2.892 0.22400001
14.851 2.9400001 0.22400001
14.876 2.9879999 0.22400001
14.874 3.0309999 0.22400001
14.954 3.0910001 0.22499999
14.961 3.1370001 0.22499999
15.015 3.1930001 0.226
15.029 3.2409999 0.226
15.057 3.2920001 0.227
15.132 3.3540001 0.228
15.172 3.4089999 0.228
15.266 3.4760001 0.23
9.0200005 2.082 0.13500001
15.668 3.6159999 0.236
8.9180002 2.085 0.134
8.875 2.1029999 0.133
8.8660002 2.128 0.133
8.8559999 2.154 0.133
8.8780003 2.187 0.133
8.8929996 2.2190001 0.133
8.9809999 2.2690001 0.13500001
9.0769997 2.322 0.13600001
9.1230001 2.3640001 0.13699999
9.316 2.444 0.14
15.771 4.1370001 0.237
15.744 4.1810002 0.237
15.779 4.2410002 0.237
15.788 4.2950001 0.237
15.847 4.3639998 0.23800001
15.921 4.4369998 0.23899999
15.998 4.5110002 0.23999999
16.046 4.5780001 0.241
16.039 4.6300001 0.241
16.118 4.7069998 0.242
16.179001 4.7789998 0.243
16.334 4.881 0.24600001
16.320999 4.9320002 0.245
16.294001 4.98 0.245
16.33 5.0469999 0.245
16.417 5.131 0.24699999
16.466 5.2030001 0.248
16.452999 5.257 0.24699999
16.468 5.3189998 0.248
16.572001 5.4109998 0.249
16.596001 5.4770002 0.25
16.665001 5.559 0.25099999
16.700001 5.6300001 0.25099999
16.759001 5.71 0.252
16.856001 5.8039999 0.25400001
16.864 5.868 0.25400001
16.931999 5.9520001 0.255
16.959 6.0240002 0.255
17.069 6.125 0.257
13.122 5.5029998 0.198
12.935 5.4749999 0.19599999
12.817 5.4759998 0.19400001
12.65 5.4549999 0.191
12.562 5.4660001 0.19
12.679 5.5679998 0.192
12.356 5.8759999 0.18799999
12.239 5.8709998 0.186
12.269 6.0900002 0.18700001
12.197 6.1059999 0.186
12.193 6.3099999 0.186
12.171 6.3520002 0.186
12.165 6.4000001 0.186
12.197 6.4699998 0.18700001
12.26 6.5560002 0.18799999
8.1490002 -5.3639998 0.229
8.1940002 -5.342 0.23
8.2399998 -5.3210001 0.23100001
8.2670002 -5.2870002 0.23199999
8.2989998 -5.257 0.233
8.3269997 -5.224 0.233
8.3540001 -5.191 0.234
8.3839998 -5.1599998 0.235
8.427 -5.1370001 0.236
8.4519997 -5.1020002 0.236
8.4709997 -5.0650001 0.237
8.4989996 -5.033 0.237
8.5410004 -5.0089998 0.23800001
8.5550003 -4.9699998 0.23800001
8.5699997 -4.9310002 0.23899999
8.5930004 -4.8959999 0.23899999
8.6269999 -4.868 0.23999999
8.6569996 -4.8379998 0.241
8.6870003 -4.8080001 0.242
8.7200003 -4.7800002 0.242
8.7580004 -4.7540002 0.243
8.7819996 -4.7210002 0.244
8.7799997 -4.6739998 0.244
8.7959995 -4.6370001 0.244
8.8100004 -4.599 0.244
8.842 -4.5710001 0.245
8.8649998 -4.5380001 0.24600001
8.8900003 -4.507 0.24600001
8.9289999 -4.4819999 0.24699999
8.9510002 -4.4489999 0.248
8.9729996 -4.4159999 0.248
9 -4.3860002 0.249
9.0240002 -4.3540001 0.249
9.0760002 -4.336 0.25099999
9.1009998 -4.3039999 0.25099999
9.1169996 -4.2690001 0.252
9.1429996 -4.2389998 0.252
9.1619997 -4.2049999 0.25299999
9.1809998 -4.1719999 0.25299999
9.2069998 -4.1420002 0.25400001
9.2340002 -4.112 0.25400001
9.2810001 -4.0910001 0.25600001
9.3050003 -4.0599999 0.25600001
9.3249998 -4.0279999 0.257
9.3540001 -3.9990001 0.257
9.3789997 -3.9690001 0.25799999
9.4160004 -3.944 0.259
9.4420004 -3.914 0.259
9.4919996 -3.895 0.26100001
9.4980001 -3.8570001 0.26100001
9.5310001 -3.8299999 0.26199999
9.559 -3.8010001 0.26199999
9.5629997 -3.7639999 0.26199999
9.5970001 -3.737 0.26300001
9.6260004 -3.7090001 0.264
9.6540003 -3.681 0.26499999
9.6829996 -3.6530001 0.26499999
9.7130003 -3.6259999 0.266
9.743 -3.598 0.26699999
9.7849998 -3.575 0.26800001
9.7959995 -3.5409999 0.26800001
9.8219995 -3.5120001 0.26899999
9.8280001 -3.4760001 0.26899999
9.8710003 -3.4530001 0.27000001
9.9250002 -3.4349999 0.27200001
9.934 -3.4000001 0.27200001
9.9630003 -3.372 0.27200001
10.002 -3.348 0.27399999
10.002 -3.3110001 0.273
10.043 -3.2880001 0.27500001
10.109 -3.273 0.27599999
10.18 -3.2579999 0.278
10.191 -3.2249999 0.278
10.201 -3.1919999 0.27900001
10.191 -3.152 0.278
10.223 -3.1259999 0.27900001
10.239 -3.095 0.28
10.266 -3.0669999 0.28
10.29 -3.039 0.28099999
10.33 -3.0150001 0.28200001
10.371 -2.9909999 0.28299999
10.371 -2.9560001 0.28299999
10.417 -2.934 0.28400001
10.448 -2.908 0.285
10.507 -2.8889999 0.28600001
10.524 -2.859 0.287
10.552 -2.832 0.28799999
10.579 -2.8050001 0.28799999
10.636 -2.7850001 0.28999999
10.668 -2.7590001 0.29100001
10.693 -2.7309999 0.29100001
10.713 -2.7019999 0.292
10.742 -2.675 0.29300001
10.77 -2.648 0.29300001
10.777 -2.6170001 0.294
10.841 -2.598 0.29499999
10.877 -2.573 0.296
10.911 -2.5480001 0.29699999
