# .PCD v0.7 - Point Cloud Data file format
VERSION 0.7
FIELDS x y z
SIZE 4 4 4
TYPE F F F
COUNT 1 1 1
WIDTH 1856
HEIGHT 1
VIEWPOINT 0 0 0 1 0 0 0
POINTS 1856
DATA ascii
10.118 -3.102 0.25799999
10.155 -3.0840001 0.259
10.15 -3.053 0.259
10.186 -3.0339999 0.25999999
10.22 -3.0150001 0.26100001
10.229 -2.9879999 0.26100001
10.25 -2.9649999 0.26199999
10.258 -2.937 0.26199999
10.272 -2.9119999 0.26199999
10.3 -2.8900001 0.26300001
10.333 -2.869 0.264
10.367 -2.849 0.26499999
10.381 -2.823 0.26499999
10.423 -2.8039999 0.266
10.427 -2.7750001 0.266
10.458 -2.753 0.26699999
10.48 -2.7279999 0.26800001
10.535 -2.7119999 0.26899999
10.577 -2.6930001 0.27000001
10.561 -2.658 0.27000001
10.603 -2.638 0.271
10.598 -2.6059999 0.271
10.614 -2.5799999 0.271
10.654 -2.559 0.27200001
10.686 -2.536 0.273
10.693 -2.507 0.273
10.717 -2.4809999 0.27399999
10.751 -2.4579999 0.27399999
10.785 -2.4349999 0.27500001
10.817 -2.411 0.27599999
10.858 -2.3889999 0.27700001
10.882 -2.3629999 0.278
10.896 -2.335 0.278
10.957 -2.316 0.28
10.967 -2.2869999 0.28
11.008 -2.2639999 0.28099999
11.046 -2.24 0.28200001
11.079 -2.2149999 0.28299999
11.129 -2.1930001 0.28400001
11.182 -2.171 0.285
11.233 -2.1489999 0.287
11.26 -2.122 0.287
11.303 -2.0969999 0.289
11.348 -2.073 0.28999999
11.377 -2.046 0.28999999
11.41 -2.0190001 0.29100001
11.471 -1.997 0.29300001
11.531 -1.974 0.294
11.539 -1.943 0.29499999
11.558 -1.913 0.29499999
11.638 -1.893 0.29699999
11.661 -1.863 0.29800001
11.771 -1.847 0.30000001
11.757 -1.811 0.30000001
11.777 -1.78 0.301
11.835 -1.755 0.30199999
11.885 -1.729 0.303
11.92 -1.7 0.30399999
11.947 -1.669 0.30500001
11.971 -1.6390001 0.30599999
12.004 -1.609 0.30599999
12.022 -1.577 0.30700001
12.088 -1.551 0.308
12.116 -1.52 0.30899999
12.141 -1.488 0.31
12.215 -1.462 0.31200001
12.267 -1.434 0.31299999
12.324 -1.405 0.31400001
12.346 -1.372 0.315
12.403 -1.3430001 0.31600001
12.467 -1.3150001 0.31799999
12.533 -1.286 0.31999999
12.617 -1.258 0.322
12.689 -1.229 0.324
12.704 -1.1950001 0.324
13.591 0.44400001 0.214
13.582 0.463 0.213
13.512 0.47999999 0.212
13.535 0.50099999 0.212
13.495 0.51999998 0.211
13.474 0.54000002 0.211
13.469 0.56099999 0.211
13.475 0.58200002 0.211
13.474 0.60399997 0.20999999
13.478 0.62599999 0.20999999
13.459 0.64700001 0.20999999
13.443 0.66900003 0.20900001
13.424 0.69 0.20900001
13.451 0.71499997 0.20900001
13.437 0.73699999 0.20900001
13.439 0.76099998 0.20900001
13.45 0.78600001 0.20900001
13.453 0.81 0.20900001
13.425 0.833 0.208
13.451 0.85900003 0.208
13.431 0.88300002 0.208
13.456 0.91000003 0.208
13.469 0.93599999 0.208
13.477 0.963 0.208
13.479 0.98900002 0.208
13.483 1.016 0.208
13.501 1.044 0.208
13.505 1.072 0.208
13.532 1.101 0.208
13.578 1.133 0.20900001
13.65 1.1670001 0.20999999
13.639 1.1950001 0.20900001
13.657 1.225 0.20999999
9.3120003 0.85500002 0.14300001
13.809 1.268 0.212
9.2379999 0.86799997 0.141
9.191 0.884 0.141
9.165 0.90100002 0.14
9.1219997 0.917 0.139
9.052 0.93000001 0.138
9.0159998 0.94700003 0.138
9.0019999 0.96600002 0.13699999
9.0059996 0.98699999 0.13699999
8.9949999 1.006 0.13699999
9.0139999 1.029 0.13699999
9.0489998 1.054 0.138
14.193 1.654 0.21600001
9.1730003 1.09 0.14
13.888 1.651 0.212
13.863 1.681 0.211
13.934 1.723 0.212
13.916 1.7539999 0.212
13.974 1.796 0.212
11.914 1.5599999 0.18099999
11.821 1.577 0.18000001
11.766 1.599 0.17900001
11.774 1.63 0.17900001
11.771 1.659 0.17900001
11.725 1.682 0.178
11.634 1.699 0.176
11.562 1.7180001 0.175
11.551 1.747 0.175
11.538 1.775 0.175
11.575 1.811 0.175
11.609 1.847 0.176
11.72 1.896 0.177
13.339 2.194 0.20200001
13.223 2.21 0.2
13.197 2.2420001 0.199
13.215 2.2809999 0.2
13.265 2.326 0.2
13.412 2.3889999 0.20200001
14.561 2.6340001 0.22
14.596 2.681 0.22
14.668 2.7360001 0.221
14.739 2.7909999 0.222
14.781 2.8410001 0.223
14.853 2.898 0.22400001
14.831 2.9360001 0.22400001
14.867 2.9860001 0.22400001
14.867 3.03 0.22400001
14.917 3.0840001 0.22499999
14.959 3.1370001 0.22499999
14.992 3.188 0.226
15.047 3.2449999 0.226
15.052 3.2909999 0.227
15.145 3.3570001 0.228
15.152 3.404 0.228
15.199 3.461 0.229
15.221 3.513 0.229
15.241 3.5650001 0.229
15.302 3.6259999 0.23
15.386 3.694 0.23100001
15.485 3.766 0.233
15.435 3.803 0.23199999
15.462 3.858 0.23199999
15.474 3.9100001 0.233
15.566 3.983 0.234
15.624 4.0479999 0.235
15.615 4.0960002 0.235
15.693 4.1669998 0.236
15.784 4.243 0.237
15.821 4.3039999 0.23800001
15.856 4.3660002 0.23800001
15.88 4.4250002 0.23899999
15.945 4.4959998 0.23999999
15.99 4.5619998 0.23999999
16.062 4.6360002 0.241
16.069 4.6929998 0.242
16.159 4.7740002 0.243
16.273001 4.862 0.245
16.264 4.915 0.244
16.339001 4.994 0.24600001
16.368 5.059 0.24600001
16.395 5.1240001 0.24600001
16.413 5.1859999 0.24699999
16.452999 5.257 0.24699999
16.514 5.3340001 0.248
16.573999 5.4120002 0.249
16.6 5.4790001 0.25
16.667999 5.5599999 0.25099999
16.658001 5.6160002 0.25099999
16.747999 5.7069998 0.252
16.789 5.7810001 0.25299999
16.85 5.8629999 0.25400001
16.868999 5.9310002 0.25400001
16.905001 6.0050001 0.255
16.927999 6.0749998 0.255
13.142 5.5120001 0.199
12.946 5.48 0.19599999
12.804 5.4710002 0.19400001
12.65 5.4549999 0.191
12.559 5.4650002 0.19
12.674 5.5650001 0.192
12.253 5.8779998 0.186
12.339 5.9699998 0.18799999
12.261 6.086 0.18700001
12.219 6.1160002 0.186
12.171 6.2989998 0.186
12.198 6.3649998 0.186
12.184 6.4099998 0.186
12.184 6.4629998 0.186
8.1610003 -5.3709998 0.229
8.2019997 -5.3470001 0.23
8.2460003 -5.3239999 0.23100001
8.2779999 -5.2940001 0.23199999
8.3120003 -5.2649999 0.233
8.3319998 -5.2280002 0.233
8.3629999 -5.1960001 0.234
8.4020004 -5.171 0.235
8.4320002 -5.1399999 0.236
8.4720001 -5.1149998 0.237
8.4759998 -5.0679998 0.237
8.5220003 -5.0469999 0.23800001
8.5380001 -5.0079999 0.23800001
8.5699997 -4.9790001 0.23899999
8.5909996 -4.9429998 0.23899999
8.6190004 -4.9109998 0.23999999
8.632 -4.8709998 0.23999999
8.6619997 -4.8410001 0.241
8.6920004 -4.8109999 0.242
8.717 -4.7779999 0.242
8.7559996 -4.7529998 0.243
8.7849998 -4.723 0.244
8.783 -4.6760001 0.244
8.802 -4.6399999 0.244
8.8310003 -4.6100001 0.245
8.842 -4.5710001 0.245
8.8730001 -4.5419998 0.24600001
8.9180002 -4.5209999 0.24699999
8.9359999 -4.4850001 0.24699999
8.9519997 -4.4499998 0.248
8.9840002 -4.4219999 0.248
9.0190001 -4.395 0.249
9.0340004 -4.3590002 0.25
9.0760002 -4.336 0.25099999
9.1140003 -4.3109999 0.252
9.1389999 -4.2789998 0.252
9.1610003 -4.2470002 0.25299999
9.1619997 -4.2049999 0.25299999
9.1940002 -4.178 0.25299999
9.2480001 -4.1599998 0.255
9.2349997 -4.112 0.25400001
9.2910004 -4.0960002 0.25600001
9.3039999 -4.0599999 0.25600001
9.3240004 -4.0279999 0.257
9.3710003 -4.006 0.25799999
9.3959999 -3.9760001 0.25799999
9.4320002 -3.951 0.259
9.4580002 -3.921 0.25999999
9.4919996 -3.895 0.26100001
9.5139999 -3.8640001 0.26100001
9.5249996 -3.8280001 0.26199999
9.5690002 -3.806 0.26300001
9.566 -3.7650001 0.26300001
9.6129999 -3.744 0.264
9.6490002 -3.7179999 0.26499999
9.6599998 -3.6830001 0.26499999
9.6809998 -3.652 0.26499999
9.7259998 -3.631 0.26699999
9.7559996 -3.6029999 0.26699999
9.7819996 -3.5739999 0.26800001
9.8009996 -3.543 0.26800001
9.8319998 -3.516 0.26899999
9.8500004 -3.484 0.27000001
9.8730001 -3.454 0.27000001
9.9280005 -3.4360001 0.27200001
9.9399996 -3.402 0.27200001
9.9790001 -3.378 0.273
10.007 -3.3499999 0.27399999
10.01 -3.3139999 0.27399999
10.058 -3.293 0.27500001
10.111 -3.273 0.27599999
10.189 -3.2609999 0.278
10.213 -3.2320001 0.27900001
10.21 -3.194 0.27900001
10.193 -3.1530001 0.278
10.207 -3.1210001 0.27900001
10.242 -3.096 0.28
10.286 -3.073 0.28099999
10.3 -3.0420001 0.28099999
10.347 -3.02 0.28200001
10.367 -2.99 0.28299999
10.386 -2.96 0.28299999
10.43 -2.938 0.28400001
10.462 -2.9119999 0.285
10.488 -2.8840001 0.28600001
10.541 -2.8629999 0.287
10.561 -2.8340001 0.28799999
10.591 -2.8080001 0.289
10.633 -2.7839999 0.28999999
10.659 -2.757 0.28999999
10.683 -2.7279999 0.29100001
10.734 -2.707 0.292
10.745 -2.6760001 0.29300001
10.779 -2.651 0.294
10.775 -2.6159999 0.29300001
10.849 -2.5999999 0.29499999
10.884 -2.575 0.296
10.923 -2.5510001 0.29699999
10.962 -2.527 0.29800001
10.979 -2.497 0.29899999
11.015 -2.4719999 0.30000001
11.04 -2.4449999 0.30000001
11.066 -2.418 0.301
11.123 -2.3970001 0.303
11.153 -2.3710001 0.30399999
11.211 -2.3510001 0.30500001
11.235 -2.323 0.30599999
11.288 -2.302 0.30700001
11.344 -2.2809999 0.30899999
11.396 -2.2590001 0.31
11.415 -2.23 0.31099999
11.44 -2.2030001 0.31099999
11.504 -2.1830001 0.31299999
11.513 -2.1530001 0.31299999
11.617 -2.141 0.31600001
11.606 -2.1070001 0.31600001
11.659 -2.085 0.317
11.712 -2.063 0.31900001
11.72 -2.033 0.31900001
11.764 -2.0090001 0.31999999
11.796 -1.983 0.32100001
11.84 -1.959 0.322
11.951 -1.946 0.32499999
12.032 -1.929 0.32699999
11.997 -1.892 0.32600001
11.974 -1.857 0.32600001
11.999 -1.831 0.32600001
12.075 -1.812 0.32800001
12.067 -1.78 0.32800001
12.082 -1.752 0.329
12.15 -1.732 0.33000001
12.168 -1.704 0.331
12.202 -1.679 0.33199999
12.214 -1.651 0.33199999
12.225 -1.623 0.333
12.249 -1.597 0.333
12.288 -1.572 0.33399999
12.331 -1.549 0.33500001
12.348 -1.522 0.336
12.37 -1.495 0.33700001
12.443 -1.475 0.33899999
12.446 -1.447 0.33899999
12.466 -1.421 0.33899999
12.538 -1.4 0.34099999
12.566 -1.375 0.34200001
12.642 -1.355 0.34400001
12.69 -1.331 0.345
12.708 -1.3049999 0.34599999
12.762 -1.2819999 0.347
12.83 -1.261 0.34900001
12.843 -1.234 0.34999999
13.362 0.17900001 0.25
13.408 0.204 0.25099999
13.443 0.228 0.25099999
13.43 0.25299999 0.25099999
13.454 0.278 0.25099999
13.442 0.303 0.25
13.435 0.32800001 0.25
13.44 0.354 0.25
13.455 0.38100001 0.25
13.46 0.40700001 0.25
13.452 0.433 0.25
13.466 0.461 0.25
13.463 0.48800001 0.25
13.467 0.51599997 0.249
13.463 0.54299998 0.249
13.46 0.57099998 0.249
13.479 0.60000002 0.249
13.47 0.62800002 0.249
13.452 0.65600002 0.248
13.476 0.68599999 0.249
13.474 0.71499997 0.248
13.473 0.745 0.248
13.483 0.77499998 0.248
13.498 0.80599999 0.248
13.502 0.83700001 0.248
13.491 0.86699998 0.248
13.525 0.89999998 0.248
13.53 0.93199998 0.248
13.563 0.96499997 0.249
13.555 0.99599999 0.248
13.555 1.028 0.248
13.554 1.061 0.248
13.551 1.0930001 0.248
13.596 1.1289999 0.249
13.612 1.163 0.249
13.726 1.207 0.25099999
13.762 1.244 0.25099999
13.764 1.278 0.25099999
9.3509998 0.89200002 0.17
13.908 1.326 0.25400001
9.2399998 0.90399998 0.168
9.1820002 0.92199999 0.167
9.1610003 0.94300002 0.167
9.0900002 0.95899999 0.16500001
9.0279999 0.97600001 0.164
9.0050001 0.99599999 0.164
8.9980001 1.0190001 0.163
8.9840002 1.041 0.163
9.0089998 1.068 0.163
9.0740004 1.099 0.164
14.266 1.729 0.259
9.276 1.149 0.168
14.102 1.7460001 0.25600001
14.111 1.785 0.25600001
14.147 1.8279999 0.25600001
14.171 1.87 0.257
11.893 1.601 0.215
11.788 1.62 0.213
11.759 1.648 0.213
11.758 1.6799999 0.213
11.672 1.701 0.211
11.588 1.721 0.20900001
11.544 1.747 0.208
11.539 1.779 0.208
11.553 1.814 0.208
11.606 1.855 0.20900001
11.805 1.921 0.213
13.513 2.237 0.244
13.247 2.2320001 0.23899999
13.211 2.2639999 0.23800001
13.209 2.302 0.23800001
13.271 2.352 0.23899999
13.433 2.4200001 0.242
14.908 2.73 0.26800001
14.973 2.786 0.26899999
15.017 2.839 0.27000001
15.082 2.8970001 0.271
15.121 2.95 0.27200001
15.159 3.003 0.273
15.143 3.046 0.27200001
15.195 3.102 0.273
15.192 3.148 0.273
15.276 3.2119999 0.27399999
15.351 3.276 0.27599999
15.422 3.3380001 0.27700001
15.435 3.3889999 0.27700001
15.514 3.4549999 0.278
15.512 3.503 0.278
15.539 3.5569999 0.27900001
15.616 3.6240001 0.28
15.717 3.697 0.28200001
15.767 3.7590001 0.28299999
15.836 3.826 0.28400001
15.849 3.8789999 0.28400001
15.901 3.9430001 0.285
15.933 4.0019999 0.28600001
15.97 4.0630002 0.28600001
16.021999 4.1279998 0.287
16.027 4.1810002 0.287
16.080999 4.2480001 0.28799999
16.106001 4.3070002 0.289
16.167999 4.3759999 0.28999999
16.224001 4.4439998 0.29100001
16.354 4.5339999 0.29300001
16.415001 4.605 0.294
16.459999 4.6719999 0.29499999
16.488001 4.7340002 0.29499999
16.559 4.8099999 0.29699999
16.660999 4.895 0.29800001
16.688999 4.96 0.29899999
16.688999 5.0149999 0.29899999
16.784 5.0999999 0.301
16.830999 5.171 0.301
16.879 5.243 0.30199999
16.919001 5.3130002 0.303
16.903999 5.3660002 0.303
16.926001 5.4299998 0.303
17.009001 5.5149999 0.30500001
17.018 5.5760002 0.30500001
17.128 5.671 0.30700001
17.205999 5.756 0.308
17.197001 5.8119998 0.308
17.236 5.8850002 0.30899999
17.294001 5.9640002 0.31
17.405001 6.0630002 0.31200001
13.055 5.4710002 0.234
12.915 5.4590001 0.23199999
12.814 5.4619999 0.23
12.728 5.4710002 0.229
12.628 5.474 0.227
12.52 5.4720001 0.22499999
12.496 5.507 0.22499999
12.855 5.711 0.23100001
12.247 5.8870001 0.221
12.236 5.9260001 0.221
12.221 6.4089999 0.221
12.172 6.428 0.22
12.219 6.4980001 0.221
12.271 6.5700002 0.222
8.7860003 -5.191 0.264
8.7880001 -5.1659999 0.264
8.7989998 -5.1479998 0.264
8.823 -5.1360002 0.26499999
8.8219995 -5.1110001 0.26499999
8.8459997 -5.0999999 0.266
8.8450003 -5.0739999 0.266
8.8660002 -5.0599999 0.266
8.8769999 -5.0409999 0.26699999
8.8660002 -5.0100002 0.266
8.901 -5.0040002 0.26699999
8.9300003 -4.994 0.26800001
8.9329996 -4.9699998 0.26800001
8.941 -4.9489999 0.26899999
8.9580002 -4.9320002 0.26899999
8.9680004 -4.9130001 0.27000001
8.9849997 -4.8959999 0.27000001
8.9940004 -4.875 0.27000001
9.0120001 -4.8579998 0.271
9.0220003 -4.8379998 0.271
9.0469999 -4.8249998 0.27200001
9.0500002 -4.8010001 0.27200001
9.066 -4.783 0.273
9.1140003 -4.7820001 0.27399999
9.1409998 -4.77 0.27500001
9.2679996 -4.809 0.27900001
9.2069998 -4.7509999 0.27700001
9.1549997 -4.697 0.27500001
9.1599998 -4.6729999 0.27599999
9.1619997 -4.6479998 0.27599999
9.1870003 -4.6339998 0.27599999
9.184 -4.605 0.27599999
9.2110004 -4.5929999 0.27700001
9.2159996 -4.5679998 0.27700001
9.2299995 -4.5479999 0.278
9.2530003 -4.533 0.278
9.2539997 -4.506 0.278
9.2709999 -4.4879999 0.27900001
9.3179998 -4.4829998 0.28
9.323 -4.4590001 0.28
9.3579998 -4.448 0.28200001
9.3599997 -4.4219999 0.28200001
9.3570004 -4.3940001 0.28200001
9.3940001 -4.3829999 0.28299999
9.3950005 -4.3559999 0.28299999
9.4160004 -4.3390002 0.28299999
9.4370003 -4.3210001 0.28400001
9.4580002 -4.303 0.285
9.46 -4.276 0.285
9.4700003 -4.2540002 0.285
9.5 -4.2389998 0.28600001
9.507 -4.2150002 0.28600001
9.5129995 -4.1900001 0.28600001
9.5220003 -4.1659999 0.287
9.5500002 -4.1500001 0.287
9.559 -4.1259999 0.28799999
9.5830002 -4.1090002 0.28799999
9.5880003 -4.0830002 0.289
9.6199999 -4.0689998 0.28999999
9.6540003 -4.0549998 0.29100001
9.6680002 -4.033 0.29100001
9.6709995 -4.006 0.29100001
9.6879997 -3.9849999 0.292
9.7060003 -3.964 0.292
9.7130003 -3.938 0.292
9.717 -3.9119999 0.292
9.7360001 -3.891 0.29300001
9.7440004 -3.8659999 0.29300001
9.7930002 -3.8570001 0.29499999
9.8120003 -3.836 0.29499999
9.8070002 -3.8050001 0.29499999
9.8509998 -3.7939999 0.296
9.8649998 -3.77 0.29699999
9.8889999 -3.7509999 0.29800001
9.9239998 -3.7349999 0.29899999
9.9200001 -3.7049999 0.29899999
9.9370003 -3.6819999 0.29899999
9.967 -3.664 0.30000001
9.9729996 -3.638 0.30000001
10 -3.618 0.301
10.015 -3.5940001 0.301
10.027 -3.5699999 0.30199999
10.072 -3.556 0.303
10.084 -3.5309999 0.303
10.09 -3.5039999 0.30399999
10.108 -3.4809999 0.30399999
10.129 -3.4590001 0.30500001
10.149 -3.4360001 0.30500001
10.164 -3.4119999 0.30599999
10.189 -3.391 0.30700001
10.2 -3.365 0.30700001
10.23 -3.345 0.308
10.301 -3.3380001 0.31
10.368 -3.3299999 0.31200001
10.345 -3.2920001 0.31099999
10.339 -3.2609999 0.31099999
10.347 -3.233 0.31099999
10.338 -3.2 0.31099999
10.362 -3.178 0.31200001
10.374 -3.151 0.31200001
10.395 -3.128 0.31299999
10.41 -3.102 0.31299999
10.45 -3.0840001 0.31400001
10.475 -3.0610001 0.315
10.515 -3.0420001 0.31600001
10.532 -3.017 0.317
10.566 -2.9960001 0.31799999
10.591 -2.9719999 0.31799999
10.611 -2.947 0.31900001
10.642 -2.925 0.31999999
10.682 -2.905 0.32100001
10.687 -2.875 0.32100001
10.708 -2.8499999 0.322
10.745 -2.829 0.32300001
10.761 -2.802 0.324
10.832 -2.789 0.32600001
10.854 -2.7639999 0.32600001
10.868 -2.7360001 0.32699999
10.92 -2.717 0.32800001
10.965 -2.697 0.33000001
11.015 -2.678 0.331
11.005 -2.6440001 0.331
11.026 -2.6170001 0.331
11.069 -2.595 0.333
11.117 -2.5739999 0.33399999
11.133 -2.546 0.33500001
11.168 -2.5220001 0.336
11.204 -2.4979999 0.33700001
11.206 -2.4660001 0.33700001
11.256 -2.444 0.338
11.286 -2.4189999 0.33899999
11.342 -2.398 0.34099999
11.398 -2.3770001 0.34200001
11.425 -2.3499999 0.34299999
11.437 -2.319 0.34400001
11.529 -2.3050001 0.34599999
11.577 -2.2809999 0.34799999
11.624 -2.257 0.34900001
11.654 -2.2290001 0.34999999
11.695 -2.204 0.35100001
11.701 -2.171 0.35100001
11.754 -2.1470001 0.35299999
11.792 -2.1199999 0.354
11.842 -2.095 0.35600001
11.876 -2.0669999 0.35600001
11.942 -2.0450001 0.35800001
11.979 -2.016 0.36000001
12.02 -1.989 0.361
12.101 -1.9680001 0.36300001
12.338 -1.971 0.37
12.173 -1.91 0.36500001
12.142 -1.87 0.36399999
12.213 -1.846 0.366
12.25 -1.816 0.368
12.255 -1.7819999 0.368
12.299 -1.753 0.36899999
12.357 -1.726 0.37099999
12.388 -1.6950001 0.37200001
12.421 -1.664 0.373
12.464 -1.6339999 0.37400001
12.507 -1.604 0.375
12.548 -1.573 0.37599999
12.623 -1.5470001 0.37799999
12.683 -1.518 0.38
12.777 -1.492 0.38299999
12.833 -1.462 0.38499999
12.837 -1.426 0.38499999
12.958 -1.403 0.38800001
14.03 0.48100001 0.28799999
13.995 0.5 0.287
14.02 0.52200001 0.28799999
14.025 0.54299998 0.287
14.015 0.56400001 0.287
14.026 0.58600003 0.287
13.98 0.60600001 0.28600001
13.961 0.62800002 0.285
13.958 0.64999998 0.285
13.983 0.67500001 0.285
13.974 0.69700003 0.285
13.919 0.71799999 0.28400001
13.957 0.74400002 0.28400001
13.94 0.76700002 0.28400001
13.993 0.79500002 0.285
13.994 0.81900001 0.285
14.019 0.84600002 0.285
14.018 0.87099999 0.285
14.058 0.89999998 0.28600001
14.042 0.92500001 0.285
13.674 1.059 0.27700001
13.665 1.086 0.27700001
13.642 1.112 0.27599999
14.31 1.225 0.289
14.29 1.253 0.289
14.308 1.285 0.289
14.418 1.325 0.29100001
9.4379997 0.88800001 0.19
14.626 1.376 0.29499999
9.2679996 0.89200002 0.18700001
9.2250004 0.90799999 0.186
9.1470003 0.92000002 0.184
9.1049995 0.93599999 0.183
9.0489998 0.95099998 0.182
8.9980001 0.96600002 0.18099999
8.9899998 0.986 0.18099999
8.9709997 1.0039999 0.18000001
8.9790001 1.026 0.18099999
9.0109997 1.051 0.18099999
9.0640001 1.0779999 0.182
14.881 1.77 0.29899999
9.243 1.1210001 0.186
14.723 1.7869999 0.296
14.698 1.819 0.296
14.719 1.857 0.296
14.765 1.898 0.29699999
11.921 1.562 0.23999999
11.807 1.576 0.237
11.762 1.599 0.236
11.731 1.624 0.236
11.662 1.6440001 0.234
11.577 1.6619999 0.23199999
11.545 1.687 0.23199999
11.53 1.714 0.23100001
11.544 1.7460001 0.23199999
11.551 1.777 0.23199999
11.591 1.814 0.233
11.7 1.862 0.235
15.271 2.431 0.30599999
15.197 2.4590001 0.30500001
15.216 2.503 0.30500001
13.286 2.221 0.26699999
13.207 2.244 0.26499999
13.201 2.279 0.26499999
13.246 2.323 0.266
13.328 2.3740001 0.26699999
15.51 2.8069999 0.31099999
15.408 2.8310001 0.30899999
15.433 2.8789999 0.31
15.479 2.9319999 0.31099999
15.515 2.983 0.31099999
15.535 3.0309999 0.31200001
15.563 3.0810001 0.31200001
15.611 3.1359999 0.31299999
15.643 3.188 0.31400001
15.701 3.2460001 0.315
15.852 3.3239999 0.31799999
15.876 3.3759999 0.31900001
15.926 3.434 0.31999999
15.916 3.48 0.31999999
15.994 3.5450001 0.32100001
16.083 3.6140001 0.32300001
16.089001 3.664 0.32300001
16.141001 3.7249999 0.324
16.136 3.7739999 0.324
16.169001 3.832 0.32499999
16.207001 3.891 0.32600001
16.271 3.957 0.32699999
16.362 4.0310001 0.329
16.33 4.0739999 0.32800001
16.343 4.1300001 0.329
16.423 4.2020001 0.33000001
16.422001 4.2550001 0.33000001
16.471001 4.3200002 0.33199999
16.487 4.3779998 0.33199999
16.549 4.448 0.333
16.629999 4.5240002 0.33500001
16.729 4.6059999 0.33700001
16.797001 4.6810002 0.33899999
16.848 4.7509999 0.34
16.92 4.8270001 0.34099999
16.891001 4.8759999 0.34099999
16.999001 4.9640002 0.34299999
17.009001 5.0240002 0.34299999
17.045 5.0929999 0.34400001
17.219999 5.204 0.34799999
17.358 5.3049998 0.35100001
17.273001 5.3379998 0.34900001
17.365 5.427 0.35100001
17.365 5.487 0.35100001
17.396 5.5570002 0.352
17.429001 5.6290002 0.35299999
17.504 5.7150002 0.35499999
17.541 5.789 0.35499999
17.768 5.927 0.36000001
17.73 5.9770002 0.36000001
17.738001 6.0430002 0.36000001
17.837999 6.1420002 0.36199999
13.043 5.4190001 0.26699999
12.913 5.415 0.26499999
12.804 5.4200001 0.26300001
12.717 5.4330001 0.26100001
12.589 5.427 0.259
12.51 5.4429998 0.257
12.594 5.5300002 0.259
12.259 5.829 0.25400001
12.258 5.8800001 0.25400001
12.28 6.4070001 0.257
12.26 6.4499998 0.257
12.334 6.5419998 0.25799999
8.4090004 -5.533 0.27599999
8.4390001 -5.4990001 0.27700001
8.4799995 -5.474 0.278
8.5179996 -5.4450002 0.27900001
8.5410004 -5.408 0.28
8.566 -5.3720002 0.28
8.5869999 -5.3340001 0.28099999
8.6230001 -5.3049998 0.28200001
8.6459999 -5.2680001 0.28200001
8.6780005 -5.2379999 0.28299999
8.7019997 -5.2020001 0.28400001
8.7379999 -5.1729999 0.285
8.7530003 -5.1329999 0.285
8.79 -5.105 0.28600001
8.8199997 -5.073 0.287
8.8479996 -5.04 0.28799999
8.8669996 -5.0029998 0.28799999
8.8920002 -4.9679999 0.289
8.934 -4.9429998 0.28999999
8.9549999 -4.9070001 0.29100001
9.0170002 -4.8930001 0.292
9.0679998 -4.8740001 0.294
9.0579996 -4.8210001 0.29300001
9.0620003 -4.776 0.29300001
9.0710001 -4.7340002 0.294
9.0950003 -4.7010002 0.294
9.1239996 -4.6700001 0.29499999
9.1549997 -4.6399999 0.296
9.1719999 -4.6030002 0.296
9.198 -4.5710001 0.29699999
9.2259998 -4.539 0.29800001
9.2600002 -4.5110002 0.29899999
9.3000002 -4.4860001 0.30000001
9.3319998 -4.4569998 0.301
9.3520002 -4.4219999 0.301
9.3769999 -4.3899999 0.30199999
9.4160004 -4.3639998 0.303
9.4189997 -4.322 0.303
9.4580002 -4.2969999 0.30399999
9.4820004 -4.2639999 0.30500001
9.4980001 -4.2290001 0.30500001
9.5349998 -4.2020001 0.30599999
9.5459995 -4.165 0.30700001
9.5629997 -4.1300001 0.30700001
9.5740004 -4.092 0.30700001
9.6210003 -4.0710001 0.30899999
9.6660004 -4.0479999 0.31
9.6920004 -4.0170002 0.31099999
9.7410002 -3.9960001 0.31200001
9.75 -3.9579999 0.31200001
9.7670002 -3.924 0.31299999
9.7989998 -3.8959999 0.31400001
9.816 -3.862 0.31400001
9.8389997 -3.8310001 0.315
9.8830004 -3.8080001 0.31600001
9.9219999 -3.783 0.317
9.9370003 -3.7479999 0.31799999
9.9589996 -3.717 0.31799999
10.017 -3.6989999 0.31999999
10.03 -3.664 0.31999999
10.062 -3.6359999 0.32100001
10.1 -3.6110001 0.322
10.093 -3.569 0.322
10.131 -3.5439999 0.32300001
10.181 -3.523 0.32499999
10.188 -3.487 0.32499999
10.234 -3.464 0.32600001
10.262 -3.4349999 0.32699999
10.287 -3.405 0.32800001
10.294 -3.3699999 0.32800001
10.354 -3.3510001 0.33000001
10.437 -3.3399999 0.33199999
10.422 -3.2980001 0.33199999
10.438 -3.266 0.33199999
10.452 -3.233 0.33199999
10.47 -3.201 0.333
10.483 -3.168 0.333
10.537 -3.148 0.33500001
10.564 -3.119 0.336
10.655 -3.109 0.33899999
10.705 -3.0869999 0.34
10.726 -3.0569999 0.34099999
10.766 -3.0320001 0.34200001
10.826 -3.013 0.34400001
10.844 -2.9820001 0.34400001
10.875 -2.954 0.345
10.91 -2.928 0.34599999
10.991 -2.914 0.34900001
11.024 -2.8870001 0.34999999
11.062 -2.8610001 0.35100001
11.114 -2.839 0.35299999
11.191 -2.823 0.35499999
11.262 -2.8050001 0.35699999
11.273 -2.7720001 0.35699999
11.316 -2.747 0.359
11.328 -2.7149999 0.359
11.394 -2.6960001 0.361
11.393 -2.661 0.361
11.423 -2.6329999 0.36199999
11.489 -2.6129999 0.36399999
11.5 -2.5810001 0.36399999
11.519 -2.5510001 0.36500001
11.577 -2.529 0.36700001
11.65 -2.5109999 0.36899999
11.664 -2.48 0.36899999
11.693 -2.4519999 0.37
11.736 -2.427 0.37200001
11.808 -2.408 0.37400001
11.831 -2.3789999 0.375
11.885 -2.3559999 0.37599999
11.932 -2.3310001 0.37799999
11.935 -2.299 0.37799999
12.007 -2.279 0.38
12.031 -2.25 0.38100001
12.085 -2.227 0.382
12.122 -2.201 0.384
12.123 -2.168 0.384
12.178 -2.145 0.38499999
12.21 -2.118 0.38600001
12.242 -2.0910001 0.38699999
12.266 -2.062 0.38800001
12.273 -2.0309999 0.38800001
12.324 -2.0079999 0.38999999
12.514 -2.006 0.396
12.548 -1.947 0.39700001
12.486 -1.905 0.39500001
12.483 -1.873 0.39500001
12.521 -1.848 0.396
12.564 -1.822 0.39700001
12.617 -1.799 0.39899999
12.633 -1.77 0.39899999
12.655 -1.742 0.40000001
12.704 -1.7180001 0.40200001
12.763 -1.6950001 0.40400001
12.795 -1.668 0.405
12.842 -1.6440001 0.40599999
12.837 -1.613 0.40599999
12.925 -1.5930001 0.40900001
13.001 -1.572 0.41100001
13.035 -1.546 0.412
13.761 0.186 0.324
13.77 0.211 0.324
13.791 0.236 0.324
13.783 0.26100001 0.324
13.778 0.287 0.324
13.798 0.31299999 0.324
13.801 0.33899999 0.324
13.824 0.366 0.324
13.826 0.39300001 0.324
13.86 0.421 0.32499999
13.877 0.449 0.32499999
13.885 0.477 0.32499999
13.908 0.50599998 0.32499999
13.914 0.53399998 0.32499999
13.891 0.56199998 0.324
13.906 0.59100002 0.32499999
13.928 0.62199998 0.32499999
13.951 0.65200001 0.32499999
13.926 0.68099999 0.324
13.957 0.71200001 0.32499999
13.922 0.741 0.324
13.942 0.77200001 0.324
13.993 0.80599999 0.32499999
14.01 0.838 0.32600001
14.035 0.87099999 0.32600001
14.022 0.90200001 0.32600001
14.047 0.93599999 0.32600001
14.082 0.97100002 0.32699999
13.612 1.099 0.315
13.589 1.13 0.315
13.58 1.1619999 0.31400001
14.406 1.303 0.333
14.37 1.335 0.33199999
14.394 1.374 0.333
14.54 1.424 0.336
9.3179998 0.93599999 0.215
14.873 1.494 0.34299999
9.2159996 0.949 0.213
9.1339998 0.96399999 0.211
9.0869999 0.98199999 0.20900001
9.0310001 1 0.208
8.9860001 1.018 0.207
8.9689999 1.04 0.207
8.9809999 1.0650001 0.207
9.0050001 1.091 0.207
9.0760002 1.124 0.20900001
15.038 1.863 0.34599999
9.3500004 1.183 0.215
14.866 1.882 0.34200001
14.914 1.928 0.34299999
14.974 1.976 0.345
11.901 1.603 0.27399999
15.074 2.0309999 0.347
11.807 1.623 0.27200001
11.743 1.646 0.27000001
11.665 1.668 0.26800001
11.568 1.686 0.266
11.527 1.712 0.26499999
11.513 1.742 0.26499999
11.542 1.779 0.26499999
11.57 1.816 0.266
11.623 1.858 0.26699999
15.702 2.51 0.361
15.406 2.507 0.354
15.412 2.552 0.354
13.257 2.234 0.30500001
13.189 2.26 0.303
13.178 2.2969999 0.303
13.275 2.3529999 0.30500001
15.707 2.8299999 0.361
15.641 2.865 0.359
15.665 2.9159999 0.36000001
15.721 2.973 0.361
15.775 3.03 0.36199999
15.827 3.0880001 0.36300001
15.968 3.1630001 0.36700001
15.995 3.217 0.36700001
16.066999 3.2809999 0.36899999
16.125999 3.342 0.37
16.242001 3.4159999 0.373
16.256001 3.4690001 0.373
16.274 3.523 0.37400001
16.306 3.5799999 0.37400001
16.356001 3.642 0.37599999
16.396999 3.7030001 0.377
16.437 3.763 0.37799999
16.478001 3.8239999 0.37799999
16.521 3.8859999 0.38
16.575001 3.951 0.38100001
16.672001 4.0279999 0.38299999
16.806999 4.1139998 0.38600001
16.834999 4.1750002 0.38699999
16.889 4.2420001 0.38800001
16.924 4.3049998 0.389
16.951 4.3670001 0.38999999
16.943001 4.4200001 0.38999999
17.112 4.52 0.39300001
17.046 4.5580001 0.39199999
17.139 4.6389999 0.39399999
17.118999 4.6890001 0.39399999
17.209999 4.7709999 0.396
17.281 4.8470001 0.398
17.441 4.9499998 0.40099999
17.646999 5.0669999 0.40599999
17.6 5.112 0.405
17.580999 5.165 0.405
17.719999 5.2649999 0.40799999
17.871 5.3699999 0.412
17.839001 5.421 0.41100001
17.945999 5.5139999 0.414
17.874001 5.552 0.412
17.983999 5.6469998 0.41499999
17.988001 5.7090001 0.41499999
18.025999 5.783 0.41600001
18.089001 5.8649998 0.417
18.070999 5.921 0.417
18.132 6.0029998 0.419
18.226999 6.0970001 0.421
18.332001 6.1950002 0.42399999
18.395 6.2800002 0.42500001
13.136 5.4569998 0.30599999
12.951 5.427 0.30199999
12.878 5.4419999 0.30000001
12.794 5.4530001 0.29800001
12.732 5.4720001 0.29699999
12.652 5.4829998 0.29499999
12.573 5.4949999 0.294
12.69 5.592 0.296
9.0170002 -5.3309999 0.31299999
9.0459995 -5.322 0.31400001
9.0489998 -5.2989998 0.31400001
9.0530005 -5.2750001 0.31400001
9.0749998 -5.2610002 0.315
9.099 -5.2490001 0.31600001
9.0909996 -5.2189999 0.315
9.1079998 -5.2020001 0.31600001
9.1300001 -5.1890001 0.317
9.1309996 -5.1630001 0.317
9.1619997 -5.1539998 0.31799999
9.1730003 -5.1339998 0.31799999
9.165 -5.1030002 0.31799999
9.2010002 -5.0970001 0.31900001
9.1990004 -5.0689998 0.31900001
9.2270002 -5.0580001 0.31999999
9.2399998 -5.0380001 0.32100001
9.2440004 -5.0139999 0.32100001
9.257 -4.994 0.32100001
9.2740002 -4.9759998 0.322
9.29 -4.9580002 0.322
9.3039999 -4.9390001 0.32300001
9.2989998 -4.9089999 0.32300001
9.316 -4.8909998 0.32300001
9.342 -4.8779998 0.324
9.3620005 -4.8610001 0.32499999
9.3649998 -4.835 0.32499999
9.3690004 -4.8099999 0.32499999
9.3929996 -4.7950001 0.32600001
9.4230003 -4.783 0.32699999
9.4309998 -4.7600002 0.32699999
9.4469995 -4.7399998 0.32800001
9.4630003 -4.7210002 0.32800001
9.4910002 -4.7080002 0.329
9.4910002 -4.6799998 0.329
9.4989996 -4.6560001 0.33000001
9.507 -4.632 0.33000001
9.5430002 -4.6220002 0.331
9.559 -4.6020002 0.33199999
9.559 -4.5739999 0.33199999
9.5690002 -4.5510001 0.33199999
9.5799999 -4.5289998 0.33199999
9.5939999 -4.507 0.333
9.6120005 -4.4879999 0.33399999
9.6389999 -4.4720001 0.33500001
9.6420002 -4.4460001 0.33500001
9.6590004 -4.4250002 0.33500001
9.6820002 -4.408 0.336
9.7119999 -4.3930001 0.33700001
9.717 -4.3670001 0.33700001
9.7360001 -4.3470001 0.338
9.7530003 -4.3260002 0.338
9.776 -4.3080001 0.33899999
9.7840004 -4.283 0.33899999
9.7969999 -4.2600002 0.34
9.8179998 -4.2410002 0.34099999
9.823 -4.2140002 0.34099999
9.8400002 -4.1929998 0.34099999
9.8559999 -4.171 0.34200001
9.8760004 -4.151 0.34299999
9.8900003 -4.1279998 0.34299999
9.9160004 -4.1100001 0.34400001
9.9219999 -4.0830002 0.34400001
9.9449997 -4.0630002 0.345
9.9580002 -4.04 0.345
9.9899998 -4.0240002 0.34599999
10.006 -4.0009999 0.347
10.022 -3.9779999 0.34799999
10.038 -3.9549999 0.34799999
10.042 -3.928 0.34799999
10.065 -3.9070001 0.34900001
10.081 -3.8840001 0.34999999
10.11 -3.8659999 0.35100001
10.163 -3.8559999 0.352
10.168 -3.829 0.35299999
10.177 -3.803 0.35299999
10.197 -3.78 0.354
10.193 -3.7490001 0.35299999
10.212 -3.7260001 0.354
10.218 -3.6989999 0.354
10.253 -3.6819999 0.35499999
10.265 -3.6559999 0.35600001
10.287 -3.6340001 0.35600001
10.289 -3.605 0.35699999
10.324 -3.5869999 0.35800001
10.353 -3.5669999 0.359
10.394 -3.5510001 0.36000001
10.367 -3.5120001 0.359
10.41 -3.4960001 0.361
10.427 -3.471 0.361
10.464 -3.4530001 0.36199999
10.5 -3.4349999 0.36399999
10.523 -3.4119999 0.36399999
10.558 -3.392 0.366
10.618 -3.381 0.368
10.61 -3.3469999 0.36700001
10.641 -3.326 0.368
10.626 -3.2909999 0.368
10.653 -3.2679999 0.36899999
10.661 -3.24 0.36899999
10.678 -3.214 0.37
10.724 -3.197 0.37099999
10.736 -3.1689999 0.37200001
10.816 -3.161 0.37400001
10.861 -3.1429999 0.37599999
10.861 -3.112 0.37599999
10.911 -3.0940001 0.37799999
10.933 -3.069 0.37799999
10.97 -3.0480001 0.38
11.031 -3.033 0.382
11.075 -3.013 0.38299999
11.102 -2.9879999 0.384
11.138 -2.9649999 0.38499999
11.16 -2.9389999 0.38600001
11.169 -2.9089999 0.38600001
11.259 -2.9000001 0.389
11.266 -2.869 0.38999999
11.304 -2.846 0.391
11.315 -2.816 0.391
11.374 -2.7980001 0.39300001
11.431 -2.779 0.39500001
11.459 -2.753 0.396
11.501 -2.73 0.398
11.542 -2.7060001 0.39899999
11.551 -2.675 0.39899999
11.6 -2.6530001 0.40099999
11.636 -2.628 0.40200001
11.644 -2.596 0.40200001
11.674 -2.569 0.403
11.705 -2.5420001 0.40400001
11.761 -2.5209999 0.40599999
11.809 -2.497 0.40799999
11.818 -2.4649999 0.40799999
11.864 -2.4400001 0.41
11.887 -2.411 0.41
11.983 -2.3959999 0.414
11.998 -2.3640001 0.414
12.042 -2.3380001 0.41600001
12.088 -2.312 0.417
12.113 -2.2820001 0.41800001
12.19 -2.2620001 0.421
12.211 -2.2309999 0.421
12.249 -2.2019999 0.42300001
12.299 -2.1760001 0.42399999
12.317 -2.1440001 0.42500001
12.338 -2.112 0.426
12.412 -2.089 0.428
12.457 -2.0610001 0.43000001
12.486 -2.03 0.43099999
12.588 -2.0109999 0.43399999
12.692 -1.918 0.43700001
12.705 -1.883 0.43799999
12.768 -1.8559999 0.44
12.862 -1.8329999 0.44299999
12.882 -1.799 0.44400001
12.923 -1.768 0.44499999
14.823 0.76700002 0.37400001
14.755 0.78899997 0.37200001
14.78 0.815 0.37200001
14.767 0.84100002 0.37200001
14.868 0.87300003 0.37400001
14.762 0.89300001 0.37099999
14.805 0.92199999 0.37200001
14.88 0.954 0.37400001
14.936 0.986 0.375
13.541 1.105 0.33899999
13.578 1.136 0.34
15.319 1.345 0.384
15.106 1.358 0.37799999
15.063 1.386 0.377
15.093 1.421 0.37799999
15.157 1.46 0.37900001
9.4040003 0.926 0.235
15.32 1.5089999 0.38299999
9.2089996 0.92699999 0.23
9.1590004 0.94300002 0.229
9.0889997 0.95599997 0.227
9.0059996 0.96799999 0.22499999
8.974 0.98500001 0.22400001
8.96 1.0039999 0.22400001
8.9659996 1.025 0.22400001
8.9799995 1.048 0.22400001
9.007 1.072 0.22499999
9.1090002 1.1059999 0.227
15.634 1.898 0.391
15.522 1.9220001 0.38800001
15.541 1.962 0.38800001
12.06 1.551 0.301
15.6 2.007 0.38999999
11.849 1.553 0.296
11.768 1.572 0.294
11.678 1.589 0.292
11.585 1.605 0.289
11.551 1.6289999 0.28799999
11.514 1.653 0.287
11.517 1.683 0.28799999
11.533 1.715 0.28799999
11.548 1.747 0.28799999
11.589 1.784 0.289
11.747 1.839 0.29300001
16.013 2.507 0.40000001
15.906 2.5320001 0.39700001
15.948 2.5810001 0.398
13.252 2.181 0.331
13.172 2.2030001 0.329
13.172 2.2390001 0.329
13.205 2.28 0.33000001
13.398 2.3499999 0.33500001
16.296 2.859 0.40700001
16.226 2.891 0.40599999
16.274 2.9449999 0.40700001
16.284 2.993 0.40700001
16.360001 3.053 0.40900001
16.399 3.1059999 0.41
16.495001 3.1719999 0.41299999
16.540001 3.2279999 0.414
16.573 3.2820001 0.41499999
16.545 3.3239999 0.414
16.559999 3.375 0.41499999
16.612 3.4349999 0.41600001
16.636 3.4890001 0.417
16.709999 3.5539999 0.419
16.725 3.6070001 0.419
16.799999 3.674 0.421
16.878 3.7409999 0.42300001
16.882999 3.7939999 0.42399999
16.881001 3.845 0.42399999
16.92 3.905 0.42500001
16.976 3.97 0.426
17.097 4.052 0.43000001
17.177 4.1240001 0.43200001
17.148001 4.171 0.43099999
17.283001 4.2579999 0.435
17.423 4.3470001 0.43799999
17.392 4.395 0.43799999
17.575001 4.4970002 0.44299999
17.641001 4.5710001 0.44400001
17.576 4.6100001 0.44299999
17.6 4.6739998 0.44400001
17.698 4.757 0.44600001
17.753 4.8299999 0.44800001
17.790001 4.8979998 0.449
17.827 4.967 0.44999999
17.971001 5.0669999 0.454
18.007 5.1370001 0.45500001
18.028 5.2030001 0.456
18.052999 5.2709999 0.45699999
18.1 5.3460002 0.458
18.181999 5.4320002 0.461
18.239 5.5110002 0.46200001
18.299 5.592 0.46399999
18.266001 5.645 0.46399999
18.351999 5.7350001 0.46599999
18.386 5.809 0.46700001
18.381001 5.8720002 0.46700001
18.486 5.9699998 0.47
18.552999 6.0570002 0.472
18.496 6.1030002 0.47099999
18.659 6.223 0.47499999
18.615 6.2750001 0.47499999
18.733999 6.382 0.47799999
13.025 5.4109998 0.33700001
12.926 5.4200001 0.33500001
12.866 5.4450002 0.333
12.813 5.473 0.33199999
12.778 5.5079999 0.33199999
12.76 5.5510001 0.33199999
12.531 5.8039999 0.32800001
12.438 5.8119998 0.32600001
12.416 5.8530002 0.32499999
12.456 5.9229999 0.32699999
8.6400003 -5.6830001 0.32499999
8.6599998 -5.6420002 0.32499999
8.6999998 -5.6139998 0.32600001
8.7469997 -5.5900002 0.32800001
8.7600002 -5.5450001 0.32800001
8.8129997 -5.526 0.33000001
8.8319998 -5.4840002 0.33000001
8.8529997 -5.4450002 0.331
8.8850002 -5.4130001 0.33199999
8.9130001 -5.3779998 0.333
8.934 -5.3390002 0.333
8.9689999 -5.3080001 0.33399999
8.9960003 -5.2729998 0.33500001
9.0170002 -5.2350001 0.336
9.0620003 -5.21 0.33700001
9.0780001 -5.1700001 0.338
9.099 -5.132 0.338
9.125 -5.0970001 0.33899999
9.1560001 -5.0650001 0.34
9.1739998 -5.026 0.34
9.2089996 -4.9959998 0.34099999
9.2080002 -4.947 0.34099999
9.1929998 -4.8920002 0.34
9.2629995 -4.881 0.34299999
9.3109999 -4.8590002 0.34400001
9.3319998 -4.822 0.345
9.3710003 -4.7950001 0.34599999
9.3870001 -4.756 0.347
9.4180002 -4.7249999 0.34799999
9.4379997 -4.6890001 0.34799999
9.4729996 -4.6599998 0.34900001
9.4879999 -4.6209998 0.34999999
9.5059996 -4.5840001 0.34999999
9.5270004 -4.5489998 0.35100001
9.566 -4.5229998 0.352
9.5889997 -4.4879999 0.35299999
9.6140003 -4.4549999 0.354
9.6389999 -4.4219999 0.354
9.6630001 -4.3889999 0.35499999
9.6960001 -4.3600001 0.35600001
9.724 -4.3280001 0.35699999
9.7620001 -4.3010001 0.35800001
9.7889996 -4.27 0.359
9.816 -4.2379999 0.36000001
9.842 -4.2059999 0.361
9.875 -4.177 0.36199999
9.8780003 -4.1360002 0.36199999
9.9130001 -4.1079998 0.36300001
9.934 -4.0739999 0.36399999
9.9770002 -4.0500002 0.36500001
9.9820004 -4.0100002 0.36500001
10.032 -3.9879999 0.36700001
10.061 -3.9579999 0.368
10.072 -3.921 0.368
10.115 -3.8959999 0.36899999
10.162 -3.8729999 0.37099999
10.181 -3.8399999 0.37200001
10.226 -3.816 0.373
10.255 -3.786 0.37400001
10.275 -3.753 0.375
10.302 -3.7219999 0.375
10.328 -3.6919999 0.37599999
10.38 -3.6700001 0.37799999
10.393 -3.635 0.37799999
10.411 -3.602 0.37900001
10.472 -3.5829999 0.38100001
10.497 -3.552 0.382
10.55 -3.5309999 0.384
10.584 -3.503 0.38499999
10.649 -3.4849999 0.38699999
10.675 -3.4549999 0.38800001
10.794 -3.454 0.39199999
10.826 -3.425 0.39300001
10.842 -3.392 0.39399999
10.862 -3.359 0.39399999
10.899 -3.332 0.396
10.939 -3.306 0.39700001
11.004 -3.2869999 0.39899999
11.029 -3.256 0.40000001
11.092 -3.237 0.40200001
11.135 -3.211 0.40400001
11.209 -3.1949999 0.40599999
11.22 -3.1600001 0.40700001
11.253 -3.131 0.40799999
11.319 -3.112 0.41
11.359 -3.085 0.41100001
11.388 -3.056 0.412
11.435 -3.0309999 0.414
11.455 -2.9990001 0.41499999
11.508 -2.9760001 0.41600001
11.534 -2.9460001 0.417
11.592 -2.924 0.419
11.636 -2.898 0.421
11.723 -2.8829999 0.42399999
11.725 -2.8469999 0.42399999
11.767 -2.8199999 0.42500001
11.809 -2.7939999 0.42699999
11.859 -2.7690001 0.42899999
11.915 -2.7460001 0.43099999
11.936 -2.7149999 0.43099999
11.977 -2.688 0.433
12.002 -2.658 0.43399999
12.056 -2.6340001 0.435
12.087 -2.605 0.43599999
12.102 -2.573 0.43700001
12.159 -2.55 0.43900001
12.241 -2.5309999 0.442
12.235 -2.4949999 0.442
12.289 -2.471 0.44299999
12.325 -2.4430001 0.44499999
12.418 -2.4260001 0.44800001
12.406 -2.3900001 0.44800001
12.481 -2.369 0.44999999
12.552 -2.348 0.45300001
12.59 -2.3199999 0.454
12.593 -2.2869999 0.454
12.643 -2.2609999 0.456
12.711 -2.2390001 0.458
12.758 -2.2130001 0.46000001
12.753 -2.178 0.46000001
12.785 -2.1500001 0.461
12.847 -2.1270001 0.463
13.86 -1.677 0.49900001
13.861 -1.6440001 0.49900001
13.801 -1.605 0.49700001
14.103 -1.387 0.50800002
14.108 -1.357 0.50800002
14.099 -1.326 0.50800002
14.434 0.198 0.40900001
14.434 0.223 0.40900001
14.462 0.25 0.41
14.535 0.278 0.412
14.549 0.30500001 0.412
14.595 0.333 0.41299999
14.578 0.36000001 0.412
14.616 0.389 0.41299999
14.601 0.417 0.412
14.594 0.44499999 0.412
14.591 0.47400001 0.412
14.623 0.50400001 0.412
14.598 0.53299999 0.412
14.645 0.56400001 0.41299999
14.67 0.59500003 0.41299999
14.654 0.625 0.41299999
14.692 0.65700001 0.41299999
14.72 0.69 0.414
14.77 0.72399998 0.41499999
14.803 0.75700003 0.41600001
14.772 0.78799999 0.41499999
14.83 0.82300001 0.417
14.889 0.85900003 0.41800001
14.871 0.89099997 0.417
14.887 0.926 0.41800001
14.958 0.96399999 0.41999999
15.05 1.0039999 0.42199999
13.637 1.069 0.382
13.521 1.0930001 0.37799999
13.486 1.122 0.377
13.528 1.158 0.37799999
15.29 1.3839999 0.428
15.23 1.416 0.426
15.244 1.456 0.426
15.281 1.498 0.42699999
9.5539999 0.95999998 0.26699999
15.395 1.548 0.43000001
9.2220001 0.94999999 0.25799999
9.1689997 0.96799999 0.25600001
9.0550003 0.98000002 0.25299999
8.9809999 0.995 0.25099999
8.9650002 1.016 0.25
8.9589996 1.039 0.25
8.9650002 1.063 0.25
8.9879999 1.09 0.25099999
9.0760002 1.125 0.25299999
15.84 1.9630001 0.442
15.737 1.993 0.43900001
15.746 2.036 0.43900001
11.894 1.5700001 0.33199999
15.857 2.0940001 0.44299999
11.769 1.586 0.32800001
11.657 1.603 0.32499999
11.563 1.6210001 0.322
11.526 1.648 0.32100001
11.509 1.678 0.32100001
11.52 1.711 0.32100001
11.527 1.745 0.32100001
11.584 1.786 0.32300001
11.731 1.842 0.32699999
16.257999 2.553 0.454
16.149 2.582 0.45100001
13.415 2.1830001 0.37400001
13.207 2.188 0.368
13.137 2.214 0.366
13.163 2.256 0.36700001
13.271 2.3139999 0.37
16.739 2.918 0.46700001
16.568001 2.937 0.46200001
16.545 2.9820001 0.46200001
16.566 3.0339999 0.46200001
16.649 3.099 0.465
16.725 3.1630001 0.46700001
16.811001 3.2290001 0.46900001
16.848 3.2869999 0.47
16.867001 3.342 0.47099999
16.899 3.3989999 0.472
16.915001 3.454 0.472
17.030001 3.529 0.47600001
17.149 3.6070001 0.479
17.096001 3.648 0.47799999
17.153 3.7130001 0.479
17.235001 3.7839999 0.48199999
17.297001 3.852 0.484
17.284 3.9030001 0.48300001
17.424 3.9890001 0.48699999
17.447001 4.0489998 0.48800001
17.500999 4.1170001 0.49000001
17.521 4.177 0.49000001
17.739 4.2849998 0.49700001
17.966 4.3979998 0.50300002
18.315001 4.6589999 0.51300001
18.158001 4.678 0.509
18.025 4.7020001 0.505
18.086 4.777 0.50700003
18.136 4.849 0.509
18.236 4.9349999 0.51200002
18.268 5.0040002 0.51300001
18.290001 5.0700002 0.514
18.346001 5.1459999 0.51499999
18.476 5.244 0.51899999
18.575001 5.3330002 0.52200001
18.436001 5.355 0.51800001
18.580999 5.4590001 0.523
18.693001 5.6170001 0.52600002
18.899 5.7420001 0.53200001
18.68 5.7389998 0.52600002
18.865 5.8590002 0.53200001
18.819 5.9089999 0.53100002
18.834999 5.9780002 0.53100002
15.641 5.448 0.44299999
15.456 5.4369998 0.43799999
15.321 5.4429998 0.43399999
15.182 5.4460001 0.43000001
15.213 5.5110002 0.43200001
13.149 5.5089998 0.37599999
13.008 5.4970002 0.37200001
13.001 5.5409999 0.373
12.375 5.631 0.35600001
12.359 5.6690001 0.35600001
12.458 5.7600002 0.359
12.418 5.7859998 0.35800001
12.323 5.7870002 0.35600001
12.28 5.8119998 0.35499999
12.271 5.8520002 0.35499999
12.276 5.8990002 0.35499999
12.369 5.9889998 0.35800001
12.177 6.829 0.359
11.963 6.7519999 0.35299999
11.887 6.7519999 0.35100001
11.941 6.8270001 0.352
9.2729998 -5.487 0.36500001
9.2679996 -5.4569998 0.36500001
9.2969999 -5.448 0.366
9.3009996 -5.4239998 0.366
9.3149996 -5.4050002 0.36700001
9.3129997 -5.3769999 0.366
9.3100004 -5.349 0.366
9.342 -5.3400002 0.368
9.3669996 -5.3280001 0.36899999
9.3809996 -5.309 0.36899999
9.4020004 -5.2940001 0.37
9.4069996 -5.2690001 0.37
9.4329996 -5.257 0.37099999
9.4300003 -5.2270002 0.37099999
9.448 -5.21 0.37200001
9.4709997 -5.1960001 0.373
9.4700003 -5.1669998 0.373
9.4890003 -5.151 0.373
9.5050001 -5.132 0.37400001
9.5120001 -5.1079998 0.37400001
9.5170002 -5.0830002 0.37400001
9.5240002 -5.059 0.375
9.5620003 -5.052 0.37599999
9.5959997 -5.0419998 0.37799999
9.6040001 -5.0180001 0.37799999
9.6110001 -4.994 0.37799999
9.6160002 -4.9689999 0.37799999
9.6260004 -4.9460001 0.37900001
9.6520004 -4.9310002 0.38
9.6560001 -4.9050002 0.38
9.6730003 -4.8850002 0.38
9.6859999 -4.8639998 0.38100001
9.6949997 -4.8400002 0.38100001
9.7040005 -4.816 0.382
9.7200003 -4.796 0.382
9.7370005 -4.776 0.38299999
9.7480001 -4.7529998 0.38299999
9.7679996 -4.7340002 0.384
9.7790003 -4.711 0.384
9.7819996 -4.684 0.38499999
9.8059998 -4.6669998 0.38600001
9.8280001 -4.6490002 0.38600001
9.8339996 -4.6230001 0.38699999
9.8660002 -4.6090002 0.38800001
9.8690004 -4.5819998 0.38800001
9.8739996 -4.5560002 0.38800001
9.9189997 -4.5469999 0.38999999
9.927 -4.5219998 0.38999999
9.9379997 -4.4980001 0.391
9.9510002 -4.4749999 0.391
9.9870005 -4.4619999 0.39199999
10.008 -4.4419999 0.39300001
10.049 -4.4310002 0.39500001
10.046 -4.4000001 0.39500001
10.044 -4.3699999 0.39500001
10.067 -4.3509998 0.39500001
10.079 -4.3260002 0.396
10.101 -4.3060002 0.39700001
10.15 -4.2979999 0.39899999
10.137 -4.263 0.398
10.153 -4.2399998 0.39899999
10.183 -4.223 0.40000001
10.188 -4.1950002 0.40000001
10.226 -4.1810002 0.40200001
10.227 -4.151 0.40200001
10.251 -4.131 0.40200001
10.271 -4.1090002 0.403
10.298 -4.0900002 0.40400001
10.307 -4.0630002 0.405
10.32 -4.0380001 0.405
10.369 -4.027 0.40700001
10.364 -3.9949999 0.40700001
10.397 -3.9779999 0.40799999
10.449 -3.967 0.41
10.423 -3.927 0.40900001
10.461 -3.9100001 0.41
10.496 -3.8929999 0.412
10.521 -3.872 0.41299999
10.52 -3.8399999 0.41299999
10.589 -3.835 0.41499999
10.612 -3.812 0.41600001
10.641 -3.7920001 0.417
10.658 -3.767 0.41800001
10.684 -3.7449999 0.419
10.707 -3.7219999 0.41999999
10.728 -3.698 0.421
10.789 -3.687 0.42300001
10.801 -3.6600001 0.42300001
10.831 -3.6389999 0.42399999
10.857 -3.6159999 0.42500001
10.898 -3.598 0.42699999
10.941 -3.5799999 0.42899999
10.977 -3.5599999 0.43000001
11.002 -3.536 0.43099999
11.076 -3.5280001 0.43399999
11.155 -3.5209999 0.43700001
11.124 -3.4790001 0.43599999
11.139 -3.451 0.43599999
11.127 -3.415 0.43599999
11.157 -3.392 0.43700001
11.194 -3.3699999 0.43799999
11.238 -3.3510001 0.44
11.27 -3.3280001 0.44100001
11.261 -3.2920001 0.44100001
11.276 -3.2639999 0.44100001
11.367 -3.2579999 0.44499999
11.391 -3.2320001 0.44600001
11.415 -3.2049999 0.447
11.449 -3.1819999 0.44800001
11.452 -3.1489999 0.44800001
11.521 -3.135 0.45100001
11.543 -3.1070001 0.45100001
11.563 -3.079 0.45199999
11.58 -3.05 0.45300001
11.6 -3.0220001 0.454
11.68 -3.0090001 0.45699999
11.665 -2.9719999 0.456
11.702 -2.947 0.45699999
11.746 -2.924 0.45899999
11.809 -2.9059999 0.461
11.867 -2.8859999 0.46399999
11.876 -2.8540001 0.46399999
11.911 -2.8280001 0.465
11.942 -2.8010001 0.46599999
12.003 -2.78 0.46900001
12.039 -2.7539999 0.47
12.095 -2.7320001 0.472
12.126 -2.704 0.47299999
12.136 -2.671 0.47400001
12.178 -2.645 0.47499999
12.188 -2.612 0.47600001
12.225 -2.585 0.477
12.302 -2.566 0.47999999
12.317 -2.5339999 0.48100001
12.396 -2.5139999 0.484
12.403 -2.48 0.484
12.424 -2.448 0.48500001
12.504 -2.428 0.48800001
12.602 -2.411 0.491
12.647 -2.3829999 0.493
12.694 -2.355 0.495
12.837 -2.345 0.5
13.773 -1.962 0.53600001
13.781 -1.924 0.53600001
13.914 -1.783 0.54100001
13.91 -1.743 0.54100001
13.934 -1.706 0.542
14.055 -1.5190001 0.546
14.068 -1.4809999 0.546
14.221 -1.456 0.55199999
16.148001 1.42 0.48199999
15.923 1.433 0.47499999
15.987 1.473 0.477
15.971 1.506 0.477
16.1 1.553 0.47999999
9.3780003 0.92500001 0.28
16.259001 1.604 0.48500001
9.2270002 0.93000001 0.27500001
9.1040001 0.93800002 0.271
9.0220003 0.94999999 0.26899999
8.9779997 0.96499997 0.26800001
8.9610004 0.98400003 0.26699999
8.9519997 1.003 0.26699999
8.9569998 1.025 0.26699999
8.9799995 1.048 0.26800001
8.9989996 1.072 0.26800001
9.0839996 1.103 0.271
16.625999 2.02 0.49599999
16.423 2.0339999 0.49000001
11.98 1.513 0.35699999
16.479 2.0810001 0.49200001
11.798 1.518 0.352
11.68 1.5319999 0.34799999
11.581 1.5470001 0.345
11.534 1.5700001 0.34400001
11.508 1.595 0.34299999
11.502 1.623 0.34299999
11.519 1.655 0.34400001
11.529 1.686 0.34400001
11.563 1.72 0.345
11.693 1.77 0.34900001
16.858999 2.6400001 0.50400001
13.309 2.119 0.398
16.997999 2.707 0.50800002
13.161 2.131 0.39300001
13.124 2.1600001 0.39199999
13.12 2.1949999 0.39199999
13.198 2.244 0.39500001
17.176001 2.967 0.514
17.135 3.007 0.51300001
17.202999 3.066 0.51499999
17.167999 3.108 0.514
17.216 3.165 0.51499999
17.266001 3.2219999 0.51700002
17.301001 3.2780001 0.51800001
17.48 3.362 0.52399999
17.643 3.4430001 0.52899998
17.545 3.4749999 0.52600002
17.57 3.5309999 0.52700001
17.695999 3.6070001 0.53100002
17.686001 3.6570001 0.53100002
17.719 3.7160001 0.53200001
17.789 3.7839999 0.53399998
17.788 3.8369999 0.53500003
17.813999 3.895 0.53500003
17.898001 3.9679999 0.53799999
17.948 4.033 0.54000002
18.052999 4.112 0.54299998
18.214001 4.204 0.54799998
18.249001 4.2680001 0.55000001
18.327999 4.3429999 0.55199999
18.497999 4.441 0.55800003
18.622 4.5289998 0.56199998
18.665001 4.836 0.56400001
18.695 4.9039998 0.56599998
18.625 4.9460001 0.56400001
18.797001 5.052 0.56900001
18.775999 5.1079998 0.56900001
18.802 5.177 0.56999999
18.811001 5.2420001 0.57099998
18.955 5.3439999 0.57499999
19.048 5.434 0.579
19.139999 5.5240002 0.58200002
15.52 5.3990002 0.477
15.327 5.3870001 0.472
15.182 5.3909998 0.46799999
15.077 5.4089999 0.465
15.074 5.4629998 0.465
14.619 5.7909999 0.454
14.671 5.868 0.456
12.4 5.592 0.391
12.347 5.618 0.389
12.426 5.7049999 0.39199999
12.408 5.7470002 0.39199999
12.321 5.757 0.38999999
12.285 5.7909999 0.389
12.275 5.836 0.389
12.299 5.8979998 0.38999999
11.974 6.7690001 0.389
11.862 6.7589998 0.38600001
11.874 6.8189998 0.38699999
8.8710003 -5.8330002 0.375
8.9049997 -5.8000002 0.37599999
8.9469995 -5.7709999 0.37799999
8.9770002 -5.7350001 0.37900001
9.0019999 -5.6960001 0.37900001
9.0380001 -5.665 0.38100001
9.0600004 -5.625 0.38100001
9.0869999 -5.5869999 0.382
9.1230001 -5.5560002 0.38299999
9.1590004 -5.5250001 0.38499999
9.1820002 -5.4860001 0.38499999
9.2010002 -5.4439998 0.38600001
