# .PCD v0.7 - Point Cloud Data file format
VERSION 0.7
FIELDS x y z
SIZE 4 4 4
TYPE F F F
COUNT 1 1 1
WIDTH 1799
HEIGHT 1
VIEWPOINT 0 0 0 1 0 0 0
POINTS 1799
DATA ascii
26.665001 -8.8319998 4.789
26.846001 -6.191 4.77
26.754 -6.0890002 4.7519999
26.740999 -6.0050001 4.7490001
26.789 -5.9359999 4.756
26.85 -5.869 4.7649999
30.916 2.385 5.6259999
30.924 2.457 5.6290002
30.899 2.527 5.625
30.898001 2.5999999 5.6259999
30.877001 2.671 5.6240001
30.853001 2.743 5.6209998
30.837999 2.816 5.6199999
30.893 2.8959999 5.631
30.872999 2.9690001 5.6290002
30.868999 3.0450001 5.6300001
30.868 3.1210001 5.632
30.879999 3.1989999 5.6350002
30.841999 3.2720001 5.6300001
30.851999 3.3510001 5.6339998
30.85 3.4289999 5.6360002
30.855 3.5090001 5.6389999
30.864 3.589 5.6420002
30.857 3.668 5.6430001
30.886 3.7520001 5.651
30.872999 3.832 5.651
30.855 3.911 5.6500001
30.851999 3.9920001 5.651
30.889 4.079 5.6609998
30.854 4.1570001 5.6570001
30.875 4.244 5.6630001
30.875 4.3270001 5.6659999
30.875 4.4120002 5.6680002
30.886 4.4980001 5.6729999
30.879999 4.5819998 5.6750002
30.874001 4.6669998 5.677
30.892 4.7550001 5.6830001
30.889 4.8410001 5.6849999
30.898001 4.9299998 5.6900001
30.893 5.0170002 5.6919999
30.915001 5.1079998 5.6989999
30.912001 5.1960001 5.7020001
30.900999 5.2820001 5.7030001
30.912001 5.3740001 5.7090001
30.943001 5.4689999 5.7179999
30.926001 5.5560002 5.7179999
30.92 5.645 5.7199998
30.941 5.7399998 5.7280002
30.957001 5.8340001 5.7340002
30.934 5.921 5.7340002
30.952 6.0170002 5.7410002
30.955999 6.1100001 5.7459998
30.965 6.2049999 5.7509999
30.962 6.2979999 5.7540002
30.972 6.3930001 5.7600002
30.976 6.4889998 5.7649999
30.979 6.5840001 5.77
30.986 6.6799998 5.7750001
31.013 6.7810001 5.7839999
31.041 6.8829999 5.7940001
31.014 6.974 5.7930002
31.02 7.0710001 5.7989998
31.038 7.1719999 5.8070002
31.018 7.2649999 5.8070002
31.048 7.3699999 5.8169999
31.021999 7.461 5.8169999
31.069 7.5710001 5.8309999
31.058001 7.6669998 5.8340001
31.066999 7.7690001 5.8400002
31.073 7.8699999 5.8460002
31.044001 7.9619999 5.8449998
31.105 8.0780001 5.862
31.094999 8.1759996 5.8649998
31.094 8.2770004 5.8699999
31.105 8.3809996 5.8769999
31.093 8.4790001 5.8800001
31.087 8.5799999 5.8839998
31.077999 8.6789999 5.888
31.113001 8.7919998 5.9000001
31.122999 8.8970003 5.9070001
31.155001 9.0100002 5.9190001
31.158001 9.1140003 5.9250002
26.249001 -12.277 4.8860002
26.27 -12.207 4.888
26.249001 -12.117 4.8829999
26.257999 -12.041 4.8839998
26.247 -11.956 4.881
26.252001 -11.879 4.8800001
26.275999 -11.81 4.8839998
26.297001 -11.739 4.8860002
26.250999 -11.638 4.8769999
26.285 -11.574 4.882
26.253 -11.48 4.875
26.305 -11.422 4.8829999
26.364 -11.288 4.8920002
26.341 -11.198 4.8860002
26.327999 -11.113 4.8829999
26.355 -11.044 4.8860002
26.375 -10.972 4.8889999
26.392 -10.899 4.8909998
26.386999 -10.817 4.8889999
26.4 -10.742 4.8899999
26.393999 -10.66 4.888
26.388 -10.578 4.8850002
26.371 -10.491 4.881
26.406 -10.425 4.8860002
26.424999 -10.352 4.888
26.41 -10.266 4.8839998
26.48 -10.213 4.8959999
26.492001 -10.138 4.8969998
26.489 -10.057 4.895
26.481001 -9.9729996 4.8920002
26.502001 -9.901 4.895
26.499001 -9.8199997 4.8930001
26.517 -9.7469997 4.895
26.504999 -9.6619997 4.8920002
26.511999 -9.585 4.8920002
26.506001 -9.5030003 4.8899999
26.506001 -9.4230003 4.888
26.563999 -9.3629999 4.8979998
26.535 -9.2729998 4.8909998
26.587 -9.2110004 4.9000001
26.575001 -9.1269999 4.8959999
26.573999 -9.0469999 4.895
26.586 -8.9700003 4.895
26.570999 -8.8859997 4.8909998
26.591 -8.8120003 4.8940001
26.59 -8.7320004 4.8920002
26.625999 -8.6639996 4.8979998
26.702999 -8.6079998 4.9099998
26.739 -6.5409999 4.8829999
26.73 -6.4590001 4.8800001
26.747999 -6.3839998 4.882
26.766001 -6.309 4.8829999
26.749001 -6.2249999 4.8790002
26.801001 -6.158 4.8870001
26.766001 -6.0700002 4.8790002
26.76 -5.9889998 4.8769999
26.747999 -5.9070001 4.8730001
26.749001 -5.8280001 4.8720002
26.788 -5.757 4.8779998
26.836 -5.6880002 4.8850002
30.924 3.5480001 5.7119999
30.926001 3.619 5.7150002
30.959 3.6949999 5.724
30.966 3.767 5.7280002
30.924 3.835 5.723
30.923 3.908 5.7249999
30.947001 3.9849999 5.7319999
30.937 4.0580001 5.7329998
30.934999 4.132 5.7360001
30.966 4.2119999 5.744
30.93 4.283 5.7410002
30.93 4.3600001 5.744
30.931 4.4369998 5.7470002
30.947001 4.5170002 5.7529998
30.933001 4.5939999 5.7540002
30.955999 4.6760001 5.7620001
30.985001 4.7600002 5.7709999
30.947001 4.8340001 5.7670002
30.952999 4.9159999 5.7719998
30.945999 4.9959998 5.7740002
30.945999 5.0770001 5.7779999
30.966999 5.1630001 5.7859998
30.968 5.2459998 5.79
30.965 5.329 5.7930002
30.990999 5.4180002 5.802
30.983 5.5009999 5.8039999
30.999001 5.5890002 5.8119998
30.976 5.671 5.8109999
30.976999 5.757 5.816
30.983999 5.8449998 5.822
30.992001 5.934 5.8270001
31.013 6.026 5.836
31.009001 6.1139998 5.8400002
31.021 6.2049999 5.8470001
31.033001 6.2969999 5.8540001
31.025999 6.3860002 5.8569999
30.990999 6.4689999 5.855
30.987 6.559 5.8590002
31.002001 6.6539998 5.8670001
31.013 6.7480001 5.8740001
31.01 6.8400002 5.8790002
30.995001 6.9299998 5.881
31.028 7.0310001 5.8920002
30.995001 7.118 5.8920002
31.039 7.223 5.9050002
31.027 7.3150001 5.908
31.070999 7.4219999 5.9219999
31.037001 7.5100002 5.921
31.035999 7.6069999 5.927
31.056999 7.7090001 5.9359999
31.047001 7.8049998 5.9400001
31.104 7.9180002 5.9569998
31.132 8.0240002 5.9679999
31.021 8.0950003 5.9530001
31.132999 8.2250004 5.9809999
31.046 8.302 5.9699998
31.097 8.4169998 5.9860001
31.07 8.5109997 5.987
31.066 8.6120005 5.993
31.132999 8.7340002 6.0120001
31.082001 8.8219995 6.0089998
31.091 8.9289999 6.0170002
31.118 9.0410004 6.0289998
31.145 9.1529999 6.0409999
31.198 9.2749996 6.0580001
31.139 9.3629999 6.053
31.216999 9.493 6.0749998
25.757 -14.659 4.8969998
25.781 -14.532 4.8969998
26.322001 -11.958 4.9250002
26.347 -11.85 4.9260001
26.360001 -11.737 4.9260001
26.368999 -11.622 4.9239998
26.386 -11.513 4.9250002
26.388 -11.397 4.9219999
26.41 -11.291 4.9239998
26.423 -11.182 4.9229999
26.459999 -11.084 4.927
26.465 -10.972 4.9260001
26.434 -10.847 4.9169998
26.451 -10.742 4.9180002
26.478001 -10.643 4.9200001
26.490999 -10.538 4.9200001
26.509001 -10.435 4.921
26.504999 -10.325 4.9169998
26.493 -10.212 4.9130001
26.507 -10.111 4.9130001
26.534 -10.014 4.915
26.563999 -9.9200001 4.9190001
26.591999 -9.8249998 4.921
26.559999 -9.7080002 4.9130001
26.589001 -9.6149998 4.9159999
26.603001 -9.5170002 4.9159999
26.580999 -9.4060001 4.9099998
26.570999 -9.3009996 4.9060001
26.613001 -9.2139997 4.9109998
26.594999 -9.1079998 4.9060001
26.639 -9.0229998 4.9120002
26.641001 -8.9239998 4.9099998
26.589001 -8.8079996 4.8979998
26.614 -8.7189999 4.901
26.635 -8.6280003 4.9029999
26.615999 -8.5249996 4.8969998
26.639 -8.4370003 4.8990002
26.738001 -8.3719997 4.9159999
26.705999 -7.1729999 4.8860002
26.688999 -7.0809999 4.881
26.728001 -7.0040002 4.8870001
26.747999 -6.9229999 4.8889999
26.780001 -6.8449998 4.8930001
26.698999 -6.7399998 4.8759999
26.693001 -6.6529999 4.8740001
26.705 -6.572 4.8740001
26.697001 -6.487 4.8709998
26.688 -6.401 4.868
26.723 -6.3270001 4.8730001
26.712999 -6.2420001 4.8699999
26.738001 -6.1669998 4.8730001
26.705999 -6.0780001 4.8660002
26.712999 -5.9990001 4.8660002
26.782 -5.934 4.8769999
30.885 2.3870001 5.7789998
30.891001 2.4590001 5.7820001
30.85 2.527 5.7750001
30.878 2.602 5.7820001
30.870001 2.675 5.7820001
30.857 2.747 5.7810001
30.841999 2.8199999 5.7789998
30.843 2.895 5.7810001
30.843 2.97 5.783
30.820999 3.0439999 5.7800002
30.868999 3.125 5.7909999
30.848 3.2 5.789
30.843 3.276 5.79
30.864 3.3559999 5.796
30.862 3.4349999 5.7979999
30.847 3.5120001 5.7969999
30.843 3.5910001 5.7979999
30.823 3.668 5.7969999
30.819 3.7479999 5.7979999
30.841 3.8310001 5.8049998
30.832001 3.9119999 5.8049998
30.823 3.9920001 5.8060002
30.881001 4.0819998 5.8200002
30.851999 4.1609998 5.8169999
30.841 4.243 5.8169999
30.889999 4.3330002 5.829
30.85 4.4120002 5.8239999
30.870001 4.4990001 5.8309999
30.862 4.5830002 5.8319998
30.868 4.6700001 5.8369999
30.882 4.7579999 5.842
30.860001 4.8410001 5.8410001
30.865999 4.9289999 5.8449998
30.877001 5.0180001 5.8509998
30.906 5.1100001 5.8590002
30.903999 5.198 5.862
30.896999 5.2859998 5.8639998
30.914 5.3779998 5.8709998
30.921 5.4689999 5.8759999
30.906 5.5560002 5.8769999
30.919001 5.6490002 5.8829999
30.923 5.7399998 5.8870001
30.924999 5.8319998 5.8909998
30.947001 5.928 5.8990002
30.957001 6.0219998 5.9050002
30.985001 6.1199999 5.914
30.961 6.2080002 5.914
30.957001 6.3010001 5.9169998
30.957001 6.3940001 5.921
30.989 6.4949999 5.9310002
30.971001 6.586 5.9320002
30.98 6.6830001 5.9380002
31.004 6.783 5.947
31.003 6.8790002 5.9510002
30.997 6.974 5.9549999
30.974001 7.0650001 5.9549999
30.992001 7.1659999 5.9629998
31.031 7.2719998 5.9749999
31.046 7.3730001 5.9829998
31.076 7.4790001 5.993
31.030001 7.566 5.9889998
31.046 7.6690001 5.9970002
31.107 7.783 6.0139999
31.069 7.8730001 6.0120001
31.045 7.967 6.0120001
31.105 8.0819998 6.0289998
31.046 8.1669998 6.0219998
31.098 8.2819996 6.0380001
31.080999 8.3789997 6.04
31.125999 8.493 6.0539999
31.063 8.5769997 6.0469999
31.076 8.6829996 6.0549998
31.152 8.9099998 6.0809999
31.132999 9.0080004 6.0830002
26.153999 -12.719 5
26.118 -12.622 4.9920001
26.167999 -12.566 5
26.219 -12.511 5.0079999
26.245001 -12.283 5.0100002
26.190001 -12.177 4.9980001
26.212 -12.108 5.0009999
26.214001 -12.029 5
26.27 -11.974 5.0100002
26.239 -11.88 5.0029998
26.264999 -11.812 5.006
26.302999 -11.749 5.0120001
26.232 -11.637 4.9980001
26.291 -11.583 5.0079999
26.287001 -11.501 5.006
26.323999 -11.437 5.0120001
26.344 -11.286 5.013
26.319 -11.195 5.007
26.313999 -11.113 5.0050001
26.325001 -11.038 5.006
26.356001 -10.97 5.0100002
26.341 -10.884 5.006
26.346001 -10.806 5.006
26.362 -10.733 5.0079999
26.358 -10.651 5.006
26.389 -10.584 5.0100002
26.364 -10.494 5.0040002
26.391001 -10.424 5.0079999
26.392 -10.344 5.007
26.386 -10.262 5.0050001
26.431999 -10.2 5.0120001
26.444 -10.125 5.013
26.450001 -10.047 5.013
26.451 -9.967 5.0120001
26.455 -9.8889999 5.0110002
26.466999 -9.8129997 5.0120001
26.465 -9.7320004 5.0110002
26.478001 -9.6569996 5.0120001
26.485001 -9.5790005 5.0120001
26.485001 -9.4989996 5.0100002
26.514 -9.4300003 5.0149999
26.542 -9.3599997 5.0190001
26.525 -9.2740002 5.0139999
26.556999 -9.2049999 5.0190001
26.535999 -9.1169996 5.0139999
26.542999 -9.04 5.0139999
26.545 -8.96 5.013
26.569 -8.8879995 5.0159998
26.556 -8.8039999 5.0120001
26.568001 -8.7279997 5.013
26.566 -8.6479998 5.0110002
26.591999 -8.5760002 5.0149999
26.608 -8.5010004 5.0170002
26.628 -8.4280005 5.0190001
26.639 -8.3509998 5.02
26.642 -7.9520001 5.0139999
26.671 -7.881 5.0180001
26.757999 -7.8260002 5.033
26.739 -7.7410002 5.0279999
26.676001 -7.6420002 5.0139999
26.698999 -7.5689998 5.0180001
26.737 -7.5 5.0229998
26.724001 -7.1760001 5.0149999
26.690001 -7.0879998 5.0079999
26.684999 -7.007 5.0050001
26.705 -6.9320002 5.0079999
26.684 -6.8470001 5.0019999
26.708 -6.7740002 5.0050001
26.712 -6.6950002 5.0050001
26.683001 -6.6079998 4.9980001
26.718 -6.5370002 5.0029998
26.705999 -6.4549999 4.9990001
26.718 -6.3779998 5
26.693001 -6.2919998 4.994
26.708 -6.217 4.9959998
26.73 -6.1420002 4.9980001
26.731001 -6.0630002 4.9970002
26.721001 -5.9809999 4.994
26.714001 -5.9000001 4.9910002
26.736 -5.8260002 4.994
30.974001 3.348 5.8759999
30.909 3.4100001 5.8660002
30.959999 3.4849999 5.8779998
30.941999 3.6240001 5.8790002
30.933001 3.694 5.8800001
30.934 3.766 5.8829999
30.938999 3.839 5.8870001
30.917999 3.9100001 5.8850002
30.940001 3.9860001 5.8920002
30.91 4.0570002 5.8899999
30.913 4.132 5.8930001
30.972 4.2160001 5.9070001
30.934 4.2859998 5.9029999
30.907 4.3590002 5.901
30.982 4.447 5.9190001
30.955999 4.5209999 5.9169998
30.917999 4.5939999 5.914
30.929001 4.6739998 5.9190001
30.934 4.7550001 5.9239998
30.922001 4.8330002 5.9250002
30.950001 4.9180002 5.934
30.952 4.9990001 5.9380002
30.919001 5.0760002 5.9359999
30.923 5.1589999 5.9400001
30.934999 5.243 5.9460001
30.961 5.3309999 5.9559999
30.941 5.4120002 5.9559999
30.955999 5.4990001 5.9629998
30.969999 5.5869999 5.9699998
30.975 5.6729999 5.9749999
30.966999 5.7579999 5.9780002
30.937 5.8390002 5.9770002
30.936001 5.9260001 5.9809999
30.957001 6.0180001 5.9899998
30.954 6.1059999 5.994
30.954 6.1939998 5.9990001
31.014 6.296 6.0149999
30.962 6.375 6.0100002
31.007 6.4749999 6.0229998
30.993999 6.5640001 6.026
30.972 6.651 6.027
30.985001 6.7449999 6.0339999
30.966 6.8340001 6.0359998
30.989 6.9320002 6.046
30.999001 7.0279999 6.053
30.982 7.118 6.0549998
30.995001 7.2160001 6.0630002
31.011 7.3150001 6.072
31.042 7.4180002 6.0840001
31.025 7.5110002 6.086
31.052 7.6139998 6.0970001
31.028999 7.7059999 6.099
31.056 7.8109999 6.1100001
31.073 7.9130001 6.119
31.083 8.0150003 6.1269999
31.027 8.1000004 6.1230001
31.021999 8.1990004 6.1279998
31.02 8.2989998 6.1339998
31.032 8.4029999 6.1430001
31.035 8.5050001 6.1500001
31.035999 8.6079998 6.1560001
31.070999 8.7200003 6.1700001
31.120001 10.007 6.2649999
31.127001 10.119 6.2740002
31.177999 10.245 6.2919998
31.145 10.345 6.2930002
31.184 10.469 6.3080001
31.158001 10.572 6.3109999
24.787001 -16.285999 4.895
24.872 -16.187 4.9070001
24.978001 -16.101999 4.9229999
25.070999 -16.007999 4.9369998
25.354 -15.434 4.9710002
25.388 -15.308 4.973
25.464001 -15.207 4.9840002
25.539 -15.106 4.994
25.58 -14.987 4.9980001
26.235001 -12.531 5.0479999
26.221001 -12.4 5.0419998
26.223 -12.278 5.039
26.257 -12.172 5.0430002
26.396999 -12.115 5.0669999
26.315001 -11.957 5.0479999
26.322001 -11.841 5.046
26.320999 -11.722 5.0430002
26.364 -11.623 5.0479999
26.367001 -11.507 5.046
26.358999 -11.388 5.0409999
26.403 -11.291 5.0469999
26.445999 -11.194 5.052
26.441999 -11.079 5.0479999
26.482 -10.982 5.053
26.403999 -10.837 5.0359998
26.455 -10.747 5.0430002
26.485001 -10.647 5.046
26.462 -10.528 5.039
26.487 -10.429 5.0409999
26.473 -10.315 5.0349998
26.495001 -10.215 5.0370002
26.5 -10.11 5.0349998
26.482 -9.9960003 5.0300002
26.521999 -9.9060001 5.0349998
26.540001 -9.8070002 5.0359998
26.521999 -9.6960001 5.0300002
26.545 -9.6009998 5.0320001
26.540001 -9.4960003 5.0279999
26.552999 -9.3979998 5.0289998
26.542 -9.2930002 5.0240002
26.587 -9.2069998 5.0300002
26.586 -9.1059999 5.0279999
26.605 -9.0129995 5.0289998
26.646 -8.927 5.0349998
26.593 -8.8109999 5.0229998
26.605 -8.717 5.0229998
26.610001 -8.6219997 5.0219998
26.610001 -8.5249996 5.0190001
26.629999 -8.4350004 5.0209999
26.636 -8.3409996 5.02
26.686001 -7.9809999 5.0219998
26.643 -7.875 5.0120001
26.688999 -7.7059999 5.0170002
26.688999 -7.6149998 5.0149999
26.747 -7.5409999 5.0240002
26.73 -7.2680001 5.0149999
26.636 -7.1550002 4.9959998
26.663 -7.0749998 4.9990001
26.667 -6.9889998 4.9980001
26.665001 -6.902 4.9959998
26.667999 -6.8169999 4.9949999
26.673 -6.7329998 4.994
26.67 -6.6479998 4.9920001
26.67 -6.5640001 4.9910002
26.688 -6.4850001 4.9920001
26.704 -6.4060001 4.994
26.68 -6.3169999 4.9879999
26.662001 -6.2309999 4.9829998
26.691999 -6.1560001 4.987
26.714001 -6.0799999 4.9899998
26.700001 -5.9959998 4.9860001
26.743 -5.9260001 4.993
30.875 2.6059999 5.9419999
30.827999 2.675 5.934
30.858999 2.7509999 5.9419999
30.851 2.825 5.941
30.855 2.9000001 5.9439998
30.848 2.9749999 5.9439998
30.802 3.046 5.9369998
30.9 3.132 5.9580002
30.881001 3.207 5.9559999
30.882 3.2839999 5.9580002
30.858999 3.3599999 5.9559999
30.829 3.4349999 5.9520001
30.834999 3.5139999 5.9559999
30.844 3.595 5.9590001
30.832001 3.6730001 5.9590001
30.813 3.7509999 5.9580002
30.846001 3.836 5.967
30.84 3.9159999 5.9679999
30.851999 4 5.973
30.868999 4.0840001 5.9790001
30.83 4.1620002 5.974
30.834 4.2449999 5.9770002
30.860001 4.3330002 5.9850001
30.848 4.415 5.9860001
30.863001 4.5019999 5.9920001
30.860001 4.5869999 5.994
30.879 4.6750002 6.0009999
30.865999 4.7589998 6.0009999
30.875999 4.8470001 6.007
30.865999 4.9320002 6.0079999
30.886999 5.0229998 6.0149999
30.872999 5.1090002 6.0159998
30.896 5.2010002 6.0240002
30.870001 5.2849998 6.0219998
30.893 5.3779998 6.0300002
30.886 5.4660001 6.0320001
30.919001 5.5619998 6.0430002
30.909 5.651 6.0440001
30.917 5.743 6.0500002
30.908001 5.8330002 6.052
30.914 5.9250002 6.0570002
30.926001 6.02 6.0630002
30.934999 6.1139998 6.0689998
30.966 6.2129998 6.079
30.948 6.303 6.0799999
30.999001 6.4070001 6.0939999
31.018999 6.5050001 6.1030002
30.997999 6.5960002 6.1030002
30.986 6.6880002 6.105
30.975 6.7810001 6.1069999
31.018 6.8860002 6.1199999
30.997999 6.9780002 6.1209998
31.028 7.0809999 6.131
31.033001 7.1789999 6.1370001
30.983999 7.2649999 6.132
31.038 7.3759999 6.1479998
31.103001 7.4889998 6.1659999
31.072001 7.5799999 6.164
31.062 7.776 6.1729999
31.084 7.881 6.1820002
31.069 7.9770002 6.184
31.124001 8.092 6.2010002
31.122 8.1920004 6.2059999
26.097 -12.859 5.1160002
26.118 -12.79 5.119
26.124001 -12.713 5.119
26.117001 -12.63 5.1170001
26.145 -12.563 5.1209998
26.143999 -12.483 5.119
26.195 -12.427 5.1279998
26.204 -12.351 5.1290002
26.202 -12.27 5.1269999
26.149 -12.166 5.1149998
26.226999 -12.122 5.1290002
26.224001 -11.961 5.1259999
26.268 -11.9 5.1339998
26.264999 -11.819 5.132
26.264 -11.739 5.131
26.212999 -11.635 5.119
26.322001 -11.604 5.1389999
26.235001 -11.485 5.1209998
26.264 -11.418 5.125
26.281 -11.346 5.1279998
26.292 -11.27 5.1279998
26.294001 -11.191 5.1279998
26.285999 -11.108 5.125
26.292 -11.03 5.125
26.290001 -10.949 5.1230001
26.311001 -10.878 5.1259999
26.323999 -10.803 5.1269999
26.334999 -10.727 5.1279998
26.356001 -10.656 5.131
26.364 -10.579 5.131
26.355 -10.495 5.1279998
26.347 -10.412 5.125
26.362 -10.338 5.1269999
26.368999 -10.261 5.1259999
26.400999 -10.193 5.132
26.396999 -10.112 5.1290002
26.386999 -10.028 5.1259999
26.437 -9.967 5.1350002
26.445 -9.8889999 5.1350002
26.441999 -9.809 5.1329999
26.462 -9.7360001 5.1350002
26.455999 -9.6529999 5.1329999
26.466 -9.5769997 5.1329999
26.451 -9.4910002 5.1290002
26.475 -9.4200001 5.1329999
26.493 -9.3459997 5.1350002
26.472 -9.2589998 5.1290002
26.533001 -9.1999998 5.1399999
26.552 -9.1269999 5.1420002
26.490999 -9.026 5.1290002
26.573 -8.974 5.1430001
26.573 -8.8929996 5.1420002
26.57 -8.8120003 5.1399999
26.570999 -8.7329998 5.1389999
26.566 -8.651 5.1370001
26.566 -8.5710001 5.1350002
26.541 -8.4829998 5.1290002
26.620001 -8.4280005 5.1430001
26.634001 -8.3520002 5.1440001
26.656 -8.1190004 5.1440001
26.608999 -8.0249996 5.1339998
26.605 -7.9439998 5.132
26.601999 -7.8629999 5.1300001
26.676001 -7.8049998 5.1430001
26.688999 -7.7280002 5.1440001
26.671 -7.6430001 5.1389999
26.648001 -7.5570002 5.1329999
26.666 -7.4819999 5.1350002
26.711 -7.415 5.1420002
26.719 -7.257 5.1409998
26.673 -7.165 5.131
26.664 -7.0830002 5.1279998
26.673 -7.0050001 5.1279998
26.691 -6.9299998 5.1300001
26.667999 -6.8449998 5.1240001
26.677999 -6.7670002 5.125
26.662001 -6.684 5.1199999
26.687 -6.6100001 5.1230001
26.698999 -6.5339999 5.1240001
26.687 -6.4510002 5.1209998
26.674 -6.369 5.1170001
26.683001 -6.2909999 5.1170001
26.719999 -6.2199998 5.1230001
26.708 -6.138 5.119
26.722 -6.0619998 5.1199999
26.711 -5.98 5.1170001
26.718 -5.902 5.1160002
26.715 -5.822 5.1139998
26.73 -5.7459998 5.1160002
26.77 -5.6750002 5.1220002
30.989 3.7030001 6.053
30.948999 3.7709999 6.0479999
30.940001 3.842 6.0489998
30.914 3.9119999 6.0469999
30.951 4.1399999 6.0630002
30.98 4.2189999 6.072
30.934999 4.289 6.0669999
30.952999 4.368 6.073
30.969 4.448 6.0799999
30.954 4.5240002 6.0809999
30.976 4.605 6.0879998
30.961 4.6820002 6.0890002
30.983 4.7649999 6.0970001
31.098 4.8629999 6.1230001
30.979 5.0879998 6.112
30.924999 5.1620002 6.105
30.978001 5.3369999 6.1240001
31.021999 5.4289999 6.1370001
30.987 5.507 6.1339998
31.004999 5.5960002 6.1420002
31.028 5.6859999 6.151
31.042 5.7750001 6.158
30.988001 5.8520002 6.152
30.972 5.9359999 6.1539998
31.042 6.0370002 6.1719999
31.039 6.125 6.177
31.063999 6.2199998 6.1869998
30.950001 6.2859998 6.1690001
30.966 6.3790002 6.177
31.023001 6.573 6.1989999
30.973 6.6539998 6.1939998
30.983 6.7480001 6.2010002
31.007 6.8460002 6.211
31.021 6.9419999 6.2199998
31.021 7.0359998 6.2249999
31.062 7.1399999 6.2389998
31.018999 7.2249999 6.2360001
31.087 7.3369999 6.256
31.035999 7.4200001 6.2509999
31.077 7.527 6.2659998
31.037001 8.408 6.3140001
31.054001 8.5139999 6.3239999
31.075001 8.6219997 6.335
24.752001 -16.267 5.0089998
24.843 -16.172001 5.0229998
24.926001 -16.072001 5.0349998
25 -15.967 5.0450001
25.052 -15.848 5.0510001
25.136999 -15.751 5.0640001
25.205 -15.643 5.073
25.242001 -15.518 5.0760002
25.298 -15.404 5.0830002
25.348 -15.288 5.0879998
25.402 -15.174 5.0949998
25.441 -15.053 5.098
25.523001 -14.957 5.1110001
25.554001 -14.832 5.1129999
25.621 -14.729 5.1220002
25.648001 -14.603 5.1230001
25.684 -14.484 5.1259999
26.225 -12.779 5.178
26.157 -12.62 5.1609998
26.155001 -12.495 5.1570001
26.216999 -12.401 5.1659999
26.194 -12.267 5.158
26.232 -12.163 5.1630001
26.311001 -12.079 5.1750002
26.268 -11.939 5.1630001
26.296 -11.832 5.1659999
26.341 -11.733 5.1719999
26.379 -11.632 5.1760001
26.344999 -11.5 5.1659999
26.372999 -11.396 5.1690001
26.368 -11.279 5.165
26.431 -11.191 5.1739998
26.393999 -11.061 5.164
26.372 -10.939 5.1570001
26.386 -10.832 5.1570001
26.423 -10.736 5.1609998
26.441999 -10.633 5.1620002
26.438999 -10.521 5.1589999
26.466 -10.423 5.1609998
26.455 -10.31 5.1570001
26.445 -10.198 5.152
26.493 -10.109 5.1589999
26.489 -10.001 5.1550002
26.513 -9.9040003 5.1570001
26.507999 -9.7969999 5.1539998
26.51 -9.6940002 5.152
26.495001 -9.585 5.1459999
26.521 -9.4910002 5.1490002
26.531 -9.3920002 5.1490002
26.507 -9.2819996 5.1420002
26.544001 -9.1940002 5.1459999
26.546 -9.0939999 5.145
26.579 -9.0059996 5.1490002
26.575001 -8.9049997 5.1459999
26.572001 -8.8059998 5.1430001
26.601 -8.717 5.1459999
26.612 -8.6239996 5.1459999
26.6 -8.5229998 5.1420002
26.586 -8.4230003 5.1370001
26.608999 -8.3339996 5.1389999
26.613001 -8.2410002 5.138
26.712999 -8.177 5.1550002
26.622 -8.0559998 5.1360002
26.628 -7.9650002 5.1350002
26.629999 -7.8730001 5.1329999
26.698999 -7.619 5.1409998
26.739 -7.54 5.1459999
26.632 -7.243 5.1199999
26.648001 -7.1589999 5.1220002
26.643999 -7.0710001 5.119
26.671 -6.9910002 5.1230001
26.639999 -6.8969998 5.1149998
26.66 -6.816 5.1170001
26.625999 -6.7220001 5.1090002
26.671 -6.6490002 5.1160002
26.688 -6.5689998 5.118
26.656 -6.4770002 5.1100001
26.646 -6.3920002 5.1059999
26.687 -6.3189998 5.1129999
26.681 -6.2360001 5.1100001
26.700001 -6.158 5.112
26.698999 -6.0770001 5.1100001
26.690001 -5.994 5.1069999
26.709999 -5.9190001 5.1100001
26.719999 -5.8410001 5.1100001
30.893 2.983 6.1149998
30.871 3.056 6.112
30.860001 3.132 6.112
30.891001 3.2119999 6.1199999
30.889 3.289 6.1220002
30.858 3.4419999 6.1199999
30.834 3.5179999 6.118
30.816 3.595 6.1160002
30.798 3.6730001 6.1149998
30.792999 3.753 6.1170001
30.834 3.8380001 6.1269999
30.833 3.9189999 6.1290002
30.836 4.0019999 6.1329999
30.851 4.086 6.138
30.886999 4.1729999 6.1479998
30.888 4.257 6.151
30.856001 4.336 6.1479998
30.892 4.4250002 6.158
30.882999 4.5089998 6.1589999
30.858 4.5900002 6.1570001
30.903999 4.6830001 6.1700001
30.841999 4.7589998 6.1599998
30.899 4.855 6.1750002
30.875999 4.9380002 6.1739998
30.891001 5.0279999 6.1799998
30.917999 5.1199999 6.1890001
30.910999 5.2069998 6.191
30.927999 5.2989998 6.198
30.886999 5.381 6.1939998
30.936001 5.4790001 6.2069998
30.912001 5.5650001 6.2059999
30.933001 5.6589999 6.2140002
30.954 5.7540002 6.2220001
30.948999 5.8439999 6.2249999
30.966999 5.9390001 6.2329998
30.941 6.027 6.2319999
30.952 6.1209998 6.2379999
30.999001 6.224 6.2519999
30.957001 6.309 6.2480001
30.976 6.4060001 6.256
30.976999 6.5009999 6.2610002
31.035999 6.6079998 6.277
30.976 6.6900001 6.27
31.016001 6.7940001 6.2820001
31.01 6.8889999 6.2859998
31.000999 6.9829998 6.289
31.014 7.0819998 6.296
31.025 7.1820002 6.303
31.044001 7.283 6.3119998
31.033001 7.3790002 6.3150001
31.059999 7.4829998 6.3260002
26.011999 -13.304 5.2319999
26.02 -13.229 5.2329998
26.038 -13.158 5.2350001
26.035999 -13.077 5.2340002
26.068001 -13.014 5.2389998
26.073 -12.936 5.2389998
26.09 -12.864 5.2410002
26.075001 -12.778 5.237
26.083 -12.702 5.237
26.07 -12.616 5.2329998
26.091 -12.546 5.2360001
26.153 -12.496 5.2470002
26.113001 -12.397 5.2379999
26.155001 -12.336 5.2449999
26.156 -12.257 5.244
26.193001 -12.194 5.25
26.237 -12.134 5.2579999
26.156 -12.017 5.2399998
26.209 -11.961 5.25
26.219999 -11.886 5.25
26.23 -11.73 5.25
26.179001 -11.628 5.2379999
26.233999 -11.572 5.2480001
26.225 -11.488 5.2449999
26.240999 -11.415 5.2470002
26.271999 -11.348 5.2519999
26.252001 -11.259 5.2459998
26.266001 -11.185 5.2480001
26.281 -11.112 5.2490001
26.275999 -11.03 5.2470002
26.282 -10.952 5.2470002
26.287001 -10.874 5.2470002
26.318001 -10.807 5.2519999
26.334 -10.733 5.2529998
26.356001 -10.662 5.256
26.330999 -10.571 5.25
26.327 -10.49 5.2480001
26.371 -10.427 5.2550001
26.356001 -10.341 5.2509999
26.372 -10.267 5.2529998
26.365 -10.185 5.25
26.396 -10.116 5.2550001
26.4 -10.038 5.2540002
26.393 -9.9549999 5.2519999
26.382999 -9.8710003 5.2480001
26.395 -9.7959995 5.2490001
26.412001 -9.7220001 5.2509999
26.461 -9.6599998 5.2600002
26.441999 -9.573 5.2550001
26.454 -9.4969997 5.256
26.438999 -9.4119997 5.2509999
26.469999 -9.3430004 5.256
26.469999 -9.2620001 5.2540002
26.497 -9.1920004 5.2579999
26.479 -9.1049995 5.2540002
26.483 -9.0270004 5.2529998
26.514999 -8.9580002 5.2579999
26.559 -8.8920002 5.2649999
26.580999 -8.8199997 5.2680001
26.572001 -8.7360001 5.2649999
26.566 -8.6540003 5.2620001
26.552 -8.5699997 5.2579999
26.551001 -8.4890003 5.257
26.537001 -8.4049997 5.2519999
26.59 -8.342 5.2620001
26.577999 -8.2580004 5.2579999
26.594999 -8.1829996 5.2600002
26.577 -8.0979996 5.2550001
26.548 -8.0089998 5.2480001
26.591 -7.9419999 5.2550001
26.573999 -7.8569999 5.25
26.612 -7.7880001 5.256
26.656 -7.7210002 5.263
26.632 -7.2350001 5.25
26.655001 -7.1609998 5.2529998
26.642 -7.0780001 5.2490001
26.667 -7.0050001 5.2519999
26.652 -6.921 5.2480001
26.632999 -6.8369999 5.243
26.679001 -6.7690001 5.25
26.694 -6.6929998 5.2519999
26.655001 -6.6040001 5.243
26.660999 -6.526 5.2420001
26.662001 -6.4460001 5.2410002
26.688999 -6.3730001 5.2449999
26.667999 -6.289 5.2389998
26.68 -6.2119999 5.2399998
26.707001 -6.138 5.244
26.715 -6.0609999 5.244
26.708 -5.98 5.2410002
26.705 -5.8990002 5.2389998
26.701 -5.8189998 5.237
26.747999 -5.75 5.244
26.767 -5.6739998 5.2470002
30.919001 4.3660002 6.2309999
30.955 4.4489999 6.2420001
30.99 5.0929999 6.2800002
31.006001 5.178 6.2870002
30.996 5.6830001 6.3119998
31.030001 5.776 6.323
31.045 5.8649998 6.3309999
31.013 6.0349998 6.3340001
31.044001 6.1290002 6.3460002
31.021 6.2140002 6.3460002
31.069 6.4039998 6.3660002
31.000999 6.48 6.3579998
31.028999 6.8540001 6.3850002
31.049 6.9520001 6.395
31.016001 7.039 6.3940001
31.048 7.1399999 6.4060001
31 7.224 6.402
24.737 -16.261999 5.1279998
24.811001 -16.156 5.138
24.898001 -16.059 5.151
24.964001 -15.948 5.1599998
25.048 -15.85 5.1729999
25.104 -15.735 5.1799998
25.146 -15.611 5.184
25.219 -15.507 5.1939998
25.252001 -15.38 5.197
25.299999 -15.263 5.2020001
25.382 -15.166 5.2150002
25.403999 -15.035 5.2150002
25.469999 -14.93 5.224
25.5 -14.805 5.2259998
25.556999 -14.696 5.2329998
25.594 -14.576 5.237
25.618999 -14.451 5.2379999
25.695 -14.355 5.2490001
25.722 -14.232 5.2509999
25.742001 -14.106 5.2509999
25.808001 -14.006 5.2600002
25.862 -13.9 5.2670002
25.922001 -13.798 5.2750001
25.952 -13.68 5.2779999
26.055 -13.338 5.2870002
26.017 -13.189 5.276
26.018999 -13.062 5.2729998
26.049 -12.949 5.2750001
26.073 -12.834 5.277
26.105 -12.724 5.2789998
26.128 -12.61 5.2810001
26.142 -12.492 5.2800002
26.158001 -12.376 5.2800002
26.202999 -12.275 5.2859998
26.191999 -12.148 5.2800002
26.245001 -12.051 5.2870002
26.278999 -11.947 5.2909999
26.304001 -11.839 5.2930002
26.325001 -11.729 5.2940001
26.318001 -11.608 5.289
26.336 -11.499 5.29
26.319 -11.376 5.283
26.337 -11.268 5.2839999
26.406 -11.183 5.2950001
26.385 -11.06 5.2870002
26.377001 -10.943 5.283
26.372 -10.829 5.2789998
26.41 -10.733 5.2839999
26.407 -10.621 5.2800002
26.427 -10.519 5.2820001
26.461 -10.423 5.2859998
26.429001 -10.302 5.276
26.436001 -10.197 5.2750001
26.466 -10.101 5.2779999
26.485001 -10.002 5.2800002
26.497999 -9.901 5.2800002
26.504999 -9.7989998 5.2779999
26.499001 -9.6920004 5.2750001
26.495001 -9.5869999 5.2709999
26.503 -9.4860001 5.27
26.531 -9.3940001 5.2740002
26.507999 -9.2840004 5.2670002
26.521 -9.1879997 5.2670002
26.552 -9.0979996 5.2709999
26.549999 -8.9980001 5.2680001
26.555 -8.8999996 5.2659998
26.554001 -8.8009996 5.2639999
26.559999 -8.7060003 5.263
26.610001 -8.625 5.2709999
26.601 -8.5249996 5.2659998
26.580999 -8.4230003 5.2600002
26.618999 -8.3389997 5.2659998
26.612 -8.2419996 5.2620001
26.612 -8.1479998 5.2600002
26.594 -8.0489998 5.2550001
26.583 -7.9520001 5.25
26.594 -7.8629999 5.25
26.59 -7.77 5.2470002
26.662001 -7.6999998 5.2600002
26.663 -7.4299998 5.2540002
26.622 -7.329 5.244
26.656 -7.25 5.2490001
26.667 -7.165 5.2490001
26.673 -7.079 5.2490001
26.615 -6.9770002 5.2360001
26.655001 -6.901 5.2420001
26.687 -6.8239999 5.2459998
26.656 -6.7309999 5.2389998
26.636 -6.6409998 5.2329998
26.641001 -6.5580001 5.2319999
26.679001 -6.4840002 5.2379999
26.655001 -6.395 5.2319999
26.652 -6.3109999 5.23
26.679001 -6.2360001 5.2329998
26.679001 -6.1539998 5.2319999
26.711 -6.0799999 5.2360001
26.733999 -6.0050001 5.2389998
26.708 -5.9190001 5.2329998
26.693001 -5.836 5.2280002
30.844999 3.0580001 6.2709999
30.875999 3.1370001 6.2789998
30.877001 3.214 6.2810001
30.881001 3.2920001 6.2839999
30.813999 3.3629999 6.2729998
30.825001 3.4419999 6.277
30.813 3.52 6.277
30.830999 3.6010001 6.283
30.809999 3.678 6.2810001
30.798 3.757 6.2810001
30.839001 3.8429999 6.2919998
30.818001 3.9219999 6.2909999
30.825001 4.0040002 6.2950001
30.830999 4.0869999 6.2989998
30.844 4.1719999 6.3039999
30.847 4.2550001 6.3080001
30.841999 4.3379998 6.3099999
30.851999 4.4239998 6.3150001
30.848 4.5079999 6.3169999
30.844 4.592 6.3200002
30.863001 4.6810002 6.3270001
30.834999 4.7620001 6.3239999
30.860001 4.8520002 6.3330002
30.879 4.9419999 6.3400002
30.885 5.0310001 6.3449998
30.874001 5.1170001 6.3460002
30.902 5.21 6.3559999
30.858999 5.2909999 6.3499999
30.881001 5.3839998 6.3590002
30.886999 5.474 6.3639998
30.902 5.5669999 6.3709998
30.886 5.6550002 6.3709998
30.891001 5.7459998 6.3759999
30.912001 5.8410001 6.3850002
30.917999 5.934 6.3899999
30.909 6.0250001 6.3930001
30.987 6.132 6.4130001
30.927 6.3070002 6.4089999
30.957001 6.4070001 6.4200001
30.988001 6.507 6.4310002
31.061001 6.6170001 6.4510002
30.988001 6.697 6.441
30.988001 6.7919998 6.4450002
31.006001 6.8920002 6.454
31.025999 7.2839999 6.4780002
31.01 7.3779998 6.48
25.971001 -13.691 5.3569999
25.966999 -13.609 5.355
25.955999 -13.524 5.3509998
25.959 -13.446 5.3499999
25.975 -13.374 5.3520002
25.975 -13.295 5.3509998
25.971001 -13.213 5.349
26.009001 -13.152 5.3559999
26.030001 -13.083 5.3590002
26.059 -12.938 5.362
26.051001 -12.854 5.3590002
26.087 -12.792 5.3649998
26.080999 -12.709 5.3629999
26.093 -12.635 5.3639998
26.075001 -12.546 5.3590002
26.073 -12.466 5.3569999
26.15 -12.422 5.3720002
26.136999 -12.336 5.368
26.166 -12.27 5.3730001
26.209999 -12.21 5.3800001
26.195 -12.123 5.3759999
26.17 -12.031 5.369
26.216999 -11.972 5.3779998
26.191 -11.88 5.3709998
26.195 -11.802 5.3699999
26.184 -11.717 5.3670001
26.163 -11.628 5.3610001
26.226999 -11.576 5.3730001
26.184 -11.477 5.3629999
26.218 -11.411 5.368
26.238001 -11.34 5.3709998
26.253 -11.266 5.3730001
26.233999 -11.178 5.368
26.284 -11.119 5.3769999
26.264 -11.031 5.3709998
26.268999 -10.953 5.3709998
26.291 -10.882 5.3740001
26.312 -10.81 5.3769999
26.294001 -10.723 5.3720002
26.322001 -10.654 5.3759999
26.308001 -10.568 5.3720002
26.309 -10.488 5.3709998
26.304001 -10.406 5.368
26.341 -10.341 5.375
26.384001 -10.277 5.382
26.427 -10.214 5.3889999
26.429001 -10.134 5.388
26.374001 -10.033 5.3759999
26.386999 -9.9580002 5.3769999
26.384001 -9.8760004 5.375
26.396 -9.8009996 5.3759999
26.405001 -9.724 5.3759999
26.42 -9.6490002 5.3779998
26.424999 -9.5710001 5.3769999
26.423 -9.4899998 5.3759999
26.433001 -9.4139996 5.3759999
26.454 -9.3409996 5.3790002
26.448 -9.2589998 5.3769999
26.493 -9.1940002 5.3839998
26.476999 -9.1090002 5.3800001
26.462 -9.0229998 5.375
26.539 -8.9689999 5.3889999
26.591 -8.9069996 5.3979998
26.622999 -8.8369999 5.4029999
26.552 -8.7329998 5.3870001
26.544001 -8.6499996 5.3839998
26.542999 -8.5699997 5.3829999
26.539 -8.4890003 5.381
26.552999 -8.4130001 5.382
26.584 -8.3430004 5.3870001
26.541 -8.2489996 5.3769999
26.577 -8.1800003 5.382
26.534 -8.0869999 5.3720002
26.535999 -8.0080004 5.3709998
26.570999 -7.9390001 5.3769999
26.542 -7.8499999 5.369
26.587999 -7.7839999 5.3769999
26.610001 -7.71 5.3800001
26.634001 -7.6370001 5.3839998
26.639999 -7.559 5.3829999
26.629 -7.4759998 5.3800001
26.653 -7.402 5.3829999
26.625999 -7.3150001 5.3759999
26.617001 -7.2329998 5.3730001
26.622 -7.1550002 5.3720002
26.648001 -7.0819998 5.3759999
26.739 -7.026 5.3930001
26.645 -6.8410001 5.3709998
26.643999 -6.7620001 5.369
26.653 -6.684 5.3699999
26.629 -6.598 5.3629999
26.673 -6.5300002 5.3709998
26.65 -6.4439998 5.3639998
26.674 -6.3709998 5.368
26.664 -6.2880001 5.3639998
26.664 -6.2090001 5.362
26.672001 -6.131 5.3629999
26.688 -6.0549998 5.3639998
26.683001 -5.9749999 5.362
26.724001 -5.9039998 5.369
26.73 -5.8260002 5.368
26.714001 -5.743 5.3629999
26.718 -5.664 5.3629999
24.716999 -16.254 5.2459998
24.799999 -16.153 5.2589998
24.888 -16.056999 5.2719998
24.951 -15.945 5.2810001
25.018999 -15.836 5.29
25.084 -15.727 5.2989998
25.132999 -15.608 5.3049998
25.193001 -15.496 5.3130002
25.252001 -15.385 5.3210001
25.285 -15.258 5.323
25.334999 -15.143 5.329
25.396 -15.034 5.3369999
25.441999 -14.918 5.3429999
25.495001 -14.806 5.3499999
25.539 -14.69 5.3540001
25.57 -14.567 5.3569999
25.629 -14.461 5.3649998
25.674999 -14.348 5.3699999
25.709 -14.229 5.3730001
25.729 -14.103 5.3730001
25.783001 -13.997 5.3800001
25.809 -13.875 5.382
25.829 -13.752 5.382
25.875 -13.644 5.388
25.888 -13.518 5.3860002
25.934999 -13.411 5.3920002
25.965 -13.296 5.395
25.98 -13.174 5.3940001
25.997999 -13.055 5.3940001
26.035 -12.946 5.3979998
26.069 -12.836 5.401
26.075001 -12.713 5.3990002
26.128 -12.613 5.4060001
26.132999 -12.491 5.4039998
26.158001 -12.38 5.4060001
26.176001 -12.265 5.4060001
26.188999 -12.15 5.4050002
26.209999 -12.039 5.4060001
26.252001 -11.938 5.4120002
26.298 -11.839 5.4180002
26.316999 -11.729 5.4180002
26.312 -11.609 5.414
26.295 -11.484 5.4070001
26.298 -11.37 5.4050002
26.333 -11.269 5.4089999
26.382999 -11.176 5.4159999
26.358999 -11.052 5.408
26.351999 -10.936 5.4039998
26.362 -10.828 5.4029999
26.419001 -10.739 5.4120002
26.438 -10.636 5.4120002
26.403999 -10.512 5.4029999
26.429001 -10.413 5.4050002
26.406 -10.295 5.3969998
26.444 -10.202 5.402
26.441999 -10.094 5.3990002
26.462 -9.9960003 5.401
26.496 -9.9020004 5.4050002
26.566 -9.823 5.4169998
26.511 -9.698 5.4029999
26.485001 -9.585 5.395
26.497999 -9.4870005 5.395
26.48 -9.3780003 5.3889999
26.497 -9.2819996 5.3899999
26.514999 -9.1879997 5.3909998
26.518 -9.0880003 5.3889999
26.603001 -9.0179996 5.4039998
26.594 -8.915 5.4000001
26.556999 -8.8039999 5.3899999
26.607 -8.7229996 5.3979998
26.622 -8.6300001 5.3979998
26.587 -8.5220003 5.3889999
26.552999 -8.415 5.3800001
26.587999 -8.3310003 5.3850002
26.589001 -8.2360001 5.3829999
26.561001 -8.1339998 5.375
26.583 -8.0469999 5.3769999
26.572001 -7.9499998 5.3730001
26.563999 -7.8559999 5.369
26.577999 -7.7680001 5.3699999
26.598 -7.6830001 5.3720002
26.629999 -7.6009998 5.3759999
26.612 -7.506 5.3709998
26.601 -7.4130001 5.3670001
26.603001 -7.3249998 5.3649998
26.603001 -7.237 5.3629999
26.695 -7.1729999 5.3800001
26.709999 -7.0900002 5.381
26.643 -6.9850001 5.3660002
26.632999 -6.8959999 5.362
26.634001 -6.8109999 5.3600001
26.635 -6.7259998 5.3590002
26.639 -6.6420002 5.3579998
26.641001 -6.559 5.3569999
26.642 -6.4749999 5.355
26.629999 -6.3889999 5.3509998
26.636 -6.3080001 5.3509998
26.629 -6.224 5.3470001
26.632 -6.1430001 5.3470001
26.701 -6.0780001 5.3590002
26.694 -5.9959998 5.3559999
26.686001 -5.914 5.3530002
26.688 -5.835 5.3520002
26.837999 -5.7880001 5.3800001
30.847 3.6070001 6.4520001
30.841 3.6860001 6.4530001
30.813999 3.763 6.4499998
30.827999 3.845 6.4559999
30.799999 3.9230001 6.4520001
30.848 4.0110002 6.4650002
30.847 4.0929999 6.4679999
30.834999 4.1739998 6.4679999
30.865 4.2620001 6.4780002
30.868 4.3460002 6.4809999
30.844999 4.427 6.48
30.818001 4.507 6.4770002
30.84 4.5960002 6.4850001
30.858999 4.684 6.4920001
30.878 4.7729998 6.5
30.885 4.8600001 6.5050001
30.865 4.9439998 6.5040002
30.889999 5.0359998 6.513
30.931 5.1300001 6.5250001
30.870001 5.2080002 6.5159998
30.875999 5.2979999 6.5209999
30.896999 5.3909998 6.5300002
30.917 5.4840002 6.5380001
30.919001 5.5739999 6.5419998
26.031 -13.253 5.4879999
25.99 -13.152 5.4790001
26.038 -13.096 5.487
26.068001 -12.711 5.487
26.073999 -12.634 5.487
26.129 -12.581 5.4970002
26.233999 -11.746 5.5040002
26.162001 -11.634 5.4879999
26.238001 -11.588 5.5029998
26.191999 -11.487 5.4910002
26.233999 -11.425 5.4990001
26.240999 -11.348 5.4990001
26.231001 -11.264 5.4949999
26.275999 -11.203 5.5040002
26.275 -11.122 5.5019999
26.27 -11.039 5.4990001
26.275999 -10.962 5.4990001
26.277 -10.882 5.4980001
26.301001 -10.812 5.5019999
26.347 -10.75 5.5100002
26.309999 -10.654 5.5009999
26.297001 -10.569 5.4970002
26.275 -10.48 5.4910002
26.339001 -10.426 5.5029998
26.337 -10.344 5.5009999
26.386999 -10.284 5.5100002
26.487 -10.242 5.5289998
26.448999 -10.066 5.5180001
26.407 -9.9700003 5.5079999
26.391001 -9.8839998 5.5029998
26.389999 -9.8030005 5.5019999
26.426001 -9.7360001 5.5079999
26.393 -9.6440001 5.4990001
26.403999 -9.5679998 5.5
26.412001 -9.4910002 5.5
26.429001 -9.4169998 5.5029998
26.466999 -9.3500004 5.5089998
26.476 -9.0319996 5.5050001
26.497 -8.9589996 5.5079999
26.544001 -8.8950005 5.5159998
26.591999 -8.6689997 5.5219998
26.535 -8.5710001 5.5079999
26.537001 -8.4910002 5.507
26.558001 -8.4180002 5.5100002
26.545 -8.3339996 5.506
26.546 -8.2539997 5.5050001
26.540001 -8.1719999 5.5019999
26.551001 -8.0950003 5.5019999
26.528999 -8.0089998 5.4959998
26.587 -7.9460001 5.507
26.530001 -7.849 5.494
26.566999 -7.7800002 5.5
26.643 -7.7220001 5.5139999
26.582001 -7.6240001 5.5
26.607 -7.552 5.5040002
26.580999 -7.4650002 5.4970002
26.605 -7.3909998 5.5
26.587999 -7.3070002 5.4949999
26.584999 -7.2259998 5.493
26.605 -7.152 5.4949999
26.643999 -7.0819998 5.5019999
26.714001 -6.941 5.513
26.629999 -6.8390002 5.494
26.669001 -6.7690001 5.5009999
26.636 -6.6810002 5.493
26.643 -6.6030002 5.4920001
26.635 -6.5219998 5.4889998
26.642 -6.4439998 5.4889998
26.671 -6.3709998 5.494
26.643 -6.2849998 5.4860001
26.648001 -6.2059999 5.4860001
26.65 -6.1269999 5.4850001
26.677 -6.0539999 5.4879999
26.653 -5.9679999 5.4819999
26.712999 -5.902 5.493
26.715 -5.823 5.4910002
26.714001 -5.743 5.4899998
26.702999 -5.6609998 5.4860001
24.737 -16.271999 5.3730001
24.829 -16.177 5.388
24.9 -16.07 5.3990002
24.971001 -15.962 5.4089999
25.032 -15.85 5.4169998
25.108999 -15.747 5.4289999
25.136999 -15.615 5.4299998
25.198999 -15.505 5.4390001
25.254 -15.391 5.4460001
25.334999 -15.293 5.4590001
25.398001 -15.185 5.4679999
25.436001 -15.063 5.4710002
25.49 -14.951 5.4780002
25.517 -14.823 5.4790001
25.556 -14.704 5.4840002
25.598 -14.587 5.4879999
25.618 -14.459 5.4879999
25.728001 -14.382 5.507
25.75 -14.256 5.5079999
25.740999 -14.114 5.5009999
25.809999 -14.015 5.5120001
25.778 -13.863 5.5009999
25.836 -13.76 5.5100002
25.885 -13.653 5.5159998
25.895 -13.526 5.5139999
25.916 -13.405 5.5149999
25.955 -13.295 5.5190001
25.982 -13.179 5.5209999
26.011999 -13.066 5.5229998
26.01 -12.937 5.5190001
26.049 -12.829 5.5240002
26.084999 -12.721 5.5279999
26.136999 -12.621 5.5349998
26.162001 -12.509 5.5370002
26.153 -12.381 5.5310001
26.18 -12.271 5.533
26.202 -12.159 5.5339999
26.273001 -12.071 5.546
26.344 -11.983 5.5580001
26.316999 -11.497 5.539
26.313 -11.379 5.5339999
26.327999 -11.27 5.5339999
26.381001 -11.178 5.5419998
26.365999 -11.058 5.5359998
26.358999 -10.942 5.5320001
26.339001 -10.821 5.5240002
26.396 -10.733 5.533
26.462999 -10.649 5.5440001
26.408001 -10.517 5.5300002
26.441 -10.421 5.5339999
26.386999 -10.291 5.52
26.422001 -10.197 5.5240002
26.485001 -10.113 5.5339999
26.486 -10.007 5.5320001
26.514999 -9.9119997 5.5349998
26.507 -9.8039999 5.5310001
26.479 -9.6890001 5.5219998
26.521999 -9.6009998 5.5289998
26.483 -9.4840002 5.5180001
26.461 -9.3739996 5.5110002
26.52 -9.2930002 5.52
26.523001 -9.1929998 5.5190001
26.617001 -8.533 5.5209999
26.577 -8.4239998 5.5100002
26.598 -8.3360004 5.513
26.565001 -8.2309999 5.5040002
26.584999 -8.1429996 5.506
26.591999 -8.0509996 5.5050001
26.586 -7.9559999 5.5009999
26.579 -7.862 5.4980001
26.59 -7.7729998 5.4980001
26.608 -7.6869998 5.5
26.591999 -7.592 5.494
26.596001 -7.5029998 5.493
26.586 -7.4099998 5.4889998
26.579 -7.3200002 5.4860001
26.566999 -7.2280002 5.4809999
26.634001 -7.158 5.493
26.646999 -7.0739999 5.494
26.701 -7.0009999 5.5029998
26.621 -6.8940001 5.4850001
26.625 -6.809 5.4840002
26.625999 -6.724 5.4819999
26.65 -6.6459999 5.4850001
26.638 -6.5580001 5.4809999
26.624001 -6.4710002 5.4759998
26.643999 -6.3930001 5.4790001
26.629999 -6.3070002 5.474
26.709999 -6.244 5.4889998
26.643 -6.1459999 5.474
26.674999 -6.072 5.4780002
30.823 3.217 6.6020002
30.857 3.2980001 6.6110001
30.875999 3.378 6.618
30.811001 3.4489999 6.6059999
30.830999 3.609 6.6149998
30.809999 3.6860001 6.6139998
30.903999 3.7780001 6.6360002
30.834999 3.8499999 6.6240001
30.791 3.9260001 6.618
30.798 4.0089998 6.6220002
30.794001 4.0900002 6.6240001
30.815001 4.1760001 6.632
30.884001 4.2680001 6.6500001
30.819 4.3429999 6.6389999
30.833 4.4289999 6.645
30.815001 4.5110002 6.645
30.868999 4.6040001 6.6599998
30.854 4.6869998 6.6599998
30.868 4.7750001 6.6659999
30.955999 4.8759999 6.6890001
30.92 5.3990002 6.704
30.931 5.4910002 6.711
30.867001 5.5689998 6.7010002
30.975 5.6789999 6.7290001
30.906 5.7579999 6.7179999
30.899 5.8470001 6.7210002
26.431999 -9.6630001 5.6350002
26.454 -9.5900002 5.6389999
26.544001 -8.4969997 5.6360002
26.558001 -8.4209995 5.638
26.586 -8.349 5.6420002
26.569 -8.184 5.6350002
26.548 -8.0970001 5.6290002
26.568001 -8.0229998 5.632
26.598 -7.9520001 5.6370001
26.573999 -7.8649998 5.6300001
26.594 -7.79 5.6329999
26.643999 -7.645 5.6399999
26.657 -7.5679998 5.6420002
26.617001 -7.4770002 5.632
26.641001 -7.4029999 5.6350002
26.625999 -7.2389998 5.6290002
26.620001 -7.1570001 5.6259999
26.639999 -7.0830002 5.6279998
26.659 -7.0079999 5.631
26.648001 -6.8449998 5.625
26.621 -6.7589998 5.618
26.677999 -6.6929998 5.6279998
26.695999 -6.618 5.631
26.695 -6.4569998 5.6269999
26.657 -6.369 5.618
26.701 -6.2989998 5.625
30.863001 4.0209999 6.8049998
30.839001 4.0999999 6.803
30.863001 4.1859999 6.8109999
28.082001 -18.485001 6.382
28.183001 -18.375 6.3990002
28.301001 -18.277 6.4200001
29.365999 -15.65 6.5510001
29.396 -15.514 6.553
29.43 -15.382 6.5560002
29.532 -14.843 6.5599999
29.559999 -14.712 6.5619998
29.540001 -14.558 6.553
29.579 -14.434 6.5570002
29.658001 -14.189 6.566
29.712 -14.074 6.5739999
29.879 -13.06 6.5780001
29.871 -12.925 6.573
29.841999 -12.781 6.5619998
29.905001 -12.678 6.572
29.896999 -12.546 6.5669999
29.891001 -12.415 6.5619998
29.924 -12.301 6.566
30.018999 -12.213 6.5830002
29.98 -11.946 6.5669999
29.997999 -11.829 6.5679998
29.997 -11.705 6.5640001
30.003 -11.585 6.5619998
30.16 -9.5640001 6.5409999
30.219 -9.4750004 6.5510001
30.775999 4.0960002 6.96
30.76 4.177 6.9590001
30.780001 4.2620001 6.967
30.865999 4.3579998 6.9899998
30.855 4.441 6.9910002
30.858 4.869 7.0100002
30.844 4.954 7.0110002
30.820999 5.48 7.0300002
30.893 5.5830002 7.0510001
29.684999 -13.59 6.6700001
29.674 -13.493 6.6659999
29.739 -13.432 6.6789999
29.698999 -13.322 6.6690001
29.694 -13.228 6.6659999
29.695 -13.138 6.664
29.746 -13.069 6.6739998
29.702999 -12.959 6.6630001
29.763 -12.894 6.6739998
29.756001 -12.799 6.671
29.764999 -12.712 6.671
29.767 -12.621 6.6700001
29.804001 -12.546 6.677
29.794001 -12.45 6.6729999
29.801001 -12.362 6.6729999
29.795 -12.268 6.6700001
29.794001 -12.176 6.6669998
29.874001 -12.117 6.684
29.888 -12.032 6.6849999
29.841999 -11.922 6.6729999
29.865 -11.84 6.6760001
29.868999 -11.75 6.6760001
29.864 -11.657 6.6729999
29.959999 -11.602 6.6919999
29.881001 -11.481 6.6729999
29.903999 -11.398 6.6760001
29.937 -11.319 6.6820002
29.927 -11.225 6.678
29.927999 -11.133 6.6760001
29.945999 -11.049 6.678
29.969999 -10.966 6.6820002
30.003 -10.887 6.6880002
30.049999 -10.63 6.6929998
30.032 -10.532 6.6869998
30.073999 -10.364 6.6929998
30.097 -10.28 6.6960001
30.139999 -10.203 6.7030001
30.084 -10.093 6.6890001
30.117001 -9.7390003 6.6890001
30.065001 -9.6309996 6.6760001
30.122999 -9.5579996 6.6869998
30.121 -9.4659996 6.6849999
30.112 -9.3730001 6.6810002
30.132999 -9.2880001 6.6830001
30.101 -9.1870003 6.6750002
30.128 -9.1040001 6.6789999
30.190001 -9.0319996 6.6900001
30.135 -8.9239998 6.677
30.218 -8.8579998 6.6929998
30.214001 -8.7650003 6.6900001
30.198 -8.6700001 6.6849999
28.014999 -18.447001 6.5089998
28.105 -18.33 6.5229998
28.194 -18.214001 6.5380001
28.278 -18.094999 6.5510001
28.341999 -17.964001 6.5599999
28.438 -17.853001 6.5760002
28.499001 -17.721001 6.5840001
28.540001 -17.577999 6.5879998
28.620001 -17.459999 6.6009998
28.658001 -17.316 6.6040001
28.736 -17.198 6.6160002
28.804001 -17.073999 6.6259999
28.896 -16.966 6.6420002
28.906 -16.809 6.6389999
28.973 -16.687 6.6479998
29.049 -16.570999 6.6609998
29.066 -16.421 6.6589999
29.143999 -16.308001 6.6719999
29.183001 -16.173 6.6760001
29.193001 -16.023001 6.6729999
29.224001 -15.885 6.6750002
29.271 -15.757 6.6799998
29.295 -15.617 6.6810002
29.361 -15.501 6.691
29.4 -15.371 6.6950002
29.504999 -15.128 6.7090001
29.472 -14.964 6.697
29.528999 -14.846 6.7049999
29.552 -14.713 6.7059999
29.570999 -14.578 6.7059999
29.586 -14.442 6.7049999
29.622 -14.176 6.704
29.631001 -14.04 6.7020001
29.705 -13.936 6.7140002
29.722 -13.805 6.7140002
29.764 -13.687 6.7189999
29.787001 -13.426 6.7160001
29.809999 -13.301 6.717
29.799 -13.162 6.71
29.82 -13.039 6.711
29.879 -12.801 6.717
29.870001 -12.668 6.711
29.872 -12.539 6.7069998
29.868999 -12.409 6.7030001
29.893999 -12.292 6.7049999
29.944 -12.186 6.7119999
29.941 -12.059 6.7080002
29.972 -11.946 6.711
29.972 -11.822 6.7080002
29.959 -11.693 6.7010002
29.950001 -11.567 6.6960001
29.983999 -11.459 6.6999998
30.014 -11.349 6.7030001
30.004 -11.225 6.698
30.042 -11.12 6.7030001
30.011 -10.99 6.6929998
30.02 -10.876 6.6919999
30.059 -10.773 6.697
30.1 -10.326 6.6939998
30.101 -10.213 6.691
30.121 -10.107 6.6919999
30.135 -9.9989996 6.6919999
30.136 -9.8879995 6.6900001
30.101999 -9.5480003 6.6739998
30.138 -9.4510002 6.6789999
30.125 -9.3389997 6.6729999
30.138 -9.2360001 6.6729999
30.15 -9.1339998 6.6729999
30.162001 -9.0310001 6.6729999
30.211 -8.941 6.6820002
30.198999 -8.7290001 6.6739998
30.261999 -8.6440001 6.6849999
30.823 3.6210001 7.125
30.764 3.6930001 7.1139998
29.5 -14.423 6.7930002
29.541 -14.352 6.8000002
29.686001 -13.599 6.8179998
29.66 -13.496 6.8109999
29.660999 -13.405 6.809
29.684999 -13.324 6.8130002
29.695999 -13.238 6.8140001
29.705 -13.15 6.8140001
29.768 -13.086 6.8270001
29.704 -12.967 6.8099999
29.711 -12.879 6.8099999
29.740999 -12.8 6.8150001
29.747999 -12.712 6.8150001
29.745001 -12.619 6.8119998
29.774 -12.54 6.8169999
29.757999 -12.442 6.8119998
29.773001 -12.357 6.8130002
29.750999 -12.257 6.8070002
29.797001 -12.184 6.8150001
29.816 -12.1 6.8179998
29.816999 -11.918 6.8150001
29.820999 -11.828 6.8140001
29.856001 -11.751 6.8200002
29.856001 -11.66 6.8179998
29.944 -11.419 6.8330002
29.902 -11.312 6.8210001
29.938999 -11.234 6.8280001
29.952999 -11.148 6.829
30.017 -10.623 6.8330002
30 -10.525 6.8270001
30.007999 -10.437 6.8270001
30.049999 -10.36 6.835
30.011999 -10.256 6.8239999
30.063999 -10.182 6.8340001
30.046 -10.085 6.8280001
30.073 -10.002 6.8330002
30.155001 -9.9379997 6.849
30.07 -9.7270002 6.8260002
30.066 -9.6350002 6.823
