# .PCD v0.7 - Point Cloud Data file format
VERSION 0.7
FIELDS x y z
SIZE 4 4 4
TYPE F F F
COUNT 1 1 1
WIDTH 1826
HEIGHT 1
VIEWPOINT 0 0 0 1 0 0 0
POINTS 1826
DATA ascii
11.125 1.057 -0.071999997
11.159 1.089 -0.071999997
11.168 1.118 -0.072999999
11.195 1.149 -0.072999999
11.219 1.1799999 -0.072999999
11.228 1.21 -0.074000001
11.261 1.243 -0.074000001
11.271 1.274 -0.074000001
11.287 1.3049999 -0.075000003
11.322 1.339 -0.075000003
11.319 1.369 -0.075000003
11.347 1.403 -0.075999998
11.376 1.437 -0.075999998
11.378 1.4680001 -0.077
11.411 1.503 -0.077
11.438 1.538 -0.077
11.466 1.573 -0.078000002
11.491 1.609 -0.078000002
11.505 1.642 -0.079000004
11.552 1.681 -0.079000004
11.586 1.719 -0.079999998
11.633 1.7589999 -0.079999998
11.646 1.794 -0.081
11.67 1.831 -0.081
11.703 1.869 -0.082000002
11.751 1.911 -0.082000002
11.778 1.949 -0.082999997
11.808 1.988 -0.082999997
11.818 2.0239999 -0.082999997
11.782 2.053 -0.083999999
11.783 2.0869999 -0.083999999
11.783 2.122 -0.083999999
11.808 2.1619999 -0.085000001
11.849 2.204 -0.085000001
11.901 2.25 -0.086000003
11.971 2.299 -0.086999997
11.966 2.3340001 -0.086999997
11.934 2.3640001 -0.086999997
11.954 2.404 -0.086999997
12.069 2.464 -0.088
12.188 2.526 -0.090000004
12.238 2.5739999 -0.090000004
12.258 2.6159999 -0.090999998
12.276 2.658 -0.090999998
12.316 2.704 -0.092
12.354 2.7520001 -0.092
12.372 2.7939999 -0.093000002
12.386 2.836 -0.093000002
12.393 2.8770001 -0.093999997
12.398 2.9170001 -0.093999997
12.426 2.9630001 -0.094999999
12.422 3.0020001 -0.094999999
12.447 3.0480001 -0.094999999
12.456 3.0899999 -0.096000001
12.499 3.141 -0.096000001
12.51 3.184 -0.097000003
12.524 3.2279999 -0.097000003
12.546 3.2739999 -0.097999997
12.592 3.3269999 -0.097999997
12.599 3.3699999 -0.098999999
12.631 3.4200001 -0.098999999
12.627 3.461 -0.1
12.642 3.506 -0.1
12.671 3.5569999 -0.101
12.687 3.6029999 -0.101
12.702 3.6500001 -0.102
12.691 3.6889999 -0.102
12.705 3.7349999 -0.102
12.701 3.777 -0.103
12.734 3.829 -0.103
12.75 3.8770001 -0.104
12.789 3.9319999 -0.105
12.817 3.984 -0.105
12.828 4.0310001 -0.106
12.869 4.0879998 -0.106
12.869 4.131 -0.107
12.508 4.0580001 -0.104
12.331 4.0430002 -0.103
12.213 4.046 -0.102
12.195 4.0819998 -0.102
12.223 4.1339998 -0.103
13.049 4.4590001 -0.11
13.098 4.52 -0.111
13.137 4.579 -0.112
13.163 4.6339998 -0.113
12.143 4.3179998 -0.104
11.935 4.2849998 -0.103
11.874 4.3049998 -0.103
11.854 4.3390002 -0.103
11.885 4.3930001 -0.103
12.006 4.48 -0.105
13.489 5.0799999 -0.118
13.546 5.1500001 -0.119
13.592 5.2150002 -0.12
13.602 5.2670002 -0.121
13.638 5.3299999 -0.121
13.649 5.382 -0.122
13.761 5.4759998 -0.123
13.794 5.5380001 -0.124
13.797 5.5879998 -0.124
13.833 5.652 -0.125
13.856 5.711 -0.126
13.85 5.7589998 -0.126
13.909 5.8330002 -0.127
13.923 5.8889999 -0.12800001
13.934 5.9439998 -0.12800001
13.942 5.9980001 -0.12899999
14.007 6.0760002 -0.13
14.056 6.1479998 -0.131
14.112 6.224 -0.132
14.093 6.2670002 -0.132
13.855 6.211 -0.13
13.806 6.2389998 -0.13
12.262 6.1669998 -0.122
12.155 6.1570001 -0.121
12.246 6.2480001 -0.122
12.205 6.2719998 -0.122
12.136 6.2810001 -0.122
12.112 6.3130002 -0.122
12.105 6.3530002 -0.123
12.058 6.3730001 -0.123
12.04 6.4070001 -0.123
12.092 6.4790001 -0.124
12.105 6.5300002 -0.124
12.213 6.6329999 -0.126
12.225 6.7290001 -0.127
12.221 6.7709999 -0.127
10.643 6.1659999 -0.114
10.542 6.1459999 -0.113
10.425 6.1149998 -0.112
10.361 6.1149998 -0.112
10.309 6.1220002 -0.112
10.257 6.1269999 -0.111
10.192 6.125 -0.111
10.15 6.1360002 -0.111
10.105 6.145 -0.111
10.066 6.1570001 -0.111
10.025 6.1669998 -0.111
9.9840002 6.178 -0.111
9.9569998 6.1960001 -0.111
9.9779997 6.244 -0.111
10.066 6.335 -0.113
7.4990001 -4.4120002 0.048999999
7.5219998 -4.4039998 0.048999999
7.5149999 -4.3790002 0.048999999
7.5219998 -4.362 0.048999999
7.5489998 -4.3559999 0.048999999
7.553 -4.3369999 0.048999999
7.5500002 -4.3140001 0.048999999
7.579 -4.309 0.048999999
7.5879998 -4.2930002 0.050000001
7.6079998 -4.2820001 0.050000001
7.631 -4.2729998 0.050000001
7.6209998 -4.2459998 0.050000001
7.6290002 -4.2280002 0.050000001
7.6399999 -4.2129998 0.050000001
7.6490002 -4.1960001 0.050000001
7.6560001 -4.178 0.050000001
7.6669998 -4.1620002 0.050999999
7.677 -4.1459999 0.050999999
7.6859999 -4.1290002 0.050999999
7.7010002 -4.1139998 0.050999999
7.7049999 -4.0939999 0.050999999
7.7129998 -4.0770001 0.050999999
7.7329998 -4.0650001 0.050999999
7.777 -4.066 0.052000001
7.7789998 -4.0440001 0.052000001
7.8010001 -4.0339999 0.052000001
7.7839999 -4.0019999 0.052000001
7.7940001 -3.9849999 0.052000001
7.809 -3.97 0.052000001
7.8189998 -3.9530001 0.052000001
7.8169999 -3.9289999 0.052000001
7.842 -3.9200001 0.052999999
7.8429999 -3.8970001 0.052999999
7.8740001 -3.8900001 0.052999999
7.882 -3.8710001 0.052999999
7.8779998 -3.8469999 0.052999999
7.8870001 -3.8280001 0.052999999
7.9060001 -3.8150001 0.052999999
7.9310002 -3.8039999 0.054000001
7.921 -3.776 0.054000001
7.9629998 -3.773 0.054000001
7.9640002 -3.7509999 0.054000001
7.9780002 -3.734 0.054000001
8.0139999 -3.7279999 0.054000001
8.0010004 -3.6989999 0.054000001
8.0190001 -3.684 0.055
8.0349998 -3.668 0.055
8.0419998 -3.648 0.055
8.052 -3.6289999 0.055
8.0640001 -3.6110001 0.055
8.0869999 -3.598 0.055
8.0979996 -3.5799999 0.055
8.1219997 -3.5669999 0.056000002
8.1400003 -3.5510001 0.056000002
8.1409998 -3.5280001 0.056000002
8.1630001 -3.5139999 0.056000002
8.1730003 -3.4949999 0.056000002
8.177 -3.473 0.056000002
8.2019997 -3.46 0.057
8.2189999 -3.4430001 0.057
8.2469997 -3.431 0.057
8.2609997 -3.4130001 0.057
8.2749996 -3.3940001 0.057
8.2849998 -3.375 0.057
8.2959995 -3.355 0.057
8.3170004 -3.339 0.057999998
8.3190002 -3.316 0.057999998
8.335 -3.2980001 0.057999998
8.3660002 -3.286 0.057999998
8.3809996 -3.2679999 0.057999998
8.3800001 -3.244 0.057999998
8.4110003 -3.2309999 0.059
8.4209995 -3.211 0.059
8.4549999 -3.1989999 0.059
8.474 -3.1819999 0.059
8.474 -3.1570001 0.059
8.4989996 -3.142 0.059999999
8.493 -3.115 0.059999999
8.5080004 -3.096 0.059999999
8.5310001 -3.0799999 0.059999999
8.5439997 -3.0599999 0.059999999
8.5710001 -3.0450001 0.059999999
8.5679998 -3.0190001 0.059999999
8.5939999 -3.003 0.061000001
8.5970001 -2.98 0.061000001
8.6169996 -2.9619999 0.061000001
8.6359997 -2.9430001 0.061000001
8.6540003 -2.924 0.061000001
8.6800003 -2.908 0.061999999
8.7010002 -2.8900001 0.061999999
8.7119999 -2.868 0.061999999
8.7159996 -2.8440001 0.061999999
8.743 -2.8280001 0.061999999
8.7589998 -2.8080001 0.061999999
8.7869997 -2.7920001 0.063000001
8.8050003 -2.7720001 0.063000001
8.8280001 -2.7539999 0.063000001
8.8839998 -2.7449999 0.063000001
8.9250002 -2.7320001 0.064000003
8.9040003 -2.7 0.064000003
8.9180002 -2.6789999 0.064000003
8.9379997 -2.6589999 0.064000003
8.9329996 -2.632 0.064000003
8.9809999 -2.6199999 0.064000003
8.9870005 -2.596 0.064999998
9.0200005 -2.579 0.064999998
9.0419998 -2.5599999 0.064999998
9.0839996 -2.546 0.064999998
9.1190004 -2.529 0.066
9.1149998 -2.5020001 0.066
9.125 -2.4779999 0.066
9.1370001 -2.4549999 0.066
9.1669998 -2.437 0.066
9.1780005 -2.414 0.066
9.1960001 -2.392 0.067000002
9.2370005 -2.3759999 0.067000002
9.2390003 -2.3499999 0.067000002
9.2709999 -2.332 0.067000002
9.3009996 -2.312 0.068000004
9.2919998 -2.283 0.068000004
9.3540001 -2.2720001 0.068000004
9.3889999 -2.253 0.068000004
9.3920002 -2.227 0.068999998
9.4300003 -2.2090001 0.068999998
9.4429998 -2.1849999 0.068999998
9.4709997 -2.164 0.068999998
9.5030003 -2.1440001 0.07
9.5410004 -2.1259999 0.07
9.5559998 -2.1010001 0.07
9.585 -2.0799999 0.07
9.632 -2.063 0.071000002
9.6639996 -2.0420001 0.071000002
9.691 -2.02 0.071000002
9.7250004 -1.999 0.071999997
9.7399998 -1.975 0.071999997
9.7799997 -1.955 0.071999997
9.8030005 -1.931 0.071999997
9.8140001 -1.905 0.071999997
9.8500004 -1.8839999 0.072999999
9.8979998 -1.865 0.072999999
9.9119997 -1.839 0.072999999
9.9300003 -1.814 0.074000001
9.9519997 -1.79 0.074000001
9.9809999 -1.767 0.074000001
10.021 -1.745 0.074000001
10.051 -1.722 0.075000003
10.079 -1.698 0.075000003
10.122 -1.676 0.075000003
10.18 -1.6569999 0.075999998
10.194 -1.63 0.075999998
10.274 -1.613 0.077
10.308 -1.589 0.077
10.266 -1.553 0.077
9.5220003 -1.414 0.071000002
9.415 -1.3710001 0.07
9.3870001 -1.34 0.07
9.4189997 -1.318 0.07
9.2089996 -1.262 0.068999998
9.0939999 -1.22 0.068000004
9.0629997 -1.1900001 0.068000004
9.0819998 -1.1670001 0.068000004
9.2040005 -1.156 0.068999998
10.72 -1.316 0.081
10.701 -1.284 0.081
10.733 -1.257 0.081
10.764 -1.23 0.081
10.821 -1.206 0.082000002
10.862 -1.179 0.082000002
10.876 -1.15 0.082000002
10.903 -1.122 0.082000002
10.932 -1.094 0.082999997
10.951 -1.064 0.082999997
10.982 -1.036 0.082999997
11.042 -1.01 0.083999999
11.07 -0.98100001 0.083999999
11.12 -0.954 0.083999999
11.158 -0.926 0.085000001
11.247 -0.90100002 0.085000001
11.304 -0.87400001 0.086000003
11.319 -0.84299999 0.086000003
11.375 -0.81400001 0.086999997
11.469 -0.78899997 0.086999997
11.739 0.35800001 -0.044
11.716 0.37400001 -0.044
11.696 0.38999999 -0.044
11.697 0.40700001 -0.044
11.712 0.42500001 -0.044
11.613 0.43900001 -0.044
11.654 0.45899999 -0.044
11.593 0.47499999 -0.044
11.581 0.493 -0.045000002
11.586 0.51099998 -0.045000002
11.548 0.52899998 -0.045000002
11.571 0.54900002 -0.045000002
11.54 0.56699997 -0.045000002
11.534 0.58600003 -0.045000002
11.526 0.60500002 -0.045000002
11.501 0.62400001 -0.045000002
11.496 0.64399999 -0.046
11.535 0.667 -0.046
11.504 0.68599999 -0.046
11.488 0.70599997 -0.046
11.516 0.72899997 -0.046
11.515 0.75099999 -0.046999998
11.535 0.77399999 -0.046999998
11.531 0.796 -0.046999998
11.537 0.81800002 -0.046999998
11.537 0.84100002 -0.048
11.559 0.86500001 -0.048
11.581 0.88999999 -0.048
11.566 0.912 -0.048
11.572 0.93599999 -0.048
11.608 0.963 -0.048999999
11.592 0.986 -0.048999999
11.603 1.011 -0.048999999
11.61 1.0369999 -0.048999999
11.615 1.062 -0.050000001
11.64 1.089 -0.050000001
11.648 1.115 -0.050000001
11.67 1.143 -0.050999999
11.673 1.169 -0.050999999
11.686 1.197 -0.050999999
11.675 1.222 -0.050999999
11.689 1.25 -0.050999999
11.723 1.28 -0.052000001
11.752 1.311 -0.052000001
11.823 1.346 -0.052999999
11.794 1.3710001 -0.052999999
11.775 1.396 -0.052999999
11.775 1.424 -0.052999999
11.799 1.456 -0.052999999
11.822 1.487 -0.054000001
11.832 1.517 -0.054000001
11.861 1.55 -0.054000001
11.884 1.5829999 -0.055
11.949 1.6210001 -0.055
11.963 1.653 -0.056000002
11.954 1.682 -0.056000002
12.015 1.721 -0.056000002
12.054 1.758 -0.057
12.029 1.785 -0.057
12.043 1.819 -0.057
12.067 1.854 -0.057
12.097 1.891 -0.057999998
12.122 1.927 -0.057999998
12.154 1.964 -0.059
12.179 2.0009999 -0.059
12.183 2.0350001 -0.059
12.224 2.075 -0.059999999
12.231 2.109 -0.059999999
12.05 2.1110001 -0.059
11.789 2.098 -0.057999998
11.718 2.119 -0.057999998
11.711 2.1500001 -0.057999998
11.71 2.1830001 -0.059
11.742 2.2219999 -0.059
11.812 2.2690001 -0.059999999
11.935 2.3269999 -0.059999999
11.95 2.365 -0.061000001
11.888 2.3870001 -0.061000001
11.908 2.4260001 -0.061000001
11.965 2.473 -0.061999999
12.473 2.615 -0.064999998
12.541 2.6659999 -0.064999998
12.548 2.7049999 -0.066
12.558 2.7449999 -0.066
12.561 2.7839999 -0.066
12.575 2.825 -0.066
12.581 2.865 -0.067000002
12.595 2.9070001 -0.067000002
12.589 2.944 -0.067000002
12.61 2.9879999 -0.068000004
12.624 3.0309999 -0.068000004
12.635 3.073 -0.068999998
12.663 3.1199999 -0.068999998
12.675 3.1630001 -0.068999998
12.682 3.2049999 -0.07
12.73 3.2579999 -0.07
12.727 3.2980001 -0.07
12.755 3.346 -0.071000002
12.759 3.3889999 -0.071000002
12.795 3.4400001 -0.071999997
12.83 3.4920001 -0.071999997
12.842 3.5369999 -0.072999999
12.841 3.579 -0.072999999
12.875 3.632 -0.072999999
12.895 3.6800001 -0.074000001
12.918 3.73 -0.074000001
12.91 3.7709999 -0.075000003
12.933 3.822 -0.075000003
12.949 3.8710001 -0.075000003
12.989 3.927 -0.075999998
13.022 3.9820001 -0.077
13.062 4.039 -0.077
13.127 4.105 -0.078000002
13.157 4.1599998 -0.078000002
13.147 4.2020001 -0.079000004
13.195 4.2639999 -0.079000004
13.25 4.3280001 -0.079999998
12.459 4.1139998 -0.075000003
12.234 4.0830002 -0.074000001
12.183 4.1090002 -0.074000001
12.212 4.1630001 -0.075000003
13.395 4.6139998 -0.082000002
13.44 4.6789999 -0.082999997
13.493 4.7459998 -0.083999999
13.556 4.8179998 -0.085000001
11.951 4.2909999 -0.075000003
11.868 4.3049998 -0.075000003
11.856 4.3439999 -0.075000003
11.856 4.388 -0.075000003
11.982 4.4790001 -0.075999998
13.811 5.2150002 -0.088
13.827 5.2729998 -0.089000002
13.924 5.362 -0.090000004
13.944 5.4219999 -0.090000004
13.979 5.4889998 -0.090999998
14.085 5.585 -0.092
14.123 5.6539998 -0.093000002
14.161 5.723 -0.093000002
14.153 5.7750001 -0.093999997
14.167 5.835 -0.093999997
14.175 5.8930001 -0.094999999
14.197 5.9580002 -0.094999999
14.225 6.0250001 -0.096000001
14.276 6.1030002 -0.096000001
14.337 6.1859999 -0.097000003
14.396 6.2690001 -0.097999997
14.4 6.3280001 -0.098999999
12.299 6.1090002 -0.089000002
12.222 6.1220002 -0.089000002
12.163 6.1950002 -0.089000002
12.106 6.2179999 -0.089000002
12.103 6.2680001 -0.090000004
12.086 6.3109999 -0.090000004
12.076 6.3569999 -0.090000004
12.107 6.4260001 -0.090999998
12.115 6.4829998 -0.090999998
12.229 6.5970001 -0.093000002
10.64 6.1630001 -0.083999999
10.525 6.1440001 -0.082999997
10.401 6.118 -0.082000002
10.339 6.1290002 -0.082000002
10.273 6.1360002 -0.082000002
10.221 6.152 -0.082000002
10.159 6.1609998 -0.082000002
10.115 6.1810002 -0.082000002
10.056 6.191 -0.082000002
10.021 6.2150002 -0.082000002
9.9890003 6.2420001 -0.082000002
9.9490004 6.263 -0.082000002
9.9890003 6.335 -0.082000002
10.164 6.493 -0.083999999
7.1900001 -4.7399998 0.064000003
7.2270002 -4.7189999 0.064999998
7.2420001 -4.6830001 0.064999998
7.2750001 -4.6589999 0.064999998
7.2950001 -4.6279998 0.064999998
7.3210001 -4.5999999 0.066
7.3530002 -4.5749998 0.066
7.3779998 -4.5469999 0.066
7.3969998 -4.5149999 0.066
7.4229999 -4.4879999 0.067000002
7.4460001 -4.4590001 0.067000002
7.4679999 -4.4289999 0.067000002
7.4860001 -4.3969998 0.067000002
7.5110002 -4.369 0.067000002
7.5289998 -4.3369999 0.068000004
7.5539999 -4.3099999 0.068000004
7.5669999 -4.276 0.068000004
7.5900002 -4.2470002 0.068000004
7.6030002 -4.2129998 0.068000004
7.6360002 -4.191 0.068999998
7.6529999 -4.1589999 0.068999998
7.6739998 -4.131 0.068999998
7.7049999 -4.1069999 0.068999998
7.7160001 -4.073 0.068999998
7.7449999 -4.0479999 0.07
7.7579999 -4.0159998 0.07
7.7750001 -3.9849999 0.07
7.8039999 -3.961 0.07
7.8119998 -3.9260001 0.07
7.849 -3.9059999 0.071000002
7.8720002 -3.8789999 0.071000002
7.8889999 -3.849 0.071000002
7.908 -3.8199999 0.071000002
7.927 -3.7909999 0.071999997
7.9559999 -3.767 0.071999997
7.9679999 -3.7349999 0.071999997
7.9949999 -3.71 0.071999997
8.0249996 -3.687 0.071999997
8.0340004 -3.654 0.072999999
8.0649996 -3.632 0.072999999
8.0810003 -3.602 0.072999999
8.1029997 -3.576 0.072999999
8.1269999 -3.55 0.074000001
8.1560001 -3.526 0.074000001
8.1859999 -3.503 0.074000001
8.2040005 -3.4749999 0.074000001
8.2259998 -3.4489999 0.075000003
8.2440004 -3.421 0.075000003
8.2790003 -3.4000001 0.075000003
8.302 -3.3740001 0.075000003
8.3140001 -3.3440001 0.075000003
8.3730001 -3.3329999 0.075999998
8.3690004 -3.296 0.075999998
8.3940001 -3.2720001 0.075999998
8.4209995 -3.247 0.075999998
8.4429998 -3.2219999 0.077
8.4770002 -3.201 0.077
8.507 -3.178 0.077
8.5319996 -3.1530001 0.078000002
8.5570002 -3.1289999 0.078000002
8.5819998 -3.1040001 0.078000002
8.6049995 -3.079 0.078000002
8.6289997 -3.0539999 0.079000004
8.651 -3.029 0.079000004
8.684 -3.007 0.079000004
8.6969995 -2.9790001 0.079000004
8.7259998 -2.9560001 0.079999998
8.7620001 -2.9349999 0.079999998
8.7840004 -2.9100001 0.079999998
8.802 -2.8829999 0.079999998
8.8459997 -2.865 0.081
8.868 -2.8399999 0.081
8.901 -2.819 0.081
8.9420004 -2.799 0.082000002
8.9860001 -2.7809999 0.082000002
9.0039997 -2.7550001 0.082000002
9.0380001 -2.733 0.082999997
9.0609999 -2.7079999 0.082999997
9.1079998 -2.691 0.082999997
9.1379995 -2.668 0.083999999
9.1669998 -2.645 0.083999999
9.2019997 -2.6240001 0.083999999
9.21 -2.595 0.085000001
9.2329998 -2.5710001 0.085000001
9.2810001 -2.553 0.085000001
9.3039999 -2.5280001 0.086000003
9.3129997 -2.5 0.086000003
9.342 -2.477 0.086000003
9.3900003 -2.4590001 0.086000003
9.4320002 -2.4400001 0.086999997
9.4359999 -2.411 0.086999997
9.4729996 -2.3900001 0.086999997
9.5209999 -2.372 0.088
9.5690002 -2.3529999 0.088
9.6140003 -2.3340001 0.089000002
9.6289997 -2.3080001 0.089000002
9.6680002 -2.2880001 0.089000002
9.7040005 -2.266 0.090000004
9.7480001 -2.247 0.090000004
9.7709999 -2.223 0.090000004
9.7980003 -2.1989999 0.090999998
9.8339996 -2.178 0.090999998
9.8439999 -2.151 0.090999998
9.8809996 -2.1300001 0.092
9.9069996 -2.1059999 0.092
9.9289999 -2.082 0.092
9.9469995 -2.0569999 0.092
9.9940004 -2.0380001 0.093000002
9.9960003 -2.0090001 0.093000002
10.049 -1.9910001 0.093000002
10.064 -1.966 0.093999997
10.086 -1.942 0.093999997
10.138 -1.924 0.093999997
10.155 -1.899 0.093999997
10.214 -1.882 0.094999999
10.213 -1.853 0.094999999
10.247 -1.832 0.094999999
10.276 -1.809 0.096000001
10.319 -1.789 0.096000001
10.337 -1.7640001 0.096000001
10.357 -1.74 0.097000003
10.382 -1.717 0.097000003
10.416 -1.6950001 0.097000003
10.471 -1.677 0.097999997
10.501 -1.655 0.097999997
10.511 -1.6289999 0.097999997
9.5030003 -1.449 0.089000002
9.434 -1.414 0.088
9.3929996 -1.3839999 0.088
9.3719997 -1.358 0.088
9.3780003 -1.336 0.088
9.4200001 -1.318 0.088
9.3839998 -1.29 0.088
9.1459999 -1.235 0.086000003
9.0749998 -1.2029999 0.085000001
9.0679998 -1.181 0.085000001
9.0649996 -1.159 0.085000001
9.0880003 -1.14 0.085000001
9.1450005 -1.126 0.086000003
10.934 -1.3200001 0.103
10.887 -1.289 0.103
10.922 -1.268 0.103
10.945 -1.245 0.103
10.964 -1.223 0.103
10.979 -1.199 0.104
10.998 -1.177 0.104
11.029 -1.155 0.104
11.045 -1.132 0.104
11.06 -1.109 0.105
11.084 -1.087 0.105
11.101 -1.0650001 0.105
11.132 -1.044 0.105
11.164 -1.023 0.106
11.181 -1 0.106
11.186 -0.977 0.106
11.224 -0.95700002 0.107
11.287 -0.93800002 0.107
11.331 -0.91900003 0.108
11.321 -0.89399999 0.108
11.408 -0.87800002 0.109
11.423 -0.85600001 0.109
11.431 -0.833 0.109
11.474 -0.81300002 0.109
11.526 -0.79400003 0.11
11.621 -0.778 0.111
11.617 -0.755 0.111
11.639 -0.73299998 0.111
11.505 0.147 -0.0089999996
11.566 0.169 -0.0099999998
11.59 0.19 -0.0099999998
11.592 0.211 -0.0099999998
11.618 0.234 -0.0099999998
11.619 0.255 -0.0099999998
11.626 0.278 -0.011
11.674 0.301 -0.011
11.658 0.324 -0.011
11.66 0.347 -0.011
11.649 0.36899999 -0.011
11.671 0.39399999 -0.011
11.682 0.41800001 -0.012
11.663 0.44100001 -0.012
11.677 0.46599999 -0.012
11.665 0.48899999 -0.012
11.658 0.514 -0.012
11.665 0.53899997 -0.013
11.644 0.56300002 -0.013
11.648 0.588 -0.013
11.659 0.61400002 -0.013
11.64 0.639 -0.013
11.685 0.667 -0.014
11.652 0.69199997 -0.014
11.674 0.71899998 -0.014
11.681 0.74599999 -0.014
11.673 0.773 -0.014
11.704 0.80199999 -0.015
11.7 0.829 -0.015
11.731 0.85799998 -0.015
11.738 0.88700002 -0.015
11.733 0.91399997 -0.016000001
11.725 0.94199997 -0.016000001
11.758 0.97299999 -0.016000001
11.767 1.002 -0.016000001
11.801 1.034 -0.016000001
11.781 1.061 -0.017000001
11.804 1.0930001 -0.017000001
11.822 1.124 -0.017000001
11.84 1.156 -0.017000001
11.87 1.189 -0.017999999
11.907 1.223 -0.017999999
11.909 1.253 -0.017999999
11.909 1.284 -0.017999999
11.945 1.319 -0.018999999
11.941 1.35 -0.018999999
11.976 1.385 -0.018999999
12.03 1.423 -0.018999999
12.026 1.455 -0.02
12.022 1.487 -0.02
12.038 1.521 -0.02
12.061 1.557 -0.02
12.104 1.595 -0.021
12.114 1.6289999 -0.021
12.131 1.665 -0.021
12.172 1.704 -0.021
12.194 1.7410001 -0.022
12.219 1.779 -0.022
12.241 1.816 -0.022
12.248 1.852 -0.022
12.26 1.888 -0.023
12.276 1.926 -0.023
12.311 1.967 -0.023
12.33 2.0050001 -0.024
12.38 2.049 -0.024
12.387 2.086 -0.024
12.41 2.1259999 -0.024
12.469 2.1719999 -0.025
12.617 2.2349999 -0.025
11.759 2.118 -0.024
11.685 2.1389999 -0.024
11.688 2.175 -0.024
11.702 2.2119999 -0.024
11.76 2.2579999 -0.025
11.9 2.3210001 -0.025
11.935 2.3640001 -0.026000001
11.902 2.3940001 -0.026000001
11.919 2.4330001 -0.026000001
12.044 2.4960001 -0.027000001
12.68 2.6670001 -0.028000001
12.698 2.7090001 -0.028999999
12.704 2.75 -0.028999999
12.715 2.7920001 -0.028999999
12.721 2.8329999 -0.028999999
12.712 2.8710001 -0.029999999
12.742 2.9170001 -0.029999999
12.766 2.9630001 -0.029999999
12.779 3.007 -0.030999999
12.812 3.0550001 -0.030999999
12.841 3.1029999 -0.030999999
12.863 3.1489999 -0.032000002
12.873 3.1930001 -0.032000002
12.867 3.233 -0.032000002
12.913 3.286 -0.033
12.916 3.329 -0.033
12.945 3.378 -0.033
12.995 3.434 -0.034000002
12.998 3.477 -0.034000002
13.026 3.527 -0.034000002
13.065 3.5799999 -0.035
13.097 3.632 -0.035
13.119 3.6819999 -0.035
13.134 3.7290001 -0.035999998
13.155 3.779 -0.035999998
13.234 3.846 -0.037
13.23 3.8889999 -0.037
13.308 3.9560001 -0.037
13.375 4.0209999 -0.037999999
13.397 4.073 -0.037999999
13.416 4.1240001 -0.039000001
13.434 4.1750002 -0.039000001
13.48 4.2350001 -0.039000001
13.501 4.2880001 -0.039999999
13.539 4.3460002 -0.039999999
13.582 4.4060001 -0.041000001
13.588 4.454 -0.041000001
12.257 4.0599999 -0.037
12.185 4.0780001 -0.037
12.184 4.1199999 -0.037999999
12.29 4.198 -0.037999999
13.756 4.7470002 -0.043000001
13.773 4.8000002 -0.044
13.848 4.875 -0.044
11.99 4.263 -0.037999999
11.884 4.2659998 -0.037999999
11.86 4.2989998 -0.039000001
11.868 4.3439999 -0.039000001
11.88 4.3899999 -0.039000001
11.997 4.4749999 -0.039999999
14.187 5.342 -0.048
14.19 5.3930001 -0.048
14.272 5.4749999 -0.048999999
14.3 5.5370002 -0.048999999
14.338 5.6020002 -0.048999999
14.38 5.6700001 -0.050000001
14.502 5.7690001 -0.050999999
14.526 5.8309999 -0.050999999
14.563 5.8979998 -0.052000001
14.576 5.9549999 -0.052000001
14.61 6.0209999 -0.052999999
14.605 6.072 -0.052999999
14.573 6.1110001 -0.052999999
14.593 6.171 -0.054000001
14.579 6.2179999 -0.054000001
14.617 6.2870002 -0.054000001
12.278 6.039 -0.050999999
12.221 6.0560002 -0.050999999
12.216 6.098 -0.050999999
12.203 6.1360002 -0.052000001
12.197 6.178 -0.052000001
12.259 6.2540002 -0.052999999
12.12 6.2270002 -0.052000001
12.102 6.2620001 -0.052999999
12.141 6.3260002 -0.052999999
12.115 6.3569999 -0.052999999
12.058 6.3720002 -0.052999999
12.065 6.4190001 -0.054000001
12.124 6.4949999 -0.054000001
12.11 6.5320001 -0.055
12.182 6.6149998 -0.055
12.206 6.6719999 -0.056000002
10.736 6.2189999 -0.052000001
10.543 6.145 -0.050999999
10.443 6.125 -0.050999999
10.394 6.1329999 -0.050999999
10.369 6.1560001 -0.050999999
10.34 6.1760001 -0.050999999
10.324 6.2030001 -0.050999999
10.344 6.2519999 -0.052000001
10.371 6.3049998 -0.052000001
9.9069996 6.5770001 -0.055
9.8509998 6.573 -0.055
9.8339996 6.5949998 -0.055
9.8730001 6.6539998 -0.055
7.691 -4.5289998 0.086000003
7.698 -4.5110002 0.086000003
7.7160001 -4.5 0.086999997
7.7150002 -4.4770002 0.086999997
7.7290001 -4.4629998 0.086999997
7.744 -4.4499998 0.086999997
7.7550001 -4.4349999 0.086999997
7.77 -4.421 0.088
7.777 -4.4029999 0.088
7.789 -4.3870001 0.088
7.7969999 -4.3699999 0.088
7.7989998 -4.348 0.088
7.8049998 -4.329 0.088
7.8249998 -4.3179998 0.088
7.848 -4.3080001 0.089000002
7.8439999 -4.2839999 0.089000002
7.8670001 -4.2740002 0.089000002
7.8779998 -4.257 0.089000002
7.8899999 -4.2410002 0.089000002
7.8889999 -4.2179999 0.089000002
7.9050002 -4.204 0.090000004
7.9159999 -4.1869998 0.090000004
7.9310002 -4.1719999 0.090000004
7.9489999 -4.1589999 0.090000004
7.947 -4.1350002 0.090000004
7.9770002 -4.1279998 0.090999998
7.9689999 -4.0999999 0.090999998
7.9840002 -4.085 0.090999998
7.9970002 -4.0689998 0.090999998
8.007 -4.0510001 0.090999998
8.0190001 -4.033 0.090999998
8.0340004 -4.0180001 0.092
8.0489998 -4.0019999 0.092
8.0620003 -3.9860001 0.092
8.0880003 -3.9749999 0.092
8.0839996 -3.95 0.092
8.1059999 -3.937 0.093000002
8.1210003 -3.921 0.093000002
8.1389999 -3.9059999 0.093000002
8.1610003 -3.8929999 0.093999997
8.1809998 -3.8789999 0.093999997
8.1829996 -3.8559999 0.093999997
8.1859999 -3.8340001 0.093999997
8.2030001 -3.8180001 0.093999997
8.2150002 -3.8 0.093999997
8.2270002 -3.7820001 0.094999999
8.2489996 -3.7679999 0.094999999
8.2580004 -3.7479999 0.094999999
8.276 -3.7320001 0.094999999
8.2959995 -3.717 0.096000001
8.3179998 -3.7030001 0.096000001
8.3240004 -3.6819999 0.096000001
8.3339996 -3.6619999 0.096000001
8.342 -3.641 0.096000001
8.3599997 -3.625 0.096000001
8.3739996 -3.6070001 0.097000003
8.3909998 -3.5899999 0.097000003
8.3920002 -3.566 0.097000003
8.4219999 -3.5539999 0.097000003
8.441 -3.5380001 0.097999997
8.4580002 -3.5209999 0.097999997
8.474 -3.5020001 0.097999997
8.4820004 -3.4809999 0.097999997
8.5050001 -3.4660001 0.098999999
8.5120001 -3.444 0.098999999
8.5270004 -3.4260001 0.098999999
8.5290003 -3.402 0.098999999
8.552 -3.3859999 0.098999999
8.552 -3.3610001 0.098999999
8.5629997 -3.3410001 0.1
8.5839996 -3.3239999 0.1
8.5979996 -3.3039999 0.1
8.6199999 -3.2880001 0.1
8.6689997 -3.2820001 0.101
8.658 -3.2520001 0.101
8.6859999 -3.2379999 0.101
8.7080002 -3.221 0.102
8.7290001 -3.2030001 0.102
8.75 -3.1860001 0.102
8.7469997 -3.1589999 0.102
8.7799997 -3.1459999 0.103
8.7849998 -3.122 0.103
8.809 -3.105 0.103
8.8190002 -3.0829999 0.103
8.8219995 -3.059 0.103
8.8610001 -3.046 0.104
8.8699999 -3.0239999 0.104
8.9029999 -3.0090001 0.104
8.9099998 -2.9860001 0.104
8.9239998 -2.9649999 0.105
8.9540005 -2.9489999 0.105
8.9840002 -2.9330001 0.105
9.0089998 -2.915 0.106
9.0319996 -2.8959999 0.106
9.0670004 -2.882 0.107
9.0860004 -2.8610001 0.107
9.1000004 -2.839 0.107
9.1560001 -2.8310001 0.108
9.1680002 -2.8080001 0.108
9.1700001 -2.7820001 0.108
9.2060003 -2.766 0.108
9.2130003 -2.7420001 0.109
9.2749996 -2.734 0.109
9.2840004 -2.7090001 0.109
9.2779999 -2.681 0.109
9.3000002 -2.6600001 0.11
9.3450003 -2.6459999 0.11
9.3509998 -2.6210001 0.11
9.3789997 -2.602 0.111
9.3940001 -2.579 0.111
9.4219999 -2.5599999 0.111
9.4630003 -2.5439999 0.112
9.4700003 -2.5179999 0.112
9.4980001 -2.4979999 0.112
9.533 -2.48 0.113
9.5909996 -2.4679999 0.114
9.5719995 -2.4349999 0.113
9.6070004 -2.4170001 0.114
9.618 -2.392 0.114
9.6379995 -2.369 0.114
9.6940002 -2.355 0.115
9.7349997 -2.3369999 0.116
9.7650003 -2.316 0.116
9.8149996 -2.3 0.117
9.842 -2.2780001 0.117
9.8690004 -2.256 0.117
9.8760004 -2.2290001 0.117
9.9139996 -2.2090001 0.118
9.9209995 -2.1819999 0.118
9.934 -2.1570001 0.118
9.9639997 -2.1340001 0.119
9.9960003 -2.1129999 0.119
10.041 -2.0929999 0.12
10.061 -2.069 0.12
10.096 -2.0469999 0.12
10.139 -2.027 0.121
10.131 -1.9960001 0.121
10.168 -1.974 0.121
10.2 -1.951 0.122
10.243 -1.9299999 0.122
10.256 -1.903 0.123
10.287 -1.88 0.123
10.321 -1.8559999 0.123
10.357 -1.8329999 0.124
10.379 -1.807 0.124
10.41 -1.783 0.125
10.431 -1.757 0.125
10.48 -1.735 0.126
10.522 -1.712 0.126
10.567 -1.689 0.127
10.591 -1.663 0.127
10.661 -1.643 0.12800001
9.4610004 -1.431 0.114
9.3909998 -1.3940001 0.113
9.3620005 -1.363 0.112
9.3830004 -1.339 0.113
9.4160004 -1.317 0.113
9.1330004 -1.251 0.11
9.0579996 -1.215 0.109
9.0539999 -1.189 0.109
9.0869999 -1.1670001 0.109
9.3319998 -1.1720001 0.112
10.976 -1.347 0.132
11.004 -1.319 0.133
11.049 -1.293 0.133
11.082 -1.266 0.134
11.118 -1.238 0.134
11.166 -1.212 0.13500001
11.185 -1.182 0.13500001
11.221 -1.154 0.13500001
11.239 -1.123 0.13600001
11.302 -1.098 0.13600001
11.367 -1.072 0.13699999
11.455 -1.0470001 0.138
11.559 -1.024 0.14
11.569 -0.99199998 0.14
11.676 -0.96799999 0.141
11.709 -0.93699998 0.142
11.739 -0.90600002 0.142
12.204 0.37400001 0.014
12.173 0.391 0.013
12.217 0.41 0.013
12.243 0.42899999 0.013
12.168 0.44400001 0.013
12.2 0.46399999 0.013
12.143 0.47999999 0.012
12.192 0.50099999 0.012
12.167 0.51999998 0.012
12.152 0.53799999 0.012
12.169 0.55900002 0.012
12.168 0.579 0.012
12.186 0.60000002 0.011
12.178 0.62099999 0.011
12.198 0.64300001 0.011
12.188 0.66299999 0.011
12.175 0.68400002 0.011
12.201 0.70700002 0.011
12.2 0.72899997 0.0099999998
12.198 0.75199997 0.0099999998
12.199 0.77399999 0.0099999998
12.222 0.79799998 0.0099999998
12.218 0.82099998 0.0099999998
12.218 0.84500003 0.0089999996
12.239 0.87 0.0089999996
12.239 0.89399999 0.0089999996
12.248 0.91900003 0.0089999996
12.266 0.94400001 0.0089999996
12.255 0.96799999 0.0089999996
12.263 0.99400002 0.0080000004
12.273 1.02 0.0080000004
12.292 1.0470001 0.0080000004
12.299 1.073 0.0080000004
12.328 1.102 0.0080000004
12.339 1.1289999 0.0070000002
12.351 1.1569999 0.0070000002
12.348 1.184 0.0070000002
12.376 1.2130001 0.0070000002
12.344 1.238 0.0070000002
12.368 1.268 0.0070000002
12.355 1.294 0.0060000001
12.368 1.324 0.0060000001
12.407 1.3559999 0.0060000001
12.411 1.385 0.0060000001
12.454 1.419 0.0060000001
12.451 1.448 0.0049999999
12.461 1.479 0.0049999999
12.441 1.506 0.0049999999
12.467 1.539 0.0049999999
12.486 1.572 0.0049999999
12.5 1.604 0.0040000002
12.509 1.636 0.0040000002
12.549 1.6720001 0.0040000002
12.557 1.704 0.0040000002
12.564 1.737 0.0040000002
12.602 1.774 0.003
12.61 1.807 0.003
12.602 1.8380001 0.003
12.603 1.8710001 0.003
12.631 1.908 0.003
12.653 1.9450001 0.0020000001
12.694 1.984 0.0020000001
12.698 2.0190001 0.0020000001
12.714 2.0550001 0.0020000001
12.723 2.0910001 0.0020000001
12.739 2.128 0.001
12.762 2.1659999 0.001
12.778 2.204 0.001
12.097 2.1199999 0.001
11.819 2.1040001 0.001
11.737 2.122 -0
11.699 2.148 -0
11.698 2.181 -0
11.727 2.22 -0
11.787 2.2650001 -0
11.942 2.329 -0
11.929 2.3610001 -0
11.909 2.391 -0
11.93 2.431 -0
12.036 2.4879999 -0
12.888 2.7019999 -0.001
12.941 2.7509999 -0.001
12.974 2.7969999 -0.001
12.978 2.8369999 -0.001
12.971 2.875 -0.0020000001
12.97 2.914 -0.0020000001
13 2.96 -0.0020000001
13.023 3.006 -0.0020000001
13.033 3.0480001 -0.003
13.056 3.0940001 -0.003
13.076 3.1389999 -0.003
13.133 3.194 -0.003
13.173 3.2449999 -0.003
13.157 3.283 -0.0040000002
13.156 3.325 -0.0040000002
13.214 3.381 -0.0040000002
13.235 3.4300001 -0.0040000002
13.289 3.4860001 -0.0049999999
13.299 3.5320001 -0.0049999999
13.32 3.5810001 -0.0049999999
13.372 3.6389999 -0.0049999999
13.397 3.6900001 -0.0060000001
13.393 3.733 -0.0060000001
13.452 3.7939999 -0.0060000001
13.443 3.836 -0.0060000001
13.513 3.902 -0.0070000002
13.588 3.9690001 -0.0070000002
13.611 4.0219998 -0.0070000002
13.634 4.0749998 -0.0080000004
13.691 4.1389999 -0.0080000004
13.721 4.1950002 -0.0080000004
13.733 4.2459998 -0.0080000004
13.809 4.3169999 -0.0089999996
13.821 4.369 -0.0089999996
13.86 4.4289999 -0.0089999996
13.873 4.4819999 -0.0089999996
13.897 4.539 -0.0099999998
12.412 4.098 -0.0089999996
12.209 4.0739999 -0.0089999996
12.164 4.1030002 -0.0089999996
12.227 4.1669998 -0.0089999996
14.077 4.849 -0.011
14.129 4.9180002 -0.011
12.156 4.2750001 -0.0099999998
11.924 4.237 -0.0099999998
11.876 4.263 -0.0099999998
11.873 4.3060002 -0.0099999998
11.926 4.369 -0.011
11.986 4.4349999 -0.011
14.61 5.461 -0.014
14.629 5.5229998 -0.014
14.631 5.5780001 -0.014
14.629 5.6329999 -0.015
14.669 5.7030001 -0.015
14.722 5.7800002 -0.015
14.742 5.8439999 -0.016000001
14.742 5.9000001 -0.016000001
14.765 5.9660001 -0.016000001
14.81 6.0419998 -0.017000001
14.896 6.1339998 -0.017000001
14.844 6.1700001 -0.017000001
14.75 6.1890001 -0.017000001
14.731 6.2389998 -0.017999999
12.281 5.9959998 -0.018999999
12.172 5.994 -0.018999999
12.151 6.0339999 -0.018999999
12.197 6.1090002 -0.018999999
12.21 6.1659999 -0.02
12.234 6.2309999 -0.02
12.125 6.2259998 -0.02
12.155 6.2940001 -0.02
12.235 6.388 -0.021
12.103 6.3709998 -0.021
12.042 6.3899999 -0.021
12.084 6.4650002 -0.021
12.135 6.5450001 -0.022
12.133 6.5970001 -0.022
12.145 6.6560001 -0.022
12.319 6.8060002 -0.023
10.682 6.2820001 -0.021
10.49 6.217 -0.021
10.41 6.217 -0.021
10.386 6.25 -0.022
10.393 6.302 -0.022
10.436 6.3759999 -0.022
9.8409996 6.7550001 -0.024
9.7399998 6.7319999 -0.024
9.6949997 6.7480001 -0.025
9.6440001 6.7600002 -0.025
9.6490002 6.8099999 -0.025
9.6929998 6.8889999 -0.025
9.7670002 6.9889998 -0.026000001
9.7229996 7.006 -0.026000001
7.362 -4.8509998 0.101
7.402 -4.8309999 0.102
7.4099998 -4.79 0.102
7.4489999 -4.7690001 0.103
7.4660001 -4.7340002 0.103
7.4899998 -4.704 0.103
7.52 -4.678 0.103
7.5469999 -4.6500001 0.104
7.5700002 -4.619 0.104
7.5890002 -4.5869999 0.104
7.6069999 -4.553 0.105
7.631 -4.5240002 0.105
7.6570001 -4.4959998 0.105
7.684 -4.4679999 0.105
7.697 -4.4330001 0.106
7.7270002 -4.4070001 0.106
7.75 -4.3779998 0.106
7.7649999 -4.3439999 0.107
7.7870002 -4.3140001 0.107
7.8140001 -4.2870002 0.107
7.8299999 -4.2540002 0.107
7.8600001 -4.2290001 0.108
7.8590002 -4.1869998 0.108
7.881 -4.158 0.108
7.9109998 -4.1339998 0.108
7.9260001 -4.1009998 0.109
7.9530001 -4.0749998 0.109
7.9699998 -4.0430002 0.109
8 -4.0190001 0.11
8.0279999 -3.994 0.11
8.052 -3.9660001 0.11
8.0810003 -3.941 0.111
8.099 -3.911 0.111
8.1219997 -3.8829999 0.111
8.1560001 -3.8610001 0.112
8.1709995 -3.829 0.112
8.1999998 -3.8050001 0.112
8.2110004 -3.7720001 0.112
8.2290001 -3.7420001 0.113
8.2609997 -3.7190001 0.113
8.2950001 -3.697 0.114
8.3109999 -3.6659999 0.114
8.3409996 -3.642 0.114
8.368 -3.6170001 0.115
8.3900003 -3.5899999 0.115
8.4289999 -3.569 0.115
8.4370003 -3.536 0.115
8.4429998 -3.5020001 0.116
8.4870005 -3.4849999 0.116
8.5240002 -3.4630001 0.117
8.54 -3.434 0.117
8.5790005 -3.414 0.117
8.5909996 -3.3829999 0.118
8.6090002 -3.355 0.118
8.618 -3.323 0.118
8.6590004 -3.303 0.119
8.684 -3.2780001 0.119
8.7200003 -3.257 0.119
8.7679996 -3.24 0.12
8.7880001 -3.2119999 0.12
8.8170004 -3.188 0.121
8.8299999 -3.1589999 0.121
8.8459997 -3.1300001 0.121
8.8900003 -3.112 0.122
8.9280005 -3.0910001 0.122
8.9580002 -3.0669999 0.123
8.9809999 -3.0409999 0.123
9.0240002 -3.0220001 0.124
9.0769997 -3.006 0.124
9.1079998 -2.983 0.125
9.125 -2.9549999 0.125
9.1800003 -2.9400001 0.126
9.2220001 -2.9200001 0.126
9.3719997 -2.934 0.12899999
9.3590002 -2.8959999 0.12800001
9.342 -2.858 0.12800001
9.3730001 -2.8340001 0.12899999
9.401 -2.8099999 0.12899999
9.4320002 -2.786 0.12899999
9.4849997 -2.7690001 0.13
9.5249996 -2.7479999 0.131
9.5620003 -2.7260001 0.131
9.5909996 -2.7019999 0.132
9.6040001 -2.674 0.132
9.6619997 -2.6570001 0.133
9.691 -2.6329999 0.133
9.7370005 -2.6140001 0.134
9.7910004 -2.596 0.134
9.8170004 -2.5710001 0.13500001
9.8269997 -2.5420001 0.13500001
9.882 -2.5239999 0.13600001
9.9069996 -2.4990001 0.13600001
9.934 -2.474 0.13699999
9.9530001 -2.448 0.13699999
9.993 -2.4260001 0.13699999
10.017 -2.401 0.138
10.041 -2.3759999 0.138
10.086 -2.3559999 0.139
10.059 -2.3180001 0.138
10.085 -2.2939999 0.139
10.141 -2.276 0.14
10.162 -2.25 0.14
10.187 -2.2260001 0.14
10.243 -2.2079999 0.141
10.257 -2.181 0.141
10.291 -2.158 0.142
10.304 -2.131 0.142
10.358 -2.112 0.14300001
10.367 -2.0840001 0.14300001
10.39 -2.059 0.14300001
10.439 -2.039 0.14399999
10.453 -2.013 0.14399999
10.475 -1.988 0.145
10.506 -1.964 0.145
10.549 -1.943 0.146
10.549 -1.915 0.146
10.59 -1.893 0.146
10.596 -1.8660001 0.146
10.626 -1.842 0.147
10.688 -1.825 0.148
10.694 -1.7970001 0.148
10.727 -1.774 0.148
10.783 -1.756 0.149
10.821 -1.734 0.15000001
9.6359997 -1.5190001 0.133
9.4350004 -1.4630001 0.131
9.3929996 -1.432 0.13
9.382 -1.4069999 0.13
9.382 -1.383 0.13
9.3850002 -1.36 0.13
9.3830004 -1.337 0.13
9.3929996 -1.3150001 0.13
9.2229996 -1.268 0.12800001
9.092 -1.228 0.126
9.0579996 -1.202 0.126
9.0489998 -1.179 0.125
9.0550003 -1.158 0.126
9.0959997 -1.141 0.126
9.243 -1.138 0.12800001
11.235 -1.357 0.156
11.225 -1.33 0.156
11.258 -1.307 0.156
11.273 -1.283 0.15700001
11.318 -1.263 0.15700001
11.338 -1.239 0.15800001
11.353 -1.215 0.15800001
11.397 -1.194 0.15899999
11.427 -1.1720001 0.15899999
11.447 -1.149 0.15899999
11.461 -1.125 0.16
11.513 -1.105 0.16
11.554 -1.084 0.161
11.577 -1.061 0.161
11.604 -1.039 0.162
11.672 -1.02 0.163
11.704 -0.99800003 0.163
11.796 -0.98100001 0.16500001
11.973 0.155 0.048
11.986 0.177 0.048
12.03 0.199 0.048
12.053 0.222 0.048
12.054 0.244 0.048
12.079 0.26699999 0.048
12.07 0.28999999 0.048
12.081 0.31400001 0.048
12.087 0.33700001 0.046999998
12.087 0.361 0.046999998
12.083 0.38499999 0.046999998
12.072 0.40900001 0.046999998
12.105 0.43399999 0.046999998
12.117 0.45899999 0.046999998
12.109 0.484 0.046
12.099 0.509 0.046
12.143 0.53600001 0.046
12.141 0.56199998 0.046
12.15 0.58899999 0.046
12.158 0.61500001 0.046
12.162 0.64200002 0.045000002
12.163 0.66900003 0.045000002
12.174 0.69700003 0.045000002
12.184 0.72399998 0.045000002
12.197 0.75300002 0.045000002
12.216 0.78200001 0.045000002
12.218 0.81 0.045000002
12.228 0.83899999 0.044
12.242 0.86799997 0.044
12.243 0.89700001 0.044
12.268 0.92799997 0.044
12.278 0.958 0.044
12.285 0.98799998 0.044
12.303 1.0190001 0.043000001
12.319 1.05 0.043000001
12.334 1.082 0.043000001
12.363 1.115 0.043000001
12.373 1.146 0.043000001
12.391 1.179 0.043000001
12.393 1.21 0.043000001
12.411 1.244 0.041999999
12.423 1.276 0.041999999
12.423 1.308 0.041999999
12.435 1.342 0.041999999
12.459 1.377 0.041999999
12.535 1.418 0.041999999
12.532 1.45 0.041999999
12.53 1.483 0.041999999
12.545 1.518 0.041000001
12.52 1.549 0.041000001
12.556 1.587 0.041000001
12.592 1.625 0.041000001
12.607 1.6619999 0.041000001
12.647 1.702 0.041000001
12.675 1.74 0.041000001
12.704 1.779 0.039999999
12.714 1.816 0.039999999
12.715 1.851 0.039999999
12.719 1.888 0.039999999
12.745 1.927 0.039999999
12.77 1.967 0.039999999
12.801 2.0079999 0.039999999
12.821 2.0480001 0.039000001
12.828 2.086 0.039000001
12.85 2.1270001 0.039000001
12.867 2.1670001 0.039000001
12.873 2.2049999 0.039000001
12.919 2.2509999 0.039000001
12.036 2.132 0.035999998
11.805 2.1259999 0.035
11.715 2.145 0.034000002
11.694 2.1760001 0.034000002
11.713 2.214 0.034000002
11.749 2.256 0.034000002
11.875 2.316 0.034000002
11.908 2.359 0.034000002
11.88 2.3889999 0.034000002
11.897 2.4289999 0.034000002
11.985 2.483 0.034000002
13.173 2.77 0.037
13.195 2.816 0.037
13.207 2.859 0.037
13.239 2.9070001 0.035999998
13.266 2.954 0.035999998
13.277 2.9979999 0.035999998
13.281 3.0409999 0.035999998
13.314 3.0899999 0.035999998
13.379 3.148 0.035999998
13.416 3.1989999 0.035999998
13.442 3.2479999 0.035
13.471 3.2980001 0.035
13.475 3.342 0.035
13.493 3.3900001 0.035
13.548 3.447 0.035
13.604 3.506 0.035
13.656 3.563 0.035
13.687 3.6159999 0.035
13.689 3.661 0.034000002
13.76 3.7249999 0.034000002
13.736 3.7639999 0.034000002
13.786 3.823 0.034000002
13.854 3.888 0.034000002
13.908 3.9489999 0.034000002
13.933 4.0019999 0.034000002
13.961 4.0570002 0.033
13.992 4.112 0.033
13.986 4.158 0.033
14.023 4.2160001 0.033
14.052 4.2719998 0.033
14.112 4.3369999 0.033
14.15 4.3969998 0.032000002
14.207 4.4629998 0.032000002
14.227 4.5180001 0.032000002
14.269 4.579 0.032000002
14.311 4.6420002 0.032000002
14.33 4.697 0.032000002
14.397 4.7680001 0.030999999
12.235 4.0949998 0.026000001
12.16 4.1110001 0.026000001
12.164 4.1550002 0.026000001
12.245 4.2249999 0.026000001
12.193 4.2490001 0.026000001
11.998 4.223 0.025
11.887 4.2249999 0.024
11.876 4.263 0.024
11.866 4.3010001 0.024
11.923 4.3629999 0.024
15.105 5.5809999 0.029999999
15.166 5.6560001 0.029999999
15.144 5.7020001 0.029999999
15.216 5.7820001 0.029999999
15.296 5.8670001 0.028999999
15.278 5.914 0.028999999
15.219 5.9450002 0.028999999
15.297 6.0300002 0.028999999
15.285 6.0799999 0.028000001
15.392 6.177 0.028000001
15.421 6.244 0.028000001
15.379 6.2820001 0.028000001
15.414 6.3509998 0.028000001
15.525 6.4530001 0.027000001
12.167 5.9829998 0.017000001
12.057 5.973 0.016000001
12.008 5.993 0.016000001
11.936 6.0009999 0.016000001
12.01 6.0819998 0.016000001
12.179 6.2119999 0.016000001
12.195 6.309 0.015
12.225 6.369 0.015
12.131 6.4089999 0.014
12.038 6.4039998 0.014
12.151 6.5079999 0.014
7.9039998 -4.658 0.126
7.927 -4.6490002 0.126
7.9159999 -4.6199999 0.126
7.9330001 -4.6079998 0.127
7.948 -4.5929999 0.127
7.9439998 -4.5689998 0.127
7.9759998 -4.5640001 0.127
7.993 -4.552 0.12800001
8.0080004 -4.5370002 0.12800001
8 -4.5100002 0.12800001
8.0229998 -4.5 0.12800001
8.0319996 -4.4819999 0.12899999
8.0290003 -4.4569998 0.12899999
8.0380001 -4.4390001 0.12899999
8.0570002 -4.4260001 0.12899999
8.0649996 -4.408 0.12899999
8.0860004 -4.3959999 0.13
8.0900002 -4.375 0.13
8.1110001 -4.3629999 0.13
8.1199999 -4.3449998 0.13
8.1230001 -4.323 0.13
8.1540003 -4.316 0.131
8.1569996 -4.2940001 0.131
8.1780005 -4.2820001 0.131
8.177 -4.2579999 0.131
8.1899996 -4.2399998 0.132
8.2139997 -4.23 0.132
8.2360001 -4.217 0.132
8.2519999 -4.2020001 0.133
8.2700005 -4.1869998 0.133
8.2860003 -4.171 0.133
8.2889996 -4.1479998 0.133
8.2849998 -4.1230001 0.133
8.3199997 -4.1160002 0.134
8.3179998 -4.0910001 0.134
8.3529997 -4.0840001 0.13500001
8.3620005 -4.0640001 0.13500001
8.3719997 -4.0440001 0.13500001
8.3809996 -4.0250001 0.13500001
8.4029999 -4.0110002 0.13600001
8.4049997 -3.9879999 0.13600001
8.4219999 -3.971 0.13600001
8.4420004 -3.9560001 0.13600001
8.4659996 -3.9430001 0.13699999
8.4799995 -3.925 0.13699999
8.5 -3.9100001 0.13699999
8.5080004 -3.888 0.138
8.5279999 -3.8729999 0.138
8.5530005 -3.859 0.138
8.566 -3.8399999 0.139
8.5830002 -3.823 0.139
8.5869999 -3.8 0.139
8.6020002 -3.7820001 0.139
8.6169996 -3.7639999 0.14
8.6239996 -3.7409999 0.14
8.6479998 -3.727 0.14
8.6719999 -3.7119999 0.141
8.6800003 -3.6900001 0.141
8.6899996 -3.6689999 0.141
8.7049999 -3.6500001 0.141
8.7220001 -3.632 0.142
8.7299995 -3.6099999 0.142
8.7650003 -3.599 0.142
8.7799997 -3.5799999 0.14300001
8.7869997 -3.5569999 0.14300001
8.7989998 -3.5369999 0.14300001
8.8079996 -3.5150001 0.14300001
8.8330002 -3.4990001 0.14399999
8.8389997 -3.4760001 0.14399999
8.8590002 -3.4579999 0.14399999
8.8929996 -3.4449999 0.145
8.9049997 -3.424 0.145
8.934 -3.4089999 0.145
8.9420004 -3.3870001 0.146
8.9560003 -3.3659999 0.146
8.9919996 -3.3540001 0.146
9.0209999 -3.3380001 0.147
9.0159998 -3.3099999 0.147
9.0190001 -3.2850001 0.147
9.0319996 -3.2639999 0.147
9.0579996 -3.247 0.148
9.0830002 -3.2290001 0.148
9.0939999 -3.207 0.148
9.1199999 -3.1900001 0.149
9.1490002 -3.174 0.149
9.198 -3.164 0.15000001
9.2060003 -3.1400001 0.15000001
9.2340002 -3.1229999 0.15099999
9.2480001 -3.1010001 0.15099999
9.276 -3.0829999 0.152
9.3100004 -3.0680001 0.152
9.375 -3.062 0.153
9.3850002 -3.0380001 0.153
9.3979998 -3.0150001 0.154
9.4530001 -3.0050001 0.155
9.5579996 -3.0109999 0.156
9.599 -2.9960001 0.15700001
9.625 -2.977 0.15800001
9.6070004 -2.9430001 0.15700001
9.6120005 -2.9170001 0.15700001
9.6309996 -2.895 0.15800001
9.6379995 -2.869 0.15800001
9.6429996 -2.8429999 0.15800001
9.6940002 -2.8299999 0.15899999
9.7040005 -2.8050001 0.15899999
9.7360001 -2.786 0.16
9.7440004 -2.76 0.16
9.7700005 -2.7390001 0.16
9.7919998 -2.717 0.161
9.809 -2.694 0.161
9.8590002 -2.6789999 0.162
9.8629999 -2.652 0.162
9.8929996 -2.631 0.162
9.9040003 -2.6059999 0.163
9.9280005 -2.5840001 0.163
9.9610004 -2.563 0.164
9.9530001 -2.533 0.163
10.007 -2.5179999 0.164
10.031 -2.4949999 0.16500001
10.072 -2.4760001 0.16599999
10.057 -2.4430001 0.16500001
10.071 -2.418 0.16599999
10.101 -2.3959999 0.16599999
10.132 -2.3740001 0.167
10.146 -2.348 0.167
10.162 -2.323 0.167
10.194 -2.3010001 0.168
10.218 -2.277 0.168
10.254 -2.256 0.169
10.265 -2.2290001 0.169
10.286 -2.2030001 0.169
10.3 -2.177 0.17
10.371 -2.1619999 0.171
10.384 -2.135 0.171
10.419 -2.1129999 0.17200001
10.445 -2.0880001 0.17200001
10.478 -2.0639999 0.17299999
10.506 -2.04 0.17299999
10.538 -2.016 0.17399999
10.567 -1.9910001 0.17399999
10.6 -1.967 0.175
10.632 -1.942 0.175
10.645 -1.914 0.176
10.684 -1.891 0.176
10.704 -1.864 0.177
10.746 -1.84 0.177
10.798 -1.818 0.178
10.827 -1.7920001 0.17900001
10.845 -1.7640001 0.17900001
10.907 -1.743 0.18000001
10.978 -1.723 0.18099999
9.4569998 -1.457 0.156
9.3879995 -1.42 0.155
9.3800001 -1.392 0.155
9.3640003 -1.363 0.155
9.3579998 -1.335 0.155
9.2930002 -1.299 0.154
9.0830002 -1.244 0.15000001
9.0349998 -1.212 0.149
9.0480003 -1.187 0.15000001
9.1190004 -1.171 0.15099999
11.42 -1.434 0.189
11.353 -1.393 0.18799999
11.393 -1.365 0.189
11.424 -1.336 0.189
11.535 -1.317 0.191
11.56 -1.286 0.191
11.558 -1.253 0.191
11.645 -1.23 0.193
11.684 -1.2 0.19400001
11.743 -1.173 0.19499999
11.875 -1.152 0.197
12.008 -1.131 0.199
11.998 -1.096 0.199
12.031 -1.0650001 0.199
12.102 -1.0369999 0.20100001
12.189 -1.0089999 0.20200001
12.142 -0.97100002 0.20100001
12.693 0.41 0.075999998
12.65 0.42699999 0.075999998
12.657 0.44499999 0.075999998
12.66 0.46399999 0.075000003
12.668 0.484 0.075000003
12.659 0.50300002 0.075000003
12.618 0.52100003 0.075000003
12.592 0.54000002 0.074000001
12.578 0.55900002 0.074000001
12.596 0.58099997 0.074000001
12.565 0.60000002 0.074000001
12.587 0.62199998 0.074000001
12.607 0.64499998 0.074000001
12.592 0.66500002 0.072999999
12.584 0.68699998 0.072999999
12.591 0.70899999 0.072999999
12.575 0.73100001 0.072999999
12.593 0.755 0.072999999
12.584 0.77700001 0.071999997
12.581 0.80000001 0.071999997
12.617 0.82599998 0.071999997
12.607 0.84899998 0.071999997
12.608 0.87300003 0.071999997
12.631 0.89899999 0.071999997
12.638 0.92400002 0.071999997
12.648 0.94999999 0.071000002
12.674 0.977 0.071000002
12.677 1.003 0.071000002
12.722 1.033 0.071000002
12.736 1.0599999 0.071000002
12.763 1.0880001 0.071000002
12.759 1.115 0.071000002
12.78 1.1440001 0.071000002
12.789 1.1720001 0.071000002
12.787 1.199 0.071000002
12.808 1.229 0.071000002
12.787 1.255 0.07
12.797 1.284 0.07
12.829 1.316 0.07
12.832 1.345 0.07
12.857 1.377 0.07
12.88 1.409 0.07
12.891 1.4400001 0.07
12.888 1.47 0.07
12.891 1.5 0.07
12.906 1.5319999 0.07
12.904 1.563 0.068999998
12.917 1.595 0.068999998
12.91 1.626 0.068999998
12.93 1.66 0.068999998
12.955 1.6950001 0.068999998
12.951 1.726 0.068999998
12.979 1.762 0.068999998
13.004 1.799 0.068999998
12.982 1.8279999 0.068000004
13.016 1.8660001 0.068000004
13.03 1.902 0.068000004
13.045 1.937 0.068000004
13.064 1.974 0.068000004
13.103 2.0139999 0.068000004
13.096 2.0480001 0.068000004
13.132 2.0880001 0.068000004
13.145 2.125 0.068000004
13.166 2.164 0.068000004
13.189 2.204 0.068000004
13.206 2.2420001 0.068000004
13.231 2.283 0.068000004
13.254 2.323 0.068000004
11.821 2.105 0.059999999
11.704 2.1170001 0.059
11.674 2.1440001 0.059
11.677 2.177 0.059
11.713 2.217 0.059
11.754 2.2590001 0.059
11.889 2.319 0.059999999
11.876 2.3510001 0.059
11.843 2.378 0.059
11.855 2.415 0.059
11.915 2.4630001 0.059
12.027 2.5209999 0.059999999
13.574 2.8859999 0.067000002
13.571 2.9260001 0.067000002
13.594 2.9719999 0.067000002
13.595 3.013 0.067000002
13.638 3.0639999 0.067000002
13.657 3.1099999 0.067000002
13.691 3.1600001 0.067000002
13.714 3.207 0.067000002
13.759 3.26 0.067000002
13.82 3.3180001 0.067000002
13.83 3.3640001 0.067000002
13.872 3.418 0.067000002
13.878 3.4630001 0.067000002
13.91 3.5150001 0.067000002
13.943 3.5680001 0.067000002
13.951 3.615 0.066
13.992 3.671 0.067000002
14.05 3.7309999 0.067000002
14.077 3.7839999 0.067000002
14.106 3.8380001 0.067000002
14.129 3.891 0.066
14.143 3.9419999 0.066
14.208 4.007 0.067000002
14.256 4.0679998 0.067000002
14.258 4.1160002 0.066
14.323 4.1830001 0.067000002
14.331 4.2340002 0.066
14.331 4.283 0.066
14.381 4.3470001 0.066
14.45 4.4169998 0.066
14.476 4.4749999 0.066
14.506 4.5339999 0.066
14.583 4.6090002 0.067000002
14.652 4.6820002 0.067000002
14.657 4.7350001 0.067000002
14.675 4.7930002 0.066
14.751 4.8699999 0.067000002
12.42 4.1440001 0.056000002
12.189 4.1100001 0.055
12.147 4.1399999 0.054000001
12.155 4.1859999 0.054000001
12.07 4.2010002 0.054000001
11.945 4.1999998 0.052999999
11.875 4.2189999 0.052999999
11.868 4.2600002 0.052000001
11.904 4.316 0.052000001
12.112 4.4369998 0.052999999
15.452 5.6599998 0.068000004
15.411 5.7020001 0.068000004
15.421 5.763 0.068000004
15.48 5.8429999 0.068000004
15.486 5.9029999 0.067000002
15.495 5.9650002 0.067000002
15.61 6.0679998 0.068000004
15.652 6.1440001 0.068000004
15.628 6.1939998 0.067000002
15.67 6.2709999 0.067000002
15.74 6.3590002 0.067000002
15.731 6.4159999 0.067000002
15.806 6.5079999 0.067000002
12.287 5.947 0.050000001
12.168 5.9400001 0.048999999
12.013 5.914 0.048
11.95 5.934 0.048
11.919 5.9679999 0.048
12.038 6.0780001 0.048
12.227 6.2259998 0.048999999
12.236 6.2820001 0.048999999
12.17 6.3000002 0.048
12.141 6.3899999 0.048
12.056 6.3969998 0.046999998
