# .PCD v0.7 - Point Cloud Data file format
VERSION 0.7
FIELDS x y z
SIZE 4 4 4
TYPE F F F
COUNT 1 1 1
WIDTH 1916
HEIGHT 1
VIEWPOINT 0 0 0 1 0 0 0
POINTS 1916
DATA ascii
12.085 1.625 -0.021
12.15 1.668 -0.021
12.172 1.704 -0.021
12.204 1.743 -0.022
12.217 1.778 -0.022
12.238 1.816 -0.022
12.247 1.852 -0.022
12.275 1.891 -0.023
12.297 1.929 -0.023
12.326 1.969 -0.023
12.345 2.007 -0.024
12.381 2.049 -0.024
12.416 2.0910001 -0.024
12.428 2.1289999 -0.025
12.451 2.1689999 -0.025
12.474 2.21 -0.025
12.527 2.256 -0.025
12.539 2.296 -0.026000001
12.567 2.3380001 -0.026000001
12.593 2.381 -0.026000001
12.575 2.415 -0.027000001
12.625 2.4630001 -0.027000001
12.61 2.4979999 -0.027000001
12.629 2.54 -0.027000001
12.663 2.585 -0.028000001
12.675 2.6270001 -0.028000001
12.695 2.6700001 -0.028000001
12.7 2.71 -0.028999999
12.715 2.7520001 -0.028999999
12.723 2.7939999 -0.028999999
12.722 2.8329999 -0.028999999
12.756 2.881 -0.029999999
12.762 2.9219999 -0.029999999
12.775 2.9649999 -0.029999999
12.78 3.007 -0.030999999
12.823 3.0580001 -0.030999999
12.851 3.105 -0.030999999
12.878 3.1530001 -0.032000002
12.886 3.1960001 -0.032000002
12.893 3.2390001 -0.032000002
12.927 3.29 -0.033
12.943 3.336 -0.033
12.947 3.3789999 -0.033
13.003 3.4360001 -0.034000002
13.004 3.4779999 -0.034000002
13.049 3.533 -0.034000002
13.088 3.5869999 -0.035
13.116 3.638 -0.035
13.112 3.6800001 -0.035
13.131 3.7290001 -0.035999998
13.177 3.786 -0.035999998
13.208 3.8380001 -0.037
13.262 3.898 -0.037
13.334 3.964 -0.037999999
13.375 4.0209999 -0.037999999
13.414 4.0780001 -0.037999999
13.428 4.1279998 -0.039000001
13.461 4.184 -0.039000001
13.483 4.2360001 -0.039000001
13.523 4.2950001 -0.039999999
13.545 4.348 -0.039999999
13.61 4.415 -0.041000001
13.582 4.4530001 -0.041000001
13.594 4.5029998 -0.041000001
13.632 4.5630002 -0.041999999
13.721 4.6399999 -0.041999999
13.745 4.6960001 -0.043000001
13.736 4.7399998 -0.043000001
13.793 4.8070002 -0.044
13.841 4.8720002 -0.044
13.853 4.9250002 -0.044
13.915 4.9949999 -0.045000002
13.953 5.0580001 -0.045000002
14.024 5.1329999 -0.046
14.072 5.1999998 -0.046999998
14.107 5.2620001 -0.046999998
14.167 5.335 -0.048
14.201 5.3979998 -0.048
14.264 5.4720001 -0.048999999
14.352 5.5570002 -0.048999999
14.38 5.618 -0.050000001
14.455 5.6989999 -0.050000001
14.477 5.7589998 -0.050999999
14.529 5.8319998 -0.050999999
14.549 5.8920002 -0.052000001
14.601 5.9650002 -0.052000001
14.638 6.033 -0.052999999
14.632 6.0830002 -0.052999999
14.576 6.112 -0.052999999
14.584 6.1680002 -0.054000001
14.563 6.211 -0.054000001
14.644 6.2989998 -0.055
14.826 6.4299998 -0.056000002
12.354 6.0320001 -0.050999999
12.257 6.0289998 -0.050999999
12.221 6.0560002 -0.050999999
12.229 6.1040001 -0.052000001
12.198 6.1329999 -0.052000001
12.204 6.1810002 -0.052000001
12.35 6.3000002 -0.052999999
12.113 6.223 -0.052000001
12.102 6.2620001 -0.052999999
12.132 6.322 -0.052999999
12.116 6.3579998 -0.052999999
12.054 6.369 -0.052999999
12.053 6.4130001 -0.054000001
12.113 6.4889998 -0.054000001
12.111 6.5320001 -0.055
12.155 6.5999999 -0.055
12.207 6.6729999 -0.056000002
10.741 6.2220001 -0.052000001
10.553 6.151 -0.050999999
10.443 6.125 -0.050999999
10.398 6.1360002 -0.050999999
10.363 6.1529999 -0.050999999
10.352 6.1830001 -0.050999999
10.331 6.2069998 -0.050999999
10.356 6.2589998 -0.052000001
10.38 6.3109999 -0.052000001
10.074 6.6539998 -0.055
9.9209995 6.586 -0.055
9.8610001 6.579 -0.055
9.8280001 6.5910001 -0.055
9.8870001 6.664 -0.055
7.691 -4.5289998 0.086000003
7.7080002 -4.5170002 0.086999997
7.7199998 -4.5019999 0.086999997
7.7189999 -4.48 0.086999997
7.7290001 -4.4629998 0.086999997
7.7389998 -4.447 0.086999997
7.7540002 -4.434 0.086999997
7.7820001 -4.427 0.088
7.7800002 -4.4039998 0.088
7.7969999 -4.3920002 0.088
7.8130002 -4.3779998 0.088
7.809 -4.3540001 0.088
7.8179998 -4.3369999 0.088
7.8400002 -4.3270001 0.089000002
7.8369999 -4.302 0.089000002
7.8590002 -4.2919998 0.089000002
7.8629999 -4.2719998 0.089000002
7.8699999 -4.2529998 0.089000002
7.881 -4.2360001 0.089000002
7.895 -4.2210002 0.090000004
7.9060001 -4.2049999 0.090000004
7.9000001 -4.178 0.090000004
7.9070001 -4.1589999 0.090000004
7.8400002 -4.1020002 0.089000002
7.7639999 -4.04 0.088
7.7360001 -4.0029998 0.088
7.7199998 -3.9719999 0.088
7.7160001 -3.948 0.088
7.7249999 -3.931 0.088
7.7340002 -3.9130001 0.088
7.737 -3.892 0.088
7.7270002 -3.865 0.088
7.7360001 -3.8469999 0.088
7.7449999 -3.829 0.088
7.737 -3.802 0.088
7.763 -3.793 0.089000002
7.7719998 -3.7750001 0.089000002
7.8140001 -3.773 0.089000002
7.8470001 -3.766 0.090000004
7.8340001 -3.737 0.090000004
7.8579998 -3.7260001 0.090000004
7.8670001 -3.707 0.090000004
7.9120002 -3.7060001 0.090999998
8.1049995 -3.7720001 0.093000002
8.2060003 -3.796 0.093999997
8.2270002 -3.7820001 0.094999999
8.2329998 -3.76 0.094999999
8.2589998 -3.7490001 0.094999999
8.2749996 -3.7320001 0.094999999
8.29 -3.714 0.094999999
8.2930002 -3.6919999 0.096000001
8.3190002 -3.6800001 0.096000001
8.3299999 -3.6600001 0.096000001
8.3389997 -3.6400001 0.096000001
8.3599997 -3.625 0.096000001
8.3620005 -3.602 0.097000003
8.3830004 -3.586 0.097000003
8.4130001 -3.575 0.097000003
8.4280005 -3.5569999 0.097000003
8.4200001 -3.529 0.097000003
8.4530001 -3.5179999 0.097999997
8.4750004 -3.503 0.097999997
8.5089998 -3.4920001 0.098999999
8.5190001 -3.4719999 0.098999999
8.3210001 -3.3670001 0.096000001
8.1899996 -3.29 0.094999999
8.1450005 -3.2479999 0.094999999
8.1260004 -3.217 0.093999997
8.1330004 -3.197 0.093999997
8.1219997 -3.1689999 0.093999997
8.1219997 -3.145 0.093999997
8.1210003 -3.1210001 0.093999997
8.1149998 -3.095 0.093999997
8.1400003 -3.0810001 0.094999999
8.1820002 -3.073 0.094999999
8.217 -3.063 0.096000001
8.6940002 -3.2160001 0.101
8.7360001 -3.2060001 0.102
8.7370005 -3.181 0.102
8.7419996 -3.1570001 0.102
8.7749996 -3.1440001 0.102
8.783 -3.1210001 0.103
8.8199997 -3.109 0.103
8.8179998 -3.0829999 0.103
8.8260002 -3.0599999 0.103
8.8549995 -3.0450001 0.104
8.8690004 -3.0239999 0.104
8.9090004 -3.0109999 0.104
8.9180002 -2.9890001 0.105
8.9180002 -2.9630001 0.105
8.9540005 -2.9489999 0.105
8.9779997 -2.931 0.105
9.0030003 -2.9130001 0.106
9.0249996 -2.8940001 0.106
9.0670004 -2.882 0.107
9.0810003 -2.8599999 0.107
9.0959997 -2.8380001 0.107
9.1359997 -2.8239999 0.107
9.1780005 -2.8110001 0.108
9.1759996 -2.7839999 0.108
9.2130003 -2.7679999 0.108
9.2110004 -2.7409999 0.109
9.2650003 -2.73 0.109
9.2709999 -2.7060001 0.109
9.2819996 -2.6819999 0.109
9.3179998 -2.6659999 0.11
9.3310003 -2.642 0.11
9.3540001 -2.622 0.11
9.3760004 -2.6010001 0.111
9.4139996 -2.585 0.111
9.4300003 -2.562 0.111
9.4549999 -2.5409999 0.112
9.4840002 -2.5220001 0.112
9.5120001 -2.5020001 0.113
9.5249996 -2.4779999 0.113
9.5749998 -2.4630001 0.113
9.5950003 -2.441 0.114
9.6160002 -2.4189999 0.114
9.6350002 -2.3959999 0.114
9.6450005 -2.3699999 0.114
9.691 -2.3540001 0.115
9.7390003 -2.3380001 0.116
9.7709999 -2.3169999 0.116
9.7930002 -2.2939999 0.116
9.8210001 -2.273 0.117
9.8549995 -2.2520001 0.117
9.8780003 -2.2290001 0.118
9.9139996 -2.2090001 0.118
9.9280005 -2.184 0.118
9.9460001 -2.1589999 0.118
9.9729996 -2.1359999 0.119
9.9870005 -2.1110001 0.119
10.05 -2.095 0.12
10.069 -2.0699999 0.12
10.093 -2.046 0.12
10.13 -2.0250001 0.121
10.143 -1.998 0.121
10.184 -1.977 0.122
10.203 -1.952 0.122
10.232 -1.928 0.122
10.276 -1.9069999 0.123
10.307 -1.883 0.123
10.319 -1.8559999 0.123
10.342 -1.83 0.124
10.379 -1.807 0.124
10.414 -1.784 0.125
10.442 -1.7589999 0.125
10.479 -1.735 0.126
10.522 -1.712 0.126
10.575 -1.6900001 0.127
10.61 -1.666 0.127
10.632 -1.6390001 0.12800001
10.618 -1.6059999 0.127
10.686 -1.586 0.12800001
10.726 -1.561 0.12899999
10.78 -1.539 0.13
10.795 -1.51 0.13
10.813 -1.4809999 0.13
10.842 -1.454 0.13
10.86 -1.426 0.131
10.914 -1.402 0.131
10.946 -1.375 0.132
10.969 -1.346 0.132
10.995 -1.318 0.132
11.057 -1.294 0.133
11.097 -1.267 0.134
11.116 -1.238 0.134
11.164 -1.211 0.13500001
11.191 -1.182 0.13500001
11.226 -1.154 0.13500001
11.263 -1.126 0.13600001
11.308 -1.098 0.13699999
11.389 -1.074 0.138
11.451 -1.0470001 0.138
11.539 -1.022 0.139
11.574 -0.99199998 0.14
11.619 -0.963 0.141
11.664 -0.93400002 0.141
11.765 -0.90799999 0.142
12.202 0.39199999 0.013
12.226 0.41 0.013
12.231 0.428 0.013
12.2 0.44499999 0.013
12.173 0.463 0.013
12.158 0.48100001 0.013
12.165 0.5 0.012
12.15 0.51899999 0.012
12.17 0.53899997 0.012
12.17 0.55900002 0.012
12.151 0.57800001 0.012
12.186 0.60000002 0.011
12.193 0.62099999 0.011
12.208 0.64300001 0.011
12.187 0.66299999 0.011
12.187 0.685 0.011
12.195 0.70700002 0.011
12.205 0.73000002 0.0099999998
12.2 0.75199997 0.0099999998
12.211 0.77499998 0.0099999998
12.221 0.79799998 0.0099999998
12.235 0.82200003 0.0099999998
12.236 0.84600002 0.0089999996
12.241 0.87 0.0089999996
12.224 0.89300001 0.0089999996
12.248 0.91900003 0.0089999996
12.254 0.94300002 0.0089999996
12.268 0.96899998 0.0089999996
12.265 0.99400002 0.0080000004
12.275 1.02 0.0080000004
12.307 1.048 0.0080000004
12.299 1.073 0.0080000004
12.337 1.103 0.0080000004
12.362 1.131 0.0080000004
12.345 1.156 0.0070000002
12.357 1.184 0.0070000002
12.367 1.2130001 0.0070000002
12.364 1.24 0.0070000002
12.376 1.268 0.0070000002
12.365 1.295 0.0060000001
12.385 1.325 0.0060000001
12.394 1.355 0.0060000001
12.432 1.388 0.0060000001
12.462 1.42 0.0060000001
12.45 1.448 0.0049999999
12.435 1.476 0.0049999999
12.452 1.507 0.0049999999
12.488 1.5420001 0.0049999999
12.492 1.572 0.0049999999
12.501 1.604 0.0040000002
12.517 1.637 0.0040000002
12.541 1.671 0.0040000002
12.571 1.706 0.0040000002
12.588 1.74 0.0040000002
12.607 1.775 0.003
12.604 1.806 0.003
12.622 1.841 0.003
12.615 1.873 0.003
12.624 1.9069999 0.003
12.667 1.947 0.0020000001
12.682 1.983 0.0020000001
12.711 2.0209999 0.0020000001
12.722 2.0569999 0.0020000001
12.746 2.095 0.0020000001
12.741 2.128 0.001
12.762 2.1659999 0.001
12.772 2.2030001 0.001
12.801 2.244 0.001
12.811 2.2809999 0.001
12.805 2.3150001 -0
12.804 2.3510001 -0
12.832 2.3929999 -0
12.844 2.431 -0
12.86 2.471 -0
12.856 2.507 -0
12.88 2.549 -0
12.884 2.5869999 -0
12.911 2.631 -0
12.916 2.6700001 -0.001
12.922 2.7090001 -0.001
12.935 2.75 -0.001
12.961 2.7939999 -0.001
12.979 2.8369999 -0.001
12.984 2.878 -0.0020000001
12.982 2.9170001 -0.0020000001
12.994 2.9590001 -0.0020000001
13.024 3.006 -0.0020000001
13.033 3.0480001 -0.003
13.061 3.095 -0.003
13.084 3.141 -0.003
13.121 3.191 -0.003
13.138 3.237 -0.003
13.152 3.2820001 -0.0040000002
13.157 3.325 -0.0040000002
13.225 3.3840001 -0.0040000002
13.263 3.437 -0.0040000002
13.292 3.487 -0.0049999999
13.295 3.5309999 -0.0049999999
13.326 3.5829999 -0.0049999999
13.372 3.6389999 -0.0049999999
13.397 3.6900001 -0.0060000001
13.405 3.7360001 -0.0060000001
13.428 3.7869999 -0.0060000001
13.483 3.848 -0.0060000001
13.549 3.9119999 -0.0070000002
13.603 3.973 -0.0070000002
13.641 4.0310001 -0.0070000002
13.673 4.086 -0.0080000004
13.688 4.138 -0.0080000004
13.72 4.1950002 -0.0080000004
13.705 4.237 -0.0080000004
13.805 4.316 -0.0089999996
13.791 4.3590002 -0.0089999996
13.867 4.4320002 -0.0089999996
13.887 4.487 -0.0089999996
13.897 4.539 -0.0099999998
13.902 4.5900002 -0.0099999998
13.93 4.6490002 -0.0099999998
13.983 4.7160001 -0.011
14.05 4.789 -0.011
14.122 4.8639998 -0.011
14.098 4.9070001 -0.011
14.128 4.9689999 -0.012
14.219 5.053 -0.012
14.351 5.152 -0.012
14.398 5.2220001 -0.013
14.42 5.283 -0.013
14.485 5.3600001 -0.013
14.563 5.4429998 -0.014
14.609 5.5149999 -0.014
14.633 5.579 -0.014
14.629 5.6329999 -0.015
14.664 5.7010002 -0.015
14.68 5.7639999 -0.015
14.739 5.8429999 -0.016000001
14.769 5.9109998 -0.016000001
14.805 5.9829998 -0.016000001
14.818 6.0450001 -0.017000001
14.901 6.1360002 -0.017000001
14.828 6.164 -0.017000001
14.751 6.1900001 -0.017000001
14.761 6.2509999 -0.017999999
12.325 5.9660001 -0.017999999
12.245 5.9780002 -0.018999999
12.163 5.9889998 -0.018999999
12.172 6.0450001 -0.018999999
12.201 6.1100001 -0.018999999
12.18 6.151 -0.02
12.24 6.2329998 -0.02
12.122 6.2249999 -0.02
12.173 6.303 -0.02
12.224 6.382 -0.021
12.08 6.3590002 -0.021
12.048 6.3940001 -0.021
12.098 6.4720001 -0.021
12.124 6.539 -0.022
12.115 6.5869999 -0.022
12.175 6.6729999 -0.022
10.67 6.2750001 -0.021
10.479 6.211 -0.021
10.412 6.2179999 -0.021
10.396 6.256 -0.022
10.404 6.3080001 -0.022
10.454 6.3860002 -0.022
10.539 6.487 -0.023
9.8360004 6.7509999 -0.024
9.7349997 6.7290001 -0.024
9.6630001 6.7259998 -0.024
9.651 6.7639999 -0.025
9.6739998 6.8280001 -0.025
9.6949997 6.8899999 -0.025
9.7559996 6.9809999 -0.026000001
9.7379999 7.0159998 -0.026000001
7.3579998 -4.848 0.101
7.4029999 -4.8319998 0.102
7.4250002 -4.7989998 0.102
7.4510002 -4.7709999 0.103
7.4749999 -4.7399998 0.103
7.4980001 -4.7090001 0.103
7.5359998 -4.6880002 0.104
7.5450001 -4.6479998 0.104
7.5710001 -4.6199999 0.104
7.5900002 -4.5869999 0.104
7.6149998 -4.5580001 0.105
7.6389999 -4.5289998 0.105
7.6609998 -4.4980001 0.105
7.6799998 -4.4660001 0.105
7.7090001 -4.4390001 0.106
7.7270002 -4.4070001 0.106
7.7470002 -4.3759999 0.106
7.7649999 -4.3439999 0.107
7.7839999 -4.3119998 0.107
7.8070002 -4.283 0.107
7.8179998 -4.2480001 0.107
7.7459998 -4.1680002 0.106
7.6810002 -4.0929999 0.105
7.6659999 -4.0450001 0.105
7.6570001 -4.0009999 0.105
7.6789999 -3.973 0.105
7.6939998 -3.9419999 0.105
7.6989999 -3.9059999 0.105
7.7199998 -3.878 0.106
7.7129998 -3.8369999 0.106
7.7249999 -3.8050001 0.106
7.757 -3.783 0.106
7.7800002 -3.757 0.107
7.8140001 -3.7360001 0.107
7.8340001 -3.7079999 0.107
7.849 -3.678 0.107
7.961 -3.6930001 0.109
8.1890001 -3.7620001 0.112
8.2360001 -3.7449999 0.113
8.2639999 -3.72 0.113
8.29 -3.694 0.113
8.3120003 -3.6670001 0.114
8.3380003 -3.641 0.114
8.3769999 -3.6210001 0.115
8.3900003 -3.5899999 0.115
8.4099998 -3.5610001 0.115
8.4300003 -3.533 0.115
8.4569998 -3.5079999 0.116
8.4779997 -3.4809999 0.116
8.5150003 -3.46 0.117
8.5749998 -3.448 0.117
8.5719995 -3.411 0.117
8.2519999 -3.25 0.113
8.1560001 -3.178 0.112
8.1429996 -3.1400001 0.111
8.1260004 -3.0999999 0.111
8.1230001 -3.066 0.111
8.1470003 -3.043 0.112
8.198 -3.029 0.112
8.3620005 -3.0569999 0.114
8.8109999 -3.1860001 0.121
8.8299999 -3.1589999 0.121
8.8540001 -3.1329999 0.121
8.8920002 -3.112 0.122
8.9200001 -3.0880001 0.122
8.9530001 -3.066 0.123
8.9860001 -3.043 0.123
9.0209999 -3.0209999 0.124
9.0710001 -3.0039999 0.124
9.1040001 -2.9820001 0.125
9.1459999 -2.9619999 0.125
9.1700001 -2.9360001 0.126
9.2250004 -2.921 0.126
9.3599997 -2.9300001 0.12800001
9.4329996 -2.9189999 0.12899999
9.3710003 -2.8670001 0.12899999
9.3590002 -2.8299999 0.12800001
9.3889999 -2.806 0.12899999
9.4350004 -2.7869999 0.12899999
9.4860001 -2.77 0.13
9.5080004 -2.743 0.13
9.5389996 -2.72 0.131
9.5710001 -2.697 0.131
9.6020002 -2.6730001 0.132
9.6499996 -2.654 0.132
9.6789999 -2.6300001 0.133
9.7270002 -2.6110001 0.134
9.7770004 -2.592 0.134
9.809 -2.569 0.13500001
9.8509998 -2.5480001 0.13500001
9.8839998 -2.5250001 0.13600001
9.9040003 -2.4979999 0.13600001
9.9189997 -2.471 0.13600001
9.9530001 -2.448 0.13699999
10.004 -2.4289999 0.138
10 -2.3970001 0.138
10.032 -2.3740001 0.138
10.087 -2.3559999 0.139
10.067 -2.3199999 0.139
10.094 -2.296 0.139
10.132 -2.2739999 0.139
10.169 -2.2520001 0.14
10.198 -2.2279999 0.14
10.234 -2.2060001 0.141
10.257 -2.181 0.141
10.276 -2.155 0.142
10.305 -2.131 0.142
10.367 -2.1140001 0.14300001
10.379 -2.086 0.14300001
10.429 -2.0669999 0.14399999
10.433 -2.0380001 0.14399999
10.459 -2.0139999 0.14399999
10.48 -1.989 0.145
10.492 -1.962 0.145
10.54 -1.942 0.146
10.558 -1.916 0.146
10.578 -1.891 0.146
10.626 -1.8710001 0.147
10.644 -1.845 0.147
10.663 -1.8200001 0.147
10.71 -1.8 0.148
10.735 -1.776 0.148
10.789 -1.757 0.149
10.786 -1.728 0.149
10.805 -1.7029999 0.149
10.835 -1.6799999 0.15000001
10.875 -1.658 0.15099999
10.897 -1.6339999 0.15099999
10.949 -1.614 0.152
10.961 -1.589 0.152
10.965 -1.562 0.152
11.004 -1.54 0.153
11.015 -1.515 0.153
11.011 -1.487 0.153
11.045 -1.465 0.153
11.075 -1.443 0.154
11.097 -1.419 0.154
11.124 -1.396 0.154
11.147 -1.373 0.155
11.195 -1.352 0.155
11.255 -1.3329999 0.156
11.271 -1.309 0.15700001
11.282 -1.284 0.15700001
11.305 -1.261 0.15700001
11.359 -1.2410001 0.15800001
11.397 -1.22 0.15899999
11.412 -1.196 0.15899999
11.439 -1.173 0.15899999
11.454 -1.149 0.15899999
11.507 -1.13 0.16
11.524 -1.1059999 0.161
11.54 -1.0829999 0.161
11.565 -1.0599999 0.161
11.643 -1.0420001 0.162
11.689 -1.022 0.163
11.7 -0.99800003 0.163
11.78 -0.98000002 0.164
11.838 -0.95999998 0.16500001
12.02 -0.94999999 0.168
11.962 0.155 0.048
11.998 0.177 0.048
12.06 0.2 0.048
12.038 0.221 0.048
12.083 0.245 0.048
12.068 0.26699999 0.048
12.079 0.28999999 0.048
12.088 0.31400001 0.048
12.096 0.33700001 0.046999998
12.093 0.361 0.046999998
12.094 0.38499999 0.046999998
12.12 0.41 0.046999998
12.093 0.43399999 0.046999998
12.105 0.45899999 0.046999998
12.097 0.484 0.046
12.135 0.51099998 0.046
12.144 0.53600001 0.046
12.135 0.56199998 0.046
12.134 0.588 0.046
12.161 0.61500001 0.046
12.165 0.64200002 0.045000002
12.19 0.67000002 0.045000002
12.188 0.69700003 0.045000002
12.194 0.72500002 0.045000002
12.198 0.75300002 0.045000002
12.22 0.78200001 0.045000002
12.224 0.81 0.045000002
12.256 0.84100002 0.044
12.252 0.86900002 0.044
12.271 0.89899999 0.044
12.255 0.92699999 0.044
12.272 0.95700002 0.044
12.297 0.98900002 0.044
12.317 1.02 0.044
12.34 1.052 0.043000001
12.345 1.0829999 0.043000001
12.363 1.115 0.043000001
12.4 1.149 0.043000001
12.39 1.179 0.043000001
12.408 1.212 0.043000001
12.418 1.244 0.043000001
12.43 1.277 0.041999999
12.426 1.309 0.041999999
12.437 1.342 0.041999999
12.473 1.378 0.041999999
12.503 1.414 0.041999999
12.528 1.45 0.041999999
12.53 1.483 0.041999999
12.563 1.52 0.041000001
12.564 1.554 0.041000001
12.572 1.589 0.041000001
12.594 1.626 0.041000001
12.631 1.665 0.041000001
12.653 1.702 0.041000001
12.685 1.7410001 0.041000001
12.704 1.779 0.039999999
12.72 1.817 0.039999999
12.729 1.853 0.039999999
12.724 1.888 0.039999999
12.74 1.927 0.039999999
12.78 1.969 0.039999999
12.795 2.007 0.039999999
12.836 2.0510001 0.039000001
12.828 2.086 0.039000001
12.863 2.1289999 0.039000001
12.872 2.168 0.039000001
12.887 2.2079999 0.039000001
12.934 2.2539999 0.039000001
12.933 2.2909999 0.039000001
12.954 2.3329999 0.037999999
12.967 2.3740001 0.037999999
12.989 2.4170001 0.037999999
13.028 2.4630001 0.037999999
13.034 2.503 0.037999999
13.068 2.549 0.037999999
13.072 2.589 0.037
13.079 2.6300001 0.037
13.09 2.6730001 0.037
13.143 2.724 0.037
13.162 2.7679999 0.037
13.219 2.8210001 0.037
13.239 2.8659999 0.037
13.228 2.905 0.035999998
13.258 2.9519999 0.035999998
13.265 2.9960001 0.035999998
13.312 3.0480001 0.035999998
13.341 3.096 0.035999998
13.382 3.148 0.035999998
13.393 3.1930001 0.035999998
13.457 3.2520001 0.035
13.472 3.2980001 0.035
13.49 3.346 0.035
13.505 3.3929999 0.035
13.561 3.451 0.035
13.617 3.5090001 0.035
13.672 3.5669999 0.035
13.675 3.6129999 0.034000002
13.725 3.671 0.034000002
13.745 3.721 0.034000002
13.772 3.7739999 0.034000002
13.802 3.8269999 0.034000002
13.866 3.891 0.034000002
13.901 3.947 0.034000002
13.923 3.9990001 0.034000002
13.954 4.0549998 0.033
14 4.1149998 0.033
13.995 4.1599998 0.033
14.041 4.2210002 0.033
14.05 4.2709999 0.033
14.132 4.3429999 0.033
14.17 4.4029999 0.032000002
14.236 4.4720001 0.032000002
14.253 4.526 0.032000002
14.285 4.5840001 0.032000002
14.348 4.6539998 0.032000002
14.347 4.7030001 0.032000002
14.406 4.7709999 0.030999999
14.419 4.8249998 0.030999999
14.419 4.875 0.030999999
14.486 4.948 0.030999999
14.617 5.0430002 0.030999999
14.695 5.1209998 0.030999999
14.756 5.1939998 0.030999999
14.751 5.243 0.029999999
14.824 5.3210001 0.029999999
14.809 5.3670001 0.029999999
14.842 5.4310002 0.029999999
14.961 5.527 0.029999999
14.989 5.5900002 0.029999999
15.225 5.7319999 0.029999999
15.22 5.7839999 0.029999999
15.318 5.875 0.029999999
15.261 5.908 0.028999999
15.237 5.9520001 0.028999999
15.257 6.0139999 0.028999999
15.263 6.0710001 0.028000001
15.384 6.1739998 0.028000001
15.458 6.2589998 0.028000001
15.374 6.2800002 0.028000001
15.45 6.3660002 0.028000001
15.568 6.4710002 0.028000001
12.151 5.9749999 0.017000001
12.044 5.967 0.016000001
11.989 5.9840002 0.016000001
11.942 6.0040002 0.016000001
12.009 6.0809999 0.016000001
12.228 6.237 0.016000001
12.255 6.2950001 0.016000001
12.175 6.2989998 0.015
12.201 6.3569999 0.015
12.133 6.4099998 0.014
12.052 6.4109998 0.014
12.156 6.5110002 0.014
7.888 -4.6479998 0.126
7.8909998 -4.6279998 0.126
7.9250002 -4.6259999 0.126
7.927 -4.6040001 0.127
7.9450002 -4.592 0.127
7.948 -4.5710001 0.127
7.9640002 -4.5580001 0.127
7.98 -4.5440001 0.12800001
7.9840002 -4.5229998 0.12800001
8.0019999 -4.5110002 0.12800001
8.0170002 -4.4959998 0.12800001
8.033 -4.4819999 0.12899999
8.0360003 -4.461 0.12899999
8.0389996 -4.4400001 0.12899999
8.0670004 -4.4320002 0.12899999
8.0719995 -4.4109998 0.12899999
8.0749998 -4.3899999 0.12899999
8.085 -4.3720002 0.13
8.1079998 -4.3610001 0.13
8.1289997 -4.349 0.13
8.1429996 -4.3340001 0.131
8.1479998 -4.3130002 0.131
8.1780005 -4.3049998 0.131
8.1809998 -4.283 0.131
8.198 -4.2680001 0.132
8.2309999 -4.2620001 0.132
8.25 -4.2480001 0.133
8.2690001 -4.2340002 0.133
7.927 -4.0359998 0.12800001
7.829 -3.964 0.126
7.7930002 -3.9230001 0.125
7.79 -3.8989999 0.125
7.7859998 -3.8740001 0.125
7.7820001 -3.8499999 0.125
7.7849998 -3.829 0.125
7.7789998 -3.803 0.125
7.7839999 -3.783 0.125
7.8039999 -3.77 0.126
7.7950001 -3.743 0.126
7.777 -3.7119999 0.125
7.8049998 -3.7030001 0.126
7.8280001 -3.691 0.126
7.9000001 -3.7019999 0.12800001
8.2189999 -3.8280001 0.133
8.4650002 -3.918 0.13699999
8.4870005 -3.9030001 0.13699999
8.5100002 -3.8889999 0.138
8.5190001 -3.869 0.138
8.5530005 -3.859 0.138
8.5629997 -3.839 0.139
8.5710001 -3.8180001 0.139
8.5930004 -3.803 0.139
8.585 -3.7739999 0.139
8.6140003 -3.7620001 0.14
8.6280003 -3.743 0.14
8.651 -3.7279999 0.14
8.6669998 -3.71 0.14
8.6689997 -3.6860001 0.141
8.677 -3.664 0.141
8.7130003 -3.654 0.141
8.7299995 -3.635 0.142
8.7440004 -3.6159999 0.142
8.7469997 -3.592 0.142
8.7819996 -3.5810001 0.14300001
8.7910004 -3.559 0.14300001
8.8140001 -3.543 0.14300001
8.8280001 -3.523 0.14300001
8.8979998 -3.5250001 0.145
8.2340002 -3.2379999 0.134
8.1350002 -3.175 0.132
8.085 -3.132 0.131
8.085 -3.109 0.132
8.0909996 -3.0880001 0.132
8.1190004 -3.075 0.132
8.1529999 -3.0639999 0.133
8.2530003 -3.0780001 0.134
9.0609999 -3.3529999 0.148
9.0439997 -3.3199999 0.147
9.0129995 -3.283 0.147
9.0270004 -3.2620001 0.147
9.052 -3.2449999 0.148
9.0780001 -3.227 0.148
9.1020002 -3.21 0.148
9.1079998 -3.1860001 0.149
9.158 -3.1760001 0.149
9.1750002 -3.1559999 0.15000001
9.2060003 -3.1400001 0.15000001
9.2399998 -3.125 0.15099999
9.2469997 -3.0999999 0.15099999
9.2849998 -3.086 0.152
9.3149996 -3.069 0.152
9.3620005 -3.0580001 0.153
9.3800001 -3.036 0.153
9.3959999 -3.0150001 0.154
9.4490004 -3.0039999 0.155
9.5640001 -3.013 0.156
9.6260004 -3.0050001 0.15800001
9.6359997 -2.98 0.15800001
9.6040001 -2.9419999 0.15700001
9.6169996 -2.9189999 0.15700001
9.6110001 -2.8889999 0.15700001
9.6389999 -2.8699999 0.15800001
9.6610003 -2.848 0.15800001
9.6820002 -2.826 0.15899999
9.6890001 -2.8010001 0.15899999
9.7360001 -2.786 0.16
9.7399998 -2.7590001 0.16
9.7880001 -2.744 0.16
9.7980003 -2.7190001 0.161
9.809 -2.694 0.161
9.8389997 -2.674 0.161
9.8780003 -2.6559999 0.162
9.8940001 -2.632 0.162
9.9060001 -2.6059999 0.163
9.9420004 -2.5869999 0.163
9.9619999 -2.563 0.164
9.9589996 -2.5339999 0.164
10.009 -2.5179999 0.164
10.008 -2.4890001 0.164
10.066 -2.4749999 0.16500001
10.065 -2.4449999 0.16500001
10.078 -2.4189999 0.16599999
10.099 -2.395 0.16599999
10.123 -2.372 0.16599999
10.147 -2.349 0.167
10.179 -2.3269999 0.167
10.188 -2.3 0.168
10.221 -2.2780001 0.168
10.25 -2.2550001 0.169
10.278 -2.2309999 0.169
10.301 -2.207 0.17
10.331 -2.184 0.17
10.363 -2.161 0.171
10.398 -2.138 0.171
10.419 -2.1129999 0.17200001
10.448 -2.089 0.17200001
10.451 -2.059 0.17200001
10.504 -2.039 0.17299999
10.539 -2.016 0.17399999
10.567 -1.9910001 0.17399999
10.591 -1.965 0.175
10.613 -1.939 0.175
10.639 -1.913 0.176
10.7 -1.8940001 0.177
10.734 -1.869 0.177
10.751 -1.841 0.177
10.786 -1.816 0.178
10.814 -1.79 0.17900001
10.823 -1.761 0.17900001
10.907 -1.743 0.18000001
10.897 -1.71 0.18000001
10.961 -1.689 0.18099999
10.986 -1.6619999 0.182
11.026 -1.636 0.182
11.058 -1.609 0.183
11.063 -1.5779999 0.183
11.084 -1.55 0.183
11.139 -1.526 0.184
11.161 -1.497 0.185
11.208 -1.471 0.185
11.265 -1.446 0.186
11.323 -1.4220001 0.18700001
11.348 -1.392 0.18799999
11.393 -1.365 0.189
11.412 -1.335 0.189
11.512 -1.314 0.191
11.598 -1.291 0.192
11.594 -1.257 0.192
11.647 -1.23 0.193
11.686 -1.201 0.19400001
11.732 -1.1720001 0.19400001
11.836 -1.149 0.19599999
12.025 -1.133 0.199
12.041 -1.1 0.2
11.987 -1.061 0.199
12.106 -1.0369999 0.20100001
12.168 -1.007 0.20200001
12.189 -0.97399998 0.20200001
12.224 -0.94300002 0.20299999
12.728 0.41100001 0.075999998
12.691 0.428 0.075999998
12.679 0.44600001 0.075999998
12.649 0.46399999 0.075000003
12.671 0.484 0.075000003
12.65 0.50300002 0.075000003
12.613 0.52100003 0.075000003
12.633 0.542 0.075000003
12.608 0.56099999 0.074000001
12.625 0.58200002 0.074000001
12.603 0.602 0.074000001
12.588 0.62199998 0.074000001
12.587 0.64399999 0.072999999
12.6 0.66600001 0.072999999
12.591 0.68699998 0.072999999
12.597 0.70999998 0.072999999
12.582 0.73100001 0.072999999
12.595 0.755 0.072999999
12.588 0.77700001 0.071999997
12.59 0.801 0.071999997
12.611 0.82599998 0.071999997
12.631 0.85100001 0.071999997
12.629 0.875 0.071999997
12.64 0.89999998 0.071999997
12.659 0.926 0.071999997
12.664 0.95099998 0.071999997
12.676 0.977 0.071000002
12.699 1.005 0.071000002
12.732 1.033 0.071000002
12.741 1.0599999 0.071000002
12.755 1.0880001 0.071000002
12.789 1.117 0.071000002
12.785 1.1440001 0.071000002
12.775 1.17 0.071000002
12.813 1.202 0.071000002
12.802 1.228 0.071000002
12.8 1.256 0.07
12.791 1.284 0.07
12.815 1.3150001 0.07
12.833 1.345 0.07
12.857 1.377 0.07
12.895 1.411 0.07
12.892 1.4400001 0.07
12.91 1.472 0.07
12.905 1.502 0.07
12.921 1.534 0.07
12.924 1.5650001 0.068999998
12.914 1.595 0.068999998
12.925 1.628 0.068999998
12.933 1.66 0.068999998
12.958 1.6950001 0.068999998
12.961 1.728 0.068999998
12.988 1.7640001 0.068999998
12.999 1.798 0.068999998
12.992 1.83 0.068000004
13.023 1.867 0.068000004
13.044 1.904 0.068000004
13.046 1.938 0.068000004
13.079 1.976 0.068000004
13.107 2.0150001 0.068000004
13.113 2.05 0.068000004
13.137 2.089 0.068000004
13.153 2.1270001 0.068000004
13.176 2.1659999 0.068000004
13.184 2.2030001 0.068000004
13.233 2.247 0.068000004
13.227 2.2820001 0.068000004
13.278 2.3269999 0.068000004
13.26 2.3610001 0.068000004
13.28 2.402 0.067000002
13.308 2.444 0.067000002
13.348 2.4890001 0.067000002
13.388 2.5350001 0.068000004
13.388 2.573 0.067000002
13.401 2.6140001 0.067000002
13.42 2.6559999 0.067000002
13.44 2.6989999 0.067000002
13.47 2.7449999 0.067000002
13.504 2.7909999 0.067000002
13.529 2.836 0.067000002
13.541 2.8789999 0.067000002
13.586 2.9289999 0.067000002
13.615 2.9760001 0.067000002
13.625 3.02 0.067000002
13.633 3.063 0.067000002
13.664 3.112 0.067000002
13.715 3.165 0.067000002
13.719 3.2079999 0.067000002
13.768 3.263 0.067000002
13.805 3.3139999 0.067000002
13.821 3.362 0.067000002
13.879 3.4189999 0.067000002
13.901 3.4690001 0.067000002
13.896 3.5120001 0.067000002
13.95 3.5699999 0.067000002
13.955 3.6159999 0.066
14.01 3.675 0.067000002
14.031 3.7260001 0.067000002
14.079 3.7850001 0.067000002
14.149 3.8499999 0.067000002
14.187 3.9070001 0.067000002
14.163 3.947 0.066
14.217 4.0089998 0.067000002
14.234 4.0619998 0.066
14.298 4.1279998 0.067000002
14.323 4.1830001 0.067000002
14.315 4.23 0.066
14.361 4.2919998 0.066
14.432 4.362 0.067000002
14.488 4.4289999 0.067000002
14.515 4.487 0.067000002
14.547 4.5469999 0.067000002
14.616 4.619 0.067000002
14.629 4.6750002 0.067000002
14.691 4.7459998 0.067000002
14.702 4.8010001 0.067000002
14.738 4.8649998 0.067000002
14.842 4.9520001 0.067000002
14.9 5.0250001 0.067000002
14.946 5.0939999 0.067000002
14.997 5.165 0.067000002
15.135 5.2670002 0.067000002
15.111 5.3140001 0.067000002
15.134 5.3769999 0.067000002
15.272 5.4819999 0.068000004
15.211 5.5159998 0.067000002
15.278 5.5960002 0.067000002
15.412 5.7030001 0.068000004
15.407 5.7579999 0.067000002
15.446 5.8299999 0.067000002
15.54 5.9239998 0.068000004
15.564 5.9920001 0.068000004
15.563 6.0500002 0.067000002
15.632 6.1360002 0.068000004
15.66 6.2069998 0.067000002
15.712 6.2870002 0.068000004
15.768 6.3699999 0.068000004
15.755 6.4260001 0.067000002
15.773 6.4949999 0.067000002
12.289 5.948 0.050000001
12.16 5.9359999 0.048999999
12.013 5.914 0.048
11.948 5.9320002 0.048
11.911 5.9640002 0.048
12.043 6.0809999 0.048
12.204 6.2140002 0.048999999
12.23 6.2800002 0.048999999
12.186 6.309 0.048
12.254 6.3969998 0.048
12.148 6.3930001 0.048
12.055 6.3959999 0.046999998
12.244 6.5489998 0.048
9.9370003 6.8670001 0.035
9.8730001 6.8709998 0.035
7.5609999 -4.98 0.14
7.5830002 -4.947 0.141
7.612 -4.9190001 0.141
7.6490002 -4.895 0.142
7.6729999 -4.8629999 0.142
7.6960001 -4.8319998 0.14300001
7.7319999 -4.8080001 0.14300001
7.7529998 -4.7750001 0.14300001
7.7779999 -4.7449999 0.14399999
7.8109999 -4.7189999 0.14399999
7.8249998 -4.6820002 0.145
7.8559999 -4.6560001 0.145
7.8829999 -4.6269999 0.146
7.8899999 -4.586 0.146
7.921 -4.5599999 0.146
7.9460001 -4.5310001 0.147
7.9720001 -4.5019999 0.147
7.9840002 -4.4650002 0.147
8.0089998 -4.4359999 0.148
8.0279999 -4.4029999 0.148
8.0769997 -4.3870001 0.149
8.0869999 -4.3499999 0.149
8.0780001 -4.303 0.149
8.1669998 -4.3080001 0.15000001
8.1610003 -4.263 0.15000001
7.8260002 -4.0479999 0.14399999
7.7649999 -3.977 0.14300001
7.756 -3.934 0.14300001
7.7519999 -3.8929999 0.142
7.756 -3.8570001 0.142
7.7579999 -3.8199999 0.142
7.7789998 -3.793 0.14300001
7.7709999 -3.7509999 0.14300001
7.7680001 -3.7130001 0.14300001
7.7969999 -3.6900001 0.14300001
7.836 -3.671 0.14399999
7.9660001 -3.6949999 0.146
8.4890003 -3.898 0.156
8.5229998 -3.875 0.156
8.5570002 -3.8510001 0.15700001
8.5889997 -3.8269999 0.15700001
8.6000004 -3.793 0.15800001
8.6330004 -3.7690001 0.15800001
8.6470003 -3.737 0.15800001
8.6700001 -3.7090001 0.15899999
8.6920004 -3.6800001 0.15899999
8.7209997 -3.655 0.16
8.7440004 -3.6259999 0.16
8.7869997 -3.6070001 0.161
8.8199997 -3.5829999 0.161
8.8520002 -3.559 0.162
8.8529997 -3.5220001 0.162
8.8990002 -3.5039999 0.163
8.9569998 -3.49 0.164
8.2370005 -3.175 0.15099999
8.1199999 -3.0969999 0.148
8.1020002 -3.0580001 0.148
8.118 -3.0309999 0.148
8.1780005 -3.0209999 0.149
9.184 -3.3570001 0.168
9.1549997 -3.3099999 0.167
9.1730003 -3.2809999 0.168
9.2180004 -3.2609999 0.168
9.2620001 -3.2409999 0.169
9.2819996 -3.2130001 0.17
9.3240004 -3.1919999 0.17
9.3690004 -3.1719999 0.171
9.4069996 -3.1500001 0.17200001
9.4659996 -3.135 0.17299999
9.5120001 -3.115 0.17399999
9.5410004 -3.089 0.17399999
9.5799999 -3.0669999 0.175
9.7250004 -3.079 0.178
9.7080002 -3.0380001 0.177
9.6960001 -3 0.177
9.7259998 -2.9749999 0.178
9.757 -2.95 0.178
9.7519999 -2.914 0.178
9.7969999 -2.8940001 0.17900001
9.8319998 -2.8699999 0.18000001
9.8559999 -2.8429999 0.18000001
9.8920002 -2.8199999 0.18099999
9.915 -2.793 0.18099999
9.9180002 -2.7609999 0.18099999
9.96 -2.7390001 0.182
9.9809999 -2.7119999 0.182
10.017 -2.6889999 0.183
10.04 -2.6619999 0.183
10.077 -2.6389999 0.184
10.096 -2.6110001 0.184
10.143 -2.5910001 0.185
10.148 -2.5599999 0.185
10.176 -2.5350001 0.186
10.206 -2.51 0.186
10.231 -2.484 0.18700001
10.268 -2.461 0.18799999
10.295 -2.4360001 0.18799999
10.305 -2.4070001 0.18799999
10.318 -2.378 0.18799999
10.369 -2.358 0.189
10.407 -2.336 0.19
10.435 -2.3110001 0.191
10.441 -2.2809999 0.191
10.491 -2.2609999 0.192
10.524 -2.237 0.192
10.551 -2.2119999 0.193
10.578 -2.187 0.193
10.612 -2.164 0.19400001
10.654 -2.142 0.19499999
10.658 -2.112 0.19499999
10.705 -2.0910001 0.19599999
10.734 -2.0669999 0.19599999
10.754 -2.0409999 0.197
10.801 -2.02 0.197
10.833 -1.9960001 0.198
10.826 -1.965 0.198
10.875 -1.944 0.199
10.892 -1.918 0.199
10.948 -1.898 0.2
10.965 -1.872 0.20100001
11.011 -1.851 0.20100001
11.021 -1.823 0.20200001
11.061 -1.801 0.20200001
11.161 -1.788 0.204
11.172 -1.761 0.204
11.178 -1.733 0.205
11.174 -1.704 0.205
11.186 -1.678 0.205
11.254 -1.66 0.206
11.272 -1.6339999 0.206
11.297 -1.61 0.207
11.321 -1.585 0.207
11.364 -1.563 0.208
11.424 -1.544 0.20900001
11.446 -1.5190001 0.20999999
11.494 -1.498 0.211
11.511 -1.472 0.211
11.528 -1.447 0.211
11.568 -1.425 0.212
11.585 -1.4 0.213
11.595 -1.374 0.213
11.67 -1.3559999 0.214
11.742 -1.337 0.215
11.754 -1.312 0.21600001
11.815 -1.2920001 0.21699999
11.824 -1.266 0.21699999
11.842 -1.2410001 0.21699999
11.857 -1.217 0.21799999
11.896 -1.194 0.219
11.945 -1.173 0.219
11.983 -1.151 0.22
12.061 -1.132 0.222
12.14 -1.113 0.223
12.173 -1.09 0.22400001
12.131 -1.061 0.223
12.177 -1.039 0.22400001
12.221 -1.018 0.22499999
12.288 -0.99800003 0.226
12.283 -0.972 0.226
12.243 -0.94400001 0.22499999
12.365 -0.92799997 0.228
12.404 0.162 0.111
12.458 0.185 0.111
12.456 0.208 0.111
12.493 0.23199999 0.111
12.491 0.255 0.111
12.54 0.27900001 0.111
12.523 0.303 0.111
12.566 0.32800001 0.111
12.585 0.35299999 0.111
12.591 0.37799999 0.111
12.597 0.403 0.111
12.596 0.428 0.111
12.636 0.45500001 0.111
12.656 0.48100001 0.111
12.662 0.50800002 0.111
12.654 0.53399998 0.111
12.659 0.56099999 0.11
12.64 0.58700001 0.11
12.665 0.61500001 0.11
12.649 0.64099997 0.11
12.672 0.67000002 0.11
12.667 0.69800001 0.11
12.663 0.72600001 0.109
12.677 0.755 0.109
12.681 0.78399998 0.109
12.681 0.81199998 0.109
12.712 0.84399998 0.109
12.723 0.87400001 0.109
12.735 0.90399998 0.109
12.743 0.935 0.109
12.77 0.96700001 0.109
12.782 0.99800003 0.109
12.801 1.03 0.109
12.81 1.062 0.109
12.856 1.097 0.109
12.877 1.13 0.109
12.902 1.164 0.109
12.904 1.196 0.109
12.899 1.228 0.108
12.916 1.262 0.108
12.906 1.294 0.108
12.91 1.327 0.108
12.924 1.362 0.108
12.923 1.395 0.108
12.939 1.4299999 0.108
12.956 1.466 0.108
12.985 1.503 0.108
12.989 1.538 0.108
12.991 1.573 0.107
13.012 1.61 0.107
13.031 1.648 0.107
13.06 1.686 0.108
13.061 1.722 0.107
13.079 1.76 0.107
13.099 1.799 0.107
13.115 1.837 0.107
13.137 1.877 0.107
13.158 1.916 0.107
13.196 1.959 0.107
13.195 1.9960001 0.107
13.24 2.04 0.107
13.255 2.0799999 0.107
13.299 2.125 0.108
13.334 2.1689999 0.108
13.349 2.21 0.108
13.355 2.2490001 0.108
13.377 2.2920001 0.108
13.438 2.342 0.108
13.45 2.3829999 0.108
13.463 2.425 0.108
13.51 2.474 0.108
13.53 2.517 0.108
13.588 2.569 0.108
13.622 2.6159999 0.108
13.613 2.655 0.108
13.632 2.7 0.108
13.651 2.7449999 0.108
13.717 2.8 0.108
13.756 2.8499999 0.109
13.78 2.898 0.109
13.824 2.95 0.109
13.838 2.9949999 0.109
13.861 3.043 0.109
13.91 3.098 0.109
13.957 3.152 0.109
13.96 3.1960001 0.109
13.99 3.247 0.109
14.078 3.312 0.11
14.115 3.365 0.11
14.105 3.408 0.11
14.108 3.454 0.109
14.137 3.506 0.109
14.169 3.559 0.11
14.208 3.615 0.11
14.263 3.675 0.11
14.333 3.74 0.11
14.432 3.812 0.111
14.476 3.8710001 0.111
14.464 3.915 0.111
14.507 3.9749999 0.111
14.596 4.0469999 0.111
14.601 4.0970001 0.111
14.615 4.1490002 0.111
14.701 4.2220001 0.112
14.719 4.276 0.112
14.764 4.3390002 0.112
14.779 4.3930001 0.112
14.836 4.4590001 0.112
14.881 4.5229998 0.112
14.953 4.5949998 0.113
15.016 4.665 0.113
15.086 4.7379999 0.113
15.094 4.7919998 0.113
15.141 4.8590002 0.113
15.218 4.9349999 0.114
15.247 4.9970002 0.114
15.263 5.0539999 0.114
15.338 5.132 0.114
15.393 5.204 0.114
15.428 5.2690001 0.115
15.494 5.3449998 0.115
15.529 5.4109998 0.115
15.613 5.4949999 0.115
15.663 5.5669999 0.116
15.683 5.6279998 0.116
15.808 5.7290001 0.116
15.799 5.7810001 0.116
15.799 5.836 0.116
15.831 5.9039998 0.116
15.904 5.987 0.116
15.942 6.0570002 0.116
15.993 6.1329999 0.117
16.018999 6.1999998 0.117
16.082001 6.2810001 0.117
16.155001 6.368 0.117
16.152 6.4239998 0.117
14.777 6.0349998 0.107
14.775 6.0869999 0.106
12.298 5.9569998 0.086000003
12.245 5.9759998 0.085000001
12.031 5.9159999 0.083999999
11.92 5.9050002 0.082999997
11.909 5.9429998 0.082999997
11.893 5.9780002 0.082000002
11.973 6.0619998 0.082999997
12.211 6.2270002 0.083999999
12.229 6.2810001 0.083999999
12.227 6.369 0.083999999
12.169 6.3839998 0.083999999
12.089 6.3860002 0.082999997
12.054 6.4109998 0.082999997
12.156 6.5100002 0.082999997
8.2180004 -4.8470001 0.17
8.2229996 -4.8270001 0.17
8.2320004 -4.809 0.17
8.2489996 -4.7950001 0.17
8.2530003 -4.7729998 0.171
8.2559996 -4.7519999 0.171
8.2969999 -4.7519999 0.17200001
8.283 -4.7199998 0.171
8.2989998 -4.7059999 0.17200001
8.2969999 -4.6799998 0.17200001
8.3079996 -4.6630001 0.17200001
8.3249998 -4.6490002 0.17200001
8.335 -4.6300001 0.17299999
8.3450003 -4.612 0.17299999
8.3730001 -4.6030002 0.17299999
8.3780003 -4.5819998 0.17399999
8.3850002 -4.5619998 0.17399999
8.4110003 -4.552 0.17399999
8.4130001 -4.5289998 0.17399999
8.4309998 -4.5139999 0.175
8.441 -4.4949999 0.175
8.4630003 -4.4829998 0.176
8.467 -4.46 0.176
8.4639997 -4.4349999 0.176
8.5509996 -4.4549999 0.177
8.5670004 -4.4390001 0.178
8.5900002 -4.4260001 0.178
8.5810003 -4.3969998 0.178
8.559 -4.3610001 0.178
8.5970001 -4.355 0.17900001
8.6239996 -4.3439999 0.17900001
8.632 -4.323 0.17900001
8.6789999 -4.322 0.18000001
7.973 -3.947 0.16599999
7.9499998 -3.9119999 0.16500001
7.914 -3.872 0.164
7.8470001 -3.816 0.163
7.8099999 -3.776 0.162
7.7859998 -3.7409999 0.162
7.7740002 -3.7130001 0.162
7.7849998 -3.6960001 0.162
7.796 -3.678 0.162
7.822 -3.668 0.163
7.875 -3.6700001 0.164
8.0059996 -3.7079999 0.167
8.8030005 -4.0510001 0.183
8.8199997 -4.0339999 0.184
8.842 -4.0180001 0.184
8.8529997 -3.997 0.184
8.8739996 -3.9809999 0.185
8.8839998 -3.96 0.185
8.9069996 -3.944 0.186
8.9169998 -3.9230001 0.186
8.9259996 -3.901 0.186
8.9499998 -3.885 0.18700001
8.9720001 -3.869 0.18700001
8.9809999 -3.8469999 0.18700001
9.0209999 -3.8369999 0.18799999
9.033 -3.816 0.18799999
9.0430002 -3.7939999 0.189
9.066 -3.7780001 0.189
9.0819998 -3.7579999 0.19
9.1020002 -3.74 0.19
9.1110001 -3.717 0.19
9.1339998 -3.7 0.191
9.1440001 -3.677 0.191
9.1700001 -3.661 0.191
9.1899996 -3.642 0.192
9.2320004 -3.632 0.193
8.1639996 -3.188 0.17
8.0939999 -3.1370001 0.169
8.0869999 -3.1110001 0.169
8.0819998 -3.086 0.169
8.1120005 -3.0739999 0.169
8.1389999 -3.0599999 0.17
8.2340002 -3.072 0.17200001
9.4189997 -3.487 0.197
9.4280005 -3.4630001 0.197
9.4359999 -3.4389999 0.197
9.4490004 -3.4159999 0.198
9.474 -3.3970001 0.198
9.5089998 -3.382 0.199
9.5249996 -3.3599999 0.199
9.5340004 -3.336 0.199
9.5810003 -3.325 0.2
9.5699997 -3.293 0.2
9.5970001 -3.2750001 0.20100001
9.6260004 -3.257 0.20100001
9.6289997 -3.23 0.20200001
9.6789999 -3.2190001 0.20299999
9.7019997 -3.198 0.20299999
9.7159996 -3.174 0.20299999
9.7449999 -3.1559999 0.204
9.7729998 -3.1370001 0.205
9.8360004 -3.128 0.206
9.8319998 -3.098 0.206
9.8319998 -3.0699999 0.206
9.8540001 -3.0480001 0.206
9.8409996 -3.016 0.206
9.8959999 -3.0039999 0.207
9.8920002 -2.974 0.207
9.9060001 -2.95 0.208
9.934 -2.9300001 0.208
9.9280005 -2.8989999 0.208
9.9759998 -2.8840001 0.20900001
9.9849997 -2.858 0.20900001
10 -2.8329999 0.20999999
10.042 -2.816 0.211
10.055 -2.7909999 0.211
10.083 -2.77 0.211
10.092 -2.743 0.212
10.111 -2.7190001 0.212
10.147 -2.7 0.213
10.183 -2.6800001 0.214
10.191 -2.652 0.214
10.224 -2.632 0.215
10.231 -2.6040001 0.215
10.28 -2.5869999 0.21600001
10.286 -2.559 0.21600001
10.323 -2.5380001 0.21699999
10.343 -2.513 0.21699999
10.357 -2.487 0.21699999
10.389 -2.4649999 0.21799999
10.404 -2.438 0.21799999
10.418 -2.4119999 0.219
10.453 -2.3900001 0.22
10.483 -2.3670001 0.22
10.501 -2.3399999 0.221
10.519 -2.3139999 0.221
10.555 -2.2920001 0.222
10.59 -2.2690001 0.222
10.626 -2.2460001 0.223
10.666 -2.224 0.22400001
10.712 -2.2030001 0.22499999
10.727 -2.175 0.22499999
10.727 -2.1440001 0.22499999
10.774 -2.1229999 0.226
10.807 -2.098 0.227
10.837 -2.073 0.228
10.897 -2.053 0.229
10.909 -2.0239999 0.229
10.954 -2.0009999 0.23
10.991 -1.976 0.23100001
11.017 -1.95 0.23199999
11.037 -1.9220001 0.23199999
11.07 -1.896 0.233
11.121 -1.873 0.234
11.144 -1.845 0.234
11.156 -1.8150001 0.235
11.286 -1.803 0.237
11.35 -1.781 0.23899999
11.327 -1.745 0.23800001
11.33 -1.7130001 0.23800001
11.402 -1.692 0.23999999
11.461 -1.668 0.241
11.502 -1.641 0.242
11.554 -1.615 0.243
11.592 -1.587 0.244
11.637 -1.5599999 0.245
11.648 -1.528 0.245
11.679 -1.499 0.24600001
11.722 -1.471 0.24699999
11.755 -1.442 0.24699999
11.863 -1.421 0.25
11.895 -1.391 0.25
11.934 -1.3609999 0.25099999
11.964 -1.331 0.252
11.992 -1.3 0.252
12.088 -1.275 0.25400001
12.149 -1.247 0.25600001
12.231 -1.221 0.257
12.233 -1.186 0.257
12.315 -1.159 0.259
12.333 -1.126 0.25999999
12.343 -1.091 0.25999999
12.389 -1.0599999 0.26100001
12.45 -1.03 0.26199999
12.549 -1.002 0.264
13.192 0.486 0.14300001
13.152 0.505 0.142
13.151 0.52499998 0.142
13.123 0.54400003 0.142
13.108 0.56400001 0.141
13.121 0.58600003 0.141
13.139 0.60799998 0.141
13.123 0.62900001 0.141
13.125 0.65100002 0.141
13.131 0.67299998 0.141
13.115 0.69499999 0.14
13.126 0.71799999 0.14
13.113 0.741 0.14
13.118 0.764 0.14
13.131 0.78899997 0.14
13.124 0.81199998 0.14
13.138 0.83700001 0.14
13.136 0.86199999 0.139
13.125 0.88599998 0.139
13.118 0.91000003 0.139
13.121 0.93599999 0.139
13.114 0.96100003 0.138
13.118 0.98699999 0.138
13.135 1.0140001 0.138
13.135 1.041 0.138
13.165 1.0700001 0.138
13.199 1.1 0.139
13.256 1.132 0.139
13.26 1.16 0.139
13.229 1.1849999 0.138
13.216 1.212 0.138
13.181 1.237 0.138
13.187 1.267 0.138
13.206 1.2970001 0.138
13.209 1.327 0.13699999
13.208 1.3559999 0.13699999
13.239 1.3890001 0.138
13.277 1.423 0.138
13.28 1.454 0.138
13.294 1.4859999 0.138
13.299 1.518 0.138
13.288 1.5470001 0.13699999
13.307 1.581 0.13699999
13.316 1.614 0.13699999
13.36 1.651 0.138
13.37 1.6849999 0.138
13.388 1.72 0.138
13.422 1.757 0.138
13.432 1.791 0.138
13.424 1.824 0.138
13.462 1.863 0.138
13.463 1.897 0.138
13.521 1.939 0.138
13.516 1.973 0.138
13.528 2.01 0.138
13.551 2.0480001 0.138
13.56 2.085 0.138
13.585 2.125 0.138
13.604 2.164 0.138
13.612 2.201 0.138
13.674 2.2479999 0.139
13.668 2.2839999 0.139
13.702 2.3269999 0.139
13.749 2.3729999 0.139
13.785 2.4170001 0.139
13.809 2.4590001 0.14
13.85 2.5050001 0.14
13.883 2.55 0.14
13.889 2.5899999 0.14
13.885 2.6289999 0.14
13.922 2.6760001 0.14
13.955 2.7219999 0.14
14.001 2.7720001 0.141
14.048 2.822 0.141
14.076 2.868 0.141
14.109 2.9170001 0.142
14.135 2.964 0.142
14.188 3.017 0.142
14.202 3.062 0.142
14.255 3.1159999 0.14300001
14.301 3.1700001 0.14300001
14.33 3.22 0.14300001
14.382 3.2750001 0.14300001
14.455 3.336 0.14399999
14.46 3.382 0.14399999
14.464 3.428 0.14399999
14.503 3.4820001 0.14399999
14.51 3.529 0.14399999
14.494 3.5710001 0.14399999
14.501 3.618 0.14399999
14.554 3.678 0.14399999
14.733 3.77 0.146
14.719 3.8139999 0.146
14.724 3.862 0.146
14.791 3.928 0.146
14.842 3.99 0.147
14.844 4.039 0.147
14.878 4.0970001 0.147
14.963 4.1700001 0.148
14.963 4.2199998 0.148
15.005 4.2810001 0.148
15.029 4.3390002 0.148
15.139 4.421 0.149
15.131 4.4699998 0.149
15.235 4.553 0.15000001
15.267 4.6139998 0.15000001
15.37 4.698 0.15099999
15.358 4.7470002 0.15099999
15.44 4.8260002 0.152
15.497 4.8979998 0.152
15.627 4.993 0.153
15.637 5.0510001 0.153
15.692 5.1240001 0.154
15.721 5.1890001 0.154
15.73 5.2480001 0.154
15.753 5.3119998 0.154
15.78 5.3769999 0.154
15.833 5.4520001 0.155
15.9 5.533 0.155
15.97 5.6149998 0.156
15.997 5.6830001 0.156
16.063 5.7649999 0.15700001
16.076 5.8280001 0.15700001
16.158001 5.9180002 0.15800001
16.184 5.987 0.15800001
16.223 6.0619998 0.15800001
16.218 6.1209998 0.15800001
16.341 6.2280002 0.15899999
12.305 5.9039998 0.119
12.289 5.947 0.119
12 5.8569999 0.116
11.956 5.8850002 0.115
11.965 5.9400001 0.115
12.01 6.013 0.116
12.24 6.2309999 0.118
12.278 6.303 0.118
12.256 6.3439999 0.118
12.182 6.3579998 0.117
12.094 6.3639998 0.116
12.133 6.4369998 0.117
12.273 6.5640001 0.118
7.8189998 -5.1479998 0.182
7.8720002 -5.1339998 0.184
7.9060001 -5.1059999 0.184
7.928 -5.072 0.185
7.9679999 -5.0489998 0.186
7.9910002 -5.0149999 0.186
8.0050001 -4.9759998 0.186
8.0500002 -4.9559999 0.18700001
8.0860004 -4.9299998 0.18799999
8.1049995 -4.895 0.18799999
8.1269999 -4.8610001 0.189
8.158 -4.8330002 0.189
8.1920004 -4.8070002 0.19
8.2119999 -4.7719998 0.19
8.2480001 -4.7470002 0.191
8.2639999 -4.71 0.191
8.2840004 -4.6760001 0.192
8.3210001 -4.652 0.192
8.3380003 -4.6160002 0.193
8.3649998 -4.5869999 0.193
8.4099998 -4.566 0.19400001
8.4689999 -4.5539999 0.19599999
8.5100002 -4.5320001 0.19599999
8.5019999 -4.4829998 0.19599999
8.4989996 -4.4380002 0.19599999
8.5509996 -4.4219999 0.197
8.5900002 -4.3990002 0.198
8.6370001 -4.3800001 0.199
7.9510002 -3.9920001 0.183
7.9099998 -3.9319999 0.182
7.8470001 -3.8629999 0.18099999
7.7789998 -3.7909999 0.17900001
7.7529998 -3.7420001 0.178
7.7690001 -3.7119999 0.17900001
7.7820001 -3.681 0.17900001
7.823 -3.664 0.18000001
7.9250002 -3.675 0.182
8.8389997 -4.0580001 0.20299999
8.8669996 -4.0300002 0.204
8.8830004 -3.997 0.204
8.9250002 -3.9749999 0.205
8.9399996 -3.9419999 0.205
8.9750004 -3.9170001 0.206
9.0209999 -3.8970001 0.207
9.0279999 -3.8610001 0.207
9.0769997 -3.842 0.208
9.0869999 -3.8069999 0.208
9.125 -3.7839999 0.20900001
9.1630001 -3.7609999 0.20999999
9.1669998 -3.723 0.20999999
9.2180004 -3.7049999 0.211
9.2329998 -3.6719999 0.211
9.2709999 -3.6489999 0.212
9.3129997 -3.628 0.213
8.184 -3.154 0.18700001
8.1029997 -3.0899999 0.185
8.1040001 -3.0580001 0.185
8.1190004 -3.0309999 0.185
8.1940002 -3.027 0.18700001
9.5270004 -3.4809999 0.21799999
9.5450001 -3.451 0.21799999
9.5570002 -3.418 0.21799999
9.5620003 -3.3829999 0.21799999
9.5959997 -3.358 0.219
9.6619997 -3.3440001 0.221
9.684 -3.3150001 0.221
9.7349997 -3.296 0.222
9.7460003 -3.263 0.222
9.7519999 -3.2290001 0.222
9.7939997 -3.207 0.223
9.8470001 -3.188 0.22499999
9.9440002 -3.1830001 0.227
9.9560003 -3.151 0.227
9.915 -3.1029999 0.226
9.9560003 -3.0799999 0.227
9.9729996 -3.05 0.227
9.9899998 -3.02 0.228
10.02 -2.994 0.228
10.036 -2.964 0.229
10.059 -2.9360001 0.229
10.103 -2.914 0.23
10.126 -2.8870001 0.23100001
10.15 -2.859 0.23100001
10.171 -2.8310001 0.23199999
10.191 -2.803 0.23199999
10.238 -2.7809999 0.233
10.28 -2.7590001 0.234
10.297 -2.73 0.234
10.344 -2.7090001 0.235
10.381 -2.6849999 0.236
10.41 -2.6589999 0.237
10.417 -2.6270001 0.237
10.453 -2.6040001 0.23800001
10.476 -2.576 0.23800001
10.496 -2.5480001 0.23899999
10.518 -2.5209999 0.23899999
10.539 -2.493 0.23999999
10.574 -2.4690001 0.241
10.595 -2.4419999 0.241
10.637 -2.4189999 0.242
10.665 -2.3940001 0.243
10.696 -2.369 0.243
10.722 -2.3429999 0.244
10.775 -2.322 0.245
10.8 -2.296 0.24600001
10.83 -2.2709999 0.24600001
10.879 -2.25 0.24699999
10.88 -2.2179999 0.24699999
10.942 -2.2 0.249
10.925 -2.165 0.249
11.001 -2.1489999 0.25
11.052 -2.128 0.25099999
11.092 -2.105 0.252
11.139 -2.0829999 0.25299999
11.185 -2.0610001 0.25400001
11.156 -2.0250001 0.25400001
11.197 -2.0020001 0.255
11.245 -1.98 0.25600001
11.271 -1.955 0.25600001
11.325 -1.934 0.25799999
11.344 -1.9069999 0.25799999
11.387 -1.8839999 0.259
11.447 -1.864 0.25999999
11.486 -1.841 0.26100001
11.505 -1.814 0.26199999
11.502 -1.784 0.26199999
11.527 -1.7589999 0.26199999
11.56 -1.734 0.26300001
11.547 -1.7029999 0.26300001
11.596 -1.681 0.264
11.663 -1.6619999 0.266
11.74 -1.6440001 0.26699999
11.779 -1.6210001 0.26800001
11.775 -1.592 0.26800001
11.793 -1.5650001 0.26899999
11.824 -1.541 0.26899999
11.83 -1.5140001 0.26899999
11.869 -1.49 0.27000001
11.893 -1.465 0.271
11.968 -1.446 0.273
12.02 -1.425 0.27399999
12.059 -1.402 0.27500001
12.106 -1.3789999 0.27599999
12.101 -1.351 0.27599999
12.161 -1.33 0.27700001
12.201 -1.307 0.278
12.22 -1.2819999 0.27900001
12.277 -1.26 0.28
12.286 -1.234 0.28
12.34 -1.212 0.28099999
12.363 -1.188 0.28200001
12.437 -1.168 0.28400001
12.539 -1.151 0.28600001
12.549 -1.125 0.28600001
12.892 0.171 0.17900001
12.939 0.19499999 0.17900001
12.969 0.21799999 0.17900001
13.003 0.243 0.17900001
13.002 0.26699999 0.17900001
13.035 0.292 0.18000001
13.061 0.317 0.18000001
13.033 0.34200001 0.17900001
13.066 0.368 0.17900001
