# .PCD v0.7 - Point Cloud Data file format
VERSION 0.7
FIELDS x y z
SIZE 4 4 4
TYPE F F F
COUNT 1 1 1
WIDTH 1947
HEIGHT 1
VIEWPOINT 0 0 0 1 0 0 0
POINTS 1947
DATA ascii
22.120001 2.8570001 1.2970001
22.101999 2.908 1.296
22.059 2.957 1.294
22.016001 3.0050001 1.2920001
22.077 3.069 1.296
22.129 3.132 1.3
22.198999 3.198 1.304
22.236 3.2590001 1.307
22.23 3.3150001 1.307
22.212 3.3699999 1.307
22.313 3.4430001 1.313
22.375 3.5120001 1.317
22.464001 3.585 1.323
22.617001 3.6689999 1.3329999
22.690001 3.7420001 1.3380001
22.674999 3.8 1.3380001
22.67 3.8599999 1.3380001
22.447001 3.8840001 1.325
22.379 3.9330001 1.322
22.354 3.99 1.321
22.358 4.053 1.322
22.372999 4.118 1.324
22.524 4.2090001 1.3329999
22.639 4.2940001 1.341
22.559 4.3429999 1.337
22.587 4.4130001 1.34
22.618999 4.4840002 1.342
22.632 4.552 1.344
22.650999 4.6220002 1.346
22.732 4.7049999 1.351
12.447 2.6500001 0.741
12.301 2.655 0.73199999
12.223 2.675 0.72799999
12.167 2.6989999 0.72500002
12.126 2.7260001 0.72399998
12.098 2.757 0.722
12.098 2.7939999 0.72299999
8.7200003 2.04 0.52100003
12.108 2.8329999 0.72399998
8.4949999 2.0139999 0.50800002
12.189 2.8900001 0.72899997
8.4289999 2.0250001 0.505
8.4169998 2.0480001 0.50400001
8.3769999 2.0639999 0.50199997
8.3389997 2.0810001 0.5
8.3330002 2.1059999 0.5
8.3210001 2.1300001 0.5
8.3079996 2.1530001 0.5
8.3059998 2.1789999 0.5
8.2819996 2.2 0.49900001
8.2740002 2.224 0.49900001
8.2709999 2.2509999 0.49900001
8.2749996 2.279 0.5
8.2650003 2.303 0.5
8.2069998 2.3139999 0.49700001
8.1730003 2.332 0.495
8.2069998 2.369 0.49700001
8.3870001 2.4489999 0.509
17.481001 5.5229998 1.068
17.393 5.5560002 1.064
17.351999 5.6030002 1.062
17.403 5.6810002 1.066
17.521 5.7810001 1.075
17.327 5.7789998 1.064
17.188999 5.7940001 1.057
17.207001 5.8610001 1.059
11.38 6.2820001 0.75
11.274 6.2740002 0.74400002
11.222 6.2940001 0.74199998
11.187 6.3239999 0.741
11.167 6.362 0.741
11.147 6.401 0.74000001
11.146 6.4510002 0.74199998
11.159 6.5079999 0.74400002
11.238 6.605 0.75
10.913 -7.165 0.76800001
10.977 -7.138 0.77200001
11.046 -7.1149998 0.77600002
11.069 -7.0619998 0.77700001
11.122 -7.0279999 0.77999997
11.16 -6.9850001 0.78200001
11.182 -6.9320002 0.78299999
11.245 -6.9050002 0.787
11.274 -6.8569999 0.78799999
11.301 -6.8070002 0.78899997
11.365 -6.7800002 0.79299998
11.396 -6.7340002 0.79500002
11.453 -6.7030001 0.79799998
11.472 -6.6500001 0.79900002
11.521 -6.6139998 0.80199999
11.582 -6.585 0.80500001
11.637 -6.553 0.80900002
11.67 -6.5079999 0.81
11.705 -6.4650002 0.81199998
11.802 -6.4559999 0.81800002
11.765 -6.3740001 0.815
11.813 -6.3379998 0.81800002
11.855 -6.2989998 0.81999999
11.846 -6.2329998 0.81900001
11.905 -6.2030001 0.82300001
11.935 -6.158 0.824
11.967 -6.1149998 0.82599998
12.013 -6.079 0.829
12.053 -6.039 0.83099997
12.109 -6.0079999 0.83399999
12.129 -5.9590001 0.83499998
12.173 -5.9219999 0.838
12.197 -5.875 0.83899999
12.219 -5.8270001 0.83999997
12.294 -5.8049998 0.84399998
12.361 -5.7789998 0.84899998
12.38 -5.73 0.84899998
12.423 -5.6929998 0.852
12.456 -5.651 0.85399997
12.5 -5.6139998 0.85600001
12.533 -5.572 0.85799998
12.6 -5.546 0.86199999
12.625 -5.5009999 0.86299998
12.692 -5.474 0.86799997
12.779 -5.4559999 0.87300003
12.831 -5.4219999 0.87599999
12.859 -5.3790002 0.87800002
13.047 -5.402 0.88999999
13.757 -5.1290002 0.93400002
13.735 -5.0669999 0.93199998
13.766 -5.0240002 0.93400002
13.706 -4.9489999 0.93000001
13.75 -4.9109998 0.93199998
13.773 -4.8660002 0.93400002
13.749 -4.8049998 0.93099999
13.782 -4.7649999 0.93300003
13.833 -4.73 0.93599999
13.886 -4.6960001 0.94
13.989 -4.6789999 0.94599998
14.127 -4.6729999 0.95499998
14.457 -4.2670002 0.97399998
14.545 -4.243 0.98000002
14.66 -4.2259998 0.98699999
14.667 -4.1789999 0.98699999
12.466 -3.223 0.83700001
12.368 -3.158 0.82999998
12.348 -3.1140001 0.829
12.398 -3.0869999 0.83200002
12.259 -2.938 0.82200003
12.197 -2.885 0.81800002
12.235 -2.8570001 0.81999999
12.375 -2.852 0.829
12.985 -0.421 0.86400002
12.953 -0.398 0.86199999
12.849 -0.373 0.85500002
12.767 -0.34900001 0.85000002
12.7 -0.32600001 0.84500003
12.695 -0.30500001 0.84500003
12.686 -0.28299999 0.84399998
12.687 -0.26300001 0.84500003
12.687 -0.242 0.84500003
12.684 -0.222 0.84500003
12.705 -0.20200001 0.84600002
12.721 -0.182 0.847
12.754 -0.163 0.84899998
12.804 -0.14399999 0.85299999
12.817 -0.124 0.85399997
12.906 -0.105 0.86000001
12.887 0.19 0.79400003
12.897 0.213 0.79400003
12.903 0.236 0.79400003
12.923 0.25999999 0.79500002
12.9 0.28299999 0.79400003
12.919 0.30700001 0.79500002
12.953 0.33199999 0.79699999
12.943 0.35699999 0.796
12.954 0.382 0.796
12.963 0.40700001 0.79699999
12.968 0.433 0.79699999
12.988 0.45899999 0.79799998
12.996 0.48500001 0.79799998
12.996 0.51200002 0.79799998
13.007 0.53899997 0.79900002
13.032 0.56599998 0.80000001
13.016 0.59299999 0.79900002
13.035 0.62099999 0.80000001
13.056 0.64999998 0.80199999
13.029 0.676 0.80000001
13.032 0.70499998 0.80000001
13.033 0.73299998 0.80000001
13.017 0.76099998 0.79900002
13 0.78899997 0.79799998
12.98 0.81599998 0.79699999
12.963 0.84399998 0.796
12.942 0.87199998 0.79400003
12.935 0.90200001 0.79400003
12.912 0.93000001 0.792
12.886 0.958 0.79100001
12.927 0.991 0.79299998
12.956 1.024 0.79500002
12.931 1.053 0.79400003
12.931 1.084 0.79400003
12.939 1.1160001 0.79400003
12.954 1.148 0.79500002
12.982 1.183 0.79699999
12.943 1.211 0.79500002
12.938 1.242 0.79500002
22.318001 2.1440001 1.3710001
12.97 1.278 0.79699999
22.222 2.1900001 1.365
13.041 1.318 0.801
22.177999 2.2409999 1.363
13.062 1.353 0.80299997
22.164 2.296 1.362
13.038 1.383 0.801
22.094999 2.345 1.358
13.094 1.423 0.80500001
22.063 2.398 1.357
22.073999 2.4560001 1.357
22.148001 2.5220001 1.362
22.124001 2.5769999 1.3609999
22.139999 2.6370001 1.362
22.424 2.73 1.38
22.424999 2.789 1.381
22.319 2.836 1.374
22.291 2.892 1.373
22.250999 2.947 1.3710001
22.211 3.0020001 1.369
22.148001 3.0539999 1.365
22.141001 3.1129999 1.365
22.174 3.1789999 1.368
22.229 3.2490001 1.372
22.271 3.3169999 1.375
22.318001 3.3859999 1.378
22.341 3.4530001 1.38
22.389 3.523 1.383
22.443001 3.596 1.387
22.622 3.6889999 1.399
22.787001 3.7809999 1.409
22.815001 3.8510001 1.4119999
22.780001 3.911 1.41
22.566999 3.941 1.397
22.43 3.9820001 1.39
22.451 4.052 1.391
22.457001 4.119 1.392
22.606001 4.2129998 1.402
22.653999 4.289 1.406
22.587999 4.3439999 1.402
22.618999 4.4180002 1.405
22.66 4.494 1.408
22.705999 4.572 1.4119999
22.796 4.6589999 1.418
12.347 2.6370001 0.76899999
12.251 2.654 0.76300001
12.185 2.677 0.75999999
12.123 2.701 0.75599998
12.1 2.734 0.755
12.081 2.767 0.75400001
8.7889996 2.0409999 0.54900002
12.087 2.8069999 0.755
8.5129995 2.003 0.53200001
12.146 2.859 0.759
8.4440002 2.0139999 0.528
8.4180002 2.0339999 0.52700001
8.3999996 2.0569999 0.52600002
8.3620005 2.0739999 0.52399999
8.3339996 2.0940001 0.523
8.3479996 2.1240001 0.52399999
8.3430004 2.1500001 0.52399999
8.3210001 2.171 0.523
8.283 2.188 0.52100003
8.2709999 2.2119999 0.51999998
8.2690001 2.2379999 0.52100003
8.2659998 2.2639999 0.52100003
8.2550001 2.289 0.51999998
8.1929998 2.2980001 0.51700002
8.1820002 2.322 0.51599997
8.2259998 2.362 0.51999998
8.4329996 2.4489999 0.53299999
17.302999 5.7870002 1.1059999
17.216 5.8169999 1.101
17.332001 5.9159999 1.109
12.446 -6.645 0.88999999
12.391 -6.579 0.88599998
12.419 -6.5580001 0.88800001
12.439 -6.5320001 0.889
12.762 -6.4390001 0.91100001
12.683 -6.362 0.90600002
12.685 -6.3260002 0.90600002
12.7 -6.296 0.90700001
12.779 -6.2969999 0.912
12.859 -6.2989998 0.91799998
12.842 -6.2529998 0.91600001
13.853 -5.5619998 0.98400003
13.934 -5.5539999 0.99000001
13.779 -5.4109998 0.97799999
13.836 -5.3930001 0.98199999
13.835 -5.3109999 0.98199999
13.878 -5.2870002 0.98500001
13.833 -5.2290001 0.98100001
13.851 -5.1950002 0.98199999
13.85 -5.1539998 0.98199999
13.888 -5.1279998 0.98500001
13.876 -5.0819998 0.98400003
13.875 -5.0409999 0.98299998
13.911 -5.013 0.986
13.911 -4.9720001 0.986
13.911 -4.9320002 0.98500001
13.961 -4.908 0.98900002
13.954 -4.8649998 0.98799998
13.998 -4.8390002 0.991
14.18 -4.8610001 1.0039999
14.085 -4.7870002 0.99699998
14.277 -4.8099999 1.01
14.46 -4.829 1.023
12.412 -3.0940001 0.87300003
12.375 -3.049 0.87
12.377 -3.0139999 0.87
12.413 -2.987 0.87300003
12.676 -3.013 0.89099997
12.263 -2.8429999 0.86199999
12.216 -2.7969999 0.85799998
12.224 -2.763 0.85900003
12.307 -2.747 0.86400002
13.05 -0.54100001 0.903
12.956 -0.5 0.89700001
12.873 -0.46000001 0.89099997
12.788 -0.41999999 0.88499999
12.749 -0.38299999 0.88200003
12.756 -0.34599999 0.88200003
12.776 -0.31 0.88300002
12.792 -0.27399999 0.884
12.84 -0.23800001 0.88700002
12.945 -0.20299999 0.89399999
12.988 -0.16599999 0.89700001
11.609 0.12 0.73900002
11.594 0.13 0.73799998
11.6 0.141 0.73799998
11.608 0.152 0.73799998
11.597 0.163 0.73699999
11.594 0.175 0.73699999
11.623 0.18700001 0.73799998
11.595 0.198 0.736
11.635 0.212 0.73799998
11.643 0.22499999 0.73900002
11.655 0.23800001 0.73900002
11.718 0.25299999 0.74299997
13.212 0.88499999 0.833
13.203 0.90899998 0.833
13.169 0.93099999 0.83099997
13.185 0.958 0.83099997
13.243 0.98699999 0.83499998
13.261 1.067 0.83700001
13.342 1.1 0.84200001
22.503 2.0409999 1.421
22.395 2.079 1.414
22.327999 2.1199999 1.41
22.351999 2.1700001 1.4119999
22.365 2.22 1.413
22.367001 2.2690001 1.413
22.385 2.3210001 1.415
22.407 2.3729999 1.416
22.523001 2.4360001 1.424
22.82 2.6240001 1.444
22.726999 2.6659999 1.439
22.719999 2.7190001 1.439
22.694 2.7690001 1.437
22.607 2.812 1.432
22.479 2.8499999 1.425
22.410999 2.8959999 1.421
22.318001 2.938 1.415
22.312 2.9920001 1.415
22.292999 3.0450001 1.415
22.278999 3.098 1.414
22.327 3.161 1.418
22.361 3.2219999 1.421
22.393999 3.2839999 1.423
22.538 3.3629999 1.433
22.573999 3.4260001 1.436
22.570999 3.4849999 1.437
22.709999 3.5650001 1.446
23.076 3.684 1.47
23.125999 3.753 1.474
23.113001 3.812 1.474
22.709 3.9920001 1.451
22.662001 4.046 1.449
22.650999 4.1069999 1.449
22.729 4.1849999 1.455
22.914 4.283 1.467
22.816999 4.329 1.462
22.745001 4.3800001 1.4579999
22.778999 4.4520001 1.461
22.881001 4.5370002 1.469
12.434 2.6470001 0.801
12.313 2.658 0.79299998
12.211 2.6719999 0.787
12.16 2.698 0.78500003
12.117 2.7249999 0.78200001
12.089 2.7550001 0.78100002
12.066 2.7869999 0.77999997
8.8030005 2.0599999 0.56900001
12.073 2.826 0.78100002
8.5459995 2.026 0.55299997
12.157 2.8829999 0.787
8.46 2.0320001 0.54799998
8.4350004 2.053 0.54699999
8.4160004 2.0739999 0.546
8.3830004 2.0929999 0.54400003
8.3570004 2.1129999 0.54299998
8.3500004 2.1370001 0.54299998
8.342 2.1619999 0.54299998
8.3170004 2.1819999 0.542
8.2709999 2.197 0.53899997
8.2700005 2.223 0.54000002
8.2770004 2.2520001 0.54100001
8.2720003 2.2780001 0.54100001
8.2600002 2.302 0.54000002
8.2040005 2.3139999 0.537
8.1789999 2.3340001 0.53600001
8.2150002 2.3710001 0.53899997
8.3640003 2.4419999 0.54900002
11.39 -7.4770002 0.85399997
11.442 -7.4400001 0.85799998
11.507 -7.4099998 0.86199999
11.548 -7.3660002 0.86400002
11.594 -7.3249998 0.86699998
11.644 -7.2870002 0.87
11.692 -7.2470002 0.87300003
11.743 -7.2090001 0.87599999
11.797 -7.1739998 0.87900001
11.847 -7.1350002 0.88200003
11.883 -7.0879998 0.884
11.905 -7.0339999 0.88499999
11.948 -6.9910002 0.88800001
11.999 -6.954 0.89099997
12.056 -6.921 0.89399999
12.068 -6.8610001 0.89499998
12.137 -6.8340001 0.89899999
12.2 -6.803 0.903
12.245 -6.7620001 0.90600002
12.213 -6.6799998 0.903
12.253 -6.6370001 0.90499997
12.266 -6.5799999 0.90499997
12.289 -6.5289998 0.90600002
12.368 -6.507 0.912
12.381 -6.4499998 0.912
12.482 -6.4400001 0.91900003
12.542 -6.408 0.92299998
12.55 -6.3499999 0.92299998
12.635 -6.3299999 0.92799997
12.601 -6.2509999 0.92500001
12.662 -6.2199998 0.92900002
12.745 -6.1989999 0.935
12.839 -6.1830001 0.94099998
12.963 -6.1820002 0.94999999
13.074 -6.1729999 0.95700002
13.19 -6.1659999 0.96499997
13.939 -5.4790001 1.011
13.883 -5.4000001 1.007
13.939 -5.3639998 1.01
13.969 -5.3200002 1.012
14.117 -5.3189998 1.022
13.992 -5.217 1.013
14.052 -5.1830001 1.017
14.067 -5.1339998 1.017
14.096 -5.0890002 1.0190001
14.108 -5.039 1.0190001
14.245 -5.033 1.029
14.158 -4.948 1.022
12.382 -3.1619999 0.88599998
12.348 -3.1140001 0.88300002
12.362 -3.0780001 0.884
12.445 -3.0599999 0.88999999
12.262 -2.938 0.87599999
12.194 -2.885 0.87099999
12.216 -2.8529999 0.87199998
12.28 -2.8299999 0.87699997
12.995 -0.35499999 0.921
12.966 -0.33199999 0.91900003
12.956 -0.31099999 0.91799998
12.934 -0.289 0.917
12.913 -0.26699999 0.91600001
12.916 -0.24699999 0.91600001
12.947 -0.226 0.91799998
13.04 -0.207 0.92500001
13.06 -0.167 0.926
13.11 -0.147 0.93000001
13.315 0.89899999 0.88
13.22 0.92299998 0.87400001
13.231 0.954 0.875
13.222 0.98400003 0.87400001
13.18 1.074 0.87099999
13.258 1.112 0.87699997
22.495001 2.1070001 1.488
22.351 2.1489999 1.479
22.325001 2.2019999 1.478
22.370001 2.2620001 1.4809999
22.386999 2.3210001 1.482
22.393 2.378 1.483
22.431 2.4400001 1.4859999
22.976 2.5580001 1.522
22.993999 2.6199999 1.524
23 2.6800001 1.524
22.875 2.7260001 1.516
22.761999 2.7720001 1.5089999
22.753 2.832 1.5089999
22.716 2.888 1.507
22.57 2.9300001 1.498
22.433001 2.9719999 1.489
22.381001 3.026 1.4859999
22.341 3.082 1.484
22.302 3.1370001 1.482
22.326 3.2019999 1.484
22.419001 3.2780001 1.49
22.433001 3.342 1.492
22.549 3.4230001 1.5
22.688999 3.5079999 1.51
23.445 4.7220001 1.571
23.278999 4.7589998 1.561
12.36 2.6400001 0.82999998
12.264 2.6570001 0.824
12.172 2.675 0.81800002
12.117 2.7 0.815
12.097 2.733 0.81400001
12.086 2.7690001 0.81400001
12.083 2.806 0.81400001
8.5740004 2.0179999 0.57800001
12.16 2.862 0.81999999
8.474 2.0209999 0.57099998
8.4499998 2.0420001 0.56999999
8.4239998 2.063 0.56900001
8.3730001 2.0769999 0.56599998
8.3579998 2.0999999 0.565
8.3400002 2.122 0.56400001
8.3290005 2.1459999 0.56400001
8.3129997 2.1689999 0.56300002
8.2770004 2.187 0.56099999
8.2709999 2.2119999 0.56099999
8.2650003 2.237 0.56099999
8.2869997 2.27 0.56300002
8.2650003 2.2920001 0.56199998
8.2010002 2.3010001 0.55800003
8.1990004 2.3269999 0.55800003
8.2580004 2.3710001 0.56300002
8.4440002 2.4530001 0.57599998
13.362 -6.4320002 1.0140001
13.356 -6.3889999 1.013
13.355 -6.3499999 1.013
13.405 -6.3340001 1.017
13.477 -6.3280001 1.022
13.559 -6.3270001 1.028
13.625 -6.3169999 1.033
14.094 -6.0359998 1.066
14.137 -6.013 1.0700001
14.152 -5.9770002 1.0700001
14.143 -5.849 1.069
14.219 -5.8379998 1.075
14.21 -5.7919998 1.074
14.279 -5.7779999 1.079
14.246 -5.723 1.076
14.213 -5.6680002 1.074
14.273 -5.6500001 1.0779999
14.35 -5.638 1.084
14.61 -5.1389999 1.1
14.784 -5.1570001 1.113
12.432 -3.0999999 0.93000001
12.359 -3.046 0.92400002
12.373 -3.013 0.92500001
12.405 -2.9849999 0.92699999
12.479 -2.967 0.93300003
12.402 -2.9119999 0.92699999
12.239 -2.8380001 0.91399997
12.206 -2.7950001 0.912
12.233 -2.766 0.91299999
12.303 -2.7460001 0.91799998
13.076 -0.391 0.96100003
13.107 -0.354 0.963
13.111 -0.31600001 0.963
11.612 0.123 0.79400003
11.591 0.133 0.792
11.576 0.14300001 0.79100001
11.589 0.154 0.792
11.605 0.16500001 0.792
11.608 0.177 0.792
11.607 0.189 0.792
11.644 0.20200001 0.79400003
11.657 0.214 0.79500002
11.651 0.227 0.79400003
11.67 0.23999999 0.79500002
11.752 0.255 0.80000001
13.243 0.889 0.89700001
13.221 0.912 0.89600003
13.173 0.93300003 0.89300001
13.189 0.95899999 0.89399999
13.214 0.98699999 0.89600003
13.147 1.007 0.89099997
13.092 1.029 0.88700002
13.084 1.054 0.88700002
13.133 1.084 0.88999999
13.18 1.115 0.89399999
13.202 1.1440001 0.89499998
13.292 1.179 0.90100002
13.308 1.322 0.903
13.142 1.334 0.89200002
23.224001 3.526 1.5880001
23.201 3.5829999 1.5880001
23.202999 3.6440001 1.589
23.194 3.704 1.589
23.186001 3.7639999 1.589
23.167 3.823 1.5880001
23.187 3.888 1.591
23.150999 3.9449999 1.589
23.16 4.0089998 1.59
23.15 4.0710001 1.591
23.138 4.1329999 1.591
23.118 4.1929998 1.59
23.150999 4.263 1.5930001
23.353001 4.632 1.612
23.327999 4.6939998 1.612
23.280001 4.7519999 1.609
23.211 4.8060002 1.6059999
23.232 4.8790002 1.608
12.352 2.6670001 0.85600001
12.246 2.681 0.84899998
12.18 2.7030001 0.84500003
12.116 2.7249999 0.84100002
12.091 2.756 0.83999997
12.068 2.7880001 0.83899999
12.063 2.8239999 0.83999997
8.5690002 2.0320001 0.597
12.113 2.8729999 0.84399998
8.4580002 2.0320001 0.58899999
12.423 2.9849999 0.866
8.3990002 2.0439999 0.58600003
8.3920002 2.069 0.58600003
8.3699999 2.0899999 0.58499998
8.3540001 2.112 0.58399999
8.3389997 2.135 0.58399999
8.3219995 2.1570001 0.583
8.3140001 2.1819999 0.583
8.2799997 2.1989999 0.58099997
8.2690001 2.223 0.58099997
8.2620001 2.2490001 0.58099997
8.2679996 2.277 0.58200002
8.2770004 2.3069999 0.583
8.2480001 2.326 0.58099997
8.1879997 2.336 0.57800001
8.2089996 2.3699999 0.57999998
8.335 2.434 0.58899999
11.861 -7.7849998 0.94499999
11.929 -7.7550001 0.94999999
12.009 -7.7329998 0.95499998
12.064 -7.6939998 0.95899999
12.106 -7.6469998 0.96100003
12.156 -7.6059999 0.96399999
12.207 -7.5650001 0.96799999
12.246 -7.5170002 0.97000003
12.219 -7.4289999 0.96700001
12.217 -7.3569999 0.96600002
12.242 -7.302 0.96700001
12.279 -7.2540002 0.96899998
12.283 -7.1869998 0.96899998
12.298 -7.1259999 0.96899998
12.304 -7.0619998 0.96899998
12.336 -7.0120001 0.97100002
12.364 -6.961 0.972
12.402 -6.915 0.97500002
12.444 -6.8709998 0.977
12.469 -6.8189998 0.97899997
12.545 -6.7940001 0.98400003
13.11 -6.829 1.025
13.181 -6.8000002 1.03
13.245 -6.7659998 1.035
13.298 -6.7270002 1.038
13.223 -6.6240001 1.0319999
13.266 -6.5799999 1.034
13.415 -6.5240002 1.045
13.284 -6.3969998 1.034
13.303 -6.3429999 1.035
13.373 -6.3130002 1.04
13.435 -6.2800002 1.044
13.511 -6.2519999 1.049
13.598 -6.23 1.0549999
13.705 -6.2160001 1.063
13.834 -6.2119999 1.072
13.935 -6.1950002 1.08
14.03 -6.1739998 1.086
14.082 -6.1350002 1.09
14.087 -6.0749998 1.09
14.182 -6.0539999 1.097
14.24 -6.0170002 1.1
14.175 -5.928 1.095
14.187 -5.8720002 1.095
14.255 -5.8400002 1.1
14.243 -5.7750001 1.098
14.333 -5.7519999 1.105
14.279 -5.671 1.1
14.363 -5.645 1.1059999
14.419 -5.6079998 1.11
14.425 -5.5510001 1.11
14.452 -5.5029998 1.1109999
14.517 -5.4699998 1.1160001
14.614 -5.448 1.123
14.687 -5.4169998 1.128
14.601 -5.3280001 1.1210001
14.839 -5.1859999 1.137
14.782 -5.1100001 1.133
12.552 -3.2049999 0.95300001
12.361 -3.1170001 0.93800002
12.347 -3.0739999 0.93699998
12.359 -3.039 0.93800002
12.421 -3.0150001 0.94199997
12.305 -2.9489999 0.93300003
12.205 -2.8870001 0.92500001
12.214 -2.852 0.926
12.225 -2.8169999 0.926
12.437 -2.829 0.94199997
13.11 0.22 0.93000001
13.04 0.242 0.92500001
13.055 0.266 0.926
13.039 0.28999999 0.92500001
13.056 0.31400001 0.926
13.086 0.33899999 0.92799997
13.082 0.36399999 0.92699999
13.051 0.38800001 0.92500001
13.05 0.41299999 0.92500001
13.106 0.44100001 0.92900002
13.09 0.46599999 0.92699999
13.095 0.49200001 0.92799997
13.092 0.51899999 0.92699999
13.138 0.54699999 0.93099999
13.098 0.57300001 0.92799997
13.125 0.60100001 0.92900002
13.106 0.62800002 0.92799997
13.121 0.65600002 0.92900002
13.133 0.685 0.93000001
13.146 0.71399999 0.93099999
13.138 0.74199998 0.93000001
13.143 0.77100003 0.93000001
13.171 0.80199999 0.93199998
13.141 0.829 0.93000001
13.137 0.85799998 0.93000001
13.15 0.889 0.93099999
13.1 0.91600001 0.92799997
13.074 0.94400001 0.926
13.058 0.97299999 0.92500001
13.057 1.0039999 0.92500001
13.031 1.0319999 0.92299998
13.006 1.061 0.921
13.014 1.0930001 0.92199999
13.062 1.1289999 0.92500001
13.074 1.161 0.926
13.105 1.196 0.92900002
13.182 1.235 0.93400002
13.161 1.266 0.93300003
13.15 1.298 0.93199998
13.139 1.33 0.93199998
13.13 1.362 0.93099999
13.094 1.392 0.92900002
13.306 1.448 0.94400001
23.237 3.0179999 1.652
23.24 3.0810001 1.653
23.194 3.138 1.65
23.190001 3.2 1.651
23.174 3.2609999 1.65
23.146999 3.322 1.649
23.186001 3.391 1.652
23.115999 3.51 1.648
23.107 3.5739999 1.648
23.09 3.6359999 1.648
23.073999 3.6989999 1.647
23.084 3.767 1.649
23.083 3.8329999 1.649
23.083 3.8989999 1.65
23.087999 3.967 1.651
23.089001 4.0339999 1.652
23.076 4.099 1.652
23.089001 4.1690001 1.653
23.086 4.2360001 1.654
23.135 4.3140001 1.658
23.384001 4.6399999 1.679
23.337999 4.7010002 1.677
23.256001 4.7550001 1.6720001
23.202999 4.8150001 1.669
23.351 4.9169998 1.681
12.44 2.658 0.89600003
12.277 2.661 0.884
12.177 2.6760001 0.87800002
12.124 2.7019999 0.87400001
12.087 2.7320001 0.87199998
12.056 2.763 0.87099999
8.6090002 2 0.62199998
12.07 2.8039999 0.87199998
8.4639997 1.992 0.61199999
12.129 2.855 0.87699997
8.4060001 2.0050001 0.60799998
8.3739996 2.0239999 0.60600001
8.3789997 2.052 0.60699999
8.3739996 2.0780001 0.60699999
8.3360004 2.095 0.60399997
8.3299999 2.1199999 0.60399997
8.316 2.1429999 0.60399997
8.3070002 2.168 0.60399997
8.2639999 2.1830001 0.60100001
8.2650003 2.211 0.60100001
8.2650003 2.237 0.602
8.2690001 2.266 0.60299999
8.2869997 2.2980001 0.60399997
8.2349997 2.3110001 0.60100001
8.2040005 2.329 0.59899998
8.2399998 2.3659999 0.602
8.4099998 2.4430001 0.61500001
14.159 -6.4850001 1.137
14.238 -6.4790001 1.143
14.174 -6.4089999 1.138
14.274 -6.4120002 1.146
14.294 -6.3779998 1.147
14.411 -6.388 1.1569999
14.39 -6.336 1.155
14.51 -6.132 1.163
14.495 -6.0830002 1.1619999
14.525 -6.053 1.164
14.567 -6.027 1.1670001
14.583 -5.9910002 1.168
14.586 -5.9489999 1.168
14.589 -5.9070001 1.168
14.638 -5.8839998 1.1720001
14.678 -5.8569999 1.175
14.639 -5.7979999 1.1720001
14.688 -5.7740002 1.175
14.741 -5.7509999 1.179
14.777 -5.7220001 1.182
14.809 -5.6469998 1.184
14.795 -5.598 1.183
14.879 -5.586 1.189
12.447 -3.105 0.986
12.384 -3.053 0.98100001
12.348 -3.0079999 0.97799999
12.362 -2.9749999 0.97899997
12.39 -2.9460001 0.98100001
12.328 -2.895 0.97600001
12.224 -2.835 0.96700001
12.207 -2.796 0.96600002
12.235 -2.767 0.96799999
12.323 -2.7509999 0.97399998
11.616 0.125 0.84899998
11.575 0.13500001 0.84600002
11.613 0.146 0.84799999
11.587 0.156 0.84600002
11.568 0.167 0.84399998
11.586 0.17900001 0.84500003
11.574 0.19 0.84399998
11.573 0.20200001 0.84299999
11.571 0.215 0.84299999
11.592 0.228 0.84399998
11.599 0.241 0.84399998
11.618 0.25400001 0.84500003
11.682 0.27000001 0.85000002
13.144 0.368 0.95499998
13.212 0.38699999 0.95999998
13.096 0.50999999 0.94999999
13.155 0.53200001 0.954
13.208 0.55400002 0.958
13.103 0.58999997 0.94999999
13.153 0.61299998 0.95300001
13.191 0.63599998 0.95599997
13.108 0.653 0.94999999
13.134 0.676 0.95200002
13.134 0.69800001 0.95200002
13.113 0.71899998 0.94999999
13.076 0.73900002 0.94700003
13.049 0.75999999 0.94499999
13.065 0.78399998 0.94700003
13.054 0.80599999 0.94599998
13.05 0.829 0.94499999
13.029 0.852 0.94400001
13.008 0.87400001 0.94199997
12.989 0.89700001 0.94099998
12.96 0.92000002 0.93900001
12.931 0.94199997 0.93699998
12.912 0.96499997 0.93599999
12.895 0.98900002 0.935
12.889 1.0140001 0.93400002
12.882 1.039 0.93400002
12.892 1.066 0.935
12.901 1.0930001 0.935
12.924 1.1210001 0.93699998
12.949 1.15 0.93900001
12.954 1.177 0.94
23.118 2.102 1.677
13.006 1.21 0.94400001
23.136999 2.152 1.679
13.066 1.243 0.94800001
23.115 2.1989999 1.678
12.98 1.263 0.94199997
23.108 2.2479999 1.678
13.015 1.294 0.94499999
23.181999 2.306 1.683
13.031 1.324 0.94599998
13.045 1.354 0.94800001
13.106 1.39 0.95200002
13.185 1.428 0.958
23.194 2.5120001 1.686
13.22 1.462 0.96100003
23.025999 2.546 1.674
22.989 2.595 1.6720001
22.997999 2.648 1.673
13.169 1.5470001 0.958
23.007999 2.7030001 1.674
13.087 1.568 0.95300001
23.009001 2.757 1.675
13.015 1.59 0.94800001
23.037001 2.8150001 1.678
13.035 1.623 0.949
23.035 2.869 1.678
13.127 1.666 0.95599997
23.02 2.9219999 1.678
23.000999 2.9760001 1.677
23.007999 3.0320001 1.678
23.021999 3.0910001 1.6799999
23.011 3.1459999 1.679
23.004 3.2019999 1.6799999
23.007 3.26 1.681
23.07 3.3269999 1.686
23.104 3.391 1.689
23.030001 3.4389999 1.684
23.014999 3.4960001 1.684
23.027 3.5580001 1.686
23.017 3.6159999 1.686
23.028 3.6789999 1.688
23.028999 3.74 1.688
23.024 3.8 1.689
23.028999 3.8629999 1.6900001
23.021 3.924 1.691
23.025999 3.987 1.692
23.041 4.053 1.694
23.045 4.1170001 1.6950001
23.047001 4.1810002 1.696
23.061001 4.2480001 1.698
23.174 4.3340001 1.7079999
23.339001 4.6300001 1.724
23.358 4.7020001 1.727
23.386 4.7750001 1.73
23.375999 4.8410001 1.7309999
12.488 2.6600001 0.926
12.328 2.6619999 0.91399997
12.217 2.675 0.90700001
12.151 2.697 0.903
12.102 2.723 0.89999998
12.056 2.7490001 0.89700001
12.048 2.7839999 0.89700001
8.4840002 1.9859999 0.63200003
12.064 2.8239999 0.89899999
8.4069996 1.994 0.62699997
12.21 2.8959999 0.91000003
8.368 2.0109999 0.62400001
8.3610001 2.0350001 0.62400001
8.3760004 2.0650001 0.62599999
8.3549995 2.086 0.625
8.3319998 2.1070001 0.62400001
8.3109999 2.128 0.62300003
8.2919998 2.1489999 0.62199998
8.2910004 2.1760001 0.62199998
8.2650003 2.1960001 0.62099999
8.2639999 2.2219999 0.62099999
8.2589998 2.2479999 0.62099999
8.2589998 2.2750001 0.62199998
8.2709999 2.306 0.62400001
8.2379999 2.3239999 0.62199998
8.198 2.339 0.61900002
8.2220001 2.3740001 0.62199998
8.3509998 2.4389999 0.63200003
12.644 -8.2969999 1.066
12.697 -8.2530003 1.0700001
12.748 -8.2069998 1.073
12.81 -8.1689997 1.077
12.904 -8.1499996 1.084
12.936 -8.0930004 1.086
12.981 -8.0439997 1.089
13.036 -8.0010004 1.0930001
13.11 -7.9689999 1.098
13.144 -7.914 1.1
13.205 -7.875 1.104
13.244 -7.822 1.107
13.353 -7.8119998 1.115
13.386 -7.756 1.117
13.697 -7.4899998 1.138
13.595 -7.362 1.128
13.572 -7.2789998 1.126
13.714 -7.2129998 1.136
13.767 -7.171 1.14
13.786 -7.1110001 1.14
13.923 -7.112 1.151
13.951 -7.0570002 1.152
14.183 -6.6950002 1.1670001
14.308 -6.6869998 1.176
14.215 -6.382 1.166
14.251 -6.335 1.168
14.338 -6.309 1.175
14.41 -6.277 1.1799999
14.495 -6.25 1.186
14.518 -6.1960001 1.188
14.564 -6.0900002 1.1900001
14.568 -6.0300002 1.1900001
14.578 -5.9720001 1.1900001
14.611 -5.9239998 1.192
14.687 -5.8930001 1.198
14.74 -5.8530002 1.202
14.835 -5.8299999 1.209
14.911 -5.7989998 1.214
14.806 -5.698 1.205
14.883 -5.6669998 1.211
14.956 -5.6350002 1.216
12.404 -3.128 0.99599999
12.36 -3.0780001 0.99199998
12.35 -3.036 0.991
12.393 -3.0079999 0.99400002
12.341 -2.9579999 0.99000001
12.225 -2.892 0.98000002
12.209 -2.8510001 0.97899997
12.217 -2.816 0.97899997
12.319 -2.802 0.98699999
11.557 0.175 0.875
11.691 0.198 0.88499999
12.975 0.243 0.98199999
12.945 0.266 0.97899997
12.955 0.28999999 0.98000002
12.969 0.31400001 0.98100001
12.983 0.338 0.98100001
12.985 0.36300001 0.98100001
12.988 0.38800001 0.98199999
13.026 0.414 0.98400003
13.04 0.44 0.98500001
13.033 0.46599999 0.98500001
13.022 0.491 0.98400003
13.015 0.51700002 0.98299998
13.026 0.54400003 0.98400003
13.049 0.57200003 0.98500001
13.052 0.59899998 0.986
13.035 0.62599999 0.98400003
13.055 0.65399998 0.986
13.044 0.68199998 0.98500001
13.021 0.708 0.98299998
13.015 0.736 0.98299998
13.018 0.76499999 0.98299998
13.002 0.79299998 0.98199999
13.01 0.82200003 0.98199999
12.998 0.85100001 0.98100001
12.973 0.87900001 0.98000002
12.946 0.90600002 0.97799999
12.92 0.93400002 0.97600001
12.897 0.96200001 0.97399998
12.88 0.991 0.97299999
12.847 1.0190001 0.97000003
12.854 1.05 0.97100002
12.849 1.08 0.97100002
12.872 1.113 0.97299999
12.896 1.147 0.97500002
12.924 1.181 0.977
12.916 1.212 0.97600001
23.048 2.1630001 1.743
12.948 1.247 0.97899997
23.069 2.2219999 1.745
13.017 1.286 0.98400003
23.066 2.279 1.745
12.966 1.313 0.98100001
23.063 2.336 1.745
13.011 1.351 0.98400003
13.01 1.3839999 0.98400003
13.062 1.423 0.98900002
13.11 1.462 0.99299997
23.112 2.5769999 1.75
13.185 1.5039999 0.99800003
22.969 2.6199999 1.74
22.952999 2.678 1.739
13.131 1.566 0.995
22.950001 2.7379999 1.739
13.055 1.592 0.98900002
22.966 2.8010001 1.7410001
12.976 1.617 0.98400003
22.974001 2.862 1.742
12.97 1.65 0.98299998
22.975 2.924 1.742
13.096 1.701 0.99299997
22.971001 2.9849999 1.743
22.983999 3.0480001 1.744
22.98 3.1099999 1.745
22.966999 3.171 1.744
22.976 3.2349999 1.745
22.976 3.2980001 1.7460001
23.018 3.368 1.75
23.052999 3.437 1.753
22.997999 3.494 1.75
22.976 3.5550001 1.749
22.983999 3.6210001 1.75
22.986 3.6860001 1.751
22.999001 3.7539999 1.753
22.996 3.819 1.753
22.997 3.8859999 1.7539999
23.004999 3.954 1.755
23.009001 4.0209999 1.756
23.018 4.0900002 1.758
23.025 4.1589999 1.7589999
23.021999 4.2259998 1.76
23.068001 4.303 1.7640001
23.377001 4.71 1.793
23.421 4.79 1.7970001
12.52 2.6370001 0.96200001
12.361 2.641 0.94999999
12.245 2.654 0.94099998
12.167 2.675 0.93599999
12.109 2.7 0.93199998
12.069 2.7279999 0.93000001
12.049 2.7609999 0.92900002
8.5089998 1.977 0.65600002
12.069 2.8039999 0.93099999
8.4139996 1.9809999 0.64899999
12.183 2.869 0.94
8.3950005 2.003 0.648
8.3830004 2.027 0.648
8.4040003 2.0580001 0.64999998
8.3730001 2.0780001 0.648
8.3179998 2.0910001 0.64399999
8.3059998 2.1140001 0.64300001
8.2989998 2.1389999 0.64300001
8.2810001 2.161 0.64200002
8.2600002 2.1830001 0.64099997
8.2620001 2.21 0.64200002
8.2609997 2.237 0.64200002
8.2749996 2.2679999 0.64399999
8.2530003 2.289 0.64300001
8.2110004 2.3039999 0.63999999
8.198 2.3280001 0.639
8.2379999 2.3659999 0.64300001
8.3870001 2.437 0.65499997
14.619 -6.9159999 1.242
14.641 -6.8839998 1.243
12.217 -5.527 1.036
12.31 -5.533 1.044
14.734 -6.579 1.249
14.738 -6.5370002 1.25
14.858 -6.546 1.26
14.846 -6.3210001 1.257
14.867 -6.2859998 1.2589999
12.55 -3.131 1.05
12.385 -3.0539999 1.036
12.352 -3.0090001 1.033
12.358 -2.9749999 1.033
12.352 -2.937 1.033
12.281 -2.885 1.026
12.207 -2.832 1.02
12.203 -2.7950001 1.0190001
12.232 -2.766 1.022
12.285 -2.743 1.026
11.621 0.127 0.90399998
11.583 0.13699999 0.90100002
11.594 0.148 0.90100002
11.578 0.15800001 0.89999998
11.554 0.169 0.89700001
11.546 0.18000001 0.89600003
11.555 0.192 0.89700001
11.572 0.205 0.898
11.554 0.21600001 0.89600003
11.563 0.229 0.89600003
11.587 0.243 0.898
11.623 0.257 0.89999998
11.661 0.271 0.903
13.15 0.40400001 1.017
13.172 0.42300001 1.018
13.174 0.45899999 1.018
13.144 0.47600001 1.015
13.191 0.49700001 1.0190001
13.133 0.514 1.0140001
13.131 0.53299999 1.0140001
13.13 0.55299997 1.0140001
13.09 0.57099998 1.01
13.109 0.59200001 1.012
13.088 0.61199999 1.01
13.111 0.634 1.012
13.091 0.65399998 1.01
13.117 0.67699999 1.012
13.105 0.69800001 1.011
13.076 0.71799999 1.0089999
13.057 0.74000001 1.007
13.045 0.76099998 1.006
13.04 0.78399998 1.006
13.027 0.80599999 1.005
13.004 0.82800001 1.003
12.988 0.85100001 1.002
12.975 0.87400001 1.001
12.92 0.89399999 0.99699998
12.907 0.917 0.99599999
12.866 0.93900001 0.99299997
12.826 0.96100003 0.99000001
12.798 0.98299998 0.98799998
12.787 1.007 0.98699999
12.796 1.034 0.98799998
12.804 1.0599999 0.98799998
12.809 1.086 0.98900002
12.814 1.113 0.99000001
12.865 1.1440001 0.99400002
23.033001 2.0480001 1.779
12.959 1.179 1.001
22.982 2.092 1.776
12.917 1.2029999 0.99800003
22.987 2.1400001 1.777
13.001 1.238 1.005
23.062 2.1960001 1.783
12.99 1.265 1.0039999
13.023 1.296 1.007
13.027 1.325 1.007
13.064 1.358 1.011
13.115 1.392 1.015
13.154 1.426 1.018
23.062 2.5 1.785
22.945 2.539 1.777
22.921 2.589 1.776
22.924 2.642 1.776
13.126 1.543 1.017
22.919001 2.694 1.776
13.042 1.564 1.011
22.931 2.7490001 1.778
13.023 1.592 1.01
22.941 2.8050001 1.779
13.075 1.6289999 1.0140001
22.955 2.8610001 1.781
13.312 1.691 1.033
22.943001 2.914 1.781
22.947001 2.97 1.7819999
22.955 3.027 1.783
22.958 3.0840001 1.784
22.952 3.1400001 1.784
22.947001 3.1960001 1.785
22.957001 3.2550001 1.786
22.985001 3.3169999 1.789
23.038 3.3829999 1.794
22.986 3.434 1.791
22.965 3.49 1.79
22.975 3.5510001 1.7920001
22.985001 3.6129999 1.794
22.992001 3.674 1.795
22.993999 3.7349999 1.796
22.981001 3.7950001 1.796
23.000999 3.8599999 1.799
22.995001 3.921 1.799
23.007999 3.9849999 1.801
22.996 4.046 1.801
23.013 4.1129999 1.804
23.024 4.178 1.806
23.024 4.2420001 1.807
23.062 4.3140001 1.811
23.160999 4.3979998 1.8200001
12.523 2.631 0.98799998
12.4 2.642 0.97899997
12.332 2.664 0.97500002
12.22 2.6760001 0.96600002
12.156 2.6989999 0.96200001
12.121 2.727 0.95999998
12.076 2.7539999 0.95700002
12.06 2.7869999 0.95700002
8.7150002 2.0409999 0.69199997
12.06 2.8239999 0.958
8.4809999 2.0120001 0.67400002
12.083 2.8670001 0.95999998
8.4370003 2.0280001 0.671
12.144 2.9189999 0.96600002
8.4139996 2.0480001 0.67000002
8.3970003 2.0710001 0.66900003
8.3739996 2.0910001 0.66799998
8.3339996 2.108 0.66500002
8.302 2.1259999 0.66299999
8.2869997 2.148 0.662
8.2770004 2.1730001 0.662
8.2550001 2.1930001 0.66100001
8.2600002 2.2219999 0.662
8.2419996 2.244 0.66100001
8.2480001 2.2720001 0.662
8.243 2.2980001 0.662
8.2089996 2.316 0.66000003
8.1859999 2.336 0.65899998
8.2069998 2.3699999 0.66100001
8.2740002 2.4170001 0.667
13.238 -8.6859999 1.178
13.337 -8.6680002 1.1849999
13.395 -8.6219997 1.1900001
13.432 -8.5640001 1.192
13.489 -8.5190001 1.196
13.532 -8.4639997 1.199
13.61 -8.4320002 1.204
13.655 -8.3789997 1.207
13.722 -8.3400002 1.212
13.734 -8.2679996 1.212
13.789 -8.2220001 1.216
13.831 -8.1680002 1.219
13.906 -8.1339998 1.225
14.02 -7.8909998 1.2309999
14.034 -7.823 1.2309999
14.124 -7.7979999 1.238
14.127 -7.724 1.238
14.197 -7.6869998 1.243
14.317 -7.678 1.253
14.22 -7.552 1.243
14.267 -7.5040002 1.247
14.396 -7.4250002 1.256
14.351 -7.3299999 1.252
14.336 -7.2509999 1.249
14.4 -7.2119999 1.2539999
14.433 -7.158 1.256
14.521 -7.131 1.263
14.47 -7.0359998 1.258
14.545 -7.0029998 1.2640001
12.031 -5.7350001 1.045
12.021 -5.6739998 1.043
12.145 -5.6760001 1.053
14.662 -6.7839999 1.271
14.63 -6.7020001 1.267
14.668 -6.652 1.27
14.749 -6.6220002 1.276
14.751 -6.5560002 1.276
14.768 -6.4980001 1.276
14.834 -6.4619999 1.281
14.931 -6.4380002 1.289
14.924 -6.3699999 1.288
14.974 -6.3260002 1.291
15.057 -6.296 1.298
15.055 -6.2309999 1.2970001
12.437 -3.1359999 1.053
12.334 -3.0710001 1.044
12.323 -3.03 1.043
12.329 -2.993 1.043
12.259 -2.938 1.0369999
12.197 -2.885 1.0319999
12.199 -2.849 1.031
12.213 -2.8150001 1.0319999
12.291 -2.796 1.039
11.541 0.177 0.92799997
11.663 0.199 0.93699998
12.965 0.245 1.0420001
12.94 0.26699999 1.039
12.951 0.29100001 1.04
12.961 0.315 1.041
12.981 0.34 1.0420001
13.016 0.366 1.045
13.015 0.391 1.045
13.002 0.41499999 1.043
13.032 0.442 1.046
13.039 0.46799999 1.046
13.033 0.493 1.046
13.022 0.51899999 1.045
13.022 0.546 1.045
13.035 0.57300001 1.046
13.041 0.60000002 1.046
13.043 0.62800002 1.046
13.049 0.65600002 1.0470001
13.039 0.68300003 1.046
13.047 0.71100003 1.046
13.034 0.73900002 1.045
13.005 0.76599997 1.043
13.015 0.79500002 1.044
13.011 0.824 1.044
12.99 0.852 1.0420001
12.964 0.87900001 1.04
12.925 0.90600002 1.0369999
12.882 0.93300003 1.033
12.85 0.95999998 1.031
12.799 0.986 1.027
12.771 1.0140001 1.025
12.756 1.043 1.024
12.778 1.076 1.026
12.788 1.107 1.027
12.814 1.14 1.029
12.848 1.175 1.0319999
12.94 1.215 1.039
12.937 1.247 1.039
13.011 1.286 1.045
12.999 1.318 1.045
13.065 1.357 1.05
13.038 1.388 1.048
13.1 1.428 1.054
13.134 1.465 1.057
23.194 2.5880001 1.8660001
22.947001 2.6199999 1.847
22.900999 2.674 1.844
22.899 2.734 1.844
13.148 1.604 1.059
22.900999 2.7939999 1.845
13.075 1.63 1.053
22.912001 2.8559999 1.846
13.078 1.665 1.054
22.926001 2.9189999 1.848
22.93 2.9809999 1.849
22.922001 3.0420001 1.849
22.917999 3.1029999 1.849
22.941 3.1689999 1.851
22.934999 3.2309999 1.852
22.934 3.2939999 1.852
22.941 3.358 1.853
23.037001 3.437 1.862
22.954 3.4879999 1.8559999
22.951 3.552 1.8559999
22.955 3.618 1.857
22.989 3.688 1.8609999
22.974001 3.7509999 1.8609999
22.969 3.816 1.8609999
22.982 3.885 1.863
22.976999 3.95 1.863
22.995001 4.02 1.8660001
23.003 4.0890002 1.867
22.983 4.152 1.867
23.013 4.2259998 1.87
23.023001 4.296 1.872
23.049999 4.369 1.875
12.549 2.605 1.024
12.424 2.6170001 1.0140001
12.355 2.641 1.0089999
12.236 2.6530001 1
12.159 2.674 0.99400002
12.128 2.704 0.99299997
12.105 2.737 0.991
12.084 2.77 0.99000001
12.062 2.803 0.98900002
8.5839996 2.0220001 0.704
12.083 2.846 0.991
8.4910002 2.026 0.69700003
12.13 2.895 0.99599999
8.408 2.033 0.69099998
8.382 2.0539999 0.68900001
8.3540001 2.073 0.68699998
8.323 2.092 0.685
8.3000002 2.1129999 0.68400002
8.2779999 2.1340001 0.68199998
8.2700005 2.1589999 0.68199998
8.2460003 2.1789999 0.68099999
8.2449999 2.2060001 0.68099999
8.2379999 2.2309999 0.68099999
8.2360001 2.257 0.68099999
8.2180004 2.279 0.68000001
8.191 2.299 0.67900002
8.1899996 2.325 0.67900002
8.2080002 2.358 0.68099999
8.2869997 2.408 0.68800002
12.441 -3.0680001 1.096
12.351 -3.01 1.0880001
12.331 -2.9690001 1.086
12.313 -2.928 1.084
12.239 -2.875 1.077
12.188 -2.8280001 1.072
12.184 -2.7909999 1.072
12.203 -2.76 1.073
12.258 -2.737 1.0779999
13.102 -0.34799999 1.133
13.041 -0.30899999 1.127
13.024 -0.271 1.125
13.118 -0.236 1.133
11.574 0.12899999 0.95499998
11.563 0.139 0.954
11.59 0.15000001 0.95499998
11.545 0.16 0.95099998
11.551 0.171 0.95099998
11.545 0.183 0.94999999
11.563 0.19400001 0.95200002
11.53 0.206 0.94800001
11.553 0.219 0.94999999
11.579 0.23199999 0.95200002
11.588 0.245 0.95200002
11.618 0.25799999 0.954
11.63 0.27200001 0.95499998
11.776 0.28999999 0.96700001
13.098 0.37099999 1.075
13.023 0.38499999 1.068
13.061 0.40400001 1.071
13.097 0.42199999 1.074
13.116 0.59399998 1.074
13.073 0.61299998 1.0700001
13.096 0.63499999 1.072
13.126 0.65700001 1.074
13.103 0.67799997 1.072
13.088 0.699 1.071
13.069 0.72000003 1.069
13.094 0.74299997 1.071
13.052 0.76300001 1.068
13.035 0.78500003 1.067
13.028 0.80800003 1.066
13.008 0.82999998 1.064
12.986 0.852 1.063
12.964 0.87400001 1.061
12.935 0.89600003 1.059
12.893 0.91799998 1.0549999
12.862 0.94 1.053
12.824 0.96200001 1.05
12.792 0.98400003 1.0470001
12.782 1.008 1.0470001
12.791 1.034 1.0470001
12.801 1.061 1.048
12.806 1.087 1.049
12.821 1.115 1.05
12.863 1.145 1.054
12.927 1.177 1.0599999
23.070999 2.102 1.891
12.946 1.206 1.061
23.093 2.152 1.8940001
13.038 1.243 1.069
23.150999 2.207 1.899
12.999 1.267 1.066
13.039 1.299 1.0700001
13.032 1.327 1.069
13.077 1.36 1.073
13.087 1.39 1.074
13.117 1.423 1.077
23.011 2.4960001 1.89
13.317 1.475 1.094
22.900999 2.536 1.882
22.886 2.5869999 1.881
13.126 1.5140001 1.079
22.892 2.6400001 1.882
13.142 1.546 1.081
22.893 2.6930001 1.883
22.903999 2.7479999 1.8839999
22.906 2.802 1.885
22.914 2.858 1.887
22.907 2.911 1.887
22.912001 2.967 1.888
22.931999 3.026 1.89
22.921 3.0799999 1.89
22.927 3.138 1.891
22.93 3.1949999 1.892
22.92 3.2509999 1.892
22.940001 3.312 1.895
22.98 3.3759999 1.899
22.965 3.4319999 1.899
22.952999 3.49 1.899
22.952999 3.549 1.9
22.962 3.6110001 1.901
22.966999 3.6719999 1.903
22.976 3.734 1.905
22.968 3.7939999 1.905
22.974001 3.8559999 1.9069999
22.976 3.9189999 1.908
22.973 3.9809999 1.909
22.986 4.046 1.911
22.982 4.1079998 1.9119999
22.976999 4.171 1.9119999
22.995001 4.2379999 1.915
22.997999 4.303 1.9170001
23.000999 4.369 1.918
23.073 4.448 1.925
23.243 4.5469999 1.941
12.551 2.5999999 1.051
12.389 2.6029999 1.038
12.335 2.628 1.034
12.29 2.655 1.031
12.199 2.6719999 1.024
12.14 2.6949999 1.02
12.109 2.7249999 1.018
12.095 2.7590001 1.018
12.075 2.7909999 1.017
12.064 2.825 1.017
8.7110004 2.0669999 0.73500001
12.061 2.862 1.017
8.5120001 2.046 0.71899998
12.103 2.9089999 1.022
8.4020004 2.046 0.70999998
8.3579998 2.0610001 0.70700002
8.3450003 2.0840001 0.70599997
8.3190002 2.1040001 0.70499998
8.2810001 2.1210001 0.70200002
8.2740002 2.145 0.70200002
8.2589998 2.168 0.70099998
8.2379999 2.1889999 0.69999999
8.2399998 2.2160001 0.70099998
8.2390003 2.243 0.70200002
8.2130003 2.263 0.69999999
8.1879997 2.283 0.699
8.1700001 2.3050001 0.69800001
8.1709995 2.332 0.699
8.1759996 2.3610001 0.69999999
8.2279997 2.404 0.70499998
8.4770002 2.5050001 0.727
27.643 19.794001 2.756
27.461 19.799999 2.743
14.012 -8.8479996 1.307
13.998 -8.7550001 1.3049999
14.05 -8.7040005 1.308
14.088 -8.6440001 1.311
14.147 -8.5979996 1.3150001
14.181 -8.5360003 1.317
14.272 -8.5089998 1.325
14.383 -8.4940004 1.334
14.639 -8.1599998 1.352
14.744 -8.1389999 1.36
12.467 -3.1440001 1.1109999
12.335 -3.0710001 1.099
12.309 -3.026 1.096
12.274 -2.9790001 1.092
12.19 -2.921 1.085
12.161 -2.8770001 1.082
12.195 -2.848 1.085
12.218 -2.816 1.086
12.354 -2.8099999 1.098
12.966 -0.35299999 1.143
12.933 -0.33000001 1.14
12.87 -0.308 1.135
12.818 -0.285 1.13
12.778 -0.26300001 1.127
12.774 -0.243 1.126
12.752 -0.222 1.124
12.758 -0.20100001 1.125
12.784 -0.182 1.127
12.781 -0.162 1.127
12.819 -0.142 1.131
12.897 -0.123 1.138
11.551 0.17900001 0.98299998
11.679 0.20100001 0.99299997
12.919 0.24600001 1.099
12.898 0.26800001 1.097
12.889 0.292 1.096
12.901 0.31600001 1.096
12.97 0.34200001 1.102
13.007 0.36700001 1.105
13.084 0.39399999 1.112
13.134 0.421 1.1160001
13.144 0.447 1.1160001
13.232 0.47600001 1.124
13.126 0.49900001 1.115
13.069 0.523 1.11
13.049 0.54799998 1.108
13.033 0.574 1.107
13.059 0.60299999 1.109
13.034 0.62900001 1.107
13.062 0.65799999 1.109
13.052 0.685 1.108
13.08 0.71499997 1.11
13.063 0.74199998 1.109
13.024 0.76800001 1.1059999
13.006 0.796 1.104
13.006 0.82499999 1.104
12.961 0.85100001 1.101
12.947 0.88 1.099
12.925 0.90799999 1.098
12.877 0.93400002 1.094
12.86 0.96200001 1.092
12.815 0.98900002 1.089
12.78 1.016 1.086
12.782 1.0470001 1.086
12.803 1.079 1.0880001
12.817 1.1109999 1.089
12.839 1.1440001 1.091
12.909 1.182 1.098
12.947 1.217 1.101
12.985 1.253 1.105
13.007 1.2869999 1.107
13.034 1.322 1.109
13.03 1.355 1.109
13.047 1.39 1.1109999
13.071 1.426 1.113
13.121 1.465 1.118
22.950001 2.563 1.955
13.205 1.508 1.125
22.864 2.612 1.948
13.172 1.539 1.123
22.867001 2.6719999 1.949
13.034 1.557 1.1109999
22.875 2.733 1.95
13.178 1.609 1.124
22.889999 2.7950001 1.952
13.172 1.643 1.124
22.885 2.855 1.952
22.863001 2.9130001 1.951
22.881001 2.977 1.9529999
22.892 3.04 1.955
22.868999 3.098 1.954
22.889999 3.164 1.956
22.900999 3.2279999 1.9579999
22.910999 3.2920001 1.959
22.917 3.3570001 1.961
22.983999 3.4300001 1.967
22.937 3.487 1.964
22.917 3.549 1.9630001
22.940001 3.6170001 1.966
22.951 3.684 1.9680001
22.961 3.7509999 1.969
22.938999 3.813 1.9680001
22.951 3.881 1.97
22.947001 3.947 1.971
22.951 4.0139999 1.972
22.959999 4.0819998 1.974
22.962 4.1500001 1.975
22.962999 4.2179999 1.976
22.983 4.289 1.979
22.979 4.3569999 1.98
23.002001 4.4299998 1.983
23.062 4.5100002 1.989
23.184 4.6040001 2.0009999
12.427 2.5799999 1.074
12.324 2.5969999 1.066
12.292 2.628 1.064
12.237 2.654 1.0599999
12.157 2.674 1.053
12.114 2.7019999 1.05
12.089 2.734 1.049
12.091 2.7720001 1.05
12.071 2.8050001 1.049
8.6999998 2.049 0.75599998
12.076 2.8440001 1.05
8.5139999 2.0320001 0.74000001
12.139 2.898 1.056
8.4029999 2.0320001 0.73100001
8.3640003 2.05 0.72799999
8.3520002 2.073 0.72799999
8.3179998 2.0910001 0.72500002
8.2740002 2.1070001 0.722
8.2810001 2.135 0.72299999
8.2539997 2.155 0.72100002
8.2419996 2.1789999 0.72100002
8.2329998 2.2030001 0.72100002
8.2270002 2.2279999 0.72100002
8.2080002 2.25 0.72000003
8.1739998 2.2679999 0.71700001
8.1669998 2.2920001 0.71700001
8.1780005 2.322 0.71899998
8.1789999 2.3499999 0.71899998
8.2379999 2.3940001 0.72500002
8.5179996 2.5039999 0.75
11.23 6.7490001 1.092
11.224 6.7859998 1.0930001
11.175 6.7969999 1.09
11.164 6.8299999 1.09
12.369 -3.0150001 1.1440001
12.329 -2.9690001 1.14
12.295 -2.925 1.137
12.24 -2.8759999 1.131
12.189 -2.8280001 1.126
12.179 -2.7909999 1.125
12.188 -2.757 1.126
12.257 -2.737 1.132
13.013 -0.45699999 1.182
12.895 -0.41499999 1.171
12.808 -0.37599999 1.163
12.747 -0.33700001 1.1569999
12.713 -0.30000001 1.153
12.698 -0.26300001 1.152
12.719 -0.227 1.153
12.723 -0.19 1.153
12.739 -0.153 1.155
12.798 -0.117 1.16
12.964 -0.081 1.174
11.541 0.131 1.006
11.522 0.141 1.0039999
11.486 0.15099999 1.001
11.506 0.162 1.002
11.504 0.17299999 1.001
11.519 0.184 1.002
11.505 0.19599999 1.001
11.554 0.208 1.005
11.558 0.221 1.005
11.573 0.233 1.006
11.628 0.24699999 1.01
11.668 0.26199999 1.013
11.706 0.27599999 1.016
12.997 0.354 1.127
12.924 0.368 1.1210001
12.882 0.38299999 1.117
12.87 0.40000001 1.1160001
12.866 0.417 1.115
12.941 0.43700001 1.1210001
13.033 0.458 1.1289999
13.254 0.542 1.147
13.215 0.56 1.1440001
13.137 0.57700002 1.137
13.139 0.597 1.137
13.083 0.61500001 1.132
13.04 0.634 1.128
13.048 0.65499997 1.1289999
13.087 0.67900002 1.132
13.118 0.70200002 1.135
13.099 0.72299999 1.133
13.082 0.74400002 1.132
13.075 0.76599997 1.131
13.05 0.78799999 1.1289999
13.019 0.80900002 1.126
12.999 0.83099997 1.125
12.96 0.852 1.1210001
12.953 0.875 1.1210001
12.914 0.89600003 1.118
12.917 0.921 1.118
12.904 0.94400001 1.117
12.884 0.96799999 1.115
12.888 0.99299997 1.1160001
12.895 1.0190001 1.1160001
12.903 1.045 1.117
12.914 1.072 1.118
12.929 1.099 1.12
12.947 1.127 1.122
12.937 1.153 1.1210001
12.988 1.184 1.126
13.027 1.215 1.1289999
12.997 1.24 1.127
12.988 1.267 1.126
13.043 1.301 1.132
13.064 1.331 1.1339999
13.093 1.363 1.136
13.099 1.393 1.137
22.962999 2.4419999 1.994
13.149 1.427 1.142
22.875 2.484 1.987
13.256 1.469 1.152
22.853001 2.533 1.9859999
13.178 1.49 1.145
22.864 2.586 1.987
13.097 1.511 1.1390001
22.871 2.6389999 1.989
13.094 1.541 1.1390001
22.858999 2.691 1.988
13.156 1.579 1.1440001
22.868 2.7449999 1.99
13.271 1.624 1.155
22.875999 2.8 1.9910001
22.872999 2.8540001 1.992
22.872 2.9089999 1.992
22.895 2.967 1.995
22.896999 3.023 1.9960001
22.903 3.0799999 1.998
22.899 3.135 1.998
22.903999 3.1930001 1.999
22.902 3.25 2
22.931999 3.312 2.0039999
22.955999 3.3740001 2.007
22.941 3.4300001 2.006
22.917 3.4860001 2.0050001
22.938 3.5480001 2.0079999
22.941 3.609 2.0090001
22.955999 3.671 2.0120001
22.951 3.7309999 2.013
22.954 3.793 2.0139999
22.945999 3.8529999 2.0139999
22.945 3.915 2.0150001
22.962 3.98 2.0179999
22.965 4.0430002 2.02
22.975 4.1079998 2.0220001
22.966 4.1700001 2.0220001
22.979 4.2360001 2.0250001
22.976 4.3000002 2.026
22.969999 4.3639998 2.026
22.987 4.4320002 2.029
22.995001 4.5 2.0309999
23.01 4.5679998 2.0339999
23.037001 4.6399999 2.0380001
23.069 4.7140002 2.0420001
12.42 2.5739999 1.1
12.311 2.5869999 1.091
12.271 2.615 1.0880001
12.251 2.6470001 1.0880001
12.181 2.668 1.082
12.129 2.694 1.0779999
12.101 2.724 1.077
12.087 2.757 1.076
12.093 2.796 1.0779999
12.086 2.8310001 1.0779999
8.6470003 2.052 0.77200001
12.073 2.865 1.0779999
8.5159998 2.0469999 0.76099998
12.199 2.9330001 1.09
8.4130001 2.049 0.75199997
8.3739996 2.066 0.74900001
8.3590002 2.0880001 0.74900001
8.3310003 2.1070001 0.74699998
8.283 2.122 0.74299997
8.2650003 2.1429999 0.74199998
8.25 2.1659999 0.741
8.2259998 2.1860001 0.74000001
8.2229996 2.2119999 0.74000001
8.224 2.2390001 0.741
8.2049999 2.2609999 0.74000001
8.184 2.2820001 0.73900002
8.1639996 2.303 0.73799998
8.1680002 2.332 0.73900002
8.1879997 2.365 0.74199998
8.2189999 2.402 0.745
8.3929996 2.4809999 0.76200002
11.343 6.3660002 1.128
11.254 6.3660002 1.1210001
11.214 6.3940001 1.119
11.18 6.4239998 1.118
11.168 6.4679999 1.118
11.186 6.5289998 1.122
28.148001 19.607 2.95
28.004999 19.643999 2.941
27.938999 19.735001 2.9400001
27.82 19.788 2.9330001
27.601999 19.768999 2.9159999
27.391001 19.754 2.8989999
12.518 -3.1559999 1.17
12.333 -3.0710001 1.152
12.263 -3.0150001 1.146
12.24 -2.971 1.143
12.179 -2.9189999 1.137
12.155 -2.8759999 1.135
12.184 -2.845 1.137
12.266 -2.8269999 1.1440001
12.999 -0.375 1.202
12.895 -0.35100001 1.192
12.83 -0.32699999 1.186
12.749 -0.30399999 1.179
12.714 -0.28200001 1.176
12.7 -0.26100001 1.174
12.691 -0.241 1.174
12.691 -0.22 1.174
12.685 -0.2 1.173
12.706 -0.18000001 1.175
12.715 -0.16 1.176
12.728 -0.141 1.178
12.763 -0.121 1.181
12.857 -0.102 1.1900001
13.09 -0.083999999 1.211
11.544 0.18000001 1.036
11.651 0.20200001 1.046
12.887 0.24699999 1.156
12.86 0.27000001 1.154
12.819 0.292 1.15
12.824 0.31600001 1.15
12.829 0.34 1.15
12.853 0.36500001 1.152
12.917 0.391 1.158
13.011 0.419 1.166
13.18 0.44999999 1.181
13.154 0.47499999 1.179
13.109 0.5 1.175
13.075 0.52499998 1.1720001
13.053 0.55000001 1.17
13.026 0.57599998 1.1670001
13.023 0.60299999 1.1670001
13.013 0.62900001 1.166
13.034 0.65799999 1.168
13.062 0.68699998 1.17
13.081 0.71600002 1.1720001
13.094 0.745 1.173
13.072 0.773 1.171
13.04 0.79900002 1.168
13.018 0.82700002 1.1670001
13.004 0.85500002 1.165
12.952 0.88099998 1.161
12.932 0.90899998 1.159
12.914 0.93800002 1.158
12.894 0.96600002 1.156
12.893 0.99599999 1.156
12.877 1.025 1.155
12.911 1.059 1.158
12.927 1.091 1.16
12.923 1.1210001 1.159
12.939 1.154 1.161
12.956 1.187 1.163
12.969 1.22 1.164
