# .PCD v0.7 - Point Cloud Data file format
VERSION 0.7
FIELDS x y z
SIZE 4 4 4
TYPE F F F
COUNT 1 1 1
WIDTH 1837
HEIGHT 1
VIEWPOINT 0 0 0 1 0 0 0
POINTS 1837
DATA ascii
8.4239998 -2.286 -0.055
8.4580002 -2.2709999 -0.055
8.4700003 -2.25 -0.055
8.4870005 -2.23 -0.055
8.4969997 -2.2079999 -0.055
8.526 -2.1919999 -0.056000002
8.5489998 -2.1730001 -0.056000002
8.5509996 -2.1489999 -0.056000002
8.5780001 -2.131 -0.056000002
8.5869999 -2.109 -0.056000002
8.5830002 -2.0829999 -0.056000002
8.6190004 -2.0669999 -0.056000002
8.6359997 -2.0469999 -0.056000002
8.658 -2.027 -0.056000002
8.665 -2.0039999 -0.056000002
8.6929998 -1.9859999 -0.056000002
8.724 -1.9680001 -0.056000002
8.7320004 -1.9450001 -0.056000002
8.7770004 -1.929 -0.056000002
8.8310003 -1.916 -0.056000002
8.8549995 -1.896 -0.056000002
8.8409996 -1.868 -0.056000002
8.8470001 -1.844 -0.056000002
8.8660002 -1.822 -0.056000002
8.8839998 -1.801 -0.056000002
8.8900003 -1.777 -0.056000002
8.9359999 -1.76 -0.056000002
8.9449997 -1.737 -0.056000002
8.974 -1.717 -0.056000002
8.993 -1.6950001 -0.056000002
8.9980001 -1.67 -0.056000002
9.0229998 -1.649 -0.056000002
9.0240002 -1.623 -0.056000002
9.066 -1.605 -0.057
9.0860004 -1.5829999 -0.057
9.0959997 -1.558 -0.057
9.1300001 -1.538 -0.057
9.1700001 -1.5190001 -0.057
9.1859999 -1.495 -0.057
9.2279997 -1.476 -0.057
9.2139997 -1.447 -0.057
9.257 -1.428 -0.057
9.276 -1.404 -0.057
9.3129997 -1.3839999 -0.057
9.3380003 -1.3609999 -0.057
9.3629999 -1.3380001 -0.057
9.3900003 -1.3150001 -0.057
9.4060001 -1.29 -0.057
9.4449997 -1.2690001 -0.057999998
9.4700003 -1.245 -0.057999998
9.4720001 -1.219 -0.057
9.5200005 -1.198 -0.057999998
9.5120001 -1.17 -0.057999998
9.5609999 -1.148 -0.057999998
9.5869999 -1.124 -0.057999998
9.6219997 -1.101 -0.057999998
9.6560001 -1.0779999 -0.057999998
9.6820002 -1.053 -0.057999998
9.7010002 -1.028 -0.057999998
9.7299995 -1.003 -0.057999998
9.7629995 -0.97899997 -0.057999998
9.7779999 -0.95200002 -0.057999998
9.7959995 -0.926 -0.057999998
9.8400002 -0.903 -0.057999998
9.8929996 -0.87900001 -0.059
9.9289999 -0.85399997 -0.059
9.9840002 -0.83099997 -0.059
10.008 -0.80500001 -0.059
10.07 -0.78100002 -0.059
10.111 -0.755 -0.059
10.167 -0.73100001 -0.059999999
10.226 -0.70599997 -0.059999999
10.261 -0.67900002 -0.059999999
10.29 -0.65200001 -0.059999999
10.296 0.185 -0.191
10.236 0.197 -0.19
10.191 0.20900001 -0.19
10.162 0.221 -0.189
10.141 0.234 -0.189
10.135 0.24699999 -0.189
10.12 0.25999999 -0.189
10.114 0.27399999 -0.189
10.12 0.28799999 -0.189
10.088 0.301 -0.189
10.105 0.31600001 -0.189
10.098 0.331 -0.189
10.106 0.34599999 -0.189
10.107 0.361 -0.19
10.123 0.377 -0.19
10.124 0.39300001 -0.19
10.135 0.40900001 -0.191
10.109 0.42500001 -0.19
10.108 0.44100001 -0.19
10.103 0.45699999 -0.191
10.09 0.47299999 -0.19
10.106 0.491 -0.191
10.105 0.50800002 -0.191
10.084 0.52499998 -0.191
10.093 0.54299998 -0.191
10.108 0.56199998 -0.192
10.103 0.57999998 -0.192
10.114 0.59899998 -0.192
10.122 0.61799997 -0.193
10.146 0.63800001 -0.193
10.173 0.65899998 -0.19400001
10.182 0.67900002 -0.19400001
10.19 0.699 -0.19499999
10.193 0.71899998 -0.19499999
10.204 0.74000001 -0.19499999
10.209 0.75999999 -0.19599999
10.237 0.78299999 -0.197
10.25 0.80500001 -0.197
10.243 0.82499999 -0.197
10.265 0.84799999 -0.198
10.272 0.87 -0.198
10.276 0.89200002 -0.198
10.302 0.91600001 -0.199
10.311 0.93900001 -0.2
10.325 0.963 -0.2
10.329 0.986 -0.2
10.338 1.01 -0.20100001
10.366 1.035 -0.20200001
10.379 1.0599999 -0.20200001
10.405 1.086 -0.20299999
10.394 1.109 -0.20299999
10.424 1.136 -0.204
10.448 1.163 -0.205
10.446 1.187 -0.205
10.445 1.211 -0.205
10.466 1.239 -0.206
10.481 1.266 -0.206
10.503 1.294 -0.207
10.53 1.322 -0.208
10.541 1.35 -0.208
10.541 1.376 -0.20900001
10.567 1.405 -0.20999999
10.567 1.432 -0.20999999
10.569 1.459 -0.20999999
10.574 1.4859999 -0.211
10.579 1.5140001 -0.211
10.594 1.543 -0.212
10.615 1.574 -0.212
10.654 1.607 -0.213
10.66 1.636 -0.214
10.68 1.668 -0.215
10.7 1.699 -0.215
10.722 1.732 -0.21600001
10.721 1.76 -0.21699999
10.741 1.793 -0.21699999
10.753 1.824 -0.21799999
10.771 1.857 -0.219
10.799 1.891 -0.219
10.824 1.926 -0.22
10.837 1.9579999 -0.221
10.849 1.9910001 -0.222
10.893 2.03 -0.223
10.872 2.0569999 -0.223
10.921 2.098 -0.22400001
10.922 2.1300001 -0.22499999
10.953 2.1670001 -0.226
11.002 2.2090001 -0.227
11.016 2.244 -0.228
11.027 2.279 -0.228
11.044 2.3150001 -0.229
11.087 2.3570001 -0.23
11.087 2.3900001 -0.23100001
11.109 2.428 -0.23199999
11.129 2.467 -0.23199999
11.163 2.5079999 -0.234
11.155 2.5409999 -0.234
11.183 2.5810001 -0.235
11.218 2.6240001 -0.236
11.219 2.6589999 -0.236
11.26 2.704 -0.23800001
11.275 2.743 -0.23899999
11.304 2.786 -0.23999999
11.31 2.823 -0.23999999
11.33 2.8640001 -0.241
11.381 2.9130001 -0.243
11.359 2.9449999 -0.243
11.38 2.987 -0.243
11.397 3.0280001 -0.244
11.42 3.072 -0.245
11.467 3.122 -0.24699999
11.475 3.1619999 -0.24699999
11.46 3.1960001 -0.248
11.505 3.247 -0.249
11.527 3.2909999 -0.25
11.55 3.3369999 -0.25099999
11.567 3.3800001 -0.252
11.607 3.4319999 -0.25299999
11.632 3.4779999 -0.25400001
11.667 3.529 -0.25600001
11.722 3.586 -0.257
11.776 3.6429999 -0.259
11.83 3.701 -0.26100001
11.816 3.737 -0.26100001
11.808 3.776 -0.26100001
11.8 3.8150001 -0.26199999
11.809 3.8599999 -0.26199999
11.85 3.915 -0.264
11.869 3.964 -0.26499999
11.947 4.0320001 -0.26699999
11.911 4.0630002 -0.26699999
11.933 4.1129999 -0.26800001
11.939 4.1589999 -0.26899999
11.958 4.2090001 -0.27000001
11.974 4.2579999 -0.271
11.979 4.3039999 -0.271
8.5740004 3.112 -0.19400001
12.062 4.3779998 -0.27399999
8.4320002 3.0910001 -0.192
8.3579998 3.095 -0.19
8.3409996 3.1199999 -0.19
8.3310003 3.1470001 -0.191
8.3629999 3.191 -0.192
8.5030003 3.276 -0.19499999
12.124 4.6719999 -0.27900001
12.138 4.723 -0.28
12.172 4.783 -0.28099999
12.2 4.8400002 -0.28200001
12.206 4.8889999 -0.28299999
12.222 4.9429998 -0.28400001
8.3319998 3.401 -0.19400001
12.215 4.987 -0.285
8.1070004 3.3410001 -0.189
8.0389996 3.345 -0.18799999
8.0100002 3.3629999 -0.18799999
7.9980001 3.3900001 -0.18799999
8.0310001 3.4360001 -0.189
8.177 3.53 -0.193
12.379 5.3439999 -0.29300001
12.335 5.375 -0.292
12.365 5.4369998 -0.294
12.374 5.4899998 -0.294
12.391 5.5469999 -0.296
12.415 5.6079998 -0.29699999
12.414 5.658 -0.29800001
12.416 5.7090001 -0.29800001
12.413 5.7589998 -0.29899999
12.427 5.816 -0.30000001
12.451 5.8779998 -0.301
12.477 5.9419999 -0.303
12.509 6.0089998 -0.30399999
12.525 6.0679998 -0.30500001
12.545 6.1300001 -0.30599999
12.616 6.2179999 -0.30899999
12.644 6.2849998 -0.31
12.587 6.309 -0.31
12.262 6.198 -0.30199999
12.212 6.2249999 -0.30199999
12.309 6.3790002 -0.30599999
12.152 6.3499999 -0.303
12.144 6.3979998 -0.303
13.055 7.2189999 -0.331
12.979 7.2340002 -0.33000001
13.011 7.309 -0.331
13.054 7.3920002 -0.333
13.123 7.4889998 -0.336
10.881 6.4050002 -0.28099999
10.561 6.2639999 -0.27399999
10.466 6.256 -0.27200001
10.386 6.2550001 -0.271
10.325 6.2659998 -0.27000001
10.212 6.244 -0.26800001
10.159 6.2579999 -0.26699999
10.123 6.283 -0.26699999
10.051 6.2849998 -0.26499999
9.9790001 6.2859998 -0.264
9.9899998 6.3390002 -0.26499999
10.097 6.4549999 -0.26899999
9.6210003 6.8429999 -0.26699999
9.533 6.8270001 -0.26499999
9.4379997 6.8049998 -0.26300001
6.7030001 -4.4239998 -0.035999998
6.7360001 -4.4039998 -0.035999998
6.756 -4.3740001 -0.035999998
6.7919998 -4.3559999 -0.037
6.8060002 -4.323 -0.037
6.836 -4.3010001 -0.037
6.855 -4.2709999 -0.037
6.8720002 -4.2410002 -0.037
6.8979998 -4.2160001 -0.037
6.9089999 -4.1820002 -0.037
6.9289999 -4.1539998 -0.037
6.9460001 -4.1240001 -0.037
6.9749999 -4.1009998 -0.037
6.9860001 -4.0679998 -0.037
7.0209999 -4.0500002 -0.037
7.033 -4.0170002 -0.037
7.0489998 -3.9879999 -0.037
7.0799999 -3.9660001 -0.037
7.1009998 -3.9400001 -0.037
7.0780001 -3.8889999 -0.035999998
7.1040001 -3.865 -0.037
7.1409998 -3.848 -0.037
7.1719999 -3.8269999 -0.037
7.1929998 -3.8010001 -0.037
7.2249999 -3.78 -0.037
7.2350001 -3.7490001 -0.037
7.263 -3.7260001 -0.037
7.2750001 -3.6960001 -0.037
7.2859998 -3.665 -0.037
7.3200002 -3.6459999 -0.037
7.3390002 -3.6199999 -0.037
7.335 -3.582 -0.037
7.3670001 -3.562 -0.037
7.4029999 -3.5439999 -0.037
7.4029999 -3.5090001 -0.037
7.4359999 -3.4890001 -0.037
7.4489999 -3.46 -0.037
7.4679999 -3.4349999 -0.037
7.4809999 -3.4059999 -0.037
7.5 -3.3800001 -0.037
7.526 -3.358 -0.037
7.546 -3.3329999 -0.037
7.5669999 -3.3080001 -0.037
7.5900002 -3.2839999 -0.037
7.6020002 -3.256 -0.037
7.6199999 -3.23 -0.037
7.652 -3.211 -0.037
7.6739998 -3.187 -0.037
7.697 -3.1630001 -0.037
7.7220001 -3.141 -0.037
7.744 -3.1170001 -0.037
7.7620001 -3.092 -0.037
7.7670002 -3.0610001 -0.037
7.7979999 -3.0420001 -0.037
7.816 -3.017 -0.037
7.836 -2.9920001 -0.037
7.8639998 -2.971 -0.037
7.8870001 -2.948 -0.037
7.9120002 -2.9260001 -0.037
7.9310002 -2.902 -0.037
7.9349999 -2.872 -0.037
7.9679999 -2.8529999 -0.037
7.9949999 -2.8310001 -0.037
8.0209999 -2.8099999 -0.037
8.0380001 -2.7850001 -0.037
8.0600004 -2.7620001 -0.037
8.0979996 -2.744 -0.037
8.1199999 -2.7219999 -0.037
8.1440001 -2.6989999 -0.037
8.165 -2.6760001 -0.037
8.1879997 -2.654 -0.037
8.217 -2.6329999 -0.037
8.2309999 -2.608 -0.037
8.2620001 -2.5880001 -0.037
8.2910004 -2.5669999 -0.037999999
8.3140001 -2.5450001 -0.037999999
8.3540001 -2.5280001 -0.037999999
8.368 -2.5020001 -0.037999999
8.3760004 -2.4760001 -0.037999999
8.3839998 -2.4489999 -0.037999999
8.434 -2.4349999 -0.037999999
8.4429998 -2.408 -0.037999999
8.4779997 -2.3900001 -0.037999999
8.4849997 -2.3629999 -0.037999999
8.5229998 -2.345 -0.037999999
8.5380001 -2.3210001 -0.037999999
8.5760002 -2.303 -0.037999999
8.599 -2.2809999 -0.037999999
8.6309996 -2.2609999 -0.037999999
8.6379995 -2.2349999 -0.037999999
8.6590004 -2.2130001 -0.037999999
8.684 -2.191 -0.037999999
8.7130003 -2.171 -0.037999999
8.7189999 -2.145 -0.037999999
8.7620001 -2.128 -0.037999999
8.7869997 -2.1070001 -0.037999999
8.8000002 -2.0829999 -0.037999999
8.8380003 -2.0639999 -0.037999999
8.8549995 -2.0409999 -0.037999999
8.8789997 -2.02 -0.037999999
8.9549999 -2.01 -0.037999999
8.9980001 -1.993 -0.037999999
9.0039997 -1.967 -0.037999999
8.9659996 -1.932 -0.037999999
8.9799995 -1.909 -0.037999999
9.0080004 -1.8890001 -0.037999999
9.04 -1.869 -0.037999999
9.0430002 -1.844 -0.037999999
9.0769997 -1.824 -0.037999999
9.092 -1.801 -0.037999999
9.1129999 -1.78 -0.037999999
9.1540003 -1.762 -0.037999999
9.1590004 -1.737 -0.037999999
9.1780005 -1.716 -0.037999999
9.2089996 -1.696 -0.037999999
9.2040005 -1.67 -0.037999999
9.2200003 -1.648 -0.037999999
9.2519999 -1.628 -0.037999999
9.2770004 -1.608 -0.037999999
9.309 -1.5880001 -0.037999999
9.3360004 -1.568 -0.039000001
9.3520002 -1.546 -0.039000001
9.3710003 -1.525 -0.039000001
9.3900003 -1.503 -0.039000001
9.4189997 -1.483 -0.039000001
9.4209995 -1.459 -0.039000001
9.4569998 -1.441 -0.039000001
9.4720001 -1.419 -0.039000001
9.5080004 -1.4 -0.039000001
9.5290003 -1.38 -0.039000001
9.533 -1.357 -0.039000001
9.5740004 -1.339 -0.039000001
9.5930004 -1.318 -0.039000001
9.6079998 -1.296 -0.039000001
9.658 -1.28 -0.039000001
9.6759996 -1.2589999 -0.039000001
9.6590004 -1.233 -0.039000001
9.6949997 -1.215 -0.039000001
9.7229996 -1.1950001 -0.039000001
9.7379999 -1.174 -0.039000001
9.7489996 -1.153 -0.039000001
9.7889996 -1.135 -0.039000001
9.8199997 -1.1160001 -0.039000001
9.8500004 -1.097 -0.039000001
9.8640003 -1.076 -0.039000001
9.8610001 -1.053 -0.039000001
9.8830004 -1.033 -0.039000001
9.9309998 -1.016 -0.039000001
9.948 -0.99599999 -0.039000001
9.9560003 -0.97500002 -0.039000001
9.9940004 -0.95700002 -0.039000001
9.9960003 -0.935 -0.039000001
10.022 -0.91600001 -0.039000001
10.063 -0.898 -0.039000001
10.077 -0.87800002 -0.039000001
10.097 -0.85900003 -0.039000001
10.12 -0.83899999 -0.039000001
10.125 -0.81900001 -0.039000001
10.18 -0.80199999 -0.039000001
10.166 -0.77999997 -0.039000001
10.246 -0.76499999 -0.039000001
10.259 -0.74599999 -0.039000001
10.277 -0.72600001 -0.039000001
10.295 -0.70700002 -0.039000001
10.342 -0.69 -0.039999999
10.422 -0.67500001 -0.039999999
10.524 -0.66100001 -0.039999999
10.493 -0.63800001 -0.039999999
9.9540005 0.123 -0.15800001
9.9799995 0.141 -0.15800001
9.9949999 0.16 -0.15800001
10.025 0.17900001 -0.15899999
10 0.197 -0.15899999
10.007 0.21600001 -0.15899999
10.012 0.235 -0.15899999
10.014 0.255 -0.16
10.017 0.27399999 -0.16
10.019 0.294 -0.16
10.046 0.315 -0.161
10.045 0.33500001 -0.161
10.059 0.35600001 -0.161
10.077 0.377 -0.162
10.088 0.39899999 -0.162
10.069 0.419 -0.162
10.059 0.44 -0.162
10.068 0.46200001 -0.162
10.076 0.484 -0.163
10.068 0.505 -0.163
10.097 0.52899998 -0.163
10.075 0.55000001 -0.163
10.088 0.57300001 -0.164
10.103 0.597 -0.164
10.114 0.62 -0.16500001
10.125 0.64399999 -0.16500001
10.156 0.67000002 -0.16599999
10.169 0.69400001 -0.16599999
10.186 0.71899998 -0.167
10.183 0.74299997 -0.167
10.218 0.76999998 -0.168
10.222 0.79400003 -0.168
10.241 0.81999999 -0.168
10.266 0.847 -0.169
10.285 0.87400001 -0.17
10.291 0.89999998 -0.17
10.315 0.92699999 -0.171
10.32 0.954 -0.171
10.308 0.97799999 -0.171
10.348 1.008 -0.17200001
10.351 1.035 -0.17200001
10.376 1.064 -0.17299999
10.409 1.094 -0.17399999
10.405 1.12 -0.17399999
10.438 1.151 -0.175
10.467 1.182 -0.175
10.488 1.212 -0.176
10.522 1.244 -0.177
10.512 1.271 -0.177
10.523 1.3 -0.178
10.559 1.3329999 -0.178
10.563 1.362 -0.17900001
10.598 1.395 -0.18000001
10.61 1.426 -0.18000001
10.624 1.457 -0.18099999
10.643 1.489 -0.18099999
10.651 1.52 -0.182
10.673 1.553 -0.182
10.693 1.586 -0.183
10.711 1.619 -0.184
10.73 1.652 -0.184
10.761 1.688 -0.185
10.785 1.722 -0.186
10.795 1.755 -0.186
10.837 1.793 -0.18700001
10.85 1.827 -0.18799999
10.861 1.86 -0.189
10.887 1.897 -0.189
10.915 1.934 -0.19
10.935 1.969 -0.191
10.974 2.0090001 -0.192
11.018 2.05 -0.193
11.039 2.0869999 -0.19400001
11.063 2.125 -0.19400001
11.114 2.168 -0.19599999
11.117 2.2019999 -0.19599999
11.175 2.2479999 -0.198
11.196 2.286 -0.198
11.22 2.326 -0.199
11.276 2.372 -0.2
11.28 2.4070001 -0.20100001
11.307 2.448 -0.20200001
11.352 2.493 -0.20299999
11.345 2.527 -0.20299999
11.389 2.573 -0.204
11.394 2.6099999 -0.205
11.42 2.652 -0.206
11.459 2.697 -0.207
11.483 2.7390001 -0.208
11.515 2.783 -0.20900001
11.534 2.825 -0.20900001
11.617 2.8829999 -0.211
11.623 2.921 -0.212
11.62 2.9579999 -0.212
11.65 3.003 -0.213
11.648 3.0409999 -0.214
11.688 3.089 -0.215
11.716 3.135 -0.21600001
11.715 3.1730001 -0.21600001
11.738 3.2179999 -0.21699999
11.743 3.2579999 -0.21799999
11.813 3.3169999 -0.219
11.862 3.3699999 -0.221
11.935 3.4300001 -0.222
11.968 3.48 -0.22400001
11.979 3.523 -0.22400001
11.98 3.563 -0.22499999
12.024 3.6170001 -0.226
12.012 3.654 -0.226
12.066 3.711 -0.228
12.084 3.757 -0.229
12.103 3.8050001 -0.229
12.109 3.848 -0.23
12.142 3.9000001 -0.23100001
12.177 3.9519999 -0.23199999
12.187 3.9979999 -0.233
12.238 4.0560002 -0.234
12.256 4.105 -0.235
12.26 4.1479998 -0.236
12.255 4.1890001 -0.236
12.28 4.2399998 -0.237
12.298 4.289 -0.23800001
12.319 4.3390002 -0.23899999
12.331 4.3860002 -0.23999999
12.359 4.4390001 -0.241
8.5080004 3.086 -0.16599999
12.475 4.5250001 -0.244
8.4020004 3.0769999 -0.164
8.3459997 3.086 -0.164
8.3140001 3.1029999 -0.163
8.3030005 3.128 -0.164
8.3249998 3.1659999 -0.164
8.3540001 3.207 -0.16500001
12.588 4.8319998 -0.249
8.4750004 3.283 -0.168
12.497 4.8410001 -0.248
12.507 4.8899999 -0.249
12.504 4.9330001 -0.249
12.55 4.9959998 -0.25099999
12.557 5.0440001 -0.252
12.577 5.0960002 -0.25299999
8.2049999 3.3540001 -0.16500001
12.642 5.1680002 -0.25400001
8.0830002 3.3329999 -0.163
8.0340004 3.342 -0.162
8.0100002 3.3610001 -0.162
8.0010004 3.3859999 -0.162
8.0150003 3.4200001 -0.163
8.0790005 3.477 -0.16500001
12.858 5.5339999 -0.26199999
12.73 5.5250001 -0.25999999
12.735 5.573 -0.26100001
12.733 5.618 -0.26199999
12.765 5.678 -0.26300001
12.761 5.723 -0.26300001
12.77 5.7729998 -0.264
12.799 5.8330002 -0.266
12.82 5.8889999 -0.26699999
12.86 5.954 -0.26800001
12.872 6.007 -0.26899999
12.892 6.0630002 -0.27000001
12.914 6.1199999 -0.271
12.934 6.177 -0.27200001
12.976 6.244 -0.27399999
12.979 6.2930002 -0.27399999
13.019 6.3600001 -0.27599999
13.052 6.4239998 -0.27700001
13.066 6.4780002 -0.278
13.057 6.5209999 -0.27900001
12.329 6.2030001 -0.264
12.19 6.178 -0.26100001
12.256 6.256 -0.264
12.251 6.3429999 -0.26499999
12.155 6.3379998 -0.26300001
12.071 6.3379998 -0.26199999
12.063 6.3779998 -0.26300001
12.208 6.4990001 -0.266
12.271 6.6220002 -0.26899999
12.168 6.6110001 -0.26699999
12.218 6.6820002 -0.26899999
13.658 7.619 -0.303
13.583 7.6269999 -0.30199999
10.662 6.2179999 -0.241
10.514 6.1700001 -0.23800001
10.436 6.1620002 -0.237
10.361 6.1550002 -0.236
10.3 6.1550002 -0.235
10.231 6.1500001 -0.234
10.149 6.138 -0.233
10.101 6.145 -0.23199999
10.041 6.1440001 -0.23100001
9.9860001 6.1459999 -0.23100001
9.9329996 6.1479998 -0.23
9.9189997 6.1750002 -0.23
9.9239998 6.2129998 -0.23100001
10.021 6.309 -0.234
9.6789999 6.6880002 -0.236
9.6359997 6.6890001 -0.236
9.5319996 6.6479998 -0.234
9.4790001 6.6420002 -0.233
9.4219999 6.632 -0.23199999
9.3780003 6.631 -0.23199999
9.3570004 6.6459999 -0.23199999
9.335 6.6599998 -0.23199999
9.3170004 6.6760001 -0.23199999
9.3170004 6.7059999 -0.23199999
9.309 6.7290001 -0.233
9.3210001 6.7659998 -0.234
9.3219995 6.796 -0.234
7.1750002 -4.2150002 -0.021
7.1820002 -4.1989999 -0.021
7.2010002 -4.1900001 -0.021
7.1939998 -4.165 -0.021
7.223 -4.1620002 -0.021
7.2189999 -4.1389999 -0.021
7.2379999 -4.1290002 -0.021
7.2449999 -4.1129999 -0.021
7.257 -4.099 -0.021
7.2600002 -4.0799999 -0.021
7.2810001 -4.0710001 -0.021
7.283 -4.052 -0.021
7.2969999 -4.039 -0.021
7.3010001 -4.02 -0.02
7.3169999 -4.0079999 -0.02
7.3179998 -3.9879999 -0.02
7.3260002 -3.971 -0.02
7.3429999 -3.9590001 -0.02
7.3520002 -3.9430001 -0.02
7.3660002 -3.9300001 -0.02
7.375 -3.914 -0.02
7.3520002 -3.8800001 -0.02
7.316 -3.8399999 -0.02
7.3000002 -3.8110001 -0.02
7.3280001 -3.8039999 -0.02
7.381 -3.8110001 -0.02
7.421 -3.8110001 -0.02
7.4320002 -3.7950001 -0.02
7.4520001 -3.7839999 -0.02
7.4590001 -3.766 -0.02
7.467 -3.7490001 -0.02
7.4809999 -3.734 -0.02
7.4899998 -3.717 -0.02
7.493 -3.697 -0.02
7.507 -3.6819999 -0.02
7.5229998 -3.6689999 -0.02
7.5240002 -3.6470001 -0.018999999
7.5320001 -3.6300001 -0.018999999
7.5630002 -3.622 -0.018999999
7.5650001 -3.602 -0.018999999
7.579 -3.5869999 -0.018999999
7.5819998 -3.566 -0.018999999
7.5900002 -3.5480001 -0.018999999
7.605 -3.533 -0.018999999
7.6209998 -3.5190001 -0.018999999
7.6399999 -3.506 -0.018999999
7.6459999 -3.4860001 -0.018999999
7.6680002 -3.474 -0.018999999
7.6729999 -3.454 -0.018999999
7.6960001 -3.4419999 -0.018999999
7.7030001 -3.4230001 -0.018999999
7.717 -3.4070001 -0.018999999
7.7179999 -3.385 -0.018999999
7.7470002 -3.3759999 -0.018999999
7.75 -3.355 -0.018999999
7.7550001 -3.3340001 -0.018999999
7.7690001 -3.3180001 -0.018999999
7.7789998 -3.3 -0.018999999
7.7930002 -3.283 -0.018999999
7.8049998 -3.266 -0.018999999
7.823 -3.2509999 -0.017999999
7.8460002 -3.237 -0.017999999
7.8720002 -3.2260001 -0.017999999
7.8670001 -3.201 -0.017999999
7.869 -3.1789999 -0.017999999
7.8829999 -3.1619999 -0.017999999
7.9070001 -3.1489999 -0.017999999
7.9250002 -3.1329999 -0.017999999
7.9450002 -3.118 -0.017999999
7.9499998 -3.0969999 -0.017999999
7.961 -3.0780001 -0.017999999
7.9829998 -3.0639999 -0.017999999
8.0030003 -3.0480001 -0.017999999
8.0170002 -3.03 -0.017999999
8.0419998 -3.017 -0.017999999
8.0530005 -2.997 -0.017999999
8.0710001 -2.9809999 -0.017999999
8.0819998 -2.9619999 -0.017999999
8.0880003 -2.941 -0.017999999
8.1049995 -2.9230001 -0.017999999
8.132 -2.9089999 -0.017999999
8.1359997 -2.888 -0.017999999
8.1529999 -2.8699999 -0.017999999
8.1800003 -2.8559999 -0.017999999
8.1870003 -2.835 -0.017999999
8.1949997 -2.8139999 -0.017999999
8.2390003 -2.8050001 -0.017999999
8.2229996 -2.776 -0.017000001
8.25 -2.7620001 -0.017000001
8.2749996 -2.7460001 -0.017000001
8.2849998 -2.7249999 -0.017000001
8.2930002 -2.704 -0.017000001
8.3109999 -2.6860001 -0.017000001
8.3319998 -2.6689999 -0.017000001
8.3380003 -2.6470001 -0.017000001
8.3599997 -2.6300001 -0.017000001
8.3929996 -2.6159999 -0.017000001
8.4110003 -2.598 -0.017000001
8.415 -2.575 -0.017000001
8.4280005 -2.5539999 -0.017000001
8.4619999 -2.54 -0.017000001
8.4960003 -2.526 -0.017000001
8.474 -2.4949999 -0.017000001
8.5170002 -2.483 -0.017000001
8.5229998 -2.461 -0.017000001
8.5299997 -2.438 -0.017000001
8.5459995 -2.418 -0.017000001
8.5480003 -2.3940001 -0.017000001
8.5979996 -2.3829999 -0.017000001
8.6190004 -2.3640001 -0.017000001
8.6379995 -2.345 -0.017000001
8.6560001 -2.325 -0.017000001
8.6680002 -2.303 -0.016000001
8.6899996 -2.2839999 -0.016000001
8.6879997 -2.2590001 -0.016000001
8.7309999 -2.2449999 -0.016000001
8.7589998 -2.227 -0.016000001
8.7779999 -2.207 -0.016000001
8.7969999 -2.1860001 -0.016000001
8.816 -2.1659999 -0.016000001
8.809 -2.138 -0.016000001
8.8450003 -2.122 -0.016000001
8.8800001 -2.105 -0.016000001
8.9040003 -2.085 -0.016000001
8.9219999 -2.0639999 -0.016000001
8.9350004 -2.0409999 -0.016000001
8.9650002 -2.0220001 -0.016000001
8.9879999 -2.0020001 -0.016000001
9.0220003 -1.984 -0.016000001
9.0679998 -1.9680001 -0.016000001
9.0880003 -1.946 -0.016000001
9.0790005 -1.918 -0.016000001
9.0749998 -1.892 -0.016000001
9.1049995 -1.872 -0.016000001
9.1190004 -1.849 -0.016000001
9.1289997 -1.824 -0.016000001
9.1660004 -1.806 -0.016000001
9.2069998 -1.788 -0.016000001
9.2340002 -1.766 -0.015
9.2559996 -1.744 -0.015
9.2790003 -1.722 -0.015
9.2950001 -1.698 -0.015
9.3079996 -1.674 -0.015
9.342 -1.654 -0.015
9.3669996 -1.632 -0.015
9.401 -1.6109999 -0.015
9.4209995 -1.587 -0.015
9.4309998 -1.562 -0.015
9.4569998 -1.539 -0.015
9.4689999 -1.5140001 -0.015
9.5 -1.492 -0.015
9.5640001 -1.475 -0.015
9.5710001 -1.449 -0.015
9.6049995 -1.427 -0.015
9.6269999 -1.402 -0.015
9.6619997 -1.38 -0.015
9.6999998 -1.358 -0.015
9.7229996 -1.3329999 -0.015
9.7580004 -1.3099999 -0.015
9.7989998 -1.288 -0.015
9.816 -1.262 -0.015
9.8459997 -1.238 -0.015
9.8780003 -1.214 -0.015
9.9230003 -1.191 -0.015
9.9530001 -1.1670001 -0.015
10.008 -1.145 -0.015
10.023 -1.118 -0.014
10.034 -1.091 -0.014
10.093 -1.068 -0.014
10.143 -1.045 -0.014
10.176 -1.0190001 -0.014
10.22 -0.995 -0.014
10.215 -0.96499997 -0.014
10.268 -0.94099998 -0.014
10.303 -0.91500002 -0.014
10.389 -0.89300001 -0.014
10.431 -0.86699998 -0.014
10.421 -0.83700001 -0.014
10.567 -0.81900001 -0.014
10.704 -0.79900002 -0.014
10.757 -0.77200001 -0.014
10.747 -0.741 -0.014
10.542 0.245 -0.14300001
10.49 0.25799999 -0.14300001
10.513 0.27200001 -0.14300001
10.466 0.285 -0.14300001
10.462 0.30000001 -0.14300001
10.438 0.31400001 -0.14300001
10.44 0.329 -0.14300001
10.413 0.34299999 -0.14300001
10.424 0.359 -0.14300001
10.42 0.37400001 -0.14300001
10.431 0.391 -0.14300001
10.411 0.40599999 -0.14300001
10.395 0.42199999 -0.14300001
10.399 0.43900001 -0.14300001
10.409 0.456 -0.14399999
10.384 0.472 -0.14399999
10.394 0.48899999 -0.14399999
10.397 0.50700003 -0.14399999
10.425 0.52600002 -0.145
10.412 0.54400003 -0.145
10.433 0.56300002 -0.145
10.429 0.58099997 -0.145
10.454 0.60100001 -0.146
10.463 0.62099999 -0.146
10.467 0.63999999 -0.146
10.478 0.66000003 -0.147
10.479 0.68000001 -0.147
10.493 0.70099998 -0.147
10.49 0.72100002 -0.148
10.515 0.74299997 -0.148
10.516 0.764 -0.148
10.541 0.787 -0.149
10.534 0.80699998 -0.149
10.551 0.82999998 -0.149
10.561 0.852 -0.15000001
10.556 0.87400001 -0.15000001
10.571 0.89700001 -0.15000001
10.585 0.92000002 -0.15099999
10.586 0.94300002 -0.15099999
10.626 0.96899998 -0.152
10.626 0.99199998 -0.152
10.636 1.016 -0.153
10.65 1.041 -0.153
10.662 1.066 -0.153
10.684 1.092 -0.154
10.699 1.118 -0.154
10.732 1.146 -0.155
10.732 1.17 -0.155
10.745 1.197 -0.156
10.772 1.225 -0.156
10.769 1.25 -0.15700001
10.793 1.278 -0.15700001
10.788 1.303 -0.15700001
10.805 1.331 -0.15800001
10.837 1.362 -0.15899999
10.847 1.3890001 -0.15899999
10.864 1.418 -0.16
10.872 1.447 -0.16
10.886 1.476 -0.161
10.907 1.506 -0.161
10.926 1.536 -0.162
10.955 1.568 -0.162
10.965 1.598 -0.163
10.979 1.628 -0.163
11.003 1.661 -0.164
11.021 1.692 -0.16500001
11.034 1.724 -0.16500001
11.043 1.7539999 -0.16500001
11.067 1.788 -0.16599999
11.093 1.822 -0.167
11.09 1.851 -0.167
11.123 1.887 -0.168
11.177 1.927 -0.169
11.206 1.9630001 -0.17
11.256 2.003 -0.171
11.271 2.0369999 -0.171
11.266 2.0680001 -0.17200001
11.318 2.1099999 -0.17299999
11.313 2.141 -0.17299999
11.342 2.1789999 -0.17399999
11.361 2.2149999 -0.175
11.411 2.2579999 -0.176
11.416 2.2920001 -0.176
11.448 2.332 -0.177
11.471 2.3710001 -0.178
11.525 2.4159999 -0.17900001
11.538 2.4530001 -0.17900001
11.561 2.493 -0.18000001
11.575 2.53 -0.18099999
11.594 2.569 -0.18099999
11.65 2.6170001 -0.183
11.66 2.655 -0.183
11.681 2.6960001 -0.184
11.732 2.744 -0.185
11.755 2.786 -0.186
11.774 2.8269999 -0.18700001
11.82 2.875 -0.18799999
11.795 2.9059999 -0.18799999
11.807 2.947 -0.18799999
11.832 2.9909999 -0.189
11.887 3.043 -0.19
11.89 3.082 -0.191
11.919 3.128 -0.192
11.942 3.1719999 -0.192
11.955 3.2149999 -0.193
11.996 3.266 -0.19400001
12.03 3.3139999 -0.19499999
12.043 3.358 -0.19599999
12.087 3.4100001 -0.197
12.086 3.45 -0.197
12.109 3.497 -0.198
12.13 3.5439999 -0.199
12.145 3.5899999 -0.2
12.168 3.638 -0.20100001
12.196 3.688 -0.20100001
12.202 3.7320001 -0.20200001
12.23 3.783 -0.20299999
12.236 3.8269999 -0.204
12.263 3.878 -0.204
12.272 3.924 -0.205
12.29 3.973 -0.206
12.297 4.0180001 -0.206
12.342 4.0770001 -0.208
12.36 4.1269999 -0.208
12.387 4.1799998 -0.20900001
12.401 4.2290001 -0.20999999
12.4 4.2729998 -0.211
12.423 4.3260002 -0.212
12.429 4.3730001 -0.212
12.465 4.4320002 -0.213
12.482 4.4829998 -0.214
8.5530005 3.1029999 -0.147
12.565 4.559 -0.21600001
8.4029999 3.0799999 -0.145
8.3470001 3.0910001 -0.14399999
8.3219995 3.112 -0.14399999
8.3120003 3.1400001 -0.14399999
8.3210001 3.174 -0.145
8.3789997 3.2279999 -0.146
12.733 4.9050002 -0.222
12.726 4.9510002 -0.223
12.701 4.9889998 -0.223
12.735 5.0510001 -0.22400001
12.734 5.0999999 -0.22400001
8.3050003 3.358 -0.147
12.782 5.1680002 -0.226
8.1260004 3.3169999 -0.14399999
8.052 3.3180001 -0.14300001
8.0349998 3.342 -0.14300001
8.0299997 3.3710001 -0.14300001
8.033 3.404 -0.14399999
8.1890001 3.5020001 -0.147
12.945 5.5370002 -0.23199999
12.928 5.5809999 -0.23199999
12.919 5.6279998 -0.233
12.938 5.6880002 -0.234
12.993 5.7639999 -0.235
12.99 5.8140001 -0.236
13.016 5.8790002 -0.237
13.04 5.9419999 -0.23800001
13.056 6.0019999 -0.23899999
13.095 6.0739999 -0.23999999
13.111 6.1339998 -0.241
13.121 6.1929998 -0.242
13.133 6.2529998 -0.243
13.147 6.3140001 -0.244
13.176 6.382 -0.245
13.187 6.4419999 -0.24600001
13.228 6.5180001 -0.24699999
13.28 6.599 -0.249
12.23 6.1290002 -0.23
12.284 6.2080002 -0.23100001
12.258 6.2989998 -0.23199999
12.151 6.296 -0.23100001
12.069 6.3049998 -0.23
12.098 6.3720002 -0.23100001
12.298 6.5840001 -0.236
12.155 6.5599999 -0.234
12.174 6.6230001 -0.235
10.83 6.276 -0.214
10.591 6.1849999 -0.20999999
10.469 6.1609998 -0.208
10.397 6.1659999 -0.207
10.316 6.164 -0.206
10.231 6.1599998 -0.205
10.162 6.165 -0.204
10.097 6.1719999 -0.20299999
10.029 6.177 -0.20200001
9.9729996 6.1880002 -0.20200001
9.9160004 6.1989999 -0.20100001
9.8850002 6.2259998 -0.20100001
9.8660002 6.2600002 -0.20100001
9.9250002 6.3429999 -0.20299999
10.18 6.5539999 -0.20900001
9.6630001 6.777 -0.205
9.5939999 6.7750001 -0.204
9.5489998 6.79 -0.204
9.4829998 6.79 -0.20299999
9.4219999 6.7930002 -0.20299999
6.8660002 -4.5300002 -0.0040000002
6.8930001 -4.5040002 -0.0040000002
6.9359999 -4.4889998 -0.0040000002
6.9559999 -4.4590001 -0.0040000002
6.9749999 -4.4289999 -0.0040000002
7.0139999 -4.4099998 -0.0040000002
7.0289998 -4.3769999 -0.0040000002
7.0440001 -4.3449998 -0.003
7.0700002 -4.3189998 -0.003
7.0939999 -4.2919998 -0.003
7.1129999 -4.2620001 -0.003
7.1300001 -4.2319999 -0.003
7.1490002 -4.2020001 -0.003
7.1659999 -4.1719999 -0.003
7.1960001 -4.1490002 -0.003
7.2140002 -4.119 -0.003
7.2259998 -4.086 -0.003
7.2420001 -4.0560002 -0.003
7.2480001 -4.02 -0.003
7.2119999 -3.961 -0.003
7.2030001 -3.918 -0.003
7.2659998 -3.914 -0.003
7.3400002 -3.915 -0.003
7.369 -3.892 -0.0020000001
7.3979998 -3.8699999 -0.0020000001
7.4000001 -3.8329999 -0.0020000001
7.421 -3.806 -0.0020000001
7.4439998 -3.7809999 -0.0020000001
7.4640002 -3.753 -0.0020000001
7.474 -3.7219999 -0.0020000001
7.5009999 -3.698 -0.0020000001
7.5219998 -3.6719999 -0.0020000001
7.5419998 -3.645 -0.0020000001
7.5679998 -3.622 -0.0020000001
7.5780001 -3.5899999 -0.0020000001
7.592 -3.5610001 -0.0020000001
7.6160002 -3.5369999 -0.0020000001
7.638 -3.5109999 -0.0020000001
7.6729999 -3.4920001 -0.0020000001
7.6880002 -3.464 -0.001
7.71 -3.4389999 -0.001
7.7199998 -3.4089999 -0.001
7.743 -3.3840001 -0.001
7.7680001 -3.3599999 -0.001
7.7859998 -3.3340001 -0.001
7.8189998 -3.3139999 -0.001
7.8369999 -3.2869999 -0.001
7.8499999 -3.2590001 -0.001
7.8769999 -3.237 -0.001
7.8979998 -3.2119999 -0.001
7.9130001 -3.184 -0.001
7.9369998 -3.161 -0.001
7.9679999 -3.1400001 -0.001
7.9829998 -3.1129999 -0.001
8.0159998 -3.0929999 -0.001
8.0270004 -3.0650001 -0
8.0690002 -3.0480001 -0
8.0900002 -3.023 -0
8.1129999 -3 -0
8.1370001 -2.9760001 -0
8.1669998 -2.9549999 -0
8.198 -2.934 -0
8.2209997 -2.911 -0
8.2200003 -2.8789999 -0
8.2449999 -2.8559999 -0
8.2770004 -2.836 -0
8.3009996 -2.813 -0
8.3299999 -2.7909999 -0
8.3380003 -2.763 -0
8.3710003 -2.743 -0
8.3850002 -2.717 -0
8.4040003 -2.6919999 -0
8.4320002 -2.671 -0
8.4750004 -2.654 -0
8.4779997 -2.625 -0
8.5240002 -2.609 -0
8.5500002 -2.586 -0
8.5889997 -2.5680001 -0
8.5810003 -2.536 -0
8.5830002 -2.507 -0
8.6400003 -2.494 -0
8.6409998 -2.4649999 -0
8.684 -2.447 -0
8.7049999 -2.424 -0
8.7309999 -2.402 -0
8.7620001 -2.381 0.001
8.7740002 -2.3559999 0.001
8.8109999 -2.3369999 0.001
8.8339996 -2.3139999 0.001
8.8599997 -2.2920001 0.001
8.8870001 -2.2709999 0.001
8.8990002 -2.2449999 0.001
8.9280005 -2.224 0.001
8.9610004 -2.204 0.001
8.9720001 -2.1789999 0.001
9.0030003 -2.158 0.001
9.04 -2.1389999 0.001
9.0600004 -2.1159999 0.001
9.0930004 -2.096 0.001
9.1040001 -2.0710001 0.001
9.1459999 -2.053 0.0020000001
9.1619997 -2.029 0.0020000001
9.1780005 -2.0050001 0.0020000001
9.2010002 -1.983 0.0020000001
9.198 -1.955 0.0020000001
9.2360001 -1.936 0.0020000001
9.2670002 -1.916 0.0020000001
9.2969999 -1.895 0.0020000001
9.3260002 -1.874 0.0020000001
9.3280001 -1.848 0.0020000001
9.3319998 -1.823 0.0020000001
9.3940001 -1.808 0.0020000001
9.427 -1.788 0.0020000001
9.4499998 -1.766 0.0020000001
9.5030003 -1.75 0.003
9.4919996 -1.722 0.003
9.5080004 -1.699 0.003
9.5340004 -1.678 0.003
9.5579996 -1.656 0.003
9.5810003 -1.635 0.003
9.6029997 -1.613 0.003
9.6330004 -1.5930001 0.003
9.6899996 -1.577 0.003
9.7980003 -1.569 0.003
9.7810001 -1.541 0.003
9.7370005 -1.5089999 0.003
9.7510004 -1.4859999 0.003
9.7799997 -1.466 0.003
9.8120003 -1.446 0.0040000002
9.842 -1.425 0.0040000002
9.8859997 -1.4069999 0.0040000002
9.9289999 -1.3890001 0.0040000002
9.9399996 -1.3660001 0.0040000002
9.9490004 -1.3430001 0.0040000002
9.9790001 -1.323 0.0040000002
10.009 -1.302 0.0040000002
10.028 -1.281 0.0040000002
10.061 -1.261 0.0040000002
10.077 -1.239 0.0040000002
10.117 -1.221 0.0040000002
10.126 -1.198 0.0040000002
10.155 -1.178 0.0049999999
10.182 -1.158 0.0049999999
10.179 -1.1339999 0.0049999999
10.265 -1.12 0.0049999999
10.279 -1.099 0.0049999999
10.32 -1.08 0.0049999999
10.329 -1.058 0.0049999999
10.361 -1.038 0.0049999999
10.391 -1.018 0.0049999999
10.435 -1 0.0049999999
10.437 -0.977 0.0049999999
10.519 -0.96200001 0.0049999999
10.562 -0.94400001 0.0049999999
10.586 -0.92299998 0.0060000001
10.587 -0.90100002 0.0060000001
10.614 -0.88099998 0.0060000001
10.649 -0.86199999 0.0060000001
10.655 -0.83999997 0.0060000001
10.688 -0.82099998 0.0060000001
10.74 -0.80299997 0.0060000001
10.784 -0.78500003 0.0060000001
10.95 -0.77499998 0.0060000001
10.881 -0.74800003 0.0060000001
10.939 -0.73000002 0.0060000001
10.949 -0.70999998 0.0060000001
10.948 -0.68800002 0.0070000002
11.05 -0.67299998 0.0070000002
10.333 0.12899999 -0.111
10.351 0.148 -0.112
10.366 0.167 -0.112
10.395 0.18700001 -0.113
10.39 0.206 -0.113
10.401 0.226 -0.113
10.43 0.24600001 -0.113
10.424 0.266 -0.114
10.433 0.287 -0.114
10.428 0.30700001 -0.114
10.428 0.32800001 -0.114
10.433 0.34900001 -0.114
10.424 0.37 -0.115
10.432 0.39199999 -0.115
10.432 0.41299999 -0.115
10.436 0.435 -0.115
10.438 0.458 -0.115
10.462 0.48100001 -0.116
10.484 0.505 -0.116
10.481 0.52700001 -0.116
10.506 0.551 -0.117
10.526 0.57599998 -0.117
10.53 0.59899998 -0.118
10.532 0.62300003 -0.118
10.555 0.648 -0.118
10.558 0.67299998 -0.119
10.56 0.69700003 -0.119
10.567 0.722 -0.119
10.587 0.74800003 -0.12
10.603 0.77399999 -0.12
10.62 0.801 -0.12
10.647 0.82800001 -0.121
10.655 0.85399997 -0.121
10.654 0.88 -0.121
10.674 0.90799999 -0.122
10.698 0.93599999 -0.122
10.703 0.963 -0.123
10.726 0.99199998 -0.123
10.738 1.02 -0.124
10.763 1.049 -0.124
10.776 1.0779999 -0.124
10.812 1.109 -0.125
10.815 1.137 -0.125
10.831 1.1670001 -0.126
10.836 1.196 -0.126
10.86 1.227 -0.127
10.892 1.2589999 -0.127
10.902 1.289 -0.12800001
10.918 1.3200001 -0.12800001
10.915 1.349 -0.12800001
10.944 1.382 -0.12899999
10.974 1.415 -0.13
10.991 1.447 -0.13
11.036 1.484 -0.131
11.029 1.513 -0.131
11.049 1.546 -0.132
11.075 1.581 -0.132
11.089 1.614 -0.133
11.114 1.649 -0.133
11.133 1.683 -0.134
11.145 1.716 -0.134
11.182 1.7539999 -0.13500001
11.202 1.789 -0.13500001
11.217 1.824 -0.13600001
11.27 1.865 -0.13699999
11.296 1.902 -0.13699999
11.325 1.9400001 -0.138
11.394 1.985 -0.139
11.401 2.02 -0.14
11.422 2.0569999 -0.14
11.447 2.096 -0.141
11.488 2.1370001 -0.142
11.479 2.1700001 -0.142
11.523 2.2130001 -0.14300001
11.555 2.2539999 -0.14300001
11.605 2.299 -0.14399999
11.624 2.3380001 -0.145
11.664 2.382 -0.146
11.705 2.4260001 -0.147
11.727 2.4660001 -0.147
11.746 2.507 -0.148
11.776 2.549 -0.149
11.809 2.5929999 -0.149
11.837 2.6370001 -0.15000001
11.859 2.6789999 -0.15099999
11.921 2.73 -0.152
11.959 2.777 -0.153
11.957 2.8139999 -0.153
11.983 2.858 -0.154
11.996 2.8989999 -0.154
11.993 2.937 -0.155
12.036 2.9860001 -0.155
12.073 3.0339999 -0.156
12.111 3.0829999 -0.15700001
12.136 3.128 -0.15800001
12.142 3.1689999 -0.15800001
12.167 3.2149999 -0.15899999
12.174 3.257 -0.16
12.184 3.3 -0.16
12.203 3.345 -0.161
12.232 3.3929999 -0.162
12.248 3.438 -0.162
12.256 3.4809999 -0.163
12.287 3.5309999 -0.163
12.308 3.5780001 -0.164
12.331 3.6259999 -0.16500001
12.37 3.6789999 -0.16599999
12.393 3.727 -0.167
12.376 3.7639999 -0.167
12.401 3.813 -0.167
12.419 3.8610001 -0.168
12.415 3.902 -0.169
12.435 3.95 -0.169
12.45 3.9979999 -0.17
12.467 4.046 -0.171
12.488 4.0949998 -0.171
12.502 4.1430001 -0.17200001
12.522 4.1929998 -0.17299999
12.544 4.243 -0.17299999
12.555 4.2909999 -0.17399999
12.553 4.3330002 -0.17399999
12.571 4.3829999 -0.175
12.589 4.4330001 -0.176
12.603 4.4819999 -0.176
12.623 4.533 -0.177
12.662 4.592 -0.178
8.4460001 3.092 -0.119
12.868 4.711 -0.182
8.3610001 3.0899999 -0.118
8.3310003 3.109 -0.118
8.302 3.1270001 -0.118
8.2840004 3.1500001 -0.118
8.283 3.1789999 -0.118
8.3109999 3.2190001 -0.119
13.068 5.0619998 -0.18700001
8.4700003 3.3099999 -0.122
12.96 5.066 -0.186
12.998 5.1269999 -0.18700001
12.967 5.1609998 -0.18700001
12.974 5.21 -0.18799999
8.3389997 3.378 -0.121
12.985 5.2610002 -0.189
8.1450005 3.329 -0.118
8.0710001 3.3269999 -0.118
8.0410004 3.3440001 -0.118
8.0179996 3.3629999 -0.118
8.0159998 3.391 -0.118
8.0489998 3.434 -0.119
8.1879997 3.523 -0.121
13.206 5.6820002 -0.19599999
13.216 5.7340002 -0.19599999
13.26 5.8010001 -0.197
13.28 5.8579998 -0.198
13.29 5.9109998 -0.199
13.308 5.967 -0.2
13.341 6.0300002 -0.20100001
13.361 6.0879998 -0.20200001
13.379 6.1440001 -0.20200001
13.393 6.1989999 -0.20299999
13.407 6.2550001 -0.204
13.426 6.3130002 -0.205
13.468 6.381 -0.206
13.459 6.4260001 -0.207
13.483 6.487 -0.207
13.491 6.54 -0.208
13.593 6.6389999 -0.20999999
12.382 6.1830001 -0.193
12.223 6.1479998 -0.191
12.23 6.197 -0.192
12.245 6.2940001 -0.193
12.287 6.3600001 -0.19400001
12.221 6.3709998 -0.19400001
12.07 6.336 -0.192
12.04 6.3639998 -0.192
12.088 6.434 -0.193
12.159 6.5159998 -0.19499999
12.143 6.552 -0.19499999
12.198 6.6259999 -0.197
12.16 6.6500001 -0.197
10.65 6.1329999 -0.176
10.505 6.0869999 -0.17399999
10.423 6.0780001 -0.17299999
10.372 6.085 -0.17299999
10.316 6.0900002 -0.17200001
10.262 6.0939999 -0.17200001
10.199 6.0939999 -0.171
10.144 6.0970001 -0.171
10.085 6.098 -0.17
10.041 6.1069999 -0.17
9.9960003 6.1149998 -0.17
9.948 6.1209998 -0.17
9.9180002 6.138 -0.17
9.9180002 6.1729999 -0.17
9.9729996 6.243 -0.171
10.205 6.4229999 -0.176
9.7519999 6.8000002 -0.178
9.6590004 6.7670002 -0.177
9.6219997 6.7719998 -0.176
9.5679998 6.7649999 -0.176
9.5279999 6.7659998 -0.176
9.5179996 6.789 -0.176
9.5030003 6.809 -0.176
9.5010004 6.8379998 -0.177
9.4809999 6.8520002 -0.177
9.5 6.895 -0.178
9.474 6.9060001 -0.178
7.336 -4.3130002 0.013
7.3670001 -4.3099999 0.013
7.3579998 -4.2839999 0.013
7.3660002 -4.2680001 0.013
7.388 -4.2600002 0.013
7.3889999 -4.2399998 0.013
7.3990002 -4.224 0.013
7.415 -4.2129998 0.013
7.4369998 -4.204 0.013
7.428 -4.178 0.013
7.4460001 -4.1659999 0.013
7.4569998 -4.152 0.013
7.4549999 -4.1290002 0.014
7.4619999 -4.112 0.014
7.4850001 -4.1030002 0.014
7.4850001 -4.0819998 0.014
7.5029998 -4.0700002 0.014
7.5110002 -4.053 0.014
7.5250001 -4.039 0.014
7.5359998 -4.0240002 0.014
7.5380001 -4.0029998 0.014
7.5409999 -3.983 0.014
7.5560002 -3.9690001 0.014
7.5539999 -3.947 0.014
7.5489998 -3.9219999 0.014
7.5819998 -3.918 0.015
7.592 -3.901 0.015
7.605 -3.8859999 0.015
7.612 -3.868 0.015
7.631 -3.855 0.015
7.6230001 -3.8299999 0.015
7.6550002 -3.823 0.015
7.6570001 -3.802 0.015
7.6659999 -3.7850001 0.015
7.6830001 -3.7709999 0.015
7.6919999 -3.753 0.015
7.7059999 -3.7379999 0.016000001
7.71 -3.7179999 0.016000001
7.7259998 -3.7030001 0.016000001
7.724 -3.6800001 0.016000001
7.7519999 -3.671 0.016000001
7.7740002 -3.6589999 0.016000001
7.777 -3.638 0.016000001
7.7880001 -3.6199999 0.016000001
7.7940001 -3.6010001 0.016000001
7.809 -3.585 0.016000001
7.8309999 -3.573 0.016000001
7.8499999 -3.559 0.017000001
7.8509998 -3.536 0.017000001
7.855 -3.516 0.017000001
7.8800001 -3.5039999 0.017000001
7.8860002 -3.484 0.017000001
7.9039998 -3.4690001 0.017000001
7.9200001 -3.4530001 0.017000001
7.9299998 -3.4349999 0.017000001
7.9590001 -3.424 0.017000001
7.9619999 -3.402 0.017000001
7.9720001 -3.3840001 0.017000001
8.0010004 -3.3729999 0.017999999
8.0039997 -3.3510001 0.017999999
8.0249996 -3.3369999 0.017999999
8.0340004 -3.3169999 0.017999999
8.0419998 -3.2969999 0.017999999
8.0480003 -3.276 0.017999999
8.0860004 -3.2679999 0.017999999
8.0970001 -3.2490001 0.017999999
8.1020002 -3.2279999 0.017999999
8.1379995 -3.2190001 0.017999999
8.1470003 -3.1989999 0.018999999
8.1400003 -3.1730001 0.018999999
8.1569996 -3.1559999 0.018999999
8.1949997 -3.1470001 0.018999999
8.2089996 -3.128 0.018999999
8.2390003 -3.1159999 0.018999999
8.2659998 -3.102 0.018999999
8.2550001 -3.0739999 0.018999999
8.2679996 -3.0550001 0.018999999
8.2880001 -3.039 0.018999999
8.3059998 -3.0209999 0.02
8.3050003 -2.997 0.02
8.3330002 -2.983 0.02
8.3400002 -2.961 0.02
8.3529997 -2.9419999 0.02
8.3669996 -2.9219999 0.02
8.3889999 -2.9059999 0.02
8.4169998 -2.891 0.02
8.4379997 -2.8740001 0.02
8.4250002 -2.846 0.02
8.4610004 -2.8329999 0.021
8.4940004 -2.8199999 0.021
8.4849997 -2.7920001 0.021
8.5089998 -2.776 0.021
8.5299997 -2.7579999 0.021
8.5489998 -2.74 0.021
8.5710001 -2.7219999 0.021
8.5780001 -2.6989999 0.021
8.6009998 -2.6819999 0.021
8.6049995 -2.658 0.022
8.665 -2.652 0.022
8.6890001 -2.6340001 0.022
8.6689997 -2.6029999 0.022
8.7030001 -2.5880001 0.022
8.7080002 -2.5650001 0.022
8.7130003 -2.5409999 0.022
8.7510004 -2.527 0.022
8.7690001 -2.507 0.023
8.7910004 -2.4879999 0.023
8.8310003 -2.474 0.023
8.8590002 -2.4560001 0.023
8.868 -2.4330001 0.023
8.8839998 -2.4119999 0.023
8.9069996 -2.3929999 0.023
8.9069996 -2.3670001 0.023
8.9250002 -2.346 0.023
8.9469995 -2.326 0.024
8.9960003 -2.313 0.024
9.0089998 -2.2909999 0.024
9.0080004 -2.2650001 0.024
9.0459995 -2.2479999 0.024
9.0609999 -2.2260001 0.024
9.0740004 -2.2030001 0.024
9.1090002 -2.1860001 0.024
9.1230001 -2.1630001 0.025
9.1339998 -2.1389999 0.025
9.1590004 -2.119 0.025
9.1820002 -2.098 0.025
9.2200003 -2.0799999 0.025
9.2370005 -2.0580001 0.025
9.2670002 -2.0380001 0.025
9.2860003 -2.0150001 0.025
9.3030005 -1.992 0.026000001
9.3240004 -1.97 0.026000001
9.3470001 -1.948 0.026000001
9.382 -1.929 0.026000001
9.3900003 -1.904 0.026000001
9.4239998 -1.8839999 0.026000001
9.4700003 -1.8660001 0.026000001
9.4790001 -1.84 0.027000001
9.5220003 -1.821 0.027000001
9.5570002 -1.801 0.027000001
9.5830002 -1.778 0.027000001
9.6070004 -1.755 0.027000001
9.6400003 -1.734 0.027000001
9.6730003 -1.712 0.028000001
9.6789999 -1.686 0.028000001
9.6999998 -1.6619999 0.028000001
9.7290001 -1.6390001 0.028000001
9.757 -1.6160001 0.028000001
9.8109999 -1.597 0.028000001
9.849 -1.575 0.028000001
9.915 -1.557 0.028999999
9.8809996 -1.523 0.028999999
9.915 -1.501 0.028999999
9.9460001 -1.477 0.028999999
9.9829998 -1.454 0.028999999
10.033 -1.433 0.028999999
10.078 -1.41 0.029999999
10.12 -1.387 0.029999999
10.15 -1.363 0.029999999
10.181 -1.3380001 0.029999999
10.197 -1.311 0.029999999
10.216 -1.284 0.029999999
10.284 -1.263 0.030999999
10.333 -1.24 0.030999999
10.342 -1.212 0.030999999
10.391 -1.188 0.030999999
10.418 -1.161 0.030999999
10.487 -1.1390001 0.032000002
10.532 -1.114 0.032000002
10.614 -1.0930001 0.032000002
10.668 -1.068 0.032000002
10.69 -1.04 0.033
10.723 -1.012 0.033
10.752 -0.98500001 0.033
10.763 -0.95499998 0.033
10.821 -0.92900002 0.033
10.905 -0.90600002 0.034000002
10.996 -0.88200003 0.034000002
10.973 -0.84899998 0.034000002
10.983 -0.81900001 0.034000002
11.057 -0.79299998 0.034000002
11.123 -0.76599997 0.035
11.17 -0.73699999 0.035
11.237 0.324 -0.097000003
11.156 0.338 -0.097000003
11.1 0.352 -0.097000003
11.032 0.366 -0.096000001
11.052 0.38299999 -0.096000001
11.052 0.39899999 -0.097000003
11.059 0.41600001 -0.097000003
11.026 0.43200001 -0.097000003
10.983 0.44800001 -0.097000003
10.98 0.465 -0.097000003
10.973 0.48199999 -0.097000003
10.981 0.50099999 -0.097000003
10.983 0.51899999 -0.097000003
10.964 0.537 -0.097000003
10.973 0.55599999 -0.097999997
10.975 0.57499999 -0.097999997
10.995 0.59500003 -0.097999997
10.957 0.61199999 -0.097999997
10.98 0.63300002 -0.097999997
10.985 0.653 -0.098999999
10.996 0.67400002 -0.098999999
10.991 0.69400001 -0.098999999
10.991 0.71499997 -0.098999999
10.98 0.73500001 -0.098999999
10.981 0.75599998 -0.098999999
10.995 0.77899998 -0.1
11.017 0.80199999 -0.1
11.027 0.824 -0.101
11.048 0.84799999 -0.101
11.033 0.86900002 -0.101
11.05 0.89300001 -0.101
11.069 0.917 -0.102
11.066 0.94 -0.102
11.059 0.963 -0.102
11.083 0.98799998 -0.102
11.108 1.0140001 -0.103
11.106 1.038 -0.103
11.125 1.064 -0.104
11.128 1.089 -0.104
11.141 1.115 -0.104
11.171 1.143 -0.105
11.169 1.168 -0.105
11.183 1.1950001 -0.105
11.178 1.22 -0.105
11.211 1.249 -0.106
11.249 1.28 -0.107
11.25 1.307 -0.107
11.226 1.33 -0.107
11.264 1.362 -0.107
11.28 1.391 -0.108
11.297 1.42 -0.108
11.307 1.449 -0.109
11.326 1.479 -0.109
11.361 1.512 -0.11
11.368 1.5420001 -0.11
11.38 1.572 -0.11
11.397 1.603 -0.111
11.421 1.636 -0.111
11.443 1.668 -0.112
11.477 1.7029999 -0.112
11.511 1.738 -0.113
11.524 1.77 -0.113
11.534 1.802 -0.114
11.574 1.839 -0.114
11.622 1.878 -0.115
11.641 1.9119999 -0.116
11.66 1.947 -0.116
11.664 1.979 -0.116
11.69 2.016 -0.117
11.712 2.052 -0.117
11.735 2.089 -0.118
11.768 2.1270001 -0.119
11.787 2.164 -0.119
11.822 2.204 -0.12
11.848 2.2420001 -0.12
11.886 2.2839999 -0.121
11.88 2.3169999 -0.121
11.924 2.3599999 -0.122
11.951 2.4000001 -0.123
11.978 2.4400001 -0.123
12.014 2.483 -0.124
12.022 2.52 -0.124
12.025 2.5569999 -0.125
12.058 2.5999999 -0.125
12.095 2.6440001 -0.126
12.111 2.684 -0.126
12.135 2.7260001 -0.127
12.161 2.7690001 -0.12800001
12.194 2.8139999 -0.12800001
12.224 2.859 -0.12899999
12.218 2.8959999 -0.12899999
12.237 2.938 -0.13
12.254 2.9809999 -0.13
12.251 3.0190001 -0.131
12.282 3.0650001 -0.131
12.302 3.109 -0.132
12.322 3.154 -0.132
12.336 3.197 -0.133
12.329 3.2349999 -0.133
12.337 3.277 -0.134
12.372 3.3269999 -0.134
12.385 3.3710001 -0.13500001
12.396 3.415 -0.13500001
12.425 3.464 -0.13600001
12.437 3.5090001 -0.13699999
12.462 3.5569999 -0.13699999
12.483 3.605 -0.138
12.509 3.655 -0.139
12.495 3.6930001 -0.139
12.514 3.7409999 -0.139
12.527 3.7880001 -0.14
12.543 3.836 -0.14
12.562 3.885 -0.141
12.579 3.934 -0.142
12.598 3.983 -0.142
12.594 4.026 -0.14300001
12.626 4.0799999 -0.14300001
12.635 4.1279998 -0.14399999
12.648 4.177 -0.14399999
12.694 4.237 -0.145
12.712 4.289 -0.146
12.746 4.3460002 -0.147
12.761 4.3969998 -0.147
12.76 4.4429998 -0.148
12.771 4.493 -0.148
12.796 4.5479999 -0.149
12.816 4.6020002 -0.15000001
12.863 4.6669998 -0.15099999
8.4399996 3.0929999 -0.098999999
8.3450003 3.089 -0.097999997
8.3240004 3.112 -0.097999997
8.2860003 3.1289999 -0.097999997
8.283 3.1589999 -0.097999997
8.2729998 3.187 -0.098999999
8.3240004 3.2379999 -0.098999999
13.212 5.1389999 -0.15800001
13.208 5.1869998 -0.15800001
13.239 5.25 -0.15899999
13.292 5.322 -0.16
8.2639999 3.3410001 -0.1
13.335 5.3899999 -0.161
8.1199999 3.313 -0.097999997
8.059 3.3199999 -0.097999997
8.0310001 3.3399999 -0.097999997
8.0220003 3.3670001 -0.097999997
8.0450001 3.408 -0.098999999
8.1330004 3.477 -0.1
13.517 5.7800002 -0.167
13.447 5.803 -0.16599999
13.515 5.8860002 -0.168
13.533 5.948 -0.168
13.612 6.0370002 -0.17
13.62 6.0949998 -0.17
13.645 6.1609998 -0.171
13.654 6.2199998 -0.17200001
13.636 6.2670002 -0.17200001
13.618 6.3140001 -0.17200001
13.641 6.381 -0.17299999
13.656 6.4439998 -0.17399999
13.675 6.5089998 -0.175
13.714 6.5840001 -0.176
13.762 6.664 -0.177
12.261 6.1430001 -0.16
12.185 6.1560001 -0.15899999
12.198 6.2659998 -0.16
12.274 6.3579998 -0.162
12.206 6.375 -0.161
12.051 6.3460002 -0.16
12.038 6.3909998 -0.16
12.088 6.4699998 -0.161
12.106 6.5320001 -0.162
12.21 6.6409998 -0.164
12.183 6.6799998 -0.164
12.155 6.7179999 -0.164
10.749 6.2270002 -0.148
10.566 6.1690001 -0.146
10.429 6.1360002 -0.145
10.362 6.1440001 -0.14399999
10.294 6.1500001 -0.14399999
10.235 6.1609998 -0.14300001
10.163 6.164 -0.14300001
10.115 6.1820002 -0.142
10.048 6.1869998 -0.142
10 6.2030001 -0.142
9.9519997 6.2199998 -0.141
9.901 6.2340002 -0.141
9.8549995 6.2509999 -0.141
9.8470001 6.2919998 -0.141
9.8940001 6.369 -0.142
10.089 6.5419998 -0.146
9.5950003 6.869 -0.145
9.5380001 6.875 -0.145
7.0320001 -4.6370001 0.028999999
7.0679998 -4.6170001 0.028999999
7.0780001 -4.579 0.028999999
7.118 -4.5609999 0.029999999
7.1459999 -4.5349998 0.029999999
7.1700001 -4.507 0.029999999
7.198 -4.4809999 0.029999999
7.2270002 -4.4559999 0.029999999
7.2490001 -4.4260001 0.029999999
7.2610002 -4.3920002 0.029999999
7.283 -4.362 0.030999999
7.3169999 -4.3410001 0.030999999
7.3270001 -4.3049998 0.030999999
7.3369999 -4.27 0.030999999
7.3759999 -4.2509999 0.030999999
7.4000001 -4.224 0.030999999
7.4169998 -4.1929998 0.030999999
7.4349999 -4.1620002 0.032000002
7.4439998 -4.1269999 0.032000002
7.4689999 -4.1009998 0.032000002
7.4699998 -4.0609999 0.032000002
7.4899998 -4.033 0.032000002
7.5100002 -4.0050001 0.032000002
7.5450001 -3.984 0.032000002
7.5770001 -3.9619999 0.032000002
7.5929999 -3.931 0.033
7.6020002 -3.898 0.033
7.6160002 -3.8670001 0.033
7.6360002 -3.839 0.033
7.6669998 -3.816 0.033
7.6799998 -3.7850001 0.033
7.7080002 -3.7620001 0.033
7.723 -3.7320001 0.033
7.7509999 -3.7079999 0.034000002
7.7729998 -3.681 0.034000002
7.7930002 -3.654 0.034000002
7.8200002 -3.6300001 0.034000002
7.8309999 -3.599 0.034000002
7.8439999 -3.569 0.034000002
7.8800001 -3.549 0.034000002
7.8940001 -3.52 0.035
7.9130001 -3.493 0.035
7.9299998 -3.4649999 0.035
7.9499998 -3.438 0.035
7.9959998 -3.4230001 0.035
8.0030003 -3.391 0.035
8.0430002 -3.3729999 0.035
8.0410004 -3.3369999 0.035
8.0810003 -3.319 0.035999998
8.1049995 -3.2950001 0.035999998
8.1280003 -3.27 0.035999998
8.1569996 -3.247 0.035999998
8.1700001 -3.2190001 0.035999998
8.184 -3.191 0.035999998
8.2040005 -3.165 0.037
8.2410002 -3.1459999 0.037
