# .PCD v0.7 - Point Cloud Data file format
VERSION 0.7
FIELDS x y z
SIZE 4 4 4
TYPE F F F
COUNT 1 1 1
WIDTH 1770
HEIGHT 1
VIEWPOINT 0 0 0 1 0 0 0
POINTS 1770
DATA ascii
9.3249998 0.86699998 -0.32499999
9.3439999 0.889 -0.32600001
9.3450003 0.91000003 -0.32600001
9.3579998 0.93199998 -0.32699999
9.3669996 0.954 -0.32699999
9.3809996 0.977 -0.32800001
9.3990002 1 -0.329
9.3870001 1.02 -0.329
9.401 1.044 -0.33000001
9.4309998 1.069 -0.331
9.4370003 1.092 -0.33199999
9.4490004 1.1160001 -0.33199999
9.4700003 1.141 -0.333
9.4829998 1.166 -0.33399999
9.4799995 1.189 -0.33500001
9.4849997 1.2130001 -0.33500001
9.5010004 1.238 -0.336
9.5089998 1.263 -0.33700001
9.5089998 1.2869999 -0.33700001
9.5419998 1.3150001 -0.33899999
9.5570002 1.342 -0.33899999
9.5760002 1.369 -0.34
9.5790005 1.3940001 -0.34099999
9.5939999 1.421 -0.34200001
9.6140003 1.449 -0.34299999
9.6339998 1.478 -0.34400001
9.6420002 1.5039999 -0.345
9.6499996 1.531 -0.34599999
9.6750002 1.561 -0.347
9.6969995 1.591 -0.34799999
9.7200003 1.6210001 -0.34900001
9.7259998 1.649 -0.34999999
9.7379999 1.678 -0.35100001
9.7620001 1.709 -0.352
9.7659998 1.737 -0.35299999
9.7790003 1.767 -0.354
9.7980003 1.798 -0.35499999
9.8109999 1.8279999 -0.35600001
9.8319998 1.86 -0.35699999
9.8500004 1.892 -0.35800001
9.8540001 1.921 -0.359
9.8719997 1.9529999 -0.36000001
9.882 1.984 -0.361
9.8970003 2.016 -0.36199999
9.9060001 2.0469999 -0.36300001
9.9239998 2.0799999 -0.36399999
9.9300003 2.1110001 -0.36399999
9.9320002 2.141 -0.36500001
9.9460001 2.175 -0.366
9.9569998 2.207 -0.36700001
9.9799995 2.243 -0.368
9.9860001 2.2750001 -0.36899999
10.003 2.309 -0.37
10.025 2.346 -0.37200001
10.035 2.3789999 -0.373
10.071 2.4189999 -0.37400001
10.073 2.451 -0.375
10.092 2.4879999 -0.37599999
10.116 2.526 -0.37799999
10.117 2.5580001 -0.37799999
10.147 2.599 -0.38
10.136 2.6289999 -0.38
10.138 2.6619999 -0.38100001
10.141 2.6960001 -0.382
10.132 2.7260001 -0.382
10.099 2.7509999 -0.38100001
10.078 2.7780001 -0.38100001
10.101 2.8180001 -0.38299999
10.236 2.8900001 -0.38800001
10.322 2.9489999 -0.39199999
10.336 2.9879999 -0.39300001
10.348 3.026 -0.39500001
10.347 3.0610001 -0.39500001
10.366 3.102 -0.39700001
10.379 3.141 -0.398
10.353 3.1689999 -0.39700001
10.388 3.2149999 -0.39899999
10.39 3.2520001 -0.40000001
10.407 3.2939999 -0.40099999
10.418 3.3340001 -0.403
10.444 3.3789999 -0.40400001
10.426 3.4100001 -0.40400001
10.445 3.4530001 -0.40599999
10.45 3.4920001 -0.40700001
10.448 3.529 -0.40700001
10.473 3.575 -0.40900001
10.469 3.6110001 -0.41
10.503 3.661 -0.412
10.515 3.7030001 -0.41299999
10.525 3.7449999 -0.414
10.541 3.79 -0.41499999
10.517 3.8199999 -0.41499999
10.546 3.869 -0.417
10.562 3.914 -0.41800001
10.554 3.951 -0.419
10.586 4.0019999 -0.421
10.605 4.0489998 -0.42300001
10.642 4.1040001 -0.42500001
10.653 4.1479998 -0.426
10.676 4.198 -0.428
10.683 4.2420001 -0.42899999
10.701 4.29 -0.43000001
10.721 4.3390002 -0.43200001
10.747 4.3909998 -0.43399999
10.769 4.4419999 -0.43599999
10.799 4.4959998 -0.43799999
10.827 4.5500002 -0.44
10.865 4.6090002 -0.442
10.896 4.665 -0.44400001
10.894 4.7069998 -0.44499999
10.923 4.763 -0.447
10.95 4.8179998 -0.449
10.983 4.8769999 -0.45100001
11.016 4.9359999 -0.454
11.024 4.9840002 -0.45500001
11.056 5.0430002 -0.45699999
11.078 5.098 -0.45899999
11.123 5.164 -0.46200001
11.125 5.211 -0.463
11.154 5.27 -0.465
11.165 5.3210001 -0.46599999
11.174 5.3720002 -0.46799999
11.189 5.4260001 -0.46900001
11.229 5.4920001 -0.472
11.227 5.5380001 -0.47299999
11.255 5.599 -0.47499999
11.262 5.6500001 -0.47600001
11.276 5.704 -0.47799999
11.299 5.7639999 -0.47999999
11.327 5.8270001 -0.48199999
11.324 5.8730001 -0.48300001
11.325 5.9219999 -0.484
11.334 5.9759998 -0.486
11.345 6.0310001 -0.48699999
11.346 6.0799999 -0.48800001
11.375 6.1459999 -0.491
11.375 6.1950002 -0.49200001
11.393 6.2550001 -0.49399999
11.381 6.2979999 -0.49399999
11.398 6.3579998 -0.49599999
11.393 6.4060001 -0.49700001
11.416 6.4689999 -0.49900001
11.408 6.5159998 -0.5
11.436 6.5819998 -0.50199997
11.454 6.6440001 -0.50400001
11.452 6.6950002 -0.505
11.456 6.7490001 -0.50599998
11.462 6.8039999 -0.50800002
11.475 6.8639998 -0.50999999
11.478 6.9180002 -0.51099998
11.469 6.9660001 -0.51200002
11.469 7.0180001 -0.51300001
11.468 7.0700002 -0.514
9.8900003 6.6560001 -0.456
9.8109999 6.6500001 -0.45300001
9.7419996 6.6490002 -0.45100001
9.7279997 6.6869998 -0.45199999
9.7119999 6.724 -0.45199999
4.9050002 3.467 -0.23
4.7789998 3.402 -0.22400001
4.6919999 3.362 -0.221
4.6350002 3.345 -0.219
6.2719998 -4.1459999 -0.126
6.3130002 -4.1339998 -0.127
6.349 -4.1170001 -0.12800001
6.3610001 -4.085 -0.12800001
6.3899999 -4.0650001 -0.12800001
6.4089999 -4.0380001 -0.12800001
6.4289999 -4.0120001 -0.12800001
6.4549999 -3.9890001 -0.12899999
6.4699998 -3.96 -0.12899999
6.4959998 -3.938 -0.12899999
6.513 -3.9100001 -0.12899999
6.5409999 -3.8889999 -0.13
6.559 -3.862 -0.13
6.5700002 -3.8310001 -0.13
6.579 -3.8 -0.13
6.5869999 -3.767 -0.13
6.6149998 -3.747 -0.13
6.6300001 -3.7190001 -0.13
6.6459999 -3.6919999 -0.131
6.684 -3.677 -0.131
6.6890001 -3.6440001 -0.131
6.7059999 -3.618 -0.131
6.7319999 -3.596 -0.132
6.744 -3.5680001 -0.132
6.7620001 -3.5420001 -0.132
6.7750001 -3.5139999 -0.132
6.7950001 -3.49 -0.132
6.8140001 -3.4660001 -0.132
6.8299999 -3.4400001 -0.133
6.849 -3.415 -0.133
6.8759999 -3.395 -0.133
6.8860002 -3.3670001 -0.133
6.902 -3.3410001 -0.133
6.9130001 -3.313 -0.133
6.9320002 -3.289 -0.134
6.96 -3.2690001 -0.134
6.9619999 -3.2379999 -0.134
6.9899998 -3.2179999 -0.134
7.0100002 -3.1949999 -0.134
7.026 -3.1700001 -0.13500001
7.04 -3.1440001 -0.13500001
7.0640001 -3.1229999 -0.13500001
7.0700002 -3.0940001 -0.13500001
7.0949998 -3.073 -0.13500001
7.1139998 -3.05 -0.13500001
7.131 -3.026 -0.13600001
7.1420002 -2.9990001 -0.13600001
7.1669998 -2.9790001 -0.13600001
7.1799998 -2.954 -0.13600001
7.2140002 -2.937 -0.13699999
7.2249999 -2.911 -0.13699999
7.2350001 -2.885 -0.13699999
7.2600002 -2.8640001 -0.13699999
7.2800002 -2.842 -0.13699999
7.2930002 -2.8169999 -0.13699999
7.303 -2.7909999 -0.13699999
7.3319998 -2.773 -0.138
7.342 -2.747 -0.138
7.3740001 -2.7290001 -0.138
7.382 -2.7030001 -0.138
7.3990002 -2.6800001 -0.139
7.4219999 -2.6589999 -0.139
7.4229999 -2.631 -0.139
7.461 -2.615 -0.139
7.4809999 -2.5940001 -0.14
7.4899998 -2.5680001 -0.14
7.527 -2.553 -0.14
7.5209999 -2.523 -0.14
7.5619998 -2.5079999 -0.141
7.5640001 -2.4809999 -0.14
7.6009998 -2.4649999 -0.141
7.618 -2.4419999 -0.141
7.6430001 -2.4230001 -0.142
7.6469998 -2.3970001 -0.142
7.6719999 -2.3770001 -0.142
7.6939998 -2.3559999 -0.142
7.7119999 -2.3340001 -0.142
7.7160001 -2.309 -0.142
7.744 -2.29 -0.14300001
7.7789998 -2.273 -0.14300001
7.7979999 -2.2520001 -0.14300001
7.8049998 -2.2279999 -0.14300001
7.829 -2.2079999 -0.14399999
7.836 -2.1830001 -0.14399999
7.895 -2.1730001 -0.145
7.902 -2.1489999 -0.145
7.8940001 -2.1210001 -0.14399999
7.9239998 -2.102 -0.145
7.9380002 -2.0799999 -0.145
7.9629998 -2.0610001 -0.145
7.9819999 -2.04 -0.146
8.0100002 -2.0220001 -0.146
8.0360003 -2.003 -0.146
8.0500002 -1.9809999 -0.146
8.0769997 -1.962 -0.147
8.0760002 -1.936 -0.147
8.1230001 -1.9220001 -0.147
8.1280003 -1.899 -0.147
8.1459999 -1.878 -0.148
8.1610003 -1.8559999 -0.148
8.1829996 -1.837 -0.148
8.2060003 -1.817 -0.148
8.2399998 -1.8 -0.149
8.2539997 -1.779 -0.149
8.2700005 -1.758 -0.149
8.2869997 -1.737 -0.149
8.3009996 -1.716 -0.15000001
8.3199997 -1.696 -0.15000001
8.3290005 -1.674 -0.15000001
8.3570004 -1.655 -0.15000001
8.3929996 -1.6390001 -0.15099999
8.415 -1.619 -0.15099999
8.4280005 -1.598 -0.15099999
8.4440002 -1.5779999 -0.15099999
8.4639997 -1.558 -0.152
8.4680004 -1.536 -0.152
8.4799995 -1.515 -0.152
8.4899998 -1.493 -0.152
8.5240002 -1.476 -0.152
8.5459995 -1.457 -0.153
8.5699997 -1.439 -0.153
8.5710001 -1.416 -0.153
8.6070004 -1.399 -0.153
8.6219997 -1.3789999 -0.154
8.6289997 -1.358 -0.154
8.6569996 -1.34 -0.154
8.6809998 -1.322 -0.154
8.6949997 -1.302 -0.155
8.7229996 -1.284 -0.155
8.7290001 -1.263 -0.155
8.743 -1.243 -0.155
8.7670002 -1.225 -0.155
8.7740002 -1.204 -0.155
8.7889996 -1.184 -0.156
8.8079996 -1.166 -0.156
8.8389997 -1.148 -0.156
8.8520002 -1.1289999 -0.15700001
8.8669996 -1.11 -0.15700001
8.8870001 -1.091 -0.15700001
8.8850002 -1.0700001 -0.15700001
8.9160004 -1.053 -0.15700001
8.9309998 -1.034 -0.15700001
8.9420004 -1.0140001 -0.15800001
8.9709997 -0.99699998 -0.15800001
8.9820004 -0.97799999 -0.15800001
9.0240002 -0.96200001 -0.15899999
9.0559998 -0.94499999 -0.15899999
9.0600004 -0.92500001 -0.15899999
9.0629997 -0.90600002 -0.15899999
9.0640001 -0.88599998 -0.15899999
9.1000004 -0.86900002 -0.16
9.1099997 -0.85100001 -0.16
9.1409998 -0.83399999 -0.16
9.1560001 -0.815 -0.16
9.1719999 -0.79699999 -0.161
9.198 -0.77999997 -0.161
9.2259998 -0.76300001 -0.161
9.2279997 -0.74400002 -0.161
9.2410002 -0.72600001 -0.162
9.2659998 -0.70899999 -0.162
9.2650003 -0.69 -0.162
9.2840004 -0.67199999 -0.162
9.2980003 -0.65499997 -0.162
9.3140001 -0.63700002 -0.162
9.3149996 -0.61900002 -0.162
9.3520002 -0.60299999 -0.163
9.3660002 -0.58499998 -0.163
9.3769999 -0.56800002 -0.163
9.4040003 -0.551 -0.164
9.4420004 -0.53600001 -0.164
9.4659996 -0.51899999 -0.16500001
9.4700003 -0.50099999 -0.16500001
9.5670004 -0.48800001 -0.16599999
9.5380001 -0.46900001 -0.16599999
9.5830002 -0.454 -0.16599999
9.6140003 -0.43799999 -0.167
9.5530005 -0.417 -0.16599999
9.6639996 -0.405 -0.168
9.7040005 -0.389 -0.168
9.1129999 0.108 -0.28400001
9.1280003 0.125 -0.285
9.1540003 0.142 -0.28600001
9.1599998 0.15899999 -0.28600001
9.1719999 0.177 -0.287
9.1800003 0.19400001 -0.287
9.1739998 0.212 -0.287
9.1859999 0.23 -0.287
9.1800003 0.248 -0.287
9.1820002 0.266 -0.28799999
9.191 0.285 -0.28799999
9.1890001 0.303 -0.28799999
9.1949997 0.322 -0.289
9.1949997 0.34099999 -0.289
9.1969995 0.36000001 -0.289
9.2220001 0.38100001 -0.28999999
9.21 0.40000001 -0.28999999
9.2200003 0.41999999 -0.28999999
9.2309999 0.44 -0.29100001
9.2460003 0.461 -0.292
9.2379999 0.48100001 -0.292
9.2349997 0.50199997 -0.292
9.2550001 0.523 -0.29300001
9.2600002 0.54400003 -0.29300001
9.2849998 0.56699997 -0.294
9.2860003 0.588 -0.294
9.3000002 0.611 -0.29499999
9.3100004 0.63300002 -0.296
9.309 0.65499997 -0.296
9.3140001 0.67699999 -0.296
9.3319998 0.70099998 -0.29699999
9.3280001 0.72299999 -0.29699999
9.3500004 0.74699998 -0.29800001
9.3579998 0.76999998 -0.29899999
9.3710003 0.79400003 -0.29899999
9.3699999 0.81699997 -0.30000001
9.3909998 0.84299999 -0.301
9.4139996 0.86799997 -0.30199999
9.4029999 0.89099997 -0.30199999
9.4230003 0.917 -0.303
9.448 0.94300002 -0.30399999
9.4540005 0.96799999 -0.30399999
9.4820004 0.995 -0.30500001
9.4919996 1.021 -0.30599999
9.4980001 1.046 -0.30599999
9.5089998 1.073 -0.30700001
9.5100002 1.098 -0.308
9.5360003 1.126 -0.30899999
9.5489998 1.153 -0.30899999
9.5719995 1.182 -0.31099999
9.5760002 1.2079999 -0.31099999
9.5889997 1.2359999 -0.31200001
9.6099997 1.265 -0.31299999
9.6009998 1.29 -0.31299999
9.6120005 1.318 -0.31400001
9.6389999 1.348 -0.315
9.6549997 1.377 -0.31600001
9.6780005 1.408 -0.317
9.6999998 1.438 -0.31799999
9.717 1.4680001 -0.31900001
9.7279997 1.497 -0.31999999
9.7510004 1.529 -0.32100001
9.7720003 1.5599999 -0.322
9.79 1.591 -0.32300001
9.8079996 1.623 -0.324
9.8269997 1.654 -0.32499999
9.8409996 1.686 -0.32600001
9.8509998 1.716 -0.32600001
9.8710003 1.749 -0.32800001
9.8839998 1.78 -0.32800001
9.915 1.8150001 -0.33000001
9.9370003 1.849 -0.331
9.9519997 1.882 -0.33199999
9.9560003 1.9119999 -0.33199999
9.9799995 1.947 -0.33399999
10.02 1.985 -0.336
10 2.0120001 -0.33500001
10.015 2.046 -0.336
10.04 2.082 -0.338
10.053 2.115 -0.338
10.096 2.1559999 -0.34
10.068 2.181 -0.34
10.091 2.217 -0.34099999
10.094 2.2490001 -0.34200001
10.125 2.2880001 -0.34299999
10.151 2.326 -0.345
10.154 2.359 -0.345
10.176 2.3959999 -0.347
10.188 2.431 -0.347
10.206 2.4679999 -0.34900001
10.213 2.503 -0.34900001
10.222 2.5380001 -0.34999999
10.218 2.5699999 -0.35100001
10.222 2.6040001 -0.35100001
10.217 2.6359999 -0.352
10.209 2.6670001 -0.352
10.168 2.6889999 -0.35100001
10.151 2.7179999 -0.35100001
10.083 2.733 -0.34900001
10.069 2.7620001 -0.34900001
10.125 2.8110001 -0.352
10.405 2.9230001 -0.36199999
10.462 2.974 -0.36399999
10.48 3.0139999 -0.366
10.523 3.062 -0.368
10.526 3.098 -0.368
10.55 3.1400001 -0.37
10.564 3.1800001 -0.37099999
10.544 3.21 -0.37099999
10.578 3.256 -0.373
10.584 3.293 -0.373
10.595 3.3329999 -0.37400001
10.598 3.3699999 -0.375
10.616 3.4119999 -0.37599999
10.654 3.461 -0.37799999
10.64 3.493 -0.37900001
10.656 3.5339999 -0.38
10.648 3.5680001 -0.38
10.651 3.6059999 -0.38100001
10.657 3.645 -0.382
10.674 3.688 -0.38299999
10.67 3.724 -0.384
10.675 3.763 -0.384
10.676 3.8 -0.38499999
10.669 3.835 -0.38600001
10.686 3.8789999 -0.38699999
10.735 3.934 -0.389
10.736 3.973 -0.38999999
10.733 4.0089998 -0.391
10.762 4.0580001 -0.39199999
10.775 4.1009998 -0.39300001
10.794 4.1459999 -0.39500001
10.812 4.1919999 -0.396
10.825 4.2350001 -0.39700001
10.862 4.2880001 -0.39899999
10.859 4.3260002 -0.40000001
10.87 4.369 -0.40099999
10.899 4.4200001 -0.403
10.932 4.4720001 -0.405
10.932 4.5120001 -0.40599999
10.955 4.5609999 -0.40700001
10.993 4.6160002 -0.41
11.031 4.671 -0.412
11.055 4.7220001 -0.41299999
11.076 4.7709999 -0.41499999
11.114 4.8270001 -0.417
11.121 4.8699999 -0.41800001
11.145 4.921 -0.41999999
11.19 4.9819999 -0.42199999
11.201 5.027 -0.42399999
11.208 5.0710001 -0.42500001
11.245 5.1279998 -0.42699999
11.291 5.191 -0.42899999
11.297 5.2350001 -0.43099999
11.304 5.2789998 -0.43200001
11.336 5.335 -0.43399999
11.335 5.3759999 -0.43399999
11.361 5.4299998 -0.43599999
11.378 5.48 -0.43799999
11.399 5.5310001 -0.43900001
11.424 5.585 -0.44100001
11.446 5.638 -0.44299999
11.455 5.684 -0.44400001
11.467 5.7319999 -0.44600001
11.477 5.7789998 -0.447
11.488 5.8260002 -0.44800001
11.508 5.8790002 -0.44999999
11.52 5.927 -0.45100001
11.544 5.9809999 -0.45300001
11.558 6.0310001 -0.454
11.581 6.085 -0.456
11.579 6.1269999 -0.45699999
11.598 6.1789999 -0.45899999
11.628 6.237 -0.461
11.616 6.2740002 -0.461
11.656 6.3369999 -0.46399999
11.654 6.3790002 -0.465
11.659 6.4239998 -0.46599999
11.689 6.4829998 -0.46799999
11.72 6.5430002 -0.47
11.745 6.5999999 -0.472
11.768 6.6560001 -0.47400001
11.765 6.6960001 -0.47499999
11.778 6.7459998 -0.47600001
11.796 6.8000002 -0.47799999
11.827 6.8600001 -0.47999999
11.858 6.921 -0.48300001
11.865 6.9679999 -0.484
11.906 7.0349998 -0.48699999
11.926 7.0890002 -0.48899999
4.9050002 3.326 -0.211
4.8060002 3.2750001 -0.207
4.756 3.257 -0.205
4.7270002 3.2520001 -0.205
4.697 3.247 -0.204
4.6890001 3.257 -0.204
4.6760001 3.263 -0.204
4.6589999 3.266 -0.20299999
4.6440001 3.2709999 -0.20299999
4.6339998 3.279 -0.20299999
4.6269999 3.2880001 -0.20299999
4.625 3.302 -0.204
4.6009998 3.299 -0.20299999
4.6040001 3.316 -0.204
4.5929999 3.322 -0.20299999
4.5929999 3.336 -0.204
4.5819998 3.342 -0.204
6.71 -3.9319999 -0.117
6.7249999 -3.9219999 -0.117
6.7309999 -3.9070001 -0.117
6.7420001 -3.8940001 -0.117
6.7470002 -3.878 -0.117
6.763 -3.868 -0.117
6.7690001 -3.8529999 -0.117
6.7719998 -3.835 -0.117
6.783 -3.823 -0.117
6.7880001 -3.806 -0.117
6.802 -3.7950001 -0.117
6.8080001 -3.779 -0.117
6.8260002 -3.7690001 -0.118
6.8140001 -3.743 -0.117
6.835 -3.7360001 -0.118
6.849 -3.724 -0.118
6.8639998 -3.7119999 -0.118
6.8670001 -3.6949999 -0.118
6.8769999 -3.681 -0.118
6.8759999 -3.6600001 -0.118
6.8779998 -3.642 -0.118
6.8860002 -3.6270001 -0.118
6.9000001 -3.6140001 -0.118
6.902 -3.596 -0.118
6.915 -3.5829999 -0.118
6.9180002 -3.5650001 -0.118
6.9460001 -3.559 -0.118
6.9460001 -3.539 -0.118
6.948 -3.5209999 -0.118
6.9429998 -3.4979999 -0.118
6.954 -3.484 -0.118
6.9720001 -3.473 -0.118
6.9790001 -3.457 -0.118
6.9949999 -3.4449999 -0.119
7.0089998 -3.431 -0.119
7.0110002 -3.4119999 -0.119
7.0380001 -3.405 -0.119
7.0320001 -3.382 -0.119
7.0510001 -3.3710001 -0.119
7.073 -3.3610001 -0.119
7.0830002 -3.346 -0.119
7.0910001 -3.329 -0.119
7.1040001 -3.3150001 -0.12
7.105 -3.2950001 -0.12
7.1259999 -3.2839999 -0.12
7.138 -3.2690001 -0.12
7.1420002 -3.25 -0.12
7.1490002 -3.233 -0.12
7.1700001 -3.2219999 -0.12
7.1859999 -3.2079999 -0.12
7.1849999 -3.188 -0.12
7.1989999 -3.1730001 -0.12
7.2069998 -3.1559999 -0.12
7.2199998 -3.141 -0.12
7.2360001 -3.1270001 -0.121
7.2399998 -3.108 -0.121
7.2649999 -3.0969999 -0.121
7.2579999 -3.0739999 -0.121
7.2649999 -3.056 -0.121
7.2810001 -3.0409999 -0.121
7.2919998 -3.0250001 -0.121
7.3150001 -3.0139999 -0.121
7.329 -2.9979999 -0.121
7.3379998 -2.9809999 -0.121
7.3509998 -2.9649999 -0.122
7.368 -2.951 -0.122
7.3779998 -2.9330001 -0.122
7.3790002 -2.9130001 -0.122
7.3959999 -2.898 -0.122
7.427 -2.8889999 -0.122
7.421 -2.865 -0.122
7.454 -2.8559999 -0.123
7.4489999 -2.8329999 -0.122
7.448 -2.8110001 -0.122
7.4689999 -2.7980001 -0.123
7.4780002 -2.78 -0.123
7.5089998 -2.77 -0.123
7.5229998 -2.753 -0.123
7.52 -2.73 -0.123
7.5370002 -2.7149999 -0.123
7.5539999 -2.6989999 -0.123
7.572 -2.684 -0.124
7.592 -2.6689999 -0.124
7.5939999 -2.648 -0.124
7.6199999 -2.635 -0.124
7.6240001 -2.615 -0.124
7.631 -2.595 -0.124
7.652 -2.5799999 -0.124
7.658 -2.5599999 -0.124
7.6799998 -2.5450001 -0.125
7.7020001 -2.5309999 -0.125
7.7119999 -2.5120001 -0.125
7.7119999 -2.49 -0.125
7.7389998 -2.4760001 -0.125
7.7540002 -2.4590001 -0.125
7.763 -2.4389999 -0.125
7.7779999 -2.4219999 -0.125
7.7989998 -2.4059999 -0.126
7.8049998 -2.385 -0.126
7.8400002 -2.3740001 -0.126
7.835 -2.3499999 -0.126
7.8579998 -2.3340001 -0.126
7.8709998 -2.3150001 -0.126
7.882 -2.296 -0.126
7.9109998 -2.2820001 -0.127
7.9169998 -2.2609999 -0.127
7.9229999 -2.24 -0.127
7.941 -2.2219999 -0.127
7.9689999 -2.207 -0.127
7.9819999 -2.188 -0.127
7.9959998 -2.1689999 -0.127
8.0279999 -2.155 -0.12800001
8.0270004 -2.131 -0.12800001
8.0469999 -2.1140001 -0.12800001
8.066 -2.095 -0.12800001
8.1000004 -2.0810001 -0.12899999
8.0909996 -2.056 -0.12800001
8.1099997 -2.0369999 -0.12899999
8.1230001 -2.017 -0.12899999
8.1630001 -2.0039999 -0.12899999
8.1820002 -1.985 -0.12899999
8.1870003 -1.9630001 -0.12899999
8.2049999 -1.944 -0.12899999
8.224 -1.925 -0.13
8.2449999 -1.906 -0.13
8.2650003 -1.887 -0.13
8.283 -1.868 -0.13
8.2950001 -1.847 -0.13
8.3050003 -1.825 -0.13
8.3199997 -1.8049999 -0.131
8.3369999 -1.785 -0.131
8.3649998 -1.767 -0.131
8.3889999 -1.748 -0.131
8.4060001 -1.728 -0.131
8.4130001 -1.705 -0.131
8.4399996 -1.686 -0.132
8.4589996 -1.666 -0.132
8.4779997 -1.646 -0.132
8.5089998 -1.628 -0.132
8.5139999 -1.604 -0.132
8.5340004 -1.584 -0.133
8.5640001 -1.5650001 -0.133
8.559 -1.54 -0.133
8.5869999 -1.52 -0.133
8.5979996 -1.498 -0.133
8.6230001 -1.478 -0.133
8.6470003 -1.457 -0.134
8.6800003 -1.438 -0.134
8.6960001 -1.416 -0.134
8.7089996 -1.393 -0.134
8.7329998 -1.372 -0.13500001
8.7589998 -1.352 -0.13500001
8.7799997 -1.33 -0.13500001
8.7930002 -1.307 -0.13500001
8.8129997 -1.285 -0.13500001
8.849 -1.265 -0.13600001
8.8769999 -1.244 -0.13600001
8.8809996 -1.219 -0.13600001
8.8979998 -1.196 -0.13600001
8.9370003 -1.176 -0.13699999
8.9510002 -1.152 -0.13699999
8.9790001 -1.131 -0.13699999
9.0100002 -1.109 -0.13699999
9.0240002 -1.085 -0.138
9.0430002 -1.062 -0.138
9.0839996 -1.041 -0.138
9.1149998 -1.018 -0.139
9.1230001 -0.99400002 -0.139
9.1560001 -0.97100002 -0.139
9.165 -0.94599998 -0.139
9.1899996 -0.92299998 -0.139
9.2209997 -0.89999998 -0.14
9.2639999 -0.87800002 -0.14
9.2790003 -0.85299999 -0.14
9.3140001 -0.829 -0.141
9.3409996 -0.80500001 -0.141
9.3610001 -0.78100002 -0.141
9.3669996 -0.755 -0.141
9.3900003 -0.73000002 -0.141
9.4099998 -0.70499998 -0.141
9.4379997 -0.68000001 -0.142
9.4919996 -0.65700001 -0.142
9.5340004 -0.63300002 -0.14300001
9.5930004 -0.61000001 -0.14399999
9.6549997 -0.58600003 -0.145
9.7279997 -0.56300002 -0.146
9.7299995 -0.53600001 -0.145
9.71 -0.50700003 -0.145
9.651 0.18099999 -0.27700001
9.6140003 0.192 -0.27599999
9.6230001 0.205 -0.27700001
9.5539999 0.21600001 -0.27500001
9.5539999 0.228 -0.27500001
9.5290003 0.241 -0.27500001
9.5220003 0.25400001 -0.27399999
9.4989996 0.266 -0.27399999
9.4940004 0.28 -0.27399999
9.4849997 0.29300001 -0.27399999
9.4949999 0.30700001 -0.27399999
9.4989996 0.32100001 -0.27500001
9.4759998 0.33500001 -0.27399999
9.4650002 0.34900001 -0.27399999
9.4949999 0.36500001 -0.27500001
9.4759998 0.37900001 -0.27500001
9.4790001 0.39500001 -0.27500001
9.4940004 0.41100001 -0.27500001
9.4770002 0.426 -0.27500001
9.4919996 0.442 -0.27599999
9.4720001 0.45699999 -0.27500001
9.4759998 0.47400001 -0.27599999
9.4770002 0.49000001 -0.27599999
9.4910002 0.50800002 -0.27599999
9.4940004 0.52499998 -0.27700001
9.4860001 0.54100001 -0.27700001
9.5129995 0.56 -0.278
9.5120001 0.57800001 -0.278
9.5220003 0.59600002 -0.278
9.5369997 0.61500001 -0.27900001
9.5469999 0.634 -0.28
9.566 0.65399998 -0.28
9.5690002 0.67199999 -0.28099999
9.5550003 0.69 -0.28099999
9.5710001 0.70999998 -0.28099999
9.5710001 0.73000002 -0.28099999
9.599 0.75099999 -0.28299999
9.6079998 0.77200001 -0.28299999
9.6169996 0.792 -0.28400001
9.6110001 0.81199998 -0.28400001
9.6219997 0.833 -0.28400001
9.6160002 0.85299999 -0.28400001
9.6400003 0.87599999 -0.285
9.6429996 0.89700001 -0.28600001
9.6560001 0.92000002 -0.28600001
9.6619997 0.94199997 -0.287
9.6879997 0.96600002 -0.28799999
9.7040005 0.98900002 -0.289
9.7080002 1.012 -0.289
9.7340002 1.0369999 -0.28999999
9.7410002 1.0599999 -0.29100001
9.7440004 1.0829999 -0.29100001
9.7539997 1.107 -0.292
9.7360001 1.128 -0.29100001
9.7670002 1.154 -0.29300001
9.7639999 1.178 -0.29300001
9.7700005 1.202 -0.29300001
9.7930002 1.229 -0.294
9.7959995 1.253 -0.29499999
9.8000002 1.278 -0.29499999
9.8170004 1.304 -0.296
9.823 1.33 -0.29699999
9.8579998 1.359 -0.29800001
9.8520002 1.3839999 -0.29800001
9.8839998 1.414 -0.30000001
9.8900003 1.4400001 -0.30000001
9.8999996 1.467 -0.301
9.915 1.495 -0.30199999
9.9169998 1.521 -0.30199999
9.934 1.55 -0.303
9.941 1.5779999 -0.30399999
9.9639997 1.608 -0.30500001
9.9809999 1.638 -0.30599999
9.9860001 1.666 -0.30599999
9.9860001 1.693 -0.30700001
10.008 1.725 -0.308
10.016 1.7539999 -0.308
10.029 1.784 -0.30899999
10.063 1.818 -0.31099999
10.069 1.848 -0.31099999
10.067 1.876 -0.31200001
10.098 1.91 -0.31299999
10.11 1.942 -0.31400001
10.112 1.971 -0.31400001
10.157 2.01 -0.31600001
10.17 2.0420001 -0.317
10.186 2.075 -0.31799999
10.201 2.108 -0.31900001
10.175 2.1329999 -0.31900001
10.227 2.174 -0.32100001
10.251 2.21 -0.322
10.241 2.2390001 -0.322
10.29 2.2809999 -0.324
10.277 2.309 -0.324
10.3 2.346 -0.32499999
10.316 2.381 -0.32600001
10.319 2.414 -0.32699999
10.316 2.4460001 -0.32699999
10.344 2.484 -0.329
10.357 2.52 -0.33000001
10.365 2.5550001 -0.33000001
10.377 2.5910001 -0.331
10.378 2.6240001 -0.33199999
10.399 2.6630001 -0.333
10.331 2.6789999 -0.33199999
10.263 2.694 -0.33000001
10.229 2.7190001 -0.329
10.187 2.7409999 -0.329
10.137 2.7609999 -0.32699999
10.092 2.7820001 -0.32699999
10.082 2.812 -0.32699999
10.163 2.869 -0.33000001
10.586 3.023 -0.34400001
10.614 3.0669999 -0.34599999
10.636 3.109 -0.347
10.683 3.1600001 -0.34900001
10.694 3.1989999 -0.34999999
10.695 3.2360001 -0.35100001
10.733 3.2850001 -0.35299999
10.729 3.3199999 -0.35299999
10.772 3.3710001 -0.35499999
10.798 3.4170001 -0.35699999
10.8 3.4549999 -0.35699999
10.816 3.4979999 -0.359
10.83 3.5409999 -0.36000001
10.859 3.589 -0.361
10.867 3.6300001 -0.36199999
10.871 3.671 -0.36300001
10.873 3.71 -0.36399999
10.868 3.7479999 -0.36399999
10.86 3.7839999 -0.36500001
10.836 3.816 -0.36500001
10.861 3.8640001 -0.366
10.872 3.908 -0.36700001
10.914 3.9630001 -0.36899999
10.916 4.0040002 -0.37
10.926 4.0479999 -0.37099999
10.951 4.098 -0.373
10.938 4.1339998 -0.373
10.969 4.1869998 -0.375
10.985 4.2350001 -0.37599999
11.034 4.2950001 -0.37799999
11.069 4.3509998 -0.38
11.093 4.4029999 -0.382
11.113 4.454 -0.38299999
11.136 4.506 -0.38499999
11.15 4.5539999 -0.38600001
11.203 4.6199999 -0.389
11.229 4.6739998 -0.391
11.258 4.73 -0.39199999
11.307 4.7950001 -0.39500001
11.321 4.8449998 -0.396
11.336 4.8969998 -0.398
11.38 4.961 -0.40000001
11.389 5.0100002 -0.40099999
11.404 5.0619998 -0.40200001
11.449 5.1279998 -0.405
11.461 5.1799998 -0.40599999
11.477 5.2340002 -0.40799999
11.508 5.2950001 -0.40900001
11.532 5.3530002 -0.41100001
11.56 5.4130001 -0.41299999
11.561 5.461 -0.414
11.586 5.52 -0.41600001
11.582 5.5669999 -0.417
11.62 5.6329999 -0.419
11.658 5.6999998 -0.421
11.659 5.7490001 -0.42199999
11.672 5.8039999 -0.42300001
11.679 5.8569999 -0.42500001
11.689 5.9109998 -0.426
11.708 5.9710002 -0.428
11.725 6.0289998 -0.42899999
11.753 6.0939999 -0.43099999
11.746 6.1409998 -0.43200001
11.797 6.2179999 -0.435
11.83 6.2870002 -0.43700001
11.855 6.3509998 -0.43900001
11.868 6.4099998 -0.44
11.878 6.467 -0.442
11.882 6.5209999 -0.44299999
11.891 6.5780001 -0.44400001
11.902 6.6370001 -0.44600001
11.949 6.7160001 -0.44800001
11.95 6.77 -0.449
11.987 6.8439999 -0.45199999
11.985 6.8969998 -0.45300001
12.003 6.961 -0.45500001
12.034 7.033 -0.45699999
12.031 7.086 -0.458
12.126 7.197 -0.46200001
9.8800001 6.5999999 -0.391
9.835 6.6170001 -0.391
4.8959999 3.4119999 -0.197
4.79 3.362 -0.193
4.7119999 3.3299999 -0.19
4.677 3.3280001 -0.189
4.6420002 3.326 -0.18799999
4.6030002 3.3199999 -0.18700001
6.421 -4.2420001 -0.097999997
6.4580002 -4.2259998 -0.097999997
6.4790001 -4.1989999 -0.097999997
6.507 -4.177 -0.098999999
6.5370002 -4.1560001 -0.098999999
6.5539999 -4.1269999 -0.098999999
6.5679998 -4.0960002 -0.098999999
6.5910001 -4.0710001 -0.098999999
6.6139998 -4.046 -0.098999999
6.631 -4.0180001 -0.1
6.638 -3.983 -0.098999999
6.6589999 -3.9579999 -0.1
6.7020001 -3.9449999 -0.1
6.7189999 -3.9159999 -0.1
6.7220001 -3.8800001 -0.1
6.7360001 -3.8510001 -0.1
6.7659998 -3.8310001 -0.1
6.7789998 -3.8010001 -0.1
6.7729998 -3.7609999 -0.1
6.8060002 -3.743 -0.101
6.8379998 -3.723 -0.101
6.8499999 -3.694 -0.101
6.8649998 -3.6659999 -0.101
6.8800001 -3.638 -0.101
6.895 -3.6099999 -0.101
6.902 -3.579 -0.101
6.9299998 -3.5580001 -0.101
6.9330001 -3.5250001 -0.101
6.9629998 -3.5050001 -0.102
6.9720001 -3.4749999 -0.102
7.0009999 -3.4560001 -0.102
7.0250001 -3.4330001 -0.102
7.0619998 -3.4170001 -0.102
7.0780001 -3.391 -0.103
7.0840001 -3.3599999 -0.103
7.0999999 -3.3340001 -0.103
7.1230001 -3.3110001 -0.103
7.1420002 -3.2869999 -0.103
7.1609998 -3.263 -0.103
7.1859999 -3.2409999 -0.103
7.1950002 -3.2119999 -0.103
7.217 -3.1900001 -0.104
7.2379999 -3.1659999 -0.104
7.2410002 -3.135 -0.104
7.2649999 -3.1129999 -0.104
7.2820001 -3.089 -0.104
7.2950001 -3.063 -0.104
7.323 -3.043 -0.104
7.349 -3.0220001 -0.104
7.3740001 -3.0009999 -0.105
7.3990002 -2.98 -0.105
7.4089999 -2.9530001 -0.105
7.4219999 -2.927 -0.105
7.4439998 -2.905 -0.105
7.4679999 -2.8840001 -0.105
7.4879999 -2.8610001 -0.106
7.4949999 -2.8329999 -0.106
7.5110002 -2.809 -0.106
7.5339999 -2.7880001 -0.106
7.5580001 -2.767 -0.106
7.5840001 -2.7460001 -0.106
7.6030002 -2.723 -0.106
7.6220002 -2.701 -0.107
7.6490002 -2.681 -0.107
7.677 -2.661 -0.107
7.6900001 -2.6359999 -0.107
7.7290001 -2.6210001 -0.108
7.7150002 -2.5869999 -0.107
7.7340002 -2.5639999 -0.107
7.77 -2.5469999 -0.108
7.7880001 -2.5250001 -0.108
7.8060002 -2.5020001 -0.108
7.8239999 -2.48 -0.108
7.849 -2.4590001 -0.109
7.8790002 -2.441 -0.109
7.882 -2.4130001 -0.109
7.915 -2.3959999 -0.109
7.9260001 -2.3710001 -0.109
7.9650002 -2.355 -0.11
7.987 -2.3340001 -0.11
8.0120001 -2.3139999 -0.11
8.007 -2.2850001 -0.11
8.0430002 -2.2679999 -0.11
8.0559998 -2.244 -0.11
8.0900002 -2.2260001 -0.111
8.1110001 -2.2049999 -0.111
8.1309996 -2.184 -0.111
8.1300001 -2.1570001 -0.111
8.1660004 -2.1400001 -0.111
8.1870003 -2.119 -0.111
8.1960001 -2.095 -0.111
8.2340002 -2.0780001 -0.112
8.2519999 -2.056 -0.112
8.2729998 -2.0350001 -0.112
8.2930002 -2.0139999 -0.112
8.3129997 -1.993 -0.113
8.3330002 -1.972 -0.113
8.375 -1.956 -0.113
8.3800001 -1.932 -0.113
8.3940001 -1.909 -0.113
8.3979998 -1.885 -0.113
8.4440002 -1.87 -0.114
8.4519997 -1.847 -0.114
8.4569998 -1.822 -0.114
8.4860001 -1.804 -0.114
8.5 -1.7819999 -0.114
8.54 -1.765 -0.114
8.5430002 -1.7410001 -0.114
8.5769997 -1.724 -0.115
8.5790005 -1.7 -0.115
8.6099997 -1.681 -0.115
8.6409998 -1.663 -0.115
8.6479998 -1.64 -0.115
8.6490002 -1.6160001 -0.115
8.6800003 -1.598 -0.116
8.6780005 -1.574 -0.115
8.7119999 -1.556 -0.116
8.7370005 -1.5369999 -0.116
8.7469997 -1.515 -0.116
8.7650003 -1.495 -0.116
8.7779999 -1.474 -0.116
8.8000002 -1.454 -0.117
8.8269997 -1.4349999 -0.117
8.8450003 -1.415 -0.117
8.8529997 -1.3940001 -0.117
8.8979998 -1.378 -0.118
8.9040003 -1.3559999 -0.118
8.915 -1.335 -0.118
8.9390001 -1.316 -0.118
8.9429998 -1.294 -0.118
8.9750004 -1.276 -0.118
8.9910002 -1.256 -0.118
9.0059996 -1.2359999 -0.118
9.026 -1.217 -0.119
9.0349998 -1.196 -0.119
9.059 -1.178 -0.119
9.0830002 -1.159 -0.119
9.1099997 -1.14 -0.119
9.1090002 -1.119 -0.119
9.1389999 -1.101 -0.12
9.1549997 -1.082 -0.12
9.1820002 -1.063 -0.12
9.2019997 -1.044 -0.12
9.2290001 -1.026 -0.12
9.2460003 -1.007 -0.121
9.2480001 -0.98699999 -0.12
9.2639999 -0.96799999 -0.121
9.2700005 -0.94700003 -0.121
9.2959995 -0.93000001 -0.121
9.3210001 -0.912 -0.121
9.3290005 -0.89200002 -0.121
9.3459997 -0.87300003 -0.121
9.3549995 -0.85399997 -0.121
9.3780003 -0.83600003 -0.122
9.4029999 -0.81800002 -0.122
9.4139996 -0.79900002 -0.122
9.4540005 -0.78299999 -0.122
9.4890003 -0.76599997 -0.123
9.4779997 -0.745 -0.122
9.5550003 -0.73199999 -0.123
9.5480003 -0.71200001 -0.123
9.5410004 -0.69199997 -0.123
9.5740004 -0.67500001 -0.123
9.5780001 -0.65600002 -0.123
9.6029997 -0.639 -0.124
9.6020002 -0.62 -0.124
9.6599998 -0.60500002 -0.124
9.6800003 -0.58700001 -0.124
9.7049999 -0.56999999 -0.125
9.7299995 -0.55299997 -0.125
9.7519999 -0.53500003 -0.125
9.8009996 -0.51999998 -0.126
9.8400002 -0.50300002 -0.126
9.8620005 -0.486 -0.126
9.3640003 0.113 -0.244
9.4060001 0.13 -0.245
9.4239998 0.148 -0.245
9.4200001 0.16500001 -0.24600001
9.427 0.183 -0.24600001
9.4040003 0.2 -0.245
9.4169998 0.219 -0.24600001
9.4099998 0.237 -0.24600001
9.4069996 0.255 -0.24600001
9.4239998 0.27399999 -0.24699999
9.4020004 0.292 -0.24600001
9.408 0.31200001 -0.24699999
9.4209995 0.331 -0.24699999
9.4300003 0.35100001 -0.248
9.4289999 0.37099999 -0.248
9.4460001 0.391 -0.248
9.4449997 0.41100001 -0.249
9.4449997 0.43099999 -0.249
9.4499998 0.45199999 -0.249
9.4449997 0.472 -0.249
9.4650002 0.49399999 -0.25
9.4759998 0.51599997 -0.25
9.4729996 0.537 -0.25099999
9.4890003 0.55900002 -0.25099999
9.493 0.58099997 -0.252
9.5100002 0.60299999 -0.252
9.5089998 0.625 -0.252
9.5279999 0.64899999 -0.25299999
9.5439997 0.67199999 -0.25400001
9.559 0.69599998 -0.255
9.5690002 0.71899998 -0.255
9.5749998 0.74299997 -0.255
9.5699997 0.76499999 -0.25600001
9.5790005 0.78899997 -0.25600001
9.618 0.81599998 -0.257
9.6219997 0.83999997 -0.25799999
9.6339998 0.86500001 -0.25799999
9.6389999 0.889 -0.259
9.6479998 0.91500002 -0.259
9.6630001 0.94 -0.25999999
9.6700001 0.96600002 -0.25999999
9.6829996 0.99199998 -0.26100001
9.7189999 1.021 -0.26199999
9.7320004 1.0470001 -0.26300001
9.743 1.074 -0.264
9.7740002 1.103 -0.26499999
9.7790003 1.1289999 -0.26499999
9.7910004 1.156 -0.266
9.7889996 1.182 -0.266
9.809 1.211 -0.26699999
9.8240004 1.239 -0.26800001
9.8290005 1.267 -0.26800001
9.8400002 1.295 -0.26899999
9.849 1.323 -0.26899999
9.8660002 1.353 -0.27000001
9.8920002 1.3839999 -0.271
9.8999996 1.4119999 -0.27200001
9.9289999 1.444 -0.273
9.96 1.477 -0.27399999
9.9630003 1.505 -0.27399999
9.9790001 1.536 -0.27500001
9.9940004 1.567 -0.27599999
10.016 1.599 -0.27700001
10.044 1.633 -0.278
10.06 1.664 -0.27900001
10.066 1.6950001 -0.28
10.092 1.728 -0.28099999
10.106 1.761 -0.28099999
10.128 1.794 -0.28200001
10.149 1.8279999 -0.28299999
10.163 1.8609999 -0.28400001
10.186 1.895 -0.285
10.211 1.9299999 -0.28600001
10.227 1.964 -0.287
10.263 2.0020001 -0.289
10.296 2.04 -0.28999999
10.317 2.075 -0.29100001
10.331 2.1099999 -0.292
10.351 2.1459999 -0.29300001
10.371 2.1819999 -0.294
10.394 2.2190001 -0.29499999
10.413 2.2550001 -0.296
10.41 2.2869999 -0.296
10.424 2.323 -0.29699999
10.431 2.3570001 -0.29800001
10.427 2.3889999 -0.29800001
10.437 2.424 -0.29899999
10.471 2.4649999 -0.30000001
10.536 2.5139999 -0.303
10.546 2.55 -0.303
10.566 2.589 -0.30399999
10.598 2.6300001 -0.30599999
10.625 2.6719999 -0.30700001
10.585 2.6960001 -0.30599999
10.381 2.677 -0.301
10.282 2.6849999 -0.29899999
10.24 2.7079999 -0.29800001
10.148 2.717 -0.296
10.093 2.7349999 -0.29499999
10.11 2.773 -0.296
10.157 2.819 -0.29699999
10.839 3.0450001 -0.31799999
10.85 3.0840001 -0.31900001
10.871 3.1259999 -0.31999999
10.914 3.175 -0.322
10.922 3.2130001 -0.32300001
10.935 3.2539999 -0.32300001
10.962 3.299 -0.32499999
11.026 3.355 -0.32699999
11.043 3.398 -0.32800001
11.043 3.4349999 -0.329
11.104 3.4920001 -0.331
11.111 3.5320001 -0.33199999
11.127 3.575 -0.333
11.174 3.6289999 -0.33500001
11.14 3.6559999 -0.33500001
11.151 3.698 -0.336
11.191 3.75 -0.33700001
11.179 3.7839999 -0.338
11.206 3.832 -0.33899999
11.186 3.8640001 -0.33899999
11.209 3.911 -0.34
11.21 3.95 -0.34099999
11.244 4.0009999 -0.34299999
11.245 4.0409999 -0.34299999
11.229 4.0749998 -0.34400001
11.25 4.1220002 -0.345
11.271 4.1690001 -0.34599999
11.293 4.217 -0.347
11.319 4.2670002 -0.34900001
11.339 4.3150001 -0.34999999
11.4 4.3779998 -0.35299999
11.395 4.4169998 -0.35299999
11.436 4.473 -0.35499999
11.447 4.5180001 -0.35600001
11.459 4.5640001 -0.35699999
11.483 4.6139998 -0.359
11.528 4.6739998 -0.361
11.566 4.7309999 -0.36300001
11.598 4.7849998 -0.36399999
11.62 4.836 -0.366
11.63 4.882 -0.36700001
11.645 4.9299998 -0.368
11.661 4.9790001 -0.36899999
11.666 5.0229998 -0.37
11.712 5.086 -0.37200001
11.749 5.1440001 -0.37400001
11.742 5.1830001 -0.375
11.769 5.2379999 -0.37599999
11.791 5.2909999 -0.37799999
11.82 5.3460002 -0.38
11.836 5.3969998 -0.38100001
11.837 5.4400001 -0.382
11.835 5.4819999 -0.382
11.853 5.5339999 -0.384
11.894 5.5960002 -0.38600001
11.902 5.6430001 -0.38699999
11.89 5.6810002 -0.38699999
11.911 5.7350001 -0.389
11.942 5.7930002 -0.391
11.938 5.835 -0.391
11.957 5.888 -0.39300001
11.98 5.9429998 -0.39399999
11.973 5.9829998 -0.39500001
12.013 6.0469999 -0.39700001
12.023 6.0960002 -0.398
12.047 6.152 -0.40000001
12.056 6.2010002 -0.40099999
12.092 6.2639999 -0.403
12.106 6.3150001 -0.40400001
12.15 6.3829999 -0.40700001
12.145 6.4239998 -0.40700001
12.202 6.4990001 -0.41
12.223 6.5549998 -0.412
12.2 6.5869999 -0.412
12.215 6.6399999 -0.41299999
12.26 6.7090001 -0.41499999
12.289 6.77 -0.417
12.301 6.8210001 -0.419
12.327 6.8800001 -0.41999999
12.351 6.9390001 -0.42199999
12.385 7.0029998 -0.42399999
12.416 7.0650001 -0.426
5.2529998 3.2160001 -0.185
5.204 3.204 -0.183
5.224 3.2349999 -0.185
4.9840002 3.345 -0.182
4.8520002 3.273 -0.177
4.783 3.243 -0.175
4.7480001 3.234 -0.17399999
4.7160001 3.2279999 -0.17399999
4.7049999 3.2360001 -0.17399999
4.6799998 3.2349999 -0.17299999
4.6729999 3.2449999 -0.17299999
4.6659999 3.256 -0.17299999
4.6570001 3.2639999 -0.17299999
4.652 3.276 -0.17399999
4.6399999 3.2820001 -0.17299999
4.6240001 3.286 -0.17299999
4.625 3.3010001 -0.17399999
4.6149998 3.3080001 -0.17399999
4.6059999 3.316 -0.17399999
4.599 3.326 -0.17399999
4.592 3.335 -0.17399999
4.586 3.3440001 -0.17399999
6.855 -4.02 -0.086000003
6.8590002 -4.0029998 -0.086000003
6.8709998 -3.9909999 -0.086000003
6.868 -3.97 -0.086000003
6.8860002 -3.961 -0.086000003
6.8969998 -3.948 -0.086000003
6.9029999 -3.9319999 -0.086000003
6.901 -3.9119999 -0.086000003
6.9219999 -3.904 -0.086000003
6.9099998 -3.878 -0.086000003
6.9390001 -3.8740001 -0.086000003
6.9439998 -3.8570001 -0.086000003
6.9580002 -3.845 -0.086000003
6.9640002 -3.829 -0.086000003
6.9679999 -3.8110001 -0.086000003
6.98 -3.7980001 -0.086000003
6.9889998 -3.783 -0.086000003
6.994 -3.766 -0.086000003
7.0110002 -3.7550001 -0.086000003
7.026 -3.743 -0.086999997
7.0219998 -3.721 -0.086000003
7.033 -3.707 -0.086000003
7.0539999 -3.697 -0.086999997
7.0539999 -3.677 -0.086999997
7.0570002 -3.6589999 -0.086000003
7.0700002 -3.6459999 -0.086999997
7.0760002 -3.628 -0.086999997
7.092 -3.6159999 -0.086999997
7.1009998 -3.6010001 -0.086999997
7.1009998 -3.5799999 -0.086999997
7.1230001 -3.5710001 -0.086999997
7.152 -3.5650001 -0.086999997
7.1659999 -3.5510001 -0.086999997
7.1869998 -3.5409999 -0.086999997
7.1880002 -3.5209999 -0.086999997
7.1900001 -3.5009999 -0.086999997
7.217 -3.494 -0.086999997
7.1960001 -3.4630001 -0.086999997
7.2069998 -3.448 -0.086999997
7.2280002 -3.437 -0.086999997
7.2360001 -3.4200001 -0.086999997
7.2610002 -3.411 -0.088
7.2550001 -3.3870001 -0.086999997
7.2620001 -3.3699999 -0.086999997
7.2950001 -3.3640001 -0.088
7.2950001 -3.3429999 -0.088
7.3099999 -3.329 -0.088
7.3319998 -3.3180001 -0.088
7.3400002 -3.3 -0.088
7.3520002 -3.2839999 -0.088
7.369 -3.2709999 -0.088
7.3829999 -3.256 -0.088
7.3829999 -3.2349999 -0.088
7.3979998 -3.22 -0.088
7.4169998 -3.207 -0.088
7.4200001 -3.187 -0.088
7.4580002 -3.181 -0.089000002
7.447 -3.155 -0.088
7.4439998 -3.1329999 -0.088
7.4590001 -3.118 -0.088
7.473 -3.102 -0.088
7.4910002 -3.0880001 -0.089000002
7.506 -3.073 -0.089000002
7.5279999 -3.0599999 -0.089000002
7.5380001 -3.0420001 -0.089000002
7.5510001 -3.026 -0.089000002
7.5599999 -3.007 -0.089000002
7.5469999 -2.98 -0.089000002
7.579 -2.971 -0.089000002
7.599 -2.957 -0.089000002
7.6139998 -2.941 -0.089000002
7.618 -2.921 -0.089000002
7.6290002 -2.9030001 -0.089000002
7.6360002 -2.8829999 -0.089000002
7.6570001 -2.869 -0.089000002
7.6760001 -2.855 -0.089000002
7.6880002 -2.8369999 -0.089000002
7.6960001 -2.8180001 -0.089000002
7.717 -2.803 -0.090000004
7.7319999 -2.786 -0.090000004
7.7399998 -2.767 -0.090000004
7.744 -2.7460001 -0.090000004
7.7680001 -2.7320001 -0.090000004
7.789 -2.717 -0.090000004
7.8150001 -2.704 -0.090000004
7.8150001 -2.681 -0.090000004
7.809 -2.6570001 -0.090000004
7.8470001 -2.6470001 -0.090000004
7.849 -2.625 -0.090000004
7.8730001 -2.6110001 -0.090000004
7.8909998 -2.5940001 -0.090999998
7.8889999 -2.5699999 -0.090000004
7.9159999 -2.5569999 -0.090999998
7.9369998 -2.5409999 -0.090999998
7.9489999 -2.5220001 -0.090999998
7.9650002 -2.5039999 -0.090999998
7.9770002 -2.4849999 -0.090999998
7.9889998 -2.4649999 -0.090999998
8.0039997 -2.447 -0.090999998
8.0179996 -2.428 -0.090999998
8.0369997 -2.411 -0.090999998
8.04 -2.3889999 -0.090999998
8.0690002 -2.3740001 -0.090999998
8.0900002 -2.3570001 -0.092
8.1110001 -2.3399999 -0.092
8.1230001 -2.3199999 -0.092
8.1350002 -2.3 -0.092
8.1669998 -2.286 -0.092
8.198 -2.2709999 -0.092
8.1960001 -2.247 -0.092
8.2080002 -2.227 -0.092
8.2159996 -2.2049999 -0.092
8.2449999 -2.1900001 -0.092
8.2629995 -2.171 -0.093000002
8.2650003 -2.148 -0.093000002
8.2939997 -2.132 -0.093000002
8.3129997 -2.112 -0.093000002
8.3330002 -2.0940001 -0.093000002
8.3520002 -2.075 -0.093000002
8.3640003 -2.0539999 -0.093000002
8.3629999 -2.03 -0.093000002
8.3730001 -2.0079999 -0.093000002
8.4060001 -1.992 -0.093000002
8.4289999 -1.973 -0.093000002
8.4510002 -1.954 -0.093999997
8.467 -1.934 -0.093999997
8.493 -1.915 -0.093999997
8.5010004 -1.893 -0.093999997
8.5229998 -1.874 -0.093999997
8.5640001 -1.858 -0.093999997
8.5830002 -1.8380001 -0.094999999
8.6000004 -1.817 -0.094999999
8.6079998 -1.794 -0.094999999
8.6260004 -1.773 -0.094999999
8.6660004 -1.756 -0.094999999
8.6700001 -1.733 -0.094999999
8.6990004 -1.714 -0.094999999
8.7110004 -1.691 -0.094999999
8.7259998 -1.669 -0.094999999
8.7539997 -1.65 -0.094999999
8.7720003 -1.628 -0.096000001
8.7620001 -1.601 -0.094999999
8.809 -1.585 -0.096000001
8.8129997 -1.5599999 -0.096000001
8.8459997 -1.541 -0.096000001
8.8570004 -1.518 -0.096000001
8.8879995 -1.498 -0.096000001
8.8999996 -1.474 -0.096000001
8.9180002 -1.452 -0.096000001
8.9429998 -1.431 -0.097000003
8.9619999 -1.408 -0.097000003
8.9840002 -1.386 -0.097000003
9.026 -1.367 -0.097000003
9.0369997 -1.3430001 -0.097000003
9.0539999 -1.3200001 -0.097000003
9.0799999 -1.298 -0.097000003
9.0880003 -1.273 -0.097000003
9.1210003 -1.252 -0.097999997
9.1400003 -1.228 -0.097999997
9.1700001 -1.206 -0.097999997
9.1949997 -1.183 -0.097999997
9.2180004 -1.16 -0.097999997
9.2489996 -1.138 -0.097999997
9.2700005 -1.114 -0.098999999
9.3120003 -1.0930001 -0.098999999
9.3199997 -1.067 -0.098999999
9.3540001 -1.045 -0.098999999
9.3719997 -1.02 -0.098999999
9.4130001 -0.99800003 -0.1
9.4130001 -0.97100002 -0.098999999
9.4469995 -0.94800001 -0.1
9.4569998 -0.92199999 -0.1
9.4779997 -0.89700001 -0.1
9.526 -0.875 -0.1
9.5600004 -0.85100001 -0.1
9.6009998 -0.82700002 -0.101
9.6569996 -0.80500001 -0.101
9.6610003 -0.77700001 -0.101
9.6569996 -0.75 -0.101
9.724 -0.727 -0.102
9.7410002 -0.70099998 -0.102
9.8009996 -0.67799997 -0.102
9.8280001 -0.65200001 -0.102
9.8459997 -0.625 -0.102
9.9189997 -0.60100001 -0.103
9.9499998 -0.57499999 -0.103
10.034 -0.55199999 -0.104
9.8030005 0.22400001 -0.23199999
9.8120003 0.237 -0.233
9.7729998 0.249 -0.23199999
9.7670002 0.26199999 -0.23199999
9.7449999 0.27500001 -0.23100001
9.7440004 0.289 -0.23100001
9.7480001 0.303 -0.23199999
9.724 0.317 -0.23100001
9.7139997 0.331 -0.23100001
9.7139997 0.345 -0.23100001
9.7159996 0.36000001 -0.23199999
9.7200003 0.37599999 -0.23199999
9.7270002 0.391 -0.23199999
9.7139997 0.40599999 -0.23199999
9.7189999 0.42199999 -0.23199999
9.7329998 0.43900001 -0.233
9.7290001 0.45500001 -0.233
9.7229996 0.47099999 -0.233
9.7309999 0.48800001 -0.233
9.7460003 0.50599998 -0.234
9.7139997 0.52100003 -0.233
9.7229996 0.53899997 -0.234
9.7399998 0.55699998 -0.234
9.7410002 0.57499999 -0.235
9.7489996 0.59299999 -0.235
9.7629995 0.61299998 -0.236
9.7849998 0.63200003 -0.236
9.7819996 0.65100002 -0.236
9.7810001 0.67000002 -0.237
9.7910004 0.68900001 -0.237
9.816 0.70999998 -0.23800001
9.8299999 0.73100001 -0.23800001
9.8219995 0.75 -0.23800001
9.8629999 0.773 -0.23999999
9.8529997 0.79299998 -0.23999999
9.8570004 0.81300002 -0.23999999
9.8579998 0.83399999 -0.23999999
9.8739996 0.85600001 -0.241
9.8789997 0.87800002 -0.241
9.8970003 0.89999998 -0.242
9.8859997 0.921 -0.242
9.9119997 0.94499999 -0.243
9.9329996 0.96899998 -0.244
9.9429998 0.99199998 -0.244
9.9530001 1.015 -0.245
9.9639997 1.039 -0.245
9.9919996 1.0650001 -0.24600001
10.002 1.089 -0.24699999
10.041 1.1160001 -0.248
10.024 1.138 -0.248
10.052 1.165 -0.249
10.045 1.188 -0.249
10.078 1.216 -0.25
10.087 1.242 -0.25099999
10.103 1.268 -0.25099999
10.117 1.295 -0.252
10.131 1.322 -0.25299999
10.149 1.349 -0.25400001
10.144 1.374 -0.25400001
10.158 1.401 -0.25400001
10.181 1.4299999 -0.255
10.2 1.459 -0.25600001
10.212 1.487 -0.257
10.231 1.517 -0.25799999
10.252 1.546 -0.25799999
10.265 1.575 -0.259
10.297 1.608 -0.25999999
10.313 1.637 -0.26100001
10.323 1.6670001 -0.26199999
10.34 1.697 -0.26199999
10.381 1.732 -0.264
10.376 1.76 -0.264
10.406 1.793 -0.26499999
10.436 1.8279999 -0.266
10.437 1.857 -0.26699999
10.45 1.888 -0.26800001
10.456 1.919 -0.26800001
10.481 1.9529999 -0.26899999
10.499 1.9859999 -0.27000001
10.502 2.017 -0.271
10.505 2.0480001 -0.271
10.532 2.0840001 -0.27200001
10.567 2.122 -0.273
10.577 2.155 -0.27399999
10.587 2.188 -0.27500001
10.553 2.2119999 -0.27399999
10.514 2.2349999 -0.27399999
10.481 2.26 -0.273
10.482 2.2920001 -0.27399999
10.449 2.316 -0.273
10.454 2.349 -0.27399999
10.444 2.3789999 -0.27399999
10.433 2.408 -0.27399999
10.46 2.447 -0.27599999
10.585 2.5090001 -0.27900001
10.842 2.6040001 -0.287
10.882 2.648 -0.28799999
10.886 2.6830001 -0.289
10.924 2.727 -0.28999999
10.931 2.7639999 -0.29100001
10.953 2.8039999 -0.292
10.971 2.8440001 -0.29300001
11.035 2.8959999 -0.29499999
10.254 2.7249999 -0.27500001
10.13 2.7249999 -0.27200001
10.076 2.743 -0.271
10.058 2.7720001 -0.271
10.151 2.8310001 -0.27399999
11.116 3.1370001 -0.301
11.141 3.1819999 -0.30199999
11.137 3.2179999 -0.30199999
11.144 3.257 -0.303
11.164 3.3010001 -0.30399999
11.181 3.3440001 -0.30500001
11.235 3.3989999 -0.30700001
11.278 3.451 -0.30899999
11.273 3.4879999 -0.30899999
11.333 3.546 -0.31200001
11.333 3.585 -0.31200001
11.331 3.6240001 -0.31299999
11.361 3.674 -0.31400001
11.362 3.714 -0.315
11.383 3.7609999 -0.31600001
11.391 3.8039999 -0.317
11.399 3.848 -0.31799999
11.42 3.8959999 -0.31900001
11.405 3.9319999 -0.31900001
11.418 3.9779999 -0.31999999
11.428 4.0229998 -0.32100001
11.448 4.072 -0.322
11.446 4.1129999 -0.32300001
11.483 4.1680002 -0.324
11.504 4.2189999 -0.32600001
11.518 4.2670002 -0.32699999
11.553 4.323 -0.32800001
11.549 4.3639998 -0.329
11.588 4.4219999 -0.331
11.598 4.4699998 -0.33199999
11.62 4.5229998 -0.333
11.644 4.5760002 -0.33399999
11.658 4.6259999 -0.33500001
11.689 4.6830001 -0.33700001
11.718 4.7399998 -0.33899999
11.747 4.7969999 -0.34
11.772 4.8530002 -0.34200001
11.792 4.9070001 -0.34299999
11.798 4.9559999 -0.34400001
11.84 5.02 -0.34599999
11.848 5.0700002 -0.347
11.883 5.132 -0.34900001
11.882 5.1789999 -0.34900001
11.907 5.237 -0.35100001
11.946 5.302 -0.35299999
11.943 5.348 -0.35299999
11.938 5.3940001 -0.354
11.952 5.4489999 -0.35499999
11.961 5.5009999 -0.35600001
11.992 5.5650001 -0.35800001
12.002 5.619 -0.359
12.013 5.6729999 -0.36000001
12.027 5.7290001 -0.361
12.034 5.7820001 -0.36199999
12.055 5.842 -0.36399999
12.033 5.882 -0.36399999
12.089 5.96 -0.36700001
12.096 6.0139999 -0.368
12.118 6.0749998 -0.36899999
12.114 6.125 -0.37
12.13 6.184 -0.37099999
12.125 6.2329998 -0.37200001
12.166 6.3060002 -0.37400001
12.278 6.4169998 -0.37799999
12.278 6.6290002 -0.382
12.284 6.6859999 -0.38299999
12.345 6.7740002 -0.38600001
12.352 6.8319998 -0.38699999
12.372 6.8969998 -0.38800001
12.389 6.9619999 -0.38999999
12.404 7.0250001 -0.391
12.424 7.092 -0.39300001
12.513 7.1989999 -0.39700001
5.2729998 3.2739999 -0.171
5.1690001 3.233 -0.168
5.1420002 3.24 -0.168
5.2350001 3.323 -0.171
4.8179998 3.381 -0.163
4.73 3.3410001 -0.161
4.6810002 3.3299999 -0.15899999
4.6430001 3.326 -0.15800001
4.599 3.3169999 -0.15700001
6.5549998 -4.329 -0.068000004
6.585 -4.3070002 -0.068000004
6.6100001 -4.2820001 -0.068000004
6.6420002 -4.2610002 -0.068000004
6.658 -4.2309999 -0.068000004
6.678 -4.2030001 -0.068000004
6.6950002 -4.1729999 -0.068000004
6.7140002 -4.145 -0.068000004
6.7309999 -4.1149998 -0.068000004
6.763 -4.0949998 -0.068999998
6.7719998 -4.0619998 -0.068999998
6.796 -4.0370002 -0.068999998
6.8189998 -4.0120001 -0.068999998
6.8340001 -3.9820001 -0.068999998
6.8559999 -3.9560001 -0.068999998
6.881 -3.9319999 -0.068999998
6.8889999 -3.8989999 -0.068999998
6.9200001 -3.8789999 -0.068999998
6.9190001 -3.8399999 -0.068999998
6.934 -3.8110001 -0.068999998
6.9689999 -3.793 -0.068999998
6.9840002 -3.7650001 -0.068999998
6.993 -3.733 -0.068999998
7.0229998 -3.7130001 -0.068999998
7.0310001 -3.6800001 -0.068999998
7.0679998 -3.664 -0.07
7.086 -3.6370001 -0.07
7.1170001 -3.6170001 -0.07
7.1339998 -3.5899999 -0.07
7.158 -3.5669999 -0.07
7.1719999 -3.5380001 -0.07
7.1729999 -3.5039999 -0.07
7.2069998 -3.4860001 -0.07
7.2329998 -3.4630001 -0.07
7.237 -3.431 -0.07
7.2729998 -3.414 -0.07
7.2909999 -3.388 -0.071000002
7.3039999 -3.3599999 -0.071000002
7.336 -3.3410001 -0.071000002
7.3400002 -3.309 -0.071000002
7.382 -3.2950001 -0.071000002
7.3839998 -3.2620001 -0.071000002
7.4190001 -3.244 -0.071000002
7.4310002 -3.2160001 -0.071000002
7.4419999 -3.188 -0.071000002
7.4679999 -3.1670001 -0.071000002
7.4899998 -3.1440001 -0.071000002
7.5040002 -3.1170001 -0.071000002
7.5359998 -3.098 -0.071999997
7.5440001 -3.0699999 -0.071999997
7.5780001 -3.0510001 -0.071999997
7.5929999 -3.026 -0.071999997
7.586 -2.9909999 -0.071999997
7.6230001 -2.974 -0.071999997
7.645 -2.951 -0.071999997
7.6669998 -2.9289999 -0.071999997
7.6830001 -2.904 -0.071999997
7.7129998 -2.8840001 -0.071999997
7.7249999 -2.858 -0.071999997
7.7490001 -2.836 -0.071999997
7.776 -2.8150001 -0.072999999
7.7839999 -2.7880001 -0.072999999
7.802 -2.7639999 -0.072999999
7.823 -2.7409999 -0.072999999
7.8649998 -2.7260001 -0.072999999
7.8699999 -2.697 -0.072999999
7.9070001 -2.6800001 -0.072999999
7.9289999 -2.658 -0.072999999
7.9349999 -2.631 -0.072999999
7.9650002 -2.6110001 -0.072999999
7.9959998 -2.592 -0.074000001
8.0039997 -2.5650001 -0.074000001
8.0270004 -2.543 -0.074000001
8.0609999 -2.5250001 -0.074000001
8.0869999 -2.5039999 -0.074000001
8.1059999 -2.4809999 -0.074000001
8.1260004 -2.4590001 -0.074000001
8.1630001 -2.441 -0.074000001
8.1700001 -2.415 -0.074000001
