# .PCD v0.7 - Point Cloud Data file format
VERSION 0.7
FIELDS x y z
SIZE 4 4 4
TYPE F F F
COUNT 1 1 1
WIDTH 1824
HEIGHT 1
VIEWPOINT 0 0 0 1 0 0 0
POINTS 1824
DATA ascii
12.613 -0.89700001 0.37799999
14.076 0.50300002 0.289
14.027 0.52200001 0.28799999
13.992 0.542 0.287
14.042 0.565 0.28799999
14.126 0.59100002 0.289
14.002 0.60699999 0.28600001
14.036 0.63099998 0.287
13.996 0.65200001 0.28600001
14.073 0.67900002 0.287
14.046 0.70099998 0.287
10.801 0.55699998 0.22
10.669 0.56900001 0.21699999
10.62 0.58399999 0.21600001
10.606 0.602 0.21600001
10.591 0.62 0.215
10.602 0.63999999 0.215
10.616 0.66000003 0.21600001
10.682 0.68400002 0.21699999
10.844 0.71399999 0.22
10.654 0.80400002 0.21600001
10.487 0.81199998 0.212
10.425 0.82800001 0.211
10.412 0.84799999 0.211
10.392 0.86799997 0.20999999
10.391 0.889 0.20999999
10.418 0.91399997 0.20999999
10.515 0.94400001 0.212
14.57 1.308 0.294
14.409 1.325 0.29100001
14.402 1.355 0.29100001
14.402 1.386 0.29100001
14.441 1.421 0.29100001
14.518 1.461 0.29300001
14.643 1.506 0.29499999
14.614 1.536 0.29499999
14.651 1.573 0.29499999
14.595 1.6 0.294
14.584 1.633 0.294
14.616 1.67 0.294
14.625 1.705 0.294
14.651 1.743 0.29499999
14.7 1.784 0.296
14.722 1.822 0.296
14.743 1.86 0.296
14.756 1.897 0.29699999
14.744 1.932 0.296
14.817 1.978 0.29800001
14.834 2.017 0.29800001
14.935 2.0680001 0.30000001
14.948 2.108 0.30000001
14.99 2.152 0.301
15.048 2.1989999 0.30199999
15.07 2.2409999 0.303
15.11 2.286 0.303
15.128 2.3280001 0.30399999
15.106 2.3640001 0.303
15.104 2.404 0.303
15.095 2.4430001 0.303
15.1 2.484 0.303
15.175 2.5369999 0.30399999
15.256 2.592 0.30599999
15.284 2.6389999 0.30700001
15.325 2.688 0.30700001
15.348 2.734 0.308
15.393 2.7850001 0.30899999
15.389 2.8280001 0.30899999
15.439 2.8800001 0.31
15.478 2.9319999 0.31099999
15.512 2.9820001 0.31099999
15.521 3.0280001 0.31099999
15.563 3.0810001 0.31200001
15.613 3.1370001 0.31299999
15.631 3.1860001 0.31400001
15.751 3.257 0.31600001
15.875 3.329 0.31900001
15.823 3.365 0.31799999
15.902 3.4289999 0.31900001
15.942 3.4860001 0.31999999
16.002001 3.5469999 0.32100001
16.021 3.5999999 0.322
16.110001 3.6689999 0.324
16.131001 3.723 0.324
16.205999 3.79 0.32600001
16.198999 3.839 0.32499999
16.236 3.898 0.32600001
16.266001 3.9560001 0.32699999
16.33 4.0229998 0.32800001
16.330999 4.0749998 0.32800001
16.344999 4.1300001 0.329
16.406 4.198 0.33000001
16.452 4.2620001 0.331
16.488001 4.3249998 0.33199999
16.483999 4.3769999 0.33199999
16.518999 4.4400001 0.333
16.679001 4.5380001 0.336
16.709999 4.6009998 0.33700001
16.757 4.6690001 0.338
16.812 4.7399998 0.33899999
16.878 4.8150001 0.34
16.934 4.888 0.34200001
16.974001 4.9569998 0.34299999
17.042 5.0339999 0.34400001
17.028 5.0879998 0.34400001
17.065001 5.1570001 0.345
17.224001 5.2639999 0.34799999
17.278999 5.3400002 0.34900001
17.354 5.4229999 0.35100001
17.489 5.526 0.354
17.51 5.5939999 0.354
12.313 3.9760001 0.249
12.136 3.9619999 0.24600001
12.102 3.994 0.245
12.112 4.04 0.245
12.317 4.152 0.25
17.892 6.0960002 0.36300001
17.75 6.1110001 0.36000001
12.094 4.2069998 0.245
11.969 4.2069998 0.243
11.948 4.243 0.243
11.999 4.3049998 0.244
13.068 5.4289999 0.26800001
12.925 5.4200001 0.26499999
12.819 5.4260001 0.26300001
12.731 5.4390001 0.26199999
12.606 5.4349999 0.259
12.516 5.4460001 0.257
12.585 5.526 0.259
12.279 5.8390002 0.25400001
12.255 5.8779998 0.25400001
12.274 6.4039998 0.257
12.26 6.4499998 0.257
12.296 6.5219998 0.25799999
8.4169998 -5.5380001 0.27599999
8.4580002 -5.5120001 0.278
8.493 -5.4819999 0.278
8.5270004 -5.4510002 0.27900001
8.5500002 -5.414 0.28
8.5889997 -5.3870001 0.28099999
8.6230001 -5.3569999 0.28200001
8.6309996 -5.3099999 0.28200001
8.6660004 -5.2810001 0.28299999
8.6899996 -5.2449999 0.28400001
8.7119999 -5.2080002 0.28400001
8.7399998 -5.1750002 0.285
8.7659998 -5.1399999 0.28600001
8.7969999 -5.1079998 0.28600001
8.835 -5.0819998 0.287
8.8699999 -5.053 0.28799999
8.8909998 -5.0159998 0.289
8.9119997 -4.9790001 0.289
8.948 -4.9510002 0.29100001
8.9729996 -4.9169998 0.29100001
9.033 -4.902 0.29300001
9.0790005 -4.8790002 0.294
9.0740004 -4.829 0.294
9.0860004 -4.789 0.294
9.0900002 -4.744 0.294
9.1000004 -4.7030001 0.294
9.1379995 -4.677 0.29499999
9.1560001 -4.6399999 0.296
9.1920004 -4.6129999 0.29699999
9.2270002 -4.585 0.29800001
9.2530003 -4.553 0.29899999
9.2679996 -4.5149999 0.29899999
9.309 -4.4910002 0.30000001
9.3520002 -4.467 0.301
9.3690004 -4.4299998 0.30199999
9.3859997 -4.3940001 0.30199999
9.4169998 -4.3649998 0.303
9.4189997 -4.322 0.303
9.4689999 -4.3010001 0.30500001
9.4870005 -4.2659998 0.30500001
9.5200005 -4.2379999 0.30599999
9.5299997 -4.1999998 0.30599999
9.5559998 -4.1690001 0.30700001
9.5819998 -4.138 0.308
9.5930004 -4.1009998 0.308
9.625 -4.072 0.30899999
9.6660004 -4.0479999 0.31
9.7040005 -4.0219998 0.31099999
9.7550001 -4.0019999 0.31299999
9.7539997 -3.96 0.31200001
9.7659998 -3.924 0.31299999
9.8050003 -3.8989999 0.31400001
9.809 -3.859 0.31400001
9.8470001 -3.8340001 0.315
9.8780003 -3.806 0.31600001
9.9069996 -3.777 0.317
9.9399996 -3.7490001 0.31799999
9.9779997 -3.724 0.31900001
10.019 -3.7 0.31999999
10.03 -3.664 0.31999999
10.048 -3.631 0.32100001
10.091 -3.6070001 0.322
10.101 -3.572 0.322
10.13 -3.543 0.32300001
10.177 -3.5209999 0.324
10.194 -3.4879999 0.32499999
10.231 -3.4630001 0.32600001
10.25 -3.431 0.32699999
10.276 -3.402 0.32699999
10.325 -3.3800001 0.329
10.365 -3.355 0.33000001
10.445 -3.3429999 0.333
10.424 -3.2980001 0.33199999
10.446 -3.2679999 0.33199999
10.455 -3.234 0.333
10.465 -3.2 0.333
10.497 -3.1730001 0.33399999
10.539 -3.1489999 0.33500001
10.559 -3.118 0.336
10.64 -3.105 0.338
10.708 -3.0880001 0.34
10.712 -3.053 0.34
10.775 -3.0350001 0.34200001
10.813 -3.0090001 0.34299999
10.867 -2.9879999 0.345
10.89 -2.9579999 0.34599999
10.923 -2.931 0.347
10.974 -2.9089999 0.34799999
11.012 -2.8829999 0.34900001
11.05 -2.858 0.35100001
11.096 -2.8340001 0.352
11.168 -2.8169999 0.354
11.224 -2.7950001 0.35600001
11.247 -2.766 0.35699999
11.284 -2.74 0.35800001
11.325 -2.714 0.359
11.339 -2.6830001 0.359
11.372 -2.6559999 0.36000001
11.448 -2.638 0.36300001
11.484 -2.612 0.36399999
11.482 -2.5769999 0.36399999
11.51 -2.549 0.36500001
11.565 -2.527 0.366
11.624 -2.5050001 0.368
11.669 -2.4809999 0.37
11.688 -2.451 0.37
11.747 -2.4289999 0.37200001
11.813 -2.4089999 0.37400001
11.832 -2.3789999 0.375
11.876 -2.3540001 0.37599999
11.886 -2.322 0.37599999
11.919 -2.2950001 0.377
12.001 -2.2780001 0.38
12.019 -2.2479999 0.38
12.091 -2.2279999 0.38299999
12.085 -2.194 0.382
12.126 -2.1689999 0.384
12.172 -2.1440001 0.38499999
12.208 -2.118 0.38600001
12.222 -2.0869999 0.38699999
12.253 -2.0599999 0.38800001
12.277 -2.0320001 0.38800001
12.355 -2.013 0.391
12.498 -2.003 0.39500001
12.571 -1.983 0.398
12.564 -1.949 0.39700001
12.474 -1.904 0.39399999
12.458 -1.87 0.39399999
12.506 -1.845 0.39500001
12.531 -1.818 0.396
12.602 -1.7970001 0.39899999
12.632 -1.77 0.39899999
12.675 -1.745 0.40099999
12.706 -1.7180001 0.40200001
12.745 -1.693 0.403
12.789 -1.668 0.40400001
12.836 -1.643 0.40599999
12.855 -1.615 0.40700001
12.943 -1.596 0.40900001
13.013 -1.574 0.412
13.049 -1.548 0.41299999
12.828 -0.86199999 0.40599999
12.74 -0.83099997 0.403
12.688 -0.80299997 0.40200001
12.599 -0.773 0.39899999
12.548 -0.74599999 0.39700001
12.551 -0.722 0.398
12.532 -0.69700003 0.39700001
12.572 -0.67500001 0.398
12.625 -0.65499997 0.40000001
13.737 0.186 0.32300001
13.767 0.211 0.324
13.758 0.236 0.324
13.784 0.26100001 0.324
13.807 0.287 0.324
13.791 0.31299999 0.324
13.819 0.34 0.324
13.836 0.366 0.324
13.843 0.39300001 0.324
13.843 0.41999999 0.324
13.883 0.449 0.32499999
13.869 0.47600001 0.324
13.877 0.505 0.324
13.922 0.53500003 0.32499999
13.936 0.56400001 0.32499999
13.953 0.59299999 0.32600001
13.905 0.62099999 0.324
13.906 0.64999998 0.324
13.947 0.68199998 0.32499999
13.966 0.713 0.32499999
10.8 0.57499999 0.25099999
10.673 0.59100002 0.248
10.618 0.61199999 0.24699999
10.586 0.63300002 0.24600001
10.588 0.65700001 0.24600001
10.59 0.68099999 0.24600001
10.618 0.70700002 0.24600001
10.72 0.73900002 0.249
10.598 0.85500002 0.245
10.465 0.87 0.242
10.408 0.88999999 0.241
10.397 0.91500002 0.23999999
10.401 0.94099998 0.23999999
10.416 0.96799999 0.241
10.491 1.001 0.242
14.599 1.393 0.33700001
14.439 1.414 0.33399999
14.459 1.4529999 0.33399999
14.487 1.492 0.33399999
14.597 1.541 0.33700001
14.668 1.586 0.338
14.712 1.6289999 0.33899999
14.7 1.666 0.33899999
14.687 1.7029999 0.33899999
14.719 1.745 0.33899999
14.723 1.785 0.33899999
14.792 1.8329999 0.34099999
14.794 1.873 0.34099999
14.855 1.92 0.34200001
14.905 1.967 0.34299999
14.937 2.0120001 0.34400001
14.99 2.0599999 0.345
15.022 2.1059999 0.34599999
15.084 2.1559999 0.347
15.182 2.2130001 0.34900001
15.172 2.2539999 0.34900001
15.205 2.3010001 0.34999999
15.269 2.3540001 0.35100001
15.277 2.3989999 0.35100001
15.256 2.4389999 0.35100001
15.17 2.4690001 0.34900001
15.113 2.503 0.347
15.232 2.566 0.34999999
15.441 2.6470001 0.35499999
15.524 2.7060001 0.35699999
15.541 2.7550001 0.35699999
15.618 2.8139999 0.359
15.646 2.8659999 0.359
15.694 2.921 0.36000001
15.715 2.9719999 0.361
15.79 3.033 0.36300001
15.889 3.0999999 0.36500001
15.99 3.168 0.36700001
16.056 3.2290001 0.36899999
16.080999 3.2839999 0.36899999
16.166 3.3499999 0.37099999
16.235001 3.414 0.373
16.257999 3.4690001 0.373
16.264 3.5209999 0.373
16.32 3.5829999 0.375
16.382999 3.648 0.37599999
16.392 3.701 0.37599999
16.500999 3.7780001 0.37900001
16.528 3.836 0.38
16.566 3.8970001 0.38100001
16.629 3.964 0.382
16.742001 4.0450001 0.38499999
16.792 4.1100001 0.38600001
16.865 4.1820002 0.38800001
16.898001 4.244 0.38800001
16.950001 4.3119998 0.38999999
16.931 4.362 0.389
17.049999 4.448 0.39199999
17.107 4.5180001 0.39300001
17.115999 4.5760002 0.39399999
17.139999 4.6389999 0.39399999
17.143 4.6960001 0.39399999
17.218 4.7729998 0.396
17.450001 4.895 0.40200001
17.58 4.9889998 0.405
17.648001 5.0669999 0.40599999
17.641001 5.1240001 0.40599999
17.653 5.1859999 0.40700001
17.746 5.2729998 0.40900001
17.851 5.3639998 0.41100001
17.941 5.4510002 0.41299999
17.962 5.5190001 0.414
17.965 5.5799999 0.414
18.042 5.665 0.41600001
18.224001 5.7839999 0.41999999
12.221 3.9200001 0.28200001
12.14 3.9360001 0.28
12.08 3.9579999 0.27900001
12.095 4.0040002 0.27900001
12.273 4.105 0.28299999
18.412001 6.2220001 0.42500001
18.563999 6.3379998 0.42899999
12.062 4.1599998 0.27900001
11.961 4.1659999 0.27599999
11.932 4.197 0.27599999
11.963 4.25 0.27700001
13.108 5.4450002 0.30500001
12.945 5.4239998 0.30199999
12.856 5.4330001 0.30000001
12.794 5.4530001 0.29800001
12.725 5.4689999 0.29699999
12.645 5.48 0.29499999
12.572 5.494 0.294
12.77 5.6269999 0.29800001
9.0209999 -5.3330002 0.31299999
9.0249996 -5.3099999 0.31299999
9.0489998 -5.2989998 0.31400001
9.0609999 -5.2789998 0.31400001
9.0629997 -5.2550001 0.315
9.0900002 -5.244 0.315
9.1000004 -5.224 0.31600001
9.1000004 -5.198 0.31600001
9.1219997 -5.184 0.317
9.1199999 -5.1570001 0.317
9.1599998 -5.1529999 0.31799999
9.1660004 -5.1300001 0.31799999
9.1719999 -5.1069999 0.31799999
9.2049999 -5.099 0.31900001
9.1899996 -5.0640001 0.31900001
9.2159996 -5.052 0.31999999
9.224 -5.0300002 0.31999999
9.2410002 -5.0120001 0.32100001
9.2550001 -4.993 0.32100001
9.2709999 -4.9749999 0.322
9.2849998 -4.9549999 0.322
9.3009996 -4.9369998 0.32300001
9.2910004 -4.9050002 0.32300001
9.3100004 -4.888 0.32300001
9.316 -4.8639998 0.32300001
9.3570004 -4.8590002 0.32499999
9.3699999 -4.8379998 0.32499999
9.3610001 -4.8060002 0.32499999
9.3900003 -4.7940001 0.32600001
9.408 -4.776 0.32699999
9.4309998 -4.7600002 0.32699999
9.4490004 -4.7420001 0.32800001
9.4639997 -4.7220001 0.32800001
9.4709997 -4.698 0.329
9.4799995 -4.6750002 0.329
9.4989996 -4.6560001 0.33000001
9.5159998 -4.6370001 0.33000001
9.5340004 -4.618 0.331
9.5509996 -4.598 0.331
9.5640001 -4.5770001 0.33199999
9.5609999 -4.5469999 0.33199999
9.5880003 -4.5320001 0.333
9.5909996 -4.506 0.333
9.5979996 -4.4819999 0.333
9.6309996 -4.4689999 0.33399999
9.6450005 -4.447 0.33500001
9.6529999 -4.4229999 0.33500001
9.6800003 -4.4070001 0.336
9.698 -4.3870001 0.33700001
9.7110004 -4.3639998 0.33700001
9.7449999 -4.3509998 0.338
9.7489996 -4.3249998 0.338
9.7810001 -4.3099999 0.33899999
9.7840004 -4.283 0.33899999
9.809 -4.2649999 0.34
9.8240004 -4.243 0.34099999
9.8339996 -4.2189999 0.34099999
9.8210001 -4.1849999 0.34099999
9.8549995 -4.1700001 0.34200001
9.882 -4.1529999 0.34299999
9.8950005 -4.1300001 0.34299999
9.9169998 -4.1100001 0.34400001
9.9180002 -4.0809999 0.34400001
9.9460001 -4.0640001 0.345
9.967 -4.0430002 0.34599999
9.993 -4.0250001 0.347
10.009 -4.0019999 0.347
10.035 -3.983 0.34799999
10.049 -3.96 0.34799999
10.067 -3.937 0.34900001
10.076 -3.9119999 0.34900001
10.084 -3.885 0.34999999
10.131 -3.8740001 0.35100001
10.185 -3.865 0.35299999
10.181 -3.8340001 0.35299999
10.191 -3.8080001 0.35299999
10.203 -3.783 0.354
10.219 -3.7590001 0.354
10.22 -3.7290001 0.354
10.236 -3.7049999 0.35499999
10.261 -3.6849999 0.35600001
10.271 -3.658 0.35600001
10.295 -3.6370001 0.35699999
10.321 -3.6159999 0.35800001
10.331 -3.589 0.35800001
10.354 -3.5669999 0.359
10.388 -3.549 0.36000001
10.398 -3.5220001 0.36000001
10.435 -3.5039999 0.36199999
10.436 -3.474 0.36199999
10.46 -3.4519999 0.36199999
10.508 -3.437 0.36399999
10.536 -3.4159999 0.36500001
10.589 -3.402 0.36700001
10.597 -3.3740001 0.36700001
10.643 -3.358 0.36899999
10.659 -3.332 0.36899999
10.645 -3.296 0.36899999
10.688 -3.279 0.37
10.659 -3.2390001 0.36899999
10.712 -3.224 0.37099999
10.756 -3.2060001 0.37200001
10.779 -3.1819999 0.373
10.85 -3.171 0.37599999
10.914 -3.1589999 0.37799999
10.927 -3.131 0.37799999
10.963 -3.109 0.37900001
10.99 -3.085 0.38
10.996 -3.0550001 0.38
11.056 -3.04 0.38299999
11.105 -3.0209999 0.384
11.155 -3.0020001 0.38600001
11.15 -2.9690001 0.38600001
11.179 -2.944 0.38699999
11.231 -2.925 0.38800001
11.291 -2.908 0.38999999
11.284 -2.8740001 0.38999999
11.301 -2.846 0.391
11.338 -2.822 0.39199999
11.411 -2.8080001 0.39500001
11.469 -2.7880001 0.396
11.474 -2.757 0.39700001
11.507 -2.7309999 0.398
11.559 -2.71 0.39899999
11.596 -2.6860001 0.40099999
11.646 -2.664 0.40200001
11.647 -2.6300001 0.40200001
11.661 -2.5999999 0.403
11.686 -2.572 0.40400001
11.736 -2.549 0.405
11.82 -2.533 0.40799999
11.812 -2.4979999 0.40799999
11.812 -2.464 0.40799999
11.884 -2.444 0.41
11.924 -2.418 0.412
12.01 -2.401 0.41499999
11.978 -2.3599999 0.414
12.028 -2.335 0.41499999
12.089 -2.313 0.417
12.157 -2.2909999 0.41999999
12.189 -2.2620001 0.421
12.193 -2.227 0.421
12.235 -2.2 0.42199999
12.327 -2.181 0.42500001
12.342 -2.148 0.426
12.345 -2.1129999 0.426
12.394 -2.086 0.42699999
12.469 -2.063 0.43000001
12.489 -2.0309999 0.43099999
12.621 -2.016 0.435
12.804 -1.972 0.44100001
12.653 -1.9119999 0.43599999
12.711 -1.8839999 0.43799999
12.802 -1.8609999 0.44100001
12.794 -1.823 0.44100001
12.83 -1.7920001 0.442
12.968 -1.774 0.447
12.669 -0.93599999 0.435
12.564 -0.89200002 0.43200001
12.509 -0.85299999 0.43000001
12.491 -0.81599998 0.42899999
12.557 -0.78399998 0.43099999
10.721 0.59100002 0.27000001
10.647 0.60600001 0.26800001
10.61 0.62300003 0.26699999
10.58 0.63999999 0.266
10.573 0.65899998 0.266
10.6 0.68000001 0.266
10.632 0.70200002 0.26699999
10.712 0.727 0.26899999
10.678 0.82800001 0.26800001
10.494 0.83499998 0.26300001
10.411 0.84899998 0.26100001
10.38 0.86799997 0.25999999
10.38 0.88999999 0.25999999
10.384 0.912 0.25999999
10.415 0.93599999 0.26100001
10.498 0.96600002 0.26300001
15.271 1.405 0.382
15.103 1.4220001 0.37799999
15.119 1.457 0.37799999
15.122 1.49 0.37799999
15.172 1.528 0.37900001
15.275 1.573 0.382
15.358 1.6160001 0.384
15.31 1.645 0.38299999
15.213 1.669 0.38
15.251 1.709 0.38100001
15.239 1.743 0.38100001
15.312 1.7869999 0.38299999
15.325 1.824 0.38299999
15.41 1.8710001 0.38499999
15.477 1.916 0.38699999
15.476 1.9529999 0.38699999
15.529 1.998 0.38800001
15.52 2.0350001 0.38800001
15.522 2.073 0.38800001
15.578 2.119 0.389
15.592 2.1600001 0.389
15.615 2.2030001 0.38999999
15.657 2.2479999 0.391
15.724 2.2980001 0.39300001
15.722 2.3380001 0.39300001
15.715 2.378 0.39300001
15.433 2.3759999 0.38600001
15.311 2.3970001 0.38299999
15.233 2.425 0.38100001
15.186 2.4579999 0.37900001
15.25 2.5090001 0.38100001
16.011 2.678 0.40000001
16.006001 2.72 0.40000001
16.011 2.7650001 0.40000001
16.108999 2.826 0.403
16.190001 2.885 0.405
16.253 2.9419999 0.40599999
16.285 2.993 0.40700001
16.320999 3.0450001 0.40799999
16.392 3.105 0.41
16.472 3.1670001 0.412
16.591999 3.2379999 0.41499999
16.584 3.2839999 0.41499999
16.539 3.323 0.414
16.530001 3.3699999 0.414
16.576 3.427 0.41499999
16.631001 3.4879999 0.417
16.702999 3.552 0.419
16.771999 3.6170001 0.421
16.815001 3.677 0.42199999
16.868999 3.7390001 0.42300001
16.839001 3.7839999 0.42300001
16.903 3.8499999 0.42399999
16.936001 3.9089999 0.42500001
17.021 3.9809999 0.428
17.084999 4.0489998 0.42899999
17.139999 4.1149998 0.43099999
17.226999 4.1900001 0.433
17.400999 4.2870002 0.43799999
17.308001 4.3189998 0.43599999
17.525999 4.4289999 0.44100001
17.575001 4.553 0.44299999
17.544001 4.6020002 0.442
17.643 4.6849999 0.44499999
17.806 4.7859998 0.449
17.799 4.842 0.449
17.778999 4.895 0.449
17.958 5.0040002 0.454
17.927999 5.0549998 0.45300001
18.112 5.1669998 0.458
18.047001 5.2090001 0.45699999
18.077 5.2779999 0.458
18.114 5.3499999 0.45899999
18.238001 5.4489999 0.46200001
18.264 5.5190001 0.463
18.348 5.6069999 0.465
18.305 5.6570001 0.465
18.386999 5.7459998 0.46700001
18.436001 5.8249998 0.46799999
18.775999 5.9980001 0.477
12.195 3.938 0.31
12.074 3.941 0.30700001
12.067 3.9820001 0.30700001
12.105 4.0370002 0.308
18.679001 6.2969999 0.47600001
18.785999 6.4000001 0.479
12.095 4.164 0.30899999
11.97 4.164 0.30599999
11.929 4.1929998 0.30500001
11.941 4.2410002 0.30500001
12.198 4.3759999 0.31200001
13.003 5.402 0.336
12.909 5.4130001 0.33399999
12.856 5.441 0.333
12.822 5.4770002 0.333
12.791 5.5139999 0.33199999
12.809 5.572 0.333
12.503 5.7909999 0.32699999
12.407 5.7969999 0.32499999
12.391 5.8410001 0.32499999
12.434 5.9120002 0.32600001
8.6300001 -5.6760001 0.324
8.6730003 -5.6500001 0.32600001
8.7080002 -5.619 0.32699999
8.7460003 -5.5900002 0.32800001
8.7650003 -5.5489998 0.32800001
8.8050003 -5.5209999 0.33000001
8.8310003 -5.4840002 0.33000001
8.8590002 -5.4489999 0.331
8.8879995 -5.414 0.33199999
8.9090004 -5.375 0.333
8.9519997 -5.3499999 0.33399999
8.9700003 -5.309 0.33399999
8.9960003 -5.2729998 0.33500001
9.0179996 -5.2360001 0.336
9.0509996 -5.204 0.33700001
9.0880003 -5.1760001 0.338
9.1149998 -5.1409998 0.33899999
9.1230001 -5.0960002 0.33899999
9.1610003 -5.0679998 0.34
9.177 -5.027 0.34
9.217 -5 0.34200001
9.2150002 -4.9510002 0.34099999
9.2139997 -4.902 0.34099999
9.2819996 -4.8909998 0.34400001
9.323 -4.8649998 0.345
9.3599997 -4.836 0.34599999
9.3760004 -4.7979999 0.34599999
9.3990002 -4.7620001 0.347
9.4180002 -4.7249999 0.34799999
9.46 -4.6999998 0.34900001
9.4870005 -4.6669998 0.34999999
9.4890003 -4.6220002 0.34999999
9.5279999 -4.5949998 0.35100001
9.5509996 -4.5609999 0.352
9.5740004 -4.526 0.352
9.6000004 -4.493 0.35299999
9.6269999 -4.461 0.354
9.6409998 -4.4229999 0.354
9.6700001 -4.3920002 0.35499999
9.7130003 -4.3670001 0.35699999
9.7370005 -4.3340001 0.35699999
9.7650003 -4.303 0.35800001
9.816 -4.2820001 0.36000001
9.8269997 -4.243 0.36000001
9.8710003 -4.2179999 0.36199999
9.882 -4.1799998 0.36199999
9.8889999 -4.1409998 0.36199999
9.9110003 -4.1069999 0.36300001
9.9499998 -4.0809999 0.36399999
10.003 -4.0609999 0.366
10.01 -4.0209999 0.366
10.033 -3.9890001 0.36700001
10.076 -3.964 0.368
10.106 -3.934 0.36899999
10.127 -3.901 0.37
10.167 -3.875 0.37099999
10.185 -3.8410001 0.37200001
10.24 -3.8210001 0.37400001
10.284 -3.796 0.375
10.316 -3.7679999 0.37599999
10.299 -3.721 0.375
10.335 -3.694 0.377
10.378 -3.6700001 0.37799999
10.396 -3.6359999 0.37900001
10.43 -3.608 0.38
10.479 -3.586 0.38100001
10.495 -3.552 0.382
10.575 -3.539 0.38499999
10.62 -3.5150001 0.38600001
10.661 -3.4890001 0.38800001
10.69 -3.46 0.38800001
10.777 -3.4489999 0.39199999
10.837 -3.4289999 0.39399999
10.869 -3.4000001 0.39500001
10.888 -3.3670001 0.39500001
10.893 -3.3299999 0.39500001
10.961 -3.313 0.398
11.041 -3.2980001 0.40099999
11.068 -3.2679999 0.40099999
11.166 -3.2579999 0.405
11.174 -3.223 0.405
11.197 -3.191 0.40599999
11.243 -3.1659999 0.40700001
11.286 -3.141 0.40900001
11.332 -3.1159999 0.41
11.349 -3.0829999 0.41100001
11.39 -3.056 0.412
11.429 -3.03 0.414
11.465 -3.0020001 0.41499999
11.506 -2.9749999 0.41600001
11.551 -2.95 0.41800001
11.61 -2.928 0.41999999
11.639 -2.8989999 0.421
11.697 -2.8759999 0.42300001
11.725 -2.8469999 0.42399999
11.761 -2.819 0.42500001
11.816 -2.7950001 0.42699999
11.876 -2.773 0.42899999
11.88 -2.7379999 0.42899999
11.948 -2.717 0.43200001
11.967 -2.6860001 0.43200001
12.046 -2.668 0.435
12.027 -2.628 0.43399999
12.072 -2.602 0.43599999
12.112 -2.575 0.43700001
12.171 -2.552 0.43900001
12.216 -2.526 0.44100001
12.23 -2.494 0.44100001
12.287 -2.47 0.44299999
12.323 -2.4430001 0.44499999
12.449 -2.4330001 0.449
12.43 -2.3940001 0.44800001
12.481 -2.369 0.44999999
12.516 -2.3410001 0.45100001
12.576 -2.3180001 0.454
12.607 -2.289 0.45500001
12.647 -2.2620001 0.456
12.716 -2.24 0.45899999
12.752 -2.2119999 0.46000001
12.758 -2.1789999 0.46000001
12.763 -2.1459999 0.46000001
12.84 -2.125 0.463
13.848 -1.675 0.49900001
13.831 -1.641 0.498
13.781 -1.603 0.49599999
14.01 -1.409 0.505
14.059 -1.383 0.50700003
14.076 -1.354 0.50700003
14.112 -1.327 0.50800002
12.783 -0.80900002 0.461
12.631 -0.77499998 0.45500001
12.528 -0.745 0.45199999
12.496 -0.71899998 0.45100001
12.483 -0.69499999 0.44999999
12.493 -0.67199999 0.45100001
12.512 -0.64899999 0.45100001
12.595 -0.63 0.454
14.385 0.197 0.40799999
14.443 0.22400001 0.40900001
14.467 0.25 0.41
14.548 0.278 0.412
14.577 0.30500001 0.41299999
14.579 0.333 0.412
14.585 0.36000001 0.412
14.613 0.389 0.41299999
14.616 0.417 0.41299999
14.676 0.44800001 0.414
14.636 0.47499999 0.41299999
14.668 0.50599998 0.414
14.651 0.53500003 0.41299999
14.701 0.56599998 0.414
14.706 0.597 0.414
14.711 0.62699997 0.414
14.863 0.66500002 0.41800001
14.804 0.69400001 0.41600001
14.902 0.73000002 0.419
10.839 0.55400002 0.30500001
10.673 0.56900001 0.30000001
10.605 0.588 0.29800001
10.56 0.60900003 0.296
10.56 0.63300002 0.296
10.578 0.65799999 0.29699999
10.599 0.68300003 0.29699999
10.664 0.71100003 0.29899999
10.869 0.75 0.30500001
10.548 0.82700002 0.29499999
10.432 0.84299999 0.292
10.394 0.86500001 0.29100001
10.377 0.889 0.28999999
10.362 0.91299999 0.28999999
10.4 0.94099998 0.29100001
10.448 0.972 0.292
15.478 1.4400001 0.433
10.755 1.027 0.301
15.282 1.459 0.42699999
15.278 1.497 0.42699999
15.328 1.541 0.428
15.396 1.587 0.43000001
15.497 1.637 0.433
15.484 1.675 0.433
15.512 1.7180001 0.433
15.463 1.753 0.43200001
15.512 1.799 0.433
15.563 1.846 0.435
15.604 1.892 0.43599999
15.665 1.942 0.43700001
15.71 1.989 0.43799999
15.748 2.0369999 0.44
15.74 2.0780001 0.43900001
15.78 2.1259999 0.44
15.824 2.1760001 0.442
15.825 2.2190001 0.442
15.962 2.283 0.44499999
15.978 2.329 0.44600001
15.997 2.3770001 0.44600001
16.02 2.425 0.447
15.464 2.385 0.43099999
15.282 2.4000001 0.426
15.212 2.4319999 0.42399999
15.192 2.473 0.42399999
15.262 2.5280001 0.426
16.337 2.753 0.456
16.347 2.802 0.456
16.455 2.869 0.45899999
16.452999 2.9170001 0.45899999
16.528 2.9790001 0.461
16.563 3.0339999 0.46200001
16.639999 3.0969999 0.46399999
16.736 3.165 0.46700001
16.799 3.227 0.46900001
16.844 3.2869999 0.47
16.877001 3.3440001 0.47099999
16.889999 3.3970001 0.472
16.933001 3.4579999 0.47299999
16.966 3.516 0.47400001
17.093 3.595 0.47799999
17.084 3.6459999 0.477
17.159 3.7149999 0.47999999
17.207001 3.7780001 0.48100001
17.281 3.848 0.48300001
17.319 3.911 0.484
17.414 3.987 0.48699999
17.412001 4.0409999 0.48699999
17.437 4.1020002 0.48800001
17.497 4.171 0.49000001
17.629999 4.2589998 0.49399999
18.08 4.658 0.50700003
18.08 4.7160001 0.50700003
18.084999 4.776 0.50700003
18.184999 4.862 0.50999999
18.205999 4.927 0.51099998
18.231001 4.994 0.51200002
18.243999 5.0570002 0.51200002
18.378 5.1550002 0.51599997
18.417999 5.2270002 0.51800001
18.457001 5.2989998 0.51899999
18.422001 5.3509998 0.51800001
18.601999 5.4650002 0.523
18.806999 5.5879998 0.52899998
18.683001 5.6139998 0.52600002
18.867001 5.7319999 0.53100002
18.823999 5.783 0.52999997
18.914 5.9390001 0.53299999
18.816999 5.9720001 0.53100002
12.179 3.948 0.34400001
12.074 3.9560001 0.34099999
12.04 3.9860001 0.34
12.059 4.033 0.34099999
12.205 4.1240001 0.345
12.159 4.1929998 0.34400001
11.985 4.1739998 0.33899999
11.924 4.1939998 0.338
11.909 4.23 0.33700001
11.949 4.2859998 0.33899999
15.295 5.487 0.43399999
15.244 5.5219998 0.43200001
13.17 5.5180001 0.377
13.01 5.4970002 0.373
12.991 5.5359998 0.37200001
13.15 5.652 0.377
12.38 5.6339998 0.35699999
12.351 5.6659999 0.35600001
12.46 5.7610002 0.359
12.416 5.7859998 0.35800001
12.322 5.7859998 0.35600001
12.284 5.8130002 0.35499999
12.272 5.8520002 0.35499999
12.279 5.9000001 0.35499999
12.369 5.9889998 0.35800001
12.159 6.8189998 0.35800001
11.955 6.7480001 0.352
11.892 6.7550001 0.35100001
11.962 6.8390002 0.35299999
9.2639999 -5.4819999 0.36500001
9.2690001 -5.4580002 0.36500001
9.302 -5.4510002 0.366
9.3009996 -5.4239998 0.366
9.3100004 -5.402 0.366
9.3210001 -5.382 0.36700001
9.3299999 -5.3600001 0.36700001
9.3439999 -5.3410001 0.368
9.3710003 -5.3299999 0.36899999
9.3859997 -5.3119998 0.36899999
9.4020004 -5.2940001 0.37
9.4090004 -5.27 0.37
9.415 -5.2459998 0.37
9.4510002 -5.2389998 0.37200001
9.4510002 -5.2119999 0.37200001
9.4770002 -5.1989999 0.373
9.4860001 -5.1760001 0.373
9.5159998 -5.165 0.37400001
9.5089998 -5.1339998 0.37400001
9.5220003 -5.1129999 0.375
9.5419998 -5.0960002 0.375
9.5319996 -5.0640001 0.375
9.5609999 -5.0510001 0.37599999
9.5909996 -5.039 0.377
9.6289997 -5.0310001 0.37900001
9.6280003 -5.0029998 0.37900001
9.6190004 -4.9699998 0.37799999
9.6339998 -4.9499998 0.37900001
9.6490002 -4.9299998 0.38
9.6590004 -4.9070001 0.38
9.6809998 -4.8899999 0.38100001
9.691 -4.8670001 0.38100001
9.7159996 -4.8509998 0.382
9.7220001 -4.8249998 0.382
9.7419996 -4.8070002 0.38299999
9.7519999 -4.7839999 0.384
9.7530003 -4.756 0.384
9.776 -4.7379999 0.384
9.7939997 -4.7189999 0.38499999
9.8190002 -4.7020001 0.38600001
9.8240004 -4.6760001 0.38600001
9.8260002 -4.6479998 0.38600001
9.842 -4.6269999 0.38699999
9.8710003 -4.612 0.38800001
9.8929996 -4.5929999 0.389
9.8900003 -4.5630002 0.389
9.9110003 -4.5430002 0.38999999
9.9429998 -4.5289998 0.391
9.9610004 -4.5089998 0.391
9.9940004 -4.494 0.39300001
10.009 -4.4720001 0.39300001
10.033 -4.4530001 0.39399999
10.063 -4.4369998 0.39500001
10.065 -4.4089999 0.39500001
10.054 -4.3740001 0.39500001
10.087 -4.3590002 0.396
10.084 -4.329 0.396
10.116 -4.3130002 0.39700001
10.149 -4.2969999 0.39899999
10.152 -4.2690001 0.39899999
10.17 -4.2470002 0.39899999
10.195 -4.2280002 0.40000001
10.216 -4.2059999 0.40099999
10.233 -4.1830001 0.40200001
10.245 -4.1589999 0.40200001
10.258 -4.1339998 0.403
10.292 -4.1170001 0.40400001
10.322 -4.099 0.405
10.343 -4.0780001 0.40599999
10.342 -4.0469999 0.40599999
10.372 -4.0279999 0.40700001
10.392 -4.006 0.40799999
10.418 -3.9849999 0.40900001
10.45 -3.967 0.41
10.468 -3.944 0.41100001
10.494 -3.9230001 0.412
10.504 -3.8959999 0.412
10.549 -3.882 0.414
10.573 -3.8599999 0.41499999
10.605 -3.8410001 0.41600001
10.64 -3.822 0.417
10.667 -3.8010001 0.41800001
10.689 -3.7780001 0.419
10.727 -3.76 0.421
10.735 -3.7320001 0.421
10.768 -3.7119999 0.42199999
10.809 -3.694 0.42399999
10.828 -3.6689999 0.42399999
10.856 -3.6470001 0.42500001
10.898 -3.6300001 0.42699999
10.938 -3.6110001 0.42899999
10.977 -3.592 0.43000001
10.986 -3.563 0.43000001
11.007 -3.5380001 0.43099999
11.074 -3.527 0.43399999
11.158 -3.5209999 0.43700001
11.167 -3.4920001 0.43700001
11.149 -3.454 0.43700001
11.15 -3.4219999 0.43700001
11.189 -3.401 0.43799999
11.229 -3.381 0.44
11.221 -3.346 0.43900001
11.296 -3.336 0.442
11.301 -3.3039999 0.442
11.321 -3.277 0.44299999
11.377 -3.2609999 0.44499999
11.415 -3.2379999 0.447
11.425 -3.2079999 0.447
11.432 -3.177 0.447
11.46 -3.152 0.44800001
11.52 -3.135 0.45100001
11.554 -3.1110001 0.45199999
11.578 -3.0829999 0.45300001
11.584 -3.0510001 0.45300001
11.6 -3.0220001 0.454
11.677 -3.0090001 0.456
11.694 -2.9790001 0.45699999
11.728 -2.954 0.458
11.734 -2.921 0.45899999
11.814 -2.9070001 0.46200001
11.855 -2.8829999 0.463
11.869 -2.852 0.46399999
11.91 -2.8280001 0.465
11.952 -2.803 0.46700001
11.977 -2.7739999 0.46799999
12.035 -2.753 0.47
12.089 -2.73 0.472
12.104 -2.6989999 0.47299999
12.174 -2.6789999 0.47499999
12.181 -2.6459999 0.47499999
12.174 -2.609 0.47499999
12.239 -2.5880001 0.47799999
12.31 -2.5680001 0.47999999
12.31 -2.5320001 0.47999999
12.378 -2.51 0.48300001
12.378 -2.4749999 0.48300001
12.412 -2.4460001 0.484
12.516 -2.4300001 0.48800001
12.567 -2.404 0.49000001
12.588 -2.372 0.491
12.619 -2.3410001 0.49200001
12.745 -2.3280001 0.49700001
13.866 -1.817 0.53899997
13.929 -1.785 0.542
13.892 -1.74 0.54000002
13.901 -1.702 0.54000002
14.139 -1.569 0.54900002
14.025 -1.516 0.54500002
14.131 -1.487 0.54900002
14.18 -1.452 0.551
12.632 -0.93199998 0.49000001
12.512 -0.88700002 0.48500001
12.469 -0.84899998 0.48300001
12.478 -0.81400001 0.484
12.567 -0.78299999 0.48699999
10.856 0.58200002 0.32499999
10.68 0.59100002 0.31999999
10.616 0.60600001 0.31799999
10.576 0.62199998 0.317
10.574 0.64099997 0.31600001
10.573 0.66000003 0.31600001
10.582 0.68000001 0.317
10.625 0.70200002 0.31799999
10.711 0.72799999 0.31999999
10.698 0.81 0.31999999
10.502 0.81599998 0.31400001
10.424 0.83099997 0.31099999
10.395 0.84899998 0.31
10.378 0.86900002 0.31
10.385 0.89099997 0.31
10.392 0.91299999 0.31
10.454 0.94099998 0.31200001
10.616 0.97799999 0.317
16.066999 1.48 0.47999999
16.01 1.5089999 0.47799999
16.07 1.55 0.47999999
16.099001 1.5880001 0.47999999
16.129 1.626 0.48100001
16.181999 1.6670001 0.48300001
16.207001 1.706 0.484
16.224001 1.745 0.484
16.226999 1.7819999 0.484
16.287001 1.826 0.486
16.274 1.862 0.48500001
16.283001 1.901 0.486
16.305 1.942 0.486
16.402 1.993 0.48899999
16.438 2.036 0.49000001
16.466 2.0799999 0.491
16.483 2.122 0.49200001
16.531 2.168 0.493
16.525999 2.2079999 0.493
16.562 2.2539999 0.49399999
16.625 2.3039999 0.49599999
16.66 2.3510001 0.49700001
16.690001 2.398 0.498
16.773001 2.4530001 0.50099999
16.900999 2.5150001 0.505
15.345 2.323 0.458
15.234 2.346 0.45500001
15.184 2.378 0.454
15.189 2.4189999 0.454
15.24 2.4679999 0.45500001
15.511 2.553 0.46399999
17.054001 2.8529999 0.50999999
17.124001 2.911 0.51200002
17.128 2.9590001 0.51200002
17.174999 3.0139999 0.514
17.188999 3.0639999 0.514
17.257 3.1240001 0.51700002
17.26 3.1730001 0.51700002
17.323 3.233 0.51899999
17.396 3.296 0.52100003
17.528 3.3710001 0.52499998
17.542999 3.424 0.52600002
17.608999 3.487 0.528
17.688 3.5539999 0.53100002
17.704 3.609 0.53100002
17.747 3.6700001 0.53299999
17.757 3.724 0.53299999
17.802 3.7869999 0.53500003
17.827999 3.845 0.53600001
17.927 3.9200001 0.53899997
18.025 3.9960001 0.542
18.047001 4.0560002 0.54299998
18.211 4.1479998 0.54799998
18.353001 4.2360001 0.55299997
18.415001 4.3070002 0.55500001
18.452999 4.3730001 0.55599999
18.554001 4.4549999 0.55900002
18.587 4.5209999 0.56099999
18.726 4.6729999 0.565
18.694 4.724 0.565
18.947001 4.9699998 0.57300001
18.801001 4.993 0.56900001
18.764999 5.0440001 0.56800002
18.881001 5.1370001 0.57200003
19.002001 5.2319999 0.57599998
18.931 5.2750001 0.574
18.870001 5.3210001 0.57300001
19.042 5.4320002 0.57800001
19.031 5.493 0.57800001
19.368999 5.8530002 0.58999997
19.416 5.9330001 0.59200001
12.408 4.007 0.37900001
12.115 3.9549999 0.37099999
12.042 3.974 0.36899999
12.025 4.0100002 0.36899999
12.082 4.072 0.37099999
12.203 4.2010002 0.375
12 4.1739998 0.36899999
11.921 4.1900001 0.36700001
11.906 4.2280002 0.36700001
11.967 4.2930002 0.36899999
15.106 5.4190001 0.46599999
15.076 5.4640002 0.465
14.652 5.8039999 0.45500001
14.697 5.8779998 0.45699999
12.433 5.6069999 0.39199999
12.359 5.6240001 0.38999999
12.409 5.697 0.39199999
12.425 5.7550001 0.39300001
12.322 5.757 0.38999999
12.291 5.7930002 0.389
12.271 5.8340001 0.389
12.29 5.8940001 0.38999999
11.994 6.7810001 0.38999999
11.863 6.7600002 0.38600001
11.865 6.8130002 0.38699999
8.8629999 -5.8280001 0.375
8.8999996 -5.7969999 0.37599999
8.9359999 -5.7639999 0.377
8.9729996 -5.7329998 0.37900001
8.9989996 -5.6950002 0.37900001
9.0310001 -5.6609998 0.38
9.0600004 -5.6240001 0.38100001
9.0900002 -5.5890002 0.382
9.1260004 -5.5580001 0.384
9.1569996 -5.5229998 0.38499999
9.1759996 -5.4819999 0.38499999
9.2089996 -5.4489999 0.38600001
9.2370005 -5.4130001 0.38699999
9.2720003 -5.381 0.38800001
9.2950001 -5.3429999 0.389
9.3219995 -5.3070002 0.38999999
9.3520002 -5.2729998 0.391
9.3699999 -5.2319999 0.391
9.3990002 -5.198 0.39199999
9.4130001 -5.1550002 0.39300001
9.4440002 -5.1230001 0.39399999
9.5019999 -5.1040001 0.396
9.5340004 -5.072 0.39700001
9.5380001 -5.0240002 0.39700001
9.5550003 -4.9840002 0.398
9.5860004 -4.9520001 0.39899999
9.6090002 -4.915 0.39899999
9.6389999 -4.8829999 0.40000001
9.6619997 -4.8470001 0.40099999
9.6969995 -4.816 0.40200001
9.7229996 -4.7820001 0.403
9.7340002 -4.7399998 0.40400001
9.7550001 -4.7030001 0.40400001
9.7919998 -4.6750002 0.40599999
9.8210001 -4.6420002 0.40599999
9.8280001 -4.599 0.40700001
9.8699999 -4.573 0.40799999
9.8970003 -4.54 0.40900001
9.9370003 -4.5120001 0.41100001
9.967 -4.4809999 0.412
10.015 -4.4569998 0.41299999
10.026 -4.4169998 0.414
10.071 -4.3920002 0.41499999
10.115 -4.3670001 0.417
10.107 -4.3189998 0.41600001
10.143 -4.29 0.41800001
10.179 -4.2610002 0.419
10.218 -4.2340002 0.41999999
10.231 -4.1950002 0.421
10.281 -4.1719999 0.42300001
10.313 -4.1420002 0.42399999
10.341 -4.1100001 0.42500001
10.385 -4.085 0.42699999
10.382 -4.0409999 0.426
10.458 -4.0279999 0.42899999
10.513 -4.007 0.43099999
10.54 -3.974 0.43200001
10.581 -3.948 0.43399999
10.615 -3.918 0.435
10.673 -3.8970001 0.43700001
10.721 -3.8729999 0.43900001
10.782 -3.8529999 0.44100001
10.808 -3.8210001 0.442
10.835 -3.789 0.44299999
10.906 -3.7720001 0.44600001
10.92 -3.7360001 0.447
10.966 -3.711 0.44800001
11.007 -3.6830001 0.44999999
11.046 -3.6559999 0.45100001
11.127 -3.641 0.454
11.151 -3.609 0.45500001
11.185 -3.579 0.45699999
11.366 -3.596 0.46399999
11.337 -3.546 0.46200001
11.349 -3.51 0.463
11.371 -3.4760001 0.46399999
11.405 -3.4460001 0.465
11.422 -3.4119999 0.465
11.5 -3.395 0.46900001
11.527 -3.3640001 0.47
11.537 -3.3269999 0.47
11.597 -3.3050001 0.472
11.615 -3.2709999 0.47299999
11.65 -3.2409999 0.47400001
11.712 -3.22 0.47600001
11.716 -3.1819999 0.477
11.743 -3.151 0.47799999
11.8 -3.128 0.47999999
11.851 -3.1029999 0.48199999
11.902 -3.0780001 0.484
11.977 -3.059 0.48699999
12.011 -3.029 0.48800001
12.051 -3.0009999 0.48899999
12.069 -2.9679999 0.49000001
12.133 -2.9460001 0.493
12.205 -2.925 0.495
12.243 -2.8959999 0.49700001
12.324 -2.878 0.5
12.297 -2.8340001 0.49900001
12.332 -2.8050001 0.5
12.421 -2.7880001 0.50400001
12.535 -2.776 0.50800002
12.579 -2.7479999 0.50999999
12.673 -2.7320001 0.514
12.758 -2.7119999 0.51700002
13.51 -2.4530001 0.54699999
13.676 -2.4460001 0.55400002
13.575 -2.392 0.54900002
13.614 -2.362 0.551
13.739 -2.3469999 0.55599999
13.844 -2.1129999 0.56
13.941 -2.0929999 0.56400001
13.841 -2.043 0.56
14.075 -2.0420001 0.56900001
13.937 -1.9529999 0.56300002
13.994 -1.927 0.56599998
14.013 -1.896 0.56699997
14.173 -1.781 0.57300001
14.222 -1.7539999 0.57499999
14.218 -1.72 0.57499999
14.213 -1.687 0.574
14.186 -1.651 0.57300001
14.298 -1.631 0.57800001
14.251 -1.5930001 0.57599998
12.648 -0.801 0.51099998
12.524 -0.76899999 0.50599998
12.487 -0.74299997 0.505
12.488 -0.71899998 0.505
12.502 -0.69599998 0.50599998
12.527 -0.67400002 0.50700003
12.614 -0.65499997 0.50999999
15.168 0.20999999 0.50300002
15.176 0.237 0.50300002
15.365 0.26800001 0.509
15.31 0.29499999 0.50700003
15.272 0.322 0.505
15.27 0.35100001 0.505
15.302 0.38 0.50599998
15.419 0.41299999 0.50999999
15.55 0.56900001 0.51300001
15.458 0.597 0.50999999
15.472 0.63 0.50999999
15.509 0.66299999 0.51099998
15.519 0.69599998 0.51099998
15.482 0.727 0.50999999
15.502 0.76099998 0.50999999
15.631 0.801 0.514
10.73 0.597 0.35299999
10.629 0.61400002 0.34900001
10.584 0.63499999 0.34799999
10.566 0.65799999 0.347
10.562 0.68199998 0.347
10.578 0.70700002 0.347
10.607 0.73299998 0.34799999
10.688 0.76300001 0.35100001
10.537 0.852 0.34599999
10.435 0.86900002 0.34200001
10.385 0.88999999 0.34099999
10.38 0.91500002 0.34
10.383 0.94099998 0.34
10.404 0.96799999 0.34099999
10.47 1 0.34299999
16.330999 1.561 0.53500003
16.118 1.581 0.528
16.153 1.625 0.52999997
16.184999 1.669 0.53100002
16.235001 1.716 0.53200001
16.316999 1.766 0.53500003
16.325001 1.809 0.53500003
16.379 1.858 0.537
16.374001 1.9 0.537
16.402 1.947 0.537
16.433001 1.994 0.53899997
16.482 2.0439999 0.54000002
16.541 2.095 0.542
16.607 2.148 0.54400003
16.658001 2.2 0.546
16.665001 2.2460001 0.546
16.75 2.3039999 0.54900002
16.801001 2.3570001 0.551
16.832001 2.408 0.55199999
16.950001 2.4719999 0.55599999
16.983 2.5239999 0.55699998
17.052 2.582 0.55900002
15.321 2.3629999 0.50199997
15.211 2.3889999 0.49900001
15.183 2.428 0.498
15.21 2.4760001 0.49900001
15.342 2.5420001 0.50300002
17.339001 2.9230001 0.56900001
17.363001 2.977 0.56999999
17.462 3.0450001 0.57300001
17.481001 3.0999999 0.574
17.482 3.151 0.574
17.566999 3.2179999 0.57700002
17.716999 3.2980001 0.58200002
17.865 3.3789999 0.58700001
18.01 3.46 0.59200001
18.169001 3.5450001 0.597
18.096001 3.586 0.59500003
18.094999 3.6400001 0.59500003
18.099001 3.6960001 0.59500003
18.191 3.77 0.59799999
18.386 3.8670001 0.60500002
18.371 3.9200001 0.60399997
18.48 4.0009999 0.60799998
18.549999 4.073 0.611
18.615999 4.1459999 0.61299998
18.664 4.2150002 0.61500001
18.673 4.2750001 0.61500001
18.716999 4.3439999 0.61699998
18.780001 4.4180002 0.61900002
18.891001 4.5040002 0.62300003
18.987 4.5869999 0.62599999
18.948999 4.638 0.625
18.979 4.7059999 0.62699997
18.934999 4.756 0.625
18.993 4.8319998 0.62800002
19.063999 4.9109998 0.63
19.062 4.973 0.63
19.15 5.0580001 0.63300002
19.120001 5.112 0.63300002
19.216 5.1999998 0.63599998
19.282 5.2810001 0.639
19.847 5.698 0.65799999
19.716999 5.7270002 0.65399998
19.723 5.7940001 0.65499997
19.802 5.8839998 0.65799999
12.229 3.9230001 0.40799999
12.091 3.9189999 0.403
12.031 3.941 0.40099999
12.035 3.984 0.40200001
12.069 4.0359998 0.403
12.227 4.131 0.40900001
12.157 4.1500001 0.40599999
12.007 4.1399999 0.40200001
11.941 4.158 0.40000001
11.914 4.1900001 0.39899999
11.924 4.2360001 0.40000001
15.152 5.382 0.50800002
12.054 4.3239999 0.40400001
15.026 5.3899999 0.50400001
15.091 5.4660001 0.50599998
12.599 5.7329998 0.43099999
12.473 5.7210002 0.42699999
12.505 5.7810001 0.428
12.403 5.7789998 0.42500001
12.329 5.79 0.42300001
12.3 5.8210001 0.42199999
12.297 5.8639998 0.42199999
12.285 5.9029999 0.42199999
12.292 5.9510002 0.42300001
12.339 6.0190001 0.42500001
12.153 6.8590002 0.426
11.945 6.7849998 0.419
11.937 6.8239999 0.41999999
9.5439997 -5.652 0.41999999
9.5410004 -5.6230001 0.41999999
9.573 -5.6139998 0.421
9.5930004 -5.598 0.42199999
9.5900002 -5.5689998 0.42199999
9.5909996 -5.5419998 0.42199999
9.6420002 -5.5440001 0.42399999
9.6499996 -5.52 0.42399999
9.6709995 -5.5050001 0.42500001
9.6859999 -5.4850001 0.426
9.6949997 -5.4629998 0.426
9.6969995 -5.4349999 0.426
9.7069998 -5.4130001 0.42699999
9.7259998 -5.3959999 0.428
9.7379999 -5.3740001 0.428
9.7600002 -5.3579998 0.42899999
9.7690001 -5.335 0.43000001
9.7580004 -5.3010001 0.42899999
9.7889996 -5.289 0.43000001
9.8140001 -5.2740002 0.43099999
9.8190002 -5.2480001 0.43200001
9.8310003 -5.2259998 0.43200001
9.8719997 -5.2189999 0.43399999
9.882 -5.1960001 0.43399999
9.8940001 -5.1729999 0.435
9.8920002 -5.1430001 0.435
9.8879995 -5.1129999 0.435
9.9189997 -5.0999999 0.43599999
9.941 -5.0819998 0.43700001
9.9659996 -5.066 0.43799999
9.9820004 -5.0450001 0.43900001
9.9949999 -5.0219998 0.43900001
10.012 -5.0019999 0.44
10.023 -4.9780002 0.44
10.048 -4.961 0.44100001
10.059 -4.9369998 0.442
10.073 -4.915 0.442
10.125 -4.9109998 0.44499999
10.134 -4.8860002 0.44499999
10.108 -4.8429999 0.44400001
10.149 -4.8340001 0.44600001
10.14 -4.8000002 0.44499999
10.194 -4.7950001 0.44800001
10.217 -4.776 0.449
10.228 -4.7509999 0.449
10.226 -4.7210002 0.449
10.264 -4.7080002 0.45100001
10.287 -4.6890001 0.45199999
10.307 -4.6680002 0.45199999
10.334 -4.6500001 0.454
10.356 -4.6290002 0.454
10.381 -4.6110001 0.456
10.389 -4.5840001 0.456
10.412 -4.5630002 0.45699999
10.406 -4.5300002 0.456
10.431 -4.5100002 0.458
10.456 -4.4910002 0.45899999
10.491 -4.4749999 0.46000001
10.517 -4.4559999 0.461
10.524 -4.428 0.461
10.571 -4.4169998 0.46399999
10.58 -4.3899999 0.46399999
10.583 -4.3600001 0.46399999
10.602 -4.3369999 0.465
10.66 -4.329 0.46700001
10.677 -4.3049998 0.46799999
10.722 -4.2919998 0.47
10.752 -4.2719998 0.47099999
10.798 -4.2589998 0.47299999
10.912 -4.2719998 0.47799999
10.938 -4.25 0.479
10.931 -4.2160001 0.479
10.947 -4.1900001 0.479
10.91 -4.1440001 0.47799999
10.915 -4.1139998 0.47799999
10.938 -4.0910001 0.479
10.967 -4.0700002 0.47999999
10.98 -4.0419998 0.48100001
11.021 -4.0250001 0.48199999
11.032 -3.997 0.48300001
11.091 -3.9860001 0.48500001
11.107 -3.9590001 0.486
11.11 -3.928 0.486
11.126 -3.902 0.48699999
11.17 -3.8840001 0.48899999
11.195 -3.8610001 0.49000001
11.197 -3.8280001 0.49000001
11.248 -3.813 0.49200001
11.282 -3.7920001 0.493
11.285 -3.76 0.493
11.312 -3.7360001 0.495
11.339 -3.7119999 0.49599999
11.358 -3.6849999 0.49599999
11.41 -3.6689999 0.49900001
11.509 -3.6670001 0.50300002
11.605 -3.6300001 0.50700003
11.58 -3.589 0.50599998
11.573 -3.553 0.505
11.602 -3.5280001 0.50700003
11.606 -3.4960001 0.50700003
11.612 -3.464 0.50700003
11.678 -3.4489999 0.50999999
11.697 -3.421 0.51099998
11.717 -3.3929999 0.51099998
11.769 -3.3740001 0.514
11.811 -3.352 0.51499999
11.825 -3.3210001 0.51599997
11.822 -3.286 0.51599997
11.841 -3.257 0.51700002
11.883 -3.234 0.51800001
11.901 -3.2049999 0.51899999
11.956 -3.1849999 0.52100003
11.99 -3.1589999 0.523
12.022 -3.1329999 0.52399999
12.083 -3.1140001 0.52700001
12.105 -3.0840001 0.528
12.166 -3.0650001 0.52999997
12.177 -3.0320001 0.53100002
12.224 -3.0090001 0.53299999
12.25 -2.98 0.53399998
12.267 -2.948 0.53399998
12.324 -2.9260001 0.537
12.393 -2.9070001 0.54000002
12.471 -2.8889999 0.54299998
12.514 -2.8629999 0.54500002
12.572 -2.8399999 0.54699999
12.62 -2.8139999 0.54900002
13.592 -2.5610001 0.59100002
13.688 -2.54 0.59500003
13.623 -2.4879999 0.59200001
13.634 -2.451 0.59200001
13.709 -2.425 0.59500003
13.738 -2.391 0.597
13.739 -2.352 0.59600002
13.716 -2.3080001 0.59500003
14.077 -2.1670001 0.611
13.951 -2.1070001 0.60500002
14.016 -2.0769999 0.60799998
14.144 -1.974 0.61299998
14.173 -1.937 0.61400002
14.214 -1.902 0.616
14.297 -1.872 0.61900002
14.307 -1.8329999 0.62
14.266 -1.786 0.61799997
14.317 -1.752 0.62
12.498 -0.921 0.54000002
12.476 -0.884 0.53899997
12.491 -0.84899998 0.53899997
12.616 -0.82099998 0.54400003
12.969 0.117 0.458
12.987 0.12899999 0.458
12.979 0.141 0.458
12.999 0.154 0.458
12.999 0.167 0.458
12.984 0.18000001 0.45699999
13 0.193 0.45699999
13.005 0.207 0.45699999
13.005 0.221 0.45699999
12.996 0.235 0.456
13.017 0.25099999 0.45699999
12.985 0.26499999 0.45500001
12.976 0.28 0.45500001
12.969 0.296 0.454
12.945 0.31099999 0.45300001
12.957 0.32800001 0.45300001
12.963 0.345 0.45300001
12.933 0.361 0.45199999
12.94 0.37799999 0.45199999
12.941 0.396 0.45199999
12.931 0.41299999 0.45100001
12.917 0.43099999 0.45100001
12.908 0.449 0.44999999
12.911 0.46799999 0.44999999
12.903 0.48699999 0.44999999
12.903 0.50599998 0.44999999
12.896 0.52499998 0.449
12.895 0.54500002 0.449
12.913 0.56599998 0.449
12.92 0.58700001 0.44999999
12.917 0.60799998 0.449
12.933 0.63 0.44999999
12.966 0.653 0.45100001
12.995 0.676 0.45199999
13.025 0.69999999 0.45300001
10.785 0.59799999 0.375
10.659 0.61000001 0.37
10.602 0.625 0.368
10.589 0.64300001 0.36700001
10.556 0.66000003 0.366
10.573 0.68099999 0.36700001
10.569 0.69999999 0.36700001
10.596 0.722 0.36700001
10.626 0.74400002 0.368
10.705 0.76999998 0.37099999
10.594 0.824 0.36700001
10.466 0.83499998 0.36300001
10.407 0.852 0.361
10.383 0.87099999 0.36000001
10.371 0.89099997 0.359
10.375 0.91299999 0.359
10.4 0.93699998 0.36000001
10.444 0.963 0.36199999
10.561 0.99699998 0.366
16.877001 1.5930001 0.58499998
16.802 1.622 0.58200002
16.837999 1.6619999 0.583
16.849001 1.7 0.58399999
16.844999 1.737 0.58399999
16.889 1.78 0.58499998
16.893999 1.818 0.58499998
16.924999 1.86 0.58600003
16.959 1.903 0.588
17.02 1.949 0.58999997
17.052 1.992 0.59100002
17.136 2.043 0.59399998
17.093 2.0780001 0.59200001
17.187 2.1300001 0.59600002
17.187 2.1719999 0.59600002
17.228001 2.2190001 0.597
17.268999 2.266 0.59899998
17.357 2.3199999 0.602
17.43 2.3740001 0.60500002
17.497 2.4260001 0.60699999
17.504 2.471 0.60699999
17.573 2.526 0.61000001
17.606001 2.575 0.611
15.424 2.336 0.53600001
15.245 2.348 0.52899998
15.193 2.3800001 0.528
15.167 2.4159999 0.52700001
15.204 2.4630001 0.528
15.302 2.5190001 0.53200001
17.999001 3.0120001 0.62599999
18.02 3.0639999 0.62699997
18.049999 3.119 0.62800002
18.202 3.1949999 0.634
18.287001 3.26 0.63700002
18.278 3.309 0.63700002
18.367001 3.3770001 0.63999999
18.459 3.4460001 0.64399999
18.544001 3.5139999 0.64700001
18.572001 3.572 0.648
18.650999 3.641 0.65100002
18.632 3.691 0.65100002
18.656 3.7490001 0.65200001
18.649 3.802 0.65200001
18.65 3.8570001 0.65200001
18.688999 3.9200001 0.65399998
18.763 3.9909999 0.65700001
18.750999 4.0450001 0.65600002
18.764 4.1040001 0.65700001
18.819 4.1719999 0.65899998
18.882999 4.244 0.662
18.941 4.3140001 0.66399997
18.952 4.375 0.66500002
18.976 4.4390001 0.66600001
19.084 4.5229998 0.67000002
19.35 4.6459999 0.68000001
12.346 3.987 0.44100001
12.09 3.9460001 0.43200001
12.018 3.9649999 0.43000001
12.005 4.0040002 0.43000001
12.049 4.0609999 0.43200001
12.176 4.1469998 0.43700001
12.055 4.1490002 0.433
11.967 4.1620002 0.43000001
11.919 4.1890001 0.42899999
11.918 4.2319999 0.42899999
11.999 4.3049998 0.43200001
15.042 5.3959999 0.542
15.069 5.461 0.54299998
12.541 5.757 0.46399999
12.418 5.7509999 0.46000001
12.374 5.7810001 0.45899999
12.365 5.8280001 0.45899999
12.381 5.8860002 0.46000001
12.361 5.928 0.46000001
12.367 5.9819999 0.461
9.1070004 -5.9860001 0.428
9.1750002 -5.974 0.43099999
9.2010002 -5.9330001 0.43200001
9.2250004 -5.8920002 0.43200001
9.257 -5.8559999 0.43399999
9.283 -5.8169999 0.43399999
9.3219995 -5.7859998 0.43599999
9.3710003 -5.7600002 0.43799999
9.3979998 -5.7220001 0.43900001
9.4429998 -5.6939998 0.44100001
9.4549999 -5.6469998 0.44100001
9.4840002 -5.6100001 0.442
9.5100002 -5.572 0.44299999
9.5489998 -5.5409999 0.44400001
9.5670004 -5.4980001 0.44499999
9.6009998 -5.4650002 0.44600001
9.6379995 -5.4330001 0.44800001
9.6549997 -5.3899999 0.44800001
9.6800003 -5.3520002 0.449
9.6999998 -5.3109999 0.44999999
9.7189999 -5.27 0.44999999
9.7480001 -5.2350001 0.45100001
9.7919998 -5.2080002 0.45300001
9.8219995 -5.1729999 0.454
9.8450003 -5.1350002 0.45500001
9.8789997 -5.1020002 0.456
9.9209995 -5.0739999 0.458
9.948 -5.0380001 0.45899999
9.9729996 -5.0009999 0.46000001
9.9980001 -4.9650002 0.461
10.029 -4.9310002 0.46200001
10.061 -4.8979998 0.463
10.097 -4.8670001 0.465
10.115 -4.8280001 0.465
10.156 -4.7989998 0.46700001
10.176 -4.7610002 0.46700001
10.216 -4.7319999 0.46900001
10.258 -4.704 0.47099999
10.293 -4.6729999 0.472
10.318 -4.638 0.47299999
10.361 -4.6100001 0.47499999
10.424 -4.5910001 0.477
10.423 -4.5440001 0.477
10.456 -4.513 0.479
10.47 -4.473 0.479
10.525 -4.4510002 0.48100001
10.566 -4.4219999 0.48300001
10.589 -4.3870001 0.484
10.647 -4.3649998 0.486
10.697 -4.3410001 0.48800001
10.71 -4.3010001 0.48899999
10.75 -4.2719998 0.49000001
10.813 -4.2519999 0.493
10.895 -4.2399998 0.49700001
10.946 -4.2150002 0.49900001
11.079 -4.2220001 0.505
11.088 -4.1799998 0.505
