# .PCD v0.7 - Point Cloud Data file format
VERSION 0.7
FIELDS x y z
SIZE 4 4 4
TYPE F F F
COUNT 1 1 1
WIDTH 1996
HEIGHT 1
VIEWPOINT 0 0 0 1 0 0 0
POINTS 1996
DATA ascii
13.382 2.1459999 1.0190001
13.337 2.177 1.016
13.298 2.2090001 1.0140001
13.251 2.2390001 1.01
13.244 2.276 1.01
13.217 2.3099999 1.0089999
13.212 2.3469999 1.0089999
13.216 2.3870001 1.01
13.244 2.431 1.012
13.267 2.474 1.015
13.312 2.5220001 1.0190001
13.638 2.625 1.044
8.6879997 2.0450001 0.67000002
8.5909996 2.05 0.66299999
8.5349998 2.063 0.65899998
8.4860001 2.079 0.65600002
8.4259996 2.0910001 0.65200001
8.3940001 2.1099999 0.64999998
8.3879995 2.135 0.64999998
8.4399996 2.1760001 0.65399998
8.4530001 2.2060001 0.65600002
8.4729996 2.2390001 0.65799999
8.4779997 2.2679999 0.65899998
8.5129995 2.3050001 0.662
8.5749998 2.3499999 0.667
8.7779999 2.434 0.68400002
14.71 -6.6110001 1.248
14.734 -6.579 1.249
14.725 -6.5310001 1.248
14.888 -6.3829999 1.261
14.839 -6.3189998 1.257
14.881 -6.2919998 1.26
14.95 -6.2779999 1.266
12.61 -3.293 1.056
12.397 -3.201 1.038
12.357 -3.155 1.034
12.373 -3.1229999 1.036
12.402 -3.0940001 1.038
12.458 -3.072 1.0420001
12.571 -3.063 1.051
12.621 -3.0380001 1.0549999
12.678 -3.0150001 1.0599999
13.112 0.35299999 1.0140001
13.166 0.37099999 1.018
13.12 0.38600001 1.015
13.135 0.421 1.015
13.127 0.43900001 1.0140001
13.108 0.45699999 1.013
13.102 0.47499999 1.012
13.203 0.49700001 1.02
13.112 0.51300001 1.013
13.193 0.53600001 1.0190001
13.085 0.551 1.01
13.09 0.57099998 1.01
13.104 0.59200001 1.011
13.082 0.61199999 1.01
13.065 0.63200003 1.008
13.094 0.65399998 1.01
13.106 0.676 1.011
13.086 0.69700003 1.01
13.074 0.71799999 1.0089999
13.042 0.73900002 1.006
13.02 0.75999999 1.0039999
13.024 0.78299999 1.005
13.038 0.80699998 1.006
13.018 0.829 1.0039999
12.99 0.85100001 1.002
12.98 0.87400001 1.001
12.923 0.89399999 0.99699998
12.895 0.91600001 0.995
12.867 0.93900001 0.99299997
12.829 0.96100003 0.99000001
12.794 0.98299998 0.98699999
12.793 1.008 0.98699999
12.79 1.033 0.98699999
12.803 1.0599999 0.98799998
12.806 1.086 0.98900002
12.817 1.113 0.99000001
12.868 1.1440001 0.99400002
23.031 2.0480001 1.779
12.961 1.179 1.001
22.993999 2.0929999 1.777
12.918 1.2029999 0.99800003
22.996 2.141 1.777
13.031 1.2410001 1.007
23.068001 2.197 1.783
12.98 1.2640001 1.003
23.149 2.2539999 1.79
13.031 1.2970001 1.008
13.029 1.325 1.008
13.086 1.36 1.012
13.145 1.395 1.017
13.202 1.431 1.022
23.035 2.497 1.783
22.951 2.54 1.777
22.924 2.589 1.776
22.916 2.641 1.776
13.102 1.54 1.015
22.924999 2.6949999 1.777
13.044 1.564 1.011
22.931 2.7490001 1.778
13.027 1.592 1.01
22.936001 2.8039999 1.779
13.078 1.63 1.015
22.945999 2.8599999 1.78
22.943001 2.914 1.781
22.945 2.97 1.7819999
22.950001 3.026 1.783
22.959999 3.0840001 1.784
22.950001 3.1389999 1.784
22.962 3.198 1.786
22.976 3.257 1.788
22.98 3.316 1.789
23.051001 3.385 1.795
22.989 3.4349999 1.791
13.638 2.072 1.063
23.013 3.497 1.794
13.453 2.079 1.049
13.368 2.1010001 1.043
13.361 2.135 1.043
13.343 2.168 1.0420001
13.31 2.198 1.04
13.27 2.227 1.0369999
13.238 2.257 1.035
13.226 2.2909999 1.035
13.219 2.326 1.035
13.225 2.3629999 1.036
13.254 2.405 1.039
13.259 2.4430001 1.04
13.294 2.487 1.044
13.375 2.539 1.051
8.6999998 2.0639999 0.69099998
8.5860004 2.063 0.68300003
8.5360003 2.0780001 0.67900002
8.4799995 2.0910001 0.67500001
8.4160004 2.102 0.671
8.4020004 2.125 0.67000002
8.3900003 2.148 0.67000002
8.4110003 2.181 0.67199999
8.448 2.217 0.676
8.4619999 2.2479999 0.67699999
8.4610004 2.2750001 0.67799997
8.4799995 2.3080001 0.68000001
8.5249996 2.349 0.68400002
8.6960001 2.424 0.699
13.249 -8.6929998 1.179
13.341 -8.6700001 1.186
13.404 -8.6280003 1.1900001
13.452 -8.5769997 1.194
13.496 -8.5229998 1.196
13.566 -8.4860001 1.202
13.611 -8.4329996 1.205
13.67 -8.3889999 1.209
13.711 -8.3330002 1.211
13.729 -8.2650003 1.212
13.791 -8.2229996 1.217
13.841 -8.1739998 1.22
13.924 -8.1440001 1.226
14.025 -7.8940001 1.232
14.051 -7.8319998 1.233
14.195 -7.8369999 1.245
14.103 -7.711 1.2359999
14.232 -7.7059999 1.2460001
14.22 -7.625 1.244
14.235 -7.5599999 1.245
14.323 -7.533 1.252
14.318 -7.4569998 1.25
14.337 -7.395 1.251
14.34 -7.3239999 1.251
14.367 -7.2659998 1.252
14.384 -7.204 1.253
14.398 -7.1409998 1.253
14.504 -7.1220002 1.262
14.473 -7.0370002 1.258
14.499 -6.9809999 1.26
12.018 -5.7290001 1.043
12.013 -5.6700001 1.0420001
12.164 -5.6849999 1.0549999
14.703 -6.803 1.274
14.635 -6.704 1.268
14.686 -6.6599998 1.271
14.721 -6.6100001 1.274
14.77 -6.5650001 1.277
14.768 -6.4980001 1.276
14.877 -6.48 1.285
14.862 -6.408 1.283
14.956 -6.3829999 1.291
14.953 -6.3169999 1.29
15.01 -6.277 1.294
15.098 -6.2490001 1.301
12.392 -3.244 1.05
12.347 -3.1919999 1.046
12.356 -3.155 1.0470001
12.408 -3.1289999 1.051
12.487 -3.109 1.057
12.593 -3.096 1.066
12.628 -3.0650001 1.069
12.791 -3.0650001 1.082
12.886 0.198 1.036
12.922 0.221 1.038
12.901 0.243 1.0369999
12.936 0.26699999 1.039
12.94 0.29100001 1.039
12.975 0.31600001 1.0420001
12.986 0.34 1.043
12.995 0.36500001 1.043
12.992 0.38999999 1.043
13.02 0.41600001 1.045
13.01 0.44100001 1.044
13.004 0.46599999 1.043
13.023 0.493 1.045
13.028 0.51899999 1.045
13.007 0.54500002 1.043
13.047 0.57300001 1.046
13.028 0.60000002 1.045
13.025 0.62699997 1.045
13.041 0.65499997 1.046
13.045 0.68300003 1.046
13.047 0.71100003 1.046
13.016 0.73799998 1.044
13.017 0.76599997 1.044
13.014 0.79500002 1.044
13.001 0.82300001 1.043
12.984 0.85100001 1.041
12.967 0.87900001 1.04
12.926 0.90600002 1.0369999
12.882 0.93300003 1.033
12.853 0.95999998 1.031
12.797 0.986 1.027
12.768 1.0140001 1.025
12.766 1.044 1.025
12.775 1.075 1.025
12.796 1.108 1.027
12.809 1.14 1.028
12.847 1.175 1.0319999
12.943 1.215 1.04
12.925 1.2460001 1.038
13.029 1.288 1.0470001
12.997 1.318 1.045
13.091 1.36 1.052
13.068 1.391 1.051
13.111 1.429 1.054
13.135 1.465 1.057
23.158001 2.5840001 1.863
22.929001 2.618 1.845
22.893999 2.6730001 1.8430001
22.903 2.734 1.844
13.125 1.601 1.057
22.908001 2.7950001 1.845
13.079 1.63 1.054
22.926001 2.858 1.847
13.102 1.668 1.056
22.92 2.918 1.847
22.905001 2.9779999 1.847
22.924999 3.0420001 1.849
22.921 3.1040001 1.849
22.923 3.1670001 1.85
22.931999 3.2309999 1.851
22.937 3.2939999 1.852
22.948999 3.3599999 1.854
23.035 3.4360001 1.862
22.975 3.4920001 1.858
22.985001 3.5580001 1.859
13.417 2.1140001 1.086
13.326 2.138 1.079
13.358 2.181 1.082
13.305 2.211 1.0779999
13.272 2.243 1.076
13.239 2.276 1.073
13.219 2.3110001 1.072
13.213 2.348 1.072
13.24 2.392 1.075
13.252 2.4330001 1.077
13.286 2.4790001 1.08
13.36 2.5320001 1.087
8.6859999 2.046 0.713
8.5810003 2.0480001 0.704
8.5170002 2.0599999 0.69999999
8.4560003 2.072 0.69499999
8.4029999 2.085 0.69099998
8.3909998 2.109 0.69099998
8.3970003 2.138 0.69199997
8.4300003 2.1730001 0.69499999
8.4499998 2.2060001 0.69700003
8.4689999 2.2379999 0.699
8.4709997 2.266 0.69999999
8.493 2.3 0.70200002
8.5690002 2.349 0.70899999
8.79 2.438 0.72799999
12.413 -3.2060001 1.094
12.358 -3.1559999 1.089
12.354 -3.119 1.089
12.369 -3.086 1.09
12.419 -3.062 1.094
12.484 -3.0420001 1.099
12.596 -3.033 1.109
12.625 -3.003 1.1109999
12.731 -2.9909999 1.12
13.08 -0.31 1.13
13.146 -0.27399999 1.136
13.096 0.146 1.081
13.05 0.15700001 1.076
13.087 0.207 1.077
13.03 0.219 1.072
13.068 0.233 1.075
13.074 0.24699999 1.075
13.091 0.26199999 1.076
13.108 0.27700001 1.077
13.025 0.28999999 1.0700001
13.046 0.30500001 1.071
13.054 0.32100001 1.072
13.066 0.33700001 1.072
13.035 0.35299999 1.0700001
13.031 0.36899999 1.069
13.037 0.38600001 1.069
13.004 0.40200001 1.066
13.112 0.42300001 1.075
13.071 0.59200001 1.0700001
13.091 0.61400002 1.072
13.102 0.63499999 1.072
13.116 0.65700001 1.073
13.167 0.68099999 1.0779999
13.106 0.69999999 1.072
13.101 0.72100002 1.072
13.098 0.74299997 1.072
13.046 0.76300001 1.067
13.04 0.78500003 1.067
13.04 0.80900002 1.067
12.997 0.829 1.064
12.979 0.852 1.062
12.96 0.87400001 1.061
12.921 0.89499998 1.057
12.89 0.917 1.0549999
12.874 0.94099998 1.054
12.818 0.96100003 1.049
12.78 0.98299998 1.046
12.779 1.008 1.046
12.788 1.034 1.0470001
12.805 1.061 1.049
12.799 1.087 1.048
12.811 1.114 1.05
12.872 1.146 1.0549999
12.928 1.178 1.0599999
23.087 2.1029999 1.893
12.955 1.207 1.062
23.076 2.151 1.892
13.047 1.244 1.0700001
13.003 1.267 1.066
13.053 1.3 1.071
13.038 1.327 1.0700001
13.071 1.359 1.073
13.096 1.391 1.075
13.116 1.423 1.077
22.999001 2.4949999 1.8890001
13.289 1.471 1.092
22.902 2.536 1.882
22.889 2.5869999 1.881
13.135 1.515 1.08
22.879 2.638 1.881
13.144 1.546 1.081
22.896 2.6930001 1.883
22.903999 2.7479999 1.8839999
22.898001 2.8010001 1.885
22.905001 2.8559999 1.886
22.892 2.9100001 1.885
22.900999 2.9660001 1.887
22.924 3.0250001 1.89
22.909 3.079 1.8890001
22.923 3.1370001 1.891
22.916 3.1930001 1.891
22.931999 3.253 1.893
22.945999 3.313 1.896
23.011999 3.381 1.902
22.983 3.4349999 1.9
22.972 3.493 1.9
13.722 2.122 1.136
23.046 3.5639999 1.9069999
13.511 2.1240001 1.119
13.471 2.1530001 1.1160001
13.403 2.178 1.1109999
13.311 2.1989999 1.104
13.231 2.221 1.098
13.212 2.253 1.097
13.214 2.289 1.098
13.214 2.326 1.098
13.211 2.3610001 1.099
13.228 2.401 1.101
13.256 2.4430001 1.104
13.289 2.4860001 1.107
13.349 2.5350001 1.113
13.562 2.6140001 1.132
23.124001 4.4580002 1.9299999
23.289 4.5560002 1.9450001
8.7200003 2.069 0.736
8.6009998 2.0669999 0.72600001
8.5310001 2.0769999 0.72100002
8.4619999 2.0869999 0.71600002
8.4130001 2.1010001 0.71200001
8.3859997 2.1210001 0.70999998
8.3800001 2.1459999 0.70999998
8.3789997 2.1730001 0.71100003
8.4130001 2.2090001 0.71399999
8.427 2.2390001 0.71600002
8.4490004 2.273 0.71899998
8.4770002 2.3080001 0.722
8.5019999 2.342 0.72500002
8.632 2.4070001 0.73699999
27.816 19.781 2.7679999
27.610001 19.771 2.7520001
27.452999 19.794001 2.7420001
13.981 -8.8280001 1.304
14.031 -8.776 1.308
14.068 -8.7150002 1.3099999
14.097 -8.6499996 1.312
14.144 -8.5959997 1.3150001
14.184 -8.5380001 1.317
14.258 -8.5010004 1.323
14.342 -8.4689999 1.33
14.463 -8.4589996 1.34
12.387 -3.2420001 1.104
12.33 -3.188 1.099
12.339 -3.151 1.099
12.383 -3.1229999 1.103
12.437 -3.0969999 1.108
12.553 -3.086 1.118
12.613 -3.062 1.123
12.778 -3.062 1.137
12.969 -0.35299999 1.143
12.939 -0.331 1.141
12.858 -0.30700001 1.1339999
12.806 -0.285 1.1289999
12.779 -0.26300001 1.127
12.773 -0.243 1.126
12.785 -0.222 1.127
12.867 -0.20299999 1.135
13.067 -0.186 1.152
12.876 0.199 1.095
12.882 0.222 1.096
12.888 0.245 1.096
12.895 0.26800001 1.096
12.875 0.29100001 1.094
12.904 0.31600001 1.097
12.935 0.34099999 1.099
13.007 0.36700001 1.105
13.056 0.39399999 1.109
13.109 0.41999999 1.114
13.128 0.447 1.115
13.192 0.47499999 1.12
13.117 0.498 1.114
13.084 0.523 1.1109999
13.049 0.54799998 1.108
13.007 0.57300001 1.104
13.02 0.60100001 1.105
13.019 0.62800002 1.105
13.065 0.65799999 1.109
13.058 0.685 1.109
13.048 0.713 1.108
13.047 0.741 1.108
13.024 0.76800001 1.1059999
13.019 0.79699999 1.105
13 0.824 1.104
12.979 0.852 1.102
12.939 0.87900001 1.099
12.934 0.90799999 1.098
12.891 0.935 1.095
12.863 0.963 1.0930001
12.827 0.99000001 1.09
12.79 1.017 1.087
12.788 1.0470001 1.087
12.799 1.079 1.0880001
12.809 1.11 1.089
12.839 1.1440001 1.091
12.893 1.1799999 1.096
12.936 1.216 1.1
12.975 1.252 1.104
13.039 1.29 1.109
13.022 1.321 1.108
13.051 1.357 1.1109999
13.056 1.391 1.1109999
13.071 1.426 1.113
13.103 1.4630001 1.1160001
22.961 2.5639999 1.956
13.193 1.507 1.124
22.865 2.612 1.948
13.171 1.539 1.123
22.853001 2.6700001 1.948
13.034 1.557 1.1109999
22.863001 2.7309999 1.949
13.126 1.602 1.119
22.863001 2.7920001 1.95
13.177 1.6440001 1.124
22.865 2.852 1.951
13.414 1.709 1.145
22.882999 2.915 1.9529999
22.885 2.977 1.954
22.882999 3.0380001 1.954
22.882999 3.0999999 1.955
22.910999 3.1670001 1.9579999
22.895 3.227 1.957
22.898001 3.29 1.9579999
22.919001 3.3570001 1.961
22.983999 3.4300001 1.967
22.945 3.4890001 1.965
22.944 3.553 1.965
13.646 2.151 1.169
23.049999 3.6340001 1.975
13.501 2.1670001 1.1569999
13.44 2.1949999 1.153
13.314 2.2130001 1.142
13.226 2.2360001 1.135
13.202 2.27 1.1339999
13.201 2.309 1.1339999
13.193 2.346 1.1339999
13.214 2.388 1.137
13.234 2.431 1.1390001
13.268 2.4760001 1.142
13.327 2.527 1.148
23.319 4.421 2.0090001
13.526 2.605 1.166
23.046 4.4380002 1.987
23.070999 4.5120001 1.99
23.186001 4.6040001 2.0009999
8.7220001 2.0539999 0.75800002
8.5900002 2.05 0.74699998
8.5249996 2.062 0.74199998
8.4440002 2.069 0.73500001
8.3950005 2.0840001 0.73199999
8.3579998 2.102 0.72899997
8.3669996 2.1300001 0.73000002
8.3870001 2.1630001 0.73299998
8.3859997 2.1900001 0.73299998
8.4139996 2.224 0.736
8.4510002 2.2609999 0.74000001
8.4779997 2.296 0.74299997
8.5369997 2.3399999 0.74800003
8.7309999 2.4219999 0.76599997
12.383 -3.1630001 1.146
12.344 -3.1170001 1.143
12.35 -3.082 1.143
12.373 -3.052 1.145
12.424 -3.0280001 1.149
12.515 -3.0139999 1.1569999
12.593 -2.9960001 1.164
12.685 -2.9809999 1.173
13.035 -0.458 1.184
12.894 -0.41499999 1.171
12.809 -0.37599999 1.163
12.747 -0.33700001 1.1569999
12.725 -0.30000001 1.155
12.736 -0.264 1.155
12.785 -0.228 1.159
12.978 -0.19400001 1.177
13.072 -0.15700001 1.1849999
13.109 0.17200001 1.142
13.078 0.184 1.1390001
13.078 0.19599999 1.1390001
13.111 0.223 1.141
13.111 0.236 1.14
13.063 0.264 1.135
13.091 0.27900001 1.137
13.082 0.29300001 1.136
13.047 0.308 1.133
13.034 0.32300001 1.131
13.061 0.33899999 1.133
12.968 0.35299999 1.125
12.93 0.368 1.1210001
12.87 0.38299999 1.1160001
12.869 0.40000001 1.115
12.849 0.41600001 1.113
12.89 0.435 1.117
12.962 0.45500001 1.123
13.225 0.54100001 1.145
13.224 0.56 1.145
13.142 0.57700002 1.137
13.111 0.59600002 1.135
13.092 0.61500001 1.133
13.044 0.634 1.1289999
13.03 0.65399998 1.127
13.075 0.67799997 1.131
13.094 0.70099998 1.133
13.09 0.722 1.132
13.08 0.74400002 1.132
13.063 0.76599997 1.13
13.05 0.78799999 1.1289999
13.028 0.80900002 1.127
13.026 0.833 1.127
12.962 0.852 1.122
12.949 0.875 1.12
12.926 0.89700001 1.119
12.906 0.92000002 1.117
12.911 0.94499999 1.117
12.888 0.96799999 1.1160001
12.885 0.99299997 1.115
12.896 1.0190001 1.117
12.916 1.046 1.118
12.92 1.072 1.119
12.926 1.099 1.12
12.956 1.128 1.122
12.939 1.153 1.1210001
12.978 1.183 1.125
13.011 1.214 1.128
13.007 1.2410001 1.128
12.98 1.266 1.126
13.037 1.3 1.131
13.052 1.33 1.133
13.076 1.3609999 1.135
13.094 1.392 1.137
22.972 2.4430001 1.995
13.174 1.4299999 1.1440001
22.879 2.484 1.987
13.25 1.4680001 1.151
22.851999 2.533 1.9859999
13.19 1.492 1.146
22.858999 2.585 1.987
13.095 1.511 1.138
22.862 2.638 1.988
13.083 1.54 1.138
22.867001 2.6919999 1.989
13.142 1.5779999 1.143
22.860001 2.7449999 1.989
13.275 1.625 1.155
22.870001 2.799 1.9910001
22.870001 2.8540001 1.9910001
22.878 2.9100001 1.993
22.872999 2.964 1.993
22.879 3.02 1.995
22.892 3.0780001 1.997
22.886999 3.1340001 1.997
22.886 3.191 1.998
22.902 3.25 2
22.916 3.3099999 2.0020001
22.965 3.375 2.0079999
22.941 3.4300001 2.006
22.938 3.4890001 2.007
13.804 2.135 1.2079999
22.993999 3.5569999 2.013
13.584 2.1370001 1.1900001
13.479 2.1559999 1.181
13.386 2.1760001 1.174
13.3 2.197 1.1670001
13.233 2.2219999 1.161
13.203 2.2520001 1.159
13.189 2.286 1.159
13.215 2.3269999 1.1619999
13.223 2.3640001 1.163
13.237 2.4030001 1.165
13.263 2.4449999 1.168
13.289 2.487 1.171
13.378 2.5409999 1.1799999
23.046 4.3779998 2.033
22.993999 4.434 2.03
23.007999 4.5019999 2.033
23.021999 4.5710001 2.0350001
23.046 4.6420002 2.039
23.069 4.7140002 2.0420001
23.068001 4.7810001 2.0439999
23.068001 4.848 2.0450001
23.101 4.9239998 2.049
8.724 2.0699999 0.77899998
8.5710001 2.0610001 0.76599997
8.507 2.072 0.75999999
8.434 2.0799999 0.755
8.3809996 2.0940001 0.75099999
8.3640003 2.1159999 0.75
8.3559999 2.1400001 0.75
8.3500004 2.165 0.75
8.3629999 2.1960001 0.75199997
8.3800001 2.227 0.75400001
8.4420004 2.2709999 0.75999999
8.4610004 2.3039999 0.76300001
8.5100002 2.345 0.76800001
8.7209997 2.4319999 0.78799999
11.365 6.3779998 1.131
11.301 6.3930001 1.126
11.363 6.4790001 1.1339999
28.013 19.649 2.9419999
27.888 19.698999 2.934
27.791 19.767 2.9300001
27.582001 19.754999 2.914
27.403 19.763 2.9000001
12.437 -3.2550001 1.163
12.331 -3.188 1.153
12.32 -3.1459999 1.152
12.358 -3.1159999 1.155
12.429 -3.095 1.161
12.548 -3.085 1.1720001
12.633 -3.0669999 1.1799999
13.008 -0.37599999 1.2029999
12.894 -0.35100001 1.192
12.839 -0.32800001 1.187
12.752 -0.30399999 1.179
12.716 -0.28200001 1.176
12.693 -0.26100001 1.174
12.702 -0.241 1.175
12.712 -0.22 1.176
12.739 -0.20100001 1.178
12.826 -0.182 1.187
13.182 -0.16599999 1.219
12.864 0.20100001 1.155
12.877 0.22400001 1.156
12.857 0.24600001 1.154
12.851 0.26899999 1.153
12.821 0.292 1.15
12.808 0.315 1.149
12.82 0.34 1.15
12.847 0.36399999 1.152
12.924 0.391 1.159
13.042 0.41999999 1.169
13.147 0.449 1.178
13.136 0.47400001 1.177
13.1 0.49900001 1.174
13.087 0.52499998 1.173
13.045 0.55000001 1.169
13.049 0.57700002 1.169
13.026 0.60299999 1.1670001
13.014 0.62900001 1.166
13.033 0.65799999 1.168
13.052 0.68699998 1.169
13.085 0.71600002 1.1720001
13.076 0.74400002 1.1720001
13.059 0.77200001 1.17
13.059 0.801 1.17
13.029 0.82800001 1.168
13 0.85500002 1.165
12.958 0.88200003 1.161
12.925 0.90899998 1.158
12.907 0.93699998 1.1569999
12.897 0.96600002 1.156
12.899 0.99699998 1.1569999
12.894 1.027 1.156
12.907 1.058 1.158
12.917 1.09 1.159
12.926 1.122 1.16
12.942 1.154 1.161
12.953 1.187 1.1619999
12.984 1.222 1.165
13.008 1.256 1.168
12.978 1.285 1.165
12.99 1.319 1.1670001
13.054 1.359 1.173
13.065 1.393 1.174
13.086 1.429 1.176
22.937 2.5039999 2.062
13.157 1.47 1.183
22.85 2.553 2.0550001
22.826 2.6099999 2.053
13.235 1.5470001 1.191
22.848 2.6719999 2.056
13.138 1.5700001 1.182
22.834999 2.73 2.0550001
13.155 1.607 1.184
22.85 2.7920001 2.0569999
22.841999 2.8510001 2.0569999
22.848 2.9130001 2.0580001
22.848 2.974 2.059
22.844 3.0350001 2.059
22.865 3.0999999 2.062
22.868 3.1619999 2.063
22.856001 3.223 2.063
22.868 3.2880001 2.0650001
22.896 3.355 2.0680001
22.927 3.4230001 2.072
22.91 3.4849999 2.0710001
22.908001 3.549 2.072
13.727 2.165 1.242
23.018999 3.631 2.0829999
13.52 2.171 1.224
13.407 2.191 1.214
13.315 2.214 1.206
13.256 2.2420001 1.201
13.194 2.27 1.196
13.169 2.3039999 1.1950001
13.208 2.349 1.199
13.235 2.3929999 1.202
13.258 2.4360001 1.205
13.268 2.477 1.206
13.333 2.5280001 1.2130001
23.061001 4.3740001 2.098
22.989 4.4289999 2.0929999
22.982 4.4959998 2.0929999
22.986 4.566 2.095
23.007999 4.6399999 2.098
23.01 4.71 2.099
23.028 4.783 2.102
23.034 4.855 2.1040001
23.09 4.9380002 2.1099999
8.717 2.0539999 0.80000001
8.5679998 2.046 0.787
8.4899998 2.0539999 0.77999997
8.4200001 2.0639999 0.77399999
8.382 2.0810001 0.77200001
8.3660002 2.1040001 0.77100003
8.3649998 2.1300001 0.77100003
8.3570004 2.155 0.77100003
8.3620005 2.184 0.77200001
8.4169998 2.2249999 0.778
8.441 2.2590001 0.77999997
8.4879999 2.299 0.78500003
8.559 2.3469999 0.79299998
11.262 6.6479998 1.153
11.109 6.598 1.1390001
11.047 6.6009998 1.1339999
11.044 6.6389999 1.136
11.104 6.7150002 1.143
12.426 -3.174 1.206
12.356 -3.1199999 1.199
12.328 -3.0769999 1.196
12.356 -3.0480001 1.198
12.374 -3.016 1.199
12.462 -3.0009999 1.2079999
12.573 -2.9909999 1.2180001
12.7 -2.9849999 1.23
12.958 -0.45300001 1.233
12.856 -0.412 1.223
12.748 -0.37200001 1.212
12.707 -0.33399999 1.2079999
12.707 -0.29800001 1.2079999
12.72 -0.26100001 1.209
12.793 -0.226 1.215
13.093 -0.19400001 1.244
13.213 0.82200003 1.205
13.177 0.84399998 1.202
13.134 0.86500001 1.198
13.096 0.88599998 1.1950001
13.026 0.90600002 1.188
13.014 0.92900002 1.187
12.992 0.95200002 1.186
12.99 0.977 1.1849999
12.98 1.001 1.1849999
13.02 1.03 1.189
13.067 1.059 1.193
13.096 1.0880001 1.196
13.108 1.115 1.197
13.105 1.142 1.197
13.11 1.169 1.198
13.122 1.198 1.199
13.2 1.233 1.207
13.183 1.2589999 1.205
13.262 1.295 1.2130001
13.328 1.33 1.219
13.245 1.351 1.212
22.951 2.3410001 2.0999999
13.266 1.382 1.214
22.870001 2.3829999 2.0940001
22.844999 2.431 2.092
22.84 2.4820001 2.092
22.827 2.5320001 2.092
22.830999 2.5840001 2.0929999
22.843 2.638 2.0940001
22.851 2.6919999 2.096
22.834 2.743 2.095
22.857 2.8 2.098
22.863001 2.855 2.099
22.860001 2.9089999 2.0999999
22.870001 2.9649999 2.102
22.863001 3.02 2.102
22.862 3.076 2.1029999
22.872 3.1329999 2.105
22.875 3.191 2.1059999
22.893999 3.2509999 2.109
22.892 3.3080001 2.109
22.957001 3.3759999 2.1159999
22.937 3.431 2.1159999
22.91 3.4860001 2.1140001
22.919001 3.5469999 2.1159999
13.732 2.161 1.268
23.007999 3.6210001 2.1259999
13.56 2.1689999 1.253
13.435 2.1849999 1.242
13.348 2.2060001 1.235
13.274 2.23 1.229
13.235 2.2590001 1.226
13.182 2.286 1.222
13.156 2.3169999 1.22
13.184 2.358 1.223
13.21 2.3989999 1.227
13.228 2.4389999 1.229
13.265 2.483 1.233
13.323 2.5320001 1.24
23.063999 4.3829999 2.1459999
13.581 2.619 1.2640001
22.995001 4.4349999 2.141
22.976999 4.4970002 2.141
22.988001 4.5650001 2.1429999
22.99 4.632 2.145
22.988001 4.698 2.1470001
23.011 4.77 2.1500001
23.007999 4.8369999 2.152
23.014999 4.9060001 2.154
23.051001 4.9829998 2.1589999
23.084 5.059 2.164
23.156 5.1440001 2.1719999
8.6140003 2.0710001 0.81199998
8.5229998 2.076 0.80400002
8.4530001 2.086 0.79799998
8.3909998 2.0969999 0.79299998
8.3649998 2.1159999 0.79100001
8.3579998 2.141 0.79100001
8.3520002 2.1659999 0.79100001
8.3540001 2.194 0.792
8.3730001 2.2260001 0.79500002
8.4209995 2.266 0.80000001
8.4499998 2.3010001 0.80299997
8.4949999 2.3410001 0.80800003
8.691 2.424 0.82800001
11.415 6.3569999 1.197
11.253 6.3169999 1.182
11.219 6.348 1.1799999
11.363 6.48 1.198
29.238001 19.240999 3.188
29.134001 19.311001 3.1830001
29.028 19.379999 3.177
28.245001 19.679001 3.1270001
27.981001 19.632 3.1040001
27.896 19.709 3.0999999
27.743 19.738001 3.089
27.577 19.756001 3.0769999
27.389999 19.757999 3.062
12.43 -3.2539999 1.217
12.323 -3.1860001 1.207
12.301 -3.141 1.204
12.324 -3.108 1.206
12.372 -3.0810001 1.21
12.517 -3.0769999 1.224
12.641 -3.069 1.2359999
22.403999 -3.1429999 2.174
22.292999 -3.072 2.1630001
22.379999 -3.03 2.171
22.400999 -2.9790001 2.1730001
22.417999 -2.927 2.174
13.138 -0.35699999 1.272
12.947 -0.33000001 1.253
12.861 -0.30599999 1.245
12.799 -0.28400001 1.239
12.765 -0.26199999 1.2359999
12.764 -0.241 1.2359999
12.776 -0.221 1.237
12.851 -0.20200001 1.244
13.016 -0.184 1.26
12.931 0.204 1.222
12.953 0.227 1.223
12.967 0.25 1.224
12.993 0.27399999 1.227
13.011 0.29800001 1.228
13.019 0.322 1.229
13.06 0.34799999 1.232
13.128 0.37400001 1.239
13.214 0.93099999 1.247
13.103 0.95300001 1.2359999
13.106 0.98299998 1.237
13.103 1.0140001 1.237
13.116 1.046 1.238
13.319 1.0930001 1.257
22.985001 2.3369999 2.174
22.879 2.3829999 2.164
22.851999 2.4389999 2.1619999
22.798 2.4909999 2.158
22.799 2.55 2.158
22.819 2.6110001 2.161
22.82 2.6700001 2.1619999
22.819 2.73 2.1619999
22.825001 2.7909999 2.1630001
22.841999 2.8529999 2.1659999
22.851 2.915 2.1670001
22.844 2.9749999 2.1670001
22.848 3.0369999 2.168
22.844999 3.099 2.1689999
22.856001 3.1619999 2.171
22.858 3.2249999 2.1719999
22.870001 3.29 2.174
22.872999 3.3529999 2.175
22.917999 3.424 2.1800001
22.92 3.4879999 2.181
22.898001 3.549 2.1800001
22.915001 3.6159999 2.1830001
13.676 2.197 1.303
23.011 3.697 2.1930001
13.468 2.2019999 1.284
13.356 2.2219999 1.274
13.282 2.2479999 1.267
13.238 2.2780001 1.2640001
13.164 2.3039999 1.257
13.143 2.3380001 1.256
13.163 2.3800001 1.2589999
13.196 2.425 1.262
13.234 2.471 1.267
13.289 2.5209999 1.273
23.184999 4.3990002 2.221
13.481 2.598 1.2920001
22.993 4.4310002 2.204
22.98 4.4970002 2.204
22.985001 4.5669999 2.2060001
23.006001 4.6409998 2.2090001
23.02 4.7129998 2.2119999
23.014 4.7820001 2.2119999
23.018 4.8530002 2.214
23.07 4.9349999 2.22
23.082001 5.0079999 2.223
23.128 5.0900002 2.2290001
23.277 5.1950002 2.2449999
8.6049995 2.0550001 0.83200002
8.5030003 2.0580001 0.82300001
8.4449997 2.0699999 0.81800002
8.3920002 2.0840001 0.81400001
8.3739996 2.1059999 0.81199998
8.3610001 2.1300001 0.81199998
8.3669996 2.158 0.81300002
8.3730001 2.187 0.81400001
8.3929996 2.2190001 0.81699997
8.4399996 2.2590001 0.82200003
8.4700003 2.2950001 0.82499999
8.5559998 2.346 0.83499998
12.407 -3.1700001 1.2589999
12.346 -3.119 1.252
12.314 -3.0739999 1.249
12.33 -3.0420001 1.25
12.366 -3.0150001 1.2539999
12.429 -2.994 1.26
12.568 -2.9909999 1.273
12.826 -3.0150001 1.299
22.504 -3.1930001 2.2620001
22.223 -3.0880001 2.233
22.297001 -3.0339999 2.24
22.351999 -2.977 2.2449999
13.073 -0.41800001 1.3
12.934 -0.37599999 1.286
12.857 -0.33700001 1.278
12.845 -0.29899999 1.276
12.902 -0.26300001 1.2819999
13.188 -0.23100001 1.3099999
22.933001 1.908 2.2030001
22.825001 1.9450001 2.1930001
22.799 1.989 2.191
22.799 2.036 2.191
22.816 2.085 2.1930001
22.811001 2.132 2.1930001
22.806 2.1800001 2.1930001
22.822001 2.2309999 2.1949999
22.799999 2.2780001 2.194
22.795 2.3269999 2.194
22.801001 2.378 2.1949999
22.822001 2.431 2.198
22.818001 2.4809999 2.198
22.83 2.5339999 2.2
22.832001 2.586 2.201
22.844 2.6400001 2.2030001
22.841999 2.6930001 2.2030001
22.841 2.7460001 2.204
22.847 2.8 2.2060001
22.868 2.8570001 2.2079999
22.861 2.911 2.2090001
22.863001 2.9660001 2.21
22.882 3.0239999 2.2130001
22.865 3.0780001 2.2119999
22.872999 3.135 2.214
22.889999 3.194 2.2160001
22.896 3.253 2.2179999
22.896 3.3099999 2.2190001
22.92 3.372 2.223
22.912001 3.4289999 2.223
22.917999 3.4890001 2.2249999
22.907 3.5469999 2.2249999
22.938999 3.6110001 2.2290001
13.572 2.1719999 1.319
23.052999 3.6900001 2.2409999
13.424 2.184 1.306
13.33 2.204 1.2970001
13.268 2.23 1.2920001
13.223 2.2579999 1.288
13.17 2.2839999 1.284
13.132 2.313 1.281
13.112 2.346 1.28
13.157 2.391 1.285
13.208 2.4360001 1.291
13.268 2.4849999 1.298
13.357 2.539 1.307
23.091 4.3899999 2.26
23.024 4.4419999 2.2550001
23.014 4.506 2.256
23.009001 4.5710001 2.257
23.024 4.6399999 2.26
23.056999 4.7140002 2.2650001
23.056 4.7810001 2.267
23.068001 4.8509998 2.2690001
23.075001 4.921 2.2720001
23.099001 4.994 2.276
23.120001 5.0679998 2.28
23.184999 5.152 2.2880001
23.361 5.2610002 2.3069999
8.5970001 2.0680001 0.852
8.4870005 2.0680001 0.84200001
8.4510002 2.085 0.83899999
8.3940001 2.098 0.83399999
8.375 2.119 0.833
8.3669996 2.1440001 0.833
8.342 2.164 0.83200002
8.3629999 2.1960001 0.83399999
8.3900003 2.2309999 0.838
8.4289999 2.2679999 0.84299999
8.4659996 2.306 0.847
8.5830002 2.3659999 0.86000001
29.290001 19.280001 3.3640001
29.263 19.400999 3.3670001
27.801001 19.784 3.2609999
27.597 19.775999 3.244
12.477 -3.266 1.277
12.342 -3.191 1.263
12.301 -3.141 1.258
12.306 -3.1029999 1.258
12.35 -3.075 1.262
12.465 -3.0650001 1.274
12.632 -3.066 1.29
22.261 -3.122 2.257
22.226 -3.063 2.253
22.252001 -3.0120001 2.2550001
22.316 -2.967 2.2620001
22.393999 -2.924 2.2690001
22.629 -1.8430001 2.289
22.643 -1.798 2.29
22.587 -1.747 2.2839999
22.655001 -1.706 2.2909999
13.759 0.69800001 1.362
13.832 0.73100001 1.369
13.795 0.759 1.3660001
22.924 1.939 2.273
22.802999 1.984 2.2609999
22.792 2.0380001 2.2609999
22.783001 2.092 2.26
22.775999 2.148 2.26
22.77 2.2030001 2.26
22.785 2.2609999 2.2620001
22.778999 2.3180001 2.2620001
22.774 2.375 2.2620001
22.788 2.434 2.2639999
22.780001 2.4909999 2.2639999
22.802 2.552 2.267
22.819 2.6129999 2.2690001
22.83 2.674 2.2709999
22.829 2.733 2.2720001
22.844 2.7950001 2.2739999
22.841 2.855 2.2739999
22.834999 2.915 2.2739999
22.844999 2.977 2.276
22.851999 3.04 2.2780001
22.861 3.1029999 2.28
22.862 3.165 2.28
22.868 3.2279999 2.2820001
22.871 3.2920001 2.283
22.882999 3.3570001 2.2850001
22.903 3.4230001 2.2880001
22.909 3.4879999 2.29
22.899 3.5510001 2.29
22.910999 3.6170001 2.2920001
13.809 2.2190001 1.382
22.966999 3.691 2.299
13.454 2.2 1.347
13.336 2.2190001 1.336
13.264 2.2449999 1.329
13.218 2.276 1.325
13.14 2.3 1.318
13.109 2.3329999 1.316
13.116 2.3729999 1.317
13.164 2.4200001 1.323
13.237 2.473 1.331
13.335 2.5309999 1.342
23.127001 4.3889999 2.3269999
23.021 4.4380002 2.3180001
23.017 4.506 2.319
23.035 4.579 2.322
23.056999 4.652 2.325
23.062 4.723 2.3269999
23.073 4.796 2.3299999
23.101 4.8720002 2.3340001
23.110001 4.9450002 2.336
23.135 5.0209999 2.3410001
23.183001 5.1030002 2.3469999
23.319 5.2049999 2.362
8.6370001 2.063 0.87800002
8.5139999 2.0610001 0.866
8.441 2.0699999 0.85900003
8.3970003 2.086 0.85500002
8.3739996 2.1070001 0.85299999
8.368 2.132 0.85299999
8.3699999 2.1600001 0.85399997
8.3690004 2.1860001 0.85500002
8.4020004 2.2219999 0.85900003
8.4359999 2.2590001 0.86299998
8.5129995 2.3069999 0.87199998
8.7159996 2.391 0.89300001
12.34 -3.154 1.307
12.308 -3.1099999 1.303
12.287 -3.0680001 1.301
12.313 -3.039 1.303
12.345 -3.01 1.306
12.429 -2.9949999 1.3150001
12.604 -3 1.3329999
22.311001 -3.164 2.3399999
22.246 -3.0910001 2.3329999
22.247999 -3.026 2.3329999
22.333 -2.973 2.3410001
22.541 -2.608 2.359
22.51 -2.54 2.355
22.523001 -2.4760001 2.3559999
22.542 -2.4130001 2.3570001
22.561001 -2.349 2.358
22.589001 -2.2869999 2.3610001
22.615999 -2.0929999 2.362
22.549999 -2.0220001 2.3540001
22.542 -1.956 2.3529999
22.591999 -1.895 2.3570001
23.051001 1.92 2.323
22.877001 1.951 2.306
22.846001 1.995 2.303
22.82 2.04 2.3010001
22.827999 2.0880001 2.302
22.834999 2.1370001 2.303
22.823 2.184 2.303
22.834999 2.234 2.3050001
22.827 2.2820001 2.3039999
22.82 2.3310001 2.3039999
22.83 2.3829999 2.306
22.847 2.4349999 2.3080001
22.854 2.487 2.3099999
22.867001 2.54 2.312
22.900999 2.596 2.316
22.882999 2.6459999 2.3150001
22.875999 2.698 2.3150001
22.891001 2.7539999 2.3180001
22.917 2.8110001 2.3210001
22.936001 2.8670001 2.3239999
22.951 2.924 2.3269999
22.931999 2.977 2.326
22.936001 3.033 2.3269999
22.943001 3.0899999 2.329
22.958 3.148 2.3310001
22.959 3.2060001 2.3329999
22.950001 3.2620001 2.3329999
22.972 3.323 2.336
22.969999 3.381 2.3369999
22.981001 3.441 2.3399999
22.973 3.4990001 2.3399999
22.99 3.5610001 2.3429999
23.007999 3.6240001 2.346
13.654 2.1860001 1.393
23.066 3.694 2.3529999
13.464 2.191 1.374
13.349 2.2079999 1.363
13.276 2.2320001 1.357
13.215 2.257 1.351
13.179 2.2869999 1.348
13.138 2.3150001 1.345
13.11 2.3469999 1.3430001
13.139 2.388 1.347
13.165 2.4289999 1.35
13.259 2.484 1.3609999
13.411 2.55 1.378
23.162001 4.4039998 2.3789999
23.108999 4.46 2.3759999
23.106001 4.5250001 2.3770001
23.118999 4.5939999 2.3800001
23.098 4.6560001 2.3800001
23.111 4.7259998 2.3829999
23.125999 4.7969999 2.3859999
23.112 4.862 2.3859999
23.131001 4.934 2.3900001
23.155001 5.0079999 2.395
23.174 5.0809999 2.398
23.32 5.1830001 2.415
8.7700005 2.1099999 0.91299999
8.5469999 2.0829999 0.88999999
8.4630003 2.089 0.88200003
8.4069996 2.1010001 0.87699997
8.3780003 2.1210001 0.875
8.368 2.145 0.875
8.3590002 2.1689999 0.875
8.3579998 2.1960001 0.875
8.3710003 2.2260001 0.87800002
8.4160004 2.2650001 0.88300002
8.4980001 2.3150001 0.89300001
8.6499996 2.385 0.90899998
32.987 18.672001 3.8399999
32.896 18.767 3.836
12.449 -8.1639996 1.396
12.519 -8.132 1.403
12.598 -8.1059999 1.411
12.669 -8.0740004 1.4170001
12.749 -8.0480003 1.425
12.858 -8.0389996 1.436
12.923 -8.0030003 1.442
13.053 -8.007 1.455
12.379 -3.24 1.321
12.295 -3.1789999 1.312
12.27 -3.1329999 1.309
12.286 -3.098 1.3099999
12.323 -3.069 1.314
12.414 -3.052 1.323
12.707 -3.085 1.354
22.412001 -3.1989999 2.3699999
22.349001 -3.135 2.3629999
22.299999 -3.073 2.3570001
22.266001 -3.0139999 2.3540001
22.287001 -2.9630001 2.355
22.363001 -2.9189999 2.3629999
22.504999 -2.8840001 2.378
22.533001 -2.52 2.3789999
22.481001 -2.464 2.3729999
22.500999 -2.415 2.375
22.509001 -2.3659999 2.3759999
22.483999 -2.313 2.3729999
22.503 -2.2650001 2.375
22.591 -1.84 2.382
22.709 -1.802 2.395
22.627001 -1.749 2.3859999
22.666 -1.706 2.3900001
23.062 2.0079999 2.3959999
22.882 2.0480001 2.378
22.877001 2.1029999 2.378
22.829 2.155 2.3740001
22.827 2.211 2.3740001
22.82 2.267 2.3740001
22.813999 2.323 2.3740001
22.813 2.381 2.3740001
22.82 2.4389999 2.3759999
22.830999 2.4990001 2.3770001
22.858 2.5599999 2.381
22.870001 2.6210001 2.3829999
22.886 2.6819999 2.385
22.872999 2.74 2.385
22.83 2.7950001 2.381
22.864 2.8599999 2.385
22.966 2.934 2.3970001
23.097 3.0120001 2.411
23.148001 3.0810001 2.418
23.087999 3.135 2.4119999
23.061001 3.194 2.4100001
23.083 3.2609999 2.414
23.073999 3.323 2.414
23.105 3.391 2.418
23.087999 3.4530001 2.4170001
23.132999 3.5239999 2.4230001
23.142 3.5899999 2.425
23.15 3.6570001 2.427
13.557 2.2179999 1.4220001
13.393 2.23 1.406
13.284 2.25 1.395
13.232 2.279 1.39
13.177 2.3080001 1.385
13.142 2.3399999 1.383
13.136 2.3770001 1.383
13.151 2.4189999 1.385
13.216 2.47 1.393
13.405 2.5450001 1.413
23.25 4.6230001 2.4560001
23.193001 4.6810002 2.451
23.129999 4.7389998 2.4460001
23.143999 4.8119998 2.4489999
23.156 4.8850002 2.4519999
23.165001 4.9580002 2.4549999
23.231001 5.0440001 2.4630001
23.375 5.1469998 2.48
8.7799997 2.098 0.935
8.5360003 2.066 0.91000003
8.4510002 2.073 0.90200001
8.4189997 2.092 0.89899999
8.3850002 2.1099999 0.89600003
8.3710003 2.1340001 0.89499998
8.3719997 2.161 0.89600003
8.3730001 2.188 0.89700001
8.4119997 2.2260001 0.90100002
8.4759998 2.27 0.90899998
8.6549997 2.346 0.92900002
12.777 -7.6609998 1.444
12.798 -7.6360002 1.446
12.846 -7.6259999 1.451
12.887 -7.6129999 1.456
12.934 -7.6030002 1.461
13.019 -7.6139998 1.47
13.189 -7.6739998 1.489
15.099 -6.9910002 1.692
15.081 -6.9380002 1.6900001
15.06 -6.8829999 1.687
15.085 -6.8499999 1.6900001
15.177 -6.8460002 1.7
12.352 -3.194 1.364
12.285 -3.141 1.3559999
12.285 -3.1040001 1.355
12.274 -3.066 1.354
12.296 -3.0350001 1.3559999
12.348 -3.0120001 1.3609999
12.431 -2.9960001 1.37
22.398001 -3.1760001 2.448
22.309999 -3.098 2.438
22.316 -3.0339999 2.438
22.348 -2.974 2.4400001
22.379 -2.9130001 2.4430001
22.474001 -2.599 2.45
22.464001 -2.533 2.448
22.474001 -2.4690001 2.4489999
22.509001 -2.4070001 2.4519999
22.587 -2.3499999 2.46
22.573 -1.956 2.454
22.632 -1.896 2.46
14.638 0.58499998 1.5420001
14.577 0.60399997 1.536
14.54 0.62400001 1.5319999
14.486 0.64399999 1.526
14.497 0.66600001 1.527
14.487 0.68800002 1.526
14.551 0.71399999 1.533
23.208 2.0769999 2.45
23.098 2.115 2.4389999
23.042 2.158 2.4330001
23.02 2.2049999 2.4319999
22.976 2.25 2.428
22.937 2.2950001 2.424
22.905001 2.342 2.4219999
22.893 2.391 2.421
22.914 2.444 2.424
22.989 2.5039999 2.4330001
23.084999 2.566 2.444
22.938999 2.655 2.4300001
22.798 2.691 2.4159999
22.750999 2.7379999 2.4119999
22.759001 2.793 2.414
13.595 2.214 1.4529999
13.422 2.221 1.4349999
13.323 2.24 1.426
13.258 2.2650001 1.42
13.204 2.2920001 1.415
13.164 2.3210001 1.411
13.137 2.352 1.409
13.159 2.392 1.413
13.171 2.431 1.415
13.246 2.4820001 1.424
23.215 4.6810002 2.5050001
23.164 4.7379999 2.5009999
23.153 4.8039999 2.5020001
23.166 4.8740001 2.5050001
23.184 4.9460001 2.5090001
23.25 5.0289998 2.5179999
23.389 5.1290002 2.5350001
8.6099997 2.098 0.93900001
8.5109997 2.1010001 0.92900002
8.4320002 2.108 0.92199999
8.4060001 2.128 0.91900003
8.3809996 2.148 0.91799998
8.3599997 2.1700001 0.91600001
8.3660002 2.198 0.91799998
8.3870001 2.2309999 0.921
8.4759998 2.2820001 0.93199998
8.6330004 2.3529999 0.94999999
35.41 18.191999 4.2350001
35.278999 18.275999 4.2259998
35.266998 18.421 4.2319999
12.348 -8.0979996 1.443
12.421 -8.0679998 1.45
12.476 -8.0270004 1.455
12.543 -7.994 1.461
12.62 -7.9660001 1.469
12.723 -7.9549999 1.48
12.815 -7.9359999 1.489
12.874 -7.8969998 1.495
12.96 -7.8740001 1.503
13.061 -7.8600001 1.5140001
13.164 -7.8460002 1.525
13.322 -7.8649998 1.5420001
14.846 -7.507 1.698
14.856 -7.4390001 1.698
15.024 -6.9499998 1.709
14.967 -6.855 1.701
15.058 -6.8280001 1.711
15.097 -6.777 1.714
15.106 -6.7129998 1.714
15.241 -6.7049999 1.728
12.307 -3.2219999 1.368
12.276 -3.174 1.364
12.259 -3.1300001 1.362
12.268 -3.0940001 1.362
12.304 -3.0639999 1.3660001
12.396 -3.0480001 1.376
12.667 -3.075 1.405
22.299999 -3.1270001 2.4549999
22.304001 -3.073 2.4549999
22.362 -3.027 2.461
22.346001 -2.971 2.4590001
22.403 -2.924 2.4649999
22.409 -2.8710001 2.4649999
22.466999 -2.513 2.4690001
22.458 -2.461 2.4679999
22.478001 -2.4119999 2.47
22.542999 -2.369 2.477
22.490999 -2.313 2.471
22.528999 -2.267 2.4749999
22.528999 -2.2179999 2.4749999
22.518 -2.168 2.473
22.599001 -2.1259999 2.4820001
14.619 0.479 1.586
14.496 0.50300002 1.572
14.431 0.52899998 1.5650001
14.43 0.55699998 1.5650001
14.415 0.58600003 1.563
14.428 0.61500001 1.5650001
14.445 0.64600003 1.566
14.479 0.67699999 1.5700001
14.58 0.71200001 1.581
23.101999 2.2969999 2.513
23.038 2.349 2.506
22.972 2.4000001 2.5
22.913 2.451 2.494
22.907 2.5090001 2.494
22.948 2.573 2.4990001
23.014 2.6389999 2.5079999
23.021999 2.7 2.5090001
22.833 2.737 2.4890001
22.792 2.7920001 2.4860001
22.798 2.8540001 2.487
13.483 2.2460001 1.48
13.357 2.263 1.467
13.275 2.2880001 1.459
13.223 2.3169999 1.454
13.183 2.348 1.45
13.158 2.382 1.449
13.162 2.4219999 1.45
13.223 2.4719999 1.457
13.452 2.5550001 1.483
23.268999 4.6279998 2.5710001
23.177999 4.6799998 2.562
23.156 4.7459998 2.562
23.171 4.8189998 2.5650001
23.222 4.901 2.572
23.306999 4.9899998 2.5829999
8.6949997 2.105 0.96899998
8.5640001 2.1010001 0.95599997
8.4650002 2.1040001 0.94499999
8.4139996 2.118 0.94
8.3850002 2.138 0.93800002
8.3809996 2.164 0.93800002
8.3870001 2.1919999 0.93900001
8.434 2.2320001 0.94499999
8.5450001 2.289 0.95899999
8.7320004 2.368 0.98100001
12.745 -7.6479998 1.499
12.767 -7.6230001 1.501
12.807 -7.6100001 1.506
12.83 -7.586 1.508
12.866 -7.5689998 1.512
12.905 -7.553 1.517
12.935 -7.533 1.52
12.999 -7.5320001 1.527
13.066 -7.5320001 1.535
13.12 -7.5240002 1.541
13.193 -7.527 1.549
13.265 -7.5279999 1.557
13.37 -7.5479999 1.569
13.584 -7.6290002 1.594
14.848 -6.967 1.733
14.827 -6.914 1.73
14.879 -6.8930001 1.735
15.059 -6.9320002 1.756
12.496 -3.2690001 1.4349999
12.326 -3.188 1.416
12.266 -3.1359999 1.408
12.288 -3.1059999 1.41
12.268 -3.0650001 1.408
12.287 -3.033 1.41
12.343 -3.0109999 1.416
12.405 -2.99 1.4220001
12.585 -2.9960001 1.443
22.32 -5.2490001 2.559
22.266001 -5.171 2.552
12.556 -2.8789999 1.438
12.382 -2.803 1.418
12.515 -2.796 1.433
22.459 -3.1830001 2.553
22.361 -3.1040001 2.5409999
22.313999 -3.033 2.5350001
22.302 -2.9660001 2.533
22.499001 -2.6659999 2.552
22.461 -2.596 2.5469999
22.436001 -2.5280001 2.5439999
22.42 -2.461 2.5409999
22.476999 -2.402 2.5469999
22.49 -2.3380001 2.5480001
22.483999 -2.273 2.546
22.562 -2.2149999 2.5550001
22.547001 -2.148 2.552
22.559 -2.0840001 2.553
14.628 0.63 1.61
14.555 0.648 1.602
14.551 0.671 1.601
14.551 0.69300002 1.601
14.616 0.71899998 1.608
23.188 2.527 2.5639999
23.046 2.5639999 2.549
22.999001 2.6110001 2.5450001
23.007999 2.664 2.5469999
23.004999 2.717 2.5480001
13.529 2.24 1.512
13.383 2.2509999 1.497
13.312 2.2750001 1.49
13.257 2.302 1.485
13.218 2.3310001 1.4809999
13.192 2.3629999 1.479
13.205 2.402 1.482
13.264 2.4489999 1.489
13.385 2.5090001 1.5039999
13.577 2.5829999 1.526
23.207001 4.5479999 2.6129999
23.163 4.6059999 2.6099999
23.179001 4.6760001 2.6140001
23.24 4.7550001 2.6229999
23.316 4.8390002 2.6329999
8.6379995 2.1329999 0.986
8.526 2.132 0.97399998
8.4549999 2.141 0.96700001
8.434 2.1630001 0.96499997
8.4020004 2.181 0.963
8.415 2.2119999 0.96499997
8.46 2.2509999 0.97100002
8.566 2.3069999 0.98400003
8.7519999 2.3859999 1.007
35.465 18.225 4.4359999
35.287998 18.285 4.421
35.236 18.41 4.4219999
34.719002 18.59 4.3790002
34.654999 18.707001 4.3779998
12.335 -8.0889997 1.498
12.41 -8.0609999 1.506
12.469 -8.0229998 1.512
12.521 -7.9790001 1.517
12.572 -7.9359999 1.522
12.642 -7.9039998 1.529
12.724 -7.8800001 1.5369999
12.795 -7.848 1.545
12.882 -7.8270001 1.554
12.97 -7.8049998 1.563
13.071 -7.79 1.574
13.201 -7.7930002 1.589
13.344 -7.802 1.604
14.935 -6.9089999 1.766
14.857 -6.8049998 1.756
14.929 -6.7690001 1.763
15.652 -6.4780002 1.84
15.615 -6.3959999 1.834
15.796 -6.4039998 1.854
12.492 -3.3110001 1.444
12.309 -3.2219999 1.4220001
12.279 -3.175 1.418
12.272 -3.1340001 1.4170001
12.275 -3.096 1.4170001
12.332 -3.0710001 1.423
12.405 -3.05 1.431
12.574 -3.053 1.45
12.397 -2.895 1.428
12.42 -2.8629999 1.431
22.424 -3.4820001 2.5680001
22.365999 -3.4159999 2.5610001
22.43 -2.559 2.563
22.422001 -2.507 2.562
22.421 -2.4560001 2.5610001
22.421 -2.405 2.5610001
22.400999 -2.3529999 2.559
22.372 -2.3 2.5550001
22.361 -2.25 2.5539999
22.360001 -2.201 2.553
22.388 -2.154 2.556
22.468 -2.1129999 2.5650001
22.507999 -2.069 2.5699999
22.518 -2.0220001 2.5710001
22.566999 -1.978 2.576
22.541 -1.928 2.573
14.508 0.53399998 1.642
14.491 0.56199998 1.64
14.484 0.58999997 1.6390001
14.474 0.61900002 1.638
14.473 0.64899999 1.638
14.498 0.68000001 1.641
23.082001 2.7090001 2.6259999
22.992001 2.7590001 2.6170001
23.017 2.822 2.6199999
23.062 2.8889999 2.6259999
13.456 2.2809999 1.543
13.344 2.3010001 1.531
13.276 2.3269999 1.524
13.249 2.3610001 1.522
13.242 2.3989999 1.522
13.285 2.4460001 1.528
13.356 2.4979999 1.5369999
13.441 2.5539999 1.5470001
23.257999 4.4889998 2.6800001
23.181 4.5430002 2.6719999
23.205999 4.6170001 2.677
23.289 4.704 2.688
8.691 2.1329999 1.013
8.566 2.1300001 0.99900001
8.4879999 2.1370001 0.99000001
8.4580002 2.1570001 0.98799998
8.4549999 2.1830001 0.98799998
8.4829998 2.2179999 0.99199998
8.5539999 2.2639999 1.001
8.6040001 2.3050001 1.008
8.7469997 2.372 1.026
8.8260002 2.4230001 1.036
12.853 -7.7189999 1.571
12.867 -7.6900001 1.573
12.893 -7.6669998 1.575
12.911 -7.6389999 1.577
12.917 -7.605 1.5779999
12.989 -7.6090002 1.586
13.02 -7.5879998 1.59
13.127 -7.612 1.603
13.195 -7.612 1.6109999
13.261 -7.6110001 1.618
13.333 -7.6129999 1.627
13.481 -7.6570001 1.645
14.889 -6.947 1.8049999
14.92 -6.9169998 1.808
15.035 -6.9250002 1.822
15.51 -6.6339998 1.875
15.428 -6.553 1.865
15.453 -6.5180001 1.867
15.551 -6.513 1.8789999
15.681 -6.52 1.8940001
15.841 -6.539 1.913
12.368 -3.2 1.476
12.297 -3.145 1.467
12.297 -3.109 1.466
12.291 -3.0710001 1.465
12.319 -3.0420001 1.4680001
12.353 -3.0139999 1.472
12.399 -2.9890001 1.477
12.489 -2.974 1.487
12.58 -2.9590001 1.498
12.513 -2.9059999 1.489
12.374 -2.8380001 1.473
12.452 -2.819 1.4809999
22.444 -3.507 2.654
22.347 -3.427 2.642
22.323 -3.358 2.638
22.398001 -2.652 2.6389999
22.389 -2.586 2.6370001
22.327999 -2.5139999 2.6289999
22.219999 -2.438 2.6159999
22.169001 -2.368 2.609
22.155001 -2.302 2.6070001
22.26 -2.2479999 2.618
22.445 -2.2019999 2.6389999
22.451 -2.1370001 2.6389999
22.548 -2.0810001 2.6500001
13.576 0.48800001 1.559
13.477 0.50300002 1.548
13.408 0.51999998 1.54
13.376 0.53799999 1.536
13.392 0.55800003 1.538
13.4 0.57800001 1.538
23.129999 2.8970001 2.675
23.108 2.9489999 2.674
23.129999 3.0079999 2.678
23.202999 3.0739999 2.687
13.51 2.3099999 1.577
13.364 2.3210001 1.561
13.316 2.349 1.557
13.308 2.385 1.557
13.298 2.4189999 1.557
13.316 2.46 1.5599999
13.331 2.5 1.563
13.349 2.5409999 1.566
13.422 2.5929999 1.576
23.405001 4.5209999 2.7479999
23.283001 4.5640001 2.7360001
23.327 4.6399999 2.743
8.6590004 2.1930001 1.033
8.5480003 2.1919999 1.021
8.5080004 2.2090001 1.017
8.5150003 2.2390001 1.0190001
8.533 2.2709999 1.022
8.559 2.3050001 1.026
8.592 2.342 1.031
8.6079998 2.375 1.034
8.618 2.4059999 1.036
8.6960001 2.4560001 1.0470001
12.382 -8.1199999 1.562
12.44 -8.0799999 1.568
12.487 -8.0340004 1.572
12.546 -7.9949999 1.5779999
12.598 -7.9520001 1.5829999
12.685 -7.9310002 1.5930001
12.756 -7.9000001 1.6
12.848 -7.881 1.6109999
12.956 -7.8709998 1.623
13.037 -7.8449998 1.632
13.155 -7.8410001 1.645
13.257 -7.8260002 1.656
13.354 -7.8080001 1.6670001
14.96 -6.8520002 1.836
14.98 -6.7930002 1.837
15.174 -6.8119998 1.86
15.511 -6.4190001 1.893
15.517 -6.3559999 1.892
15.637 -6.3390002 1.906
15.845 -6.3569999 1.9299999
12.486 -3.309 1.498
12.321 -3.2249999 1.478
12.285 -3.177 1.473
12.296 -3.1400001 1.474
12.309 -3.1040001 1.475
12.347 -3.075 1.479
12.405 -3.05 1.4859999
12.463 -3.026 1.492
12.431 -2.9790001 1.488
12.348 -2.921 1.478
22.403999 -3.536 2.664
22.375 -3.474 2.6600001
22.327 -3.4100001 2.654
22.292 -3.348 2.6500001
22.344 -3.299 2.655
22.392 -2.6059999 2.6559999
22.363001 -2.5510001 2.6530001
22.375 -2.5009999 2.654
22.313 -2.444 2.6459999
22.237 -2.385 2.6370001
22.171 -2.3280001 2.6289999
22.125999 -2.2739999 2.6229999
22.089001 -2.2219999 2.619
22.087 -2.1730001 2.618
22.112 -2.1270001 2.6210001
22.204 -2.0880001 2.631
22.399 -2.0580001 2.654
22.459 -2.0150001 2.661
22.469999 -1.969 2.6619999
22.523001 -1.926 2.6689999
22.534 -1.8789999 2.6700001
13.34 0.22 1.575
13.354 0.244 1.577
13.345 0.26699999 1.575
13.327 0.29100001 1.573
13.324 0.315 1.572
13.311 0.33899999 1.5700001
13.289 0.36300001 1.568
13.324 0.389 1.572
13.301 0.414 1.569
13.287 0.43900001 1.567
13.28 0.46399999 1.566
13.285 0.49000001 1.567
13.278 0.51599997 1.566
13.311 0.54400003 1.5700001
13.372 0.574 1.577
23.150999 3.0880001 2.7509999
23.103001 3.1440001 2.7460001
23.142 3.2119999 2.7520001
23.216 3.2850001 2.7620001
13.434 2.3559999 1.607
13.349 2.3800001 1.598
13.322 2.414 1.596
13.335 2.4560001 1.598
13.315 2.4909999 1.597
13.319 2.5320001 1.598
13.353 2.5780001 1.603
13.532 2.6530001 1.626
8.8100004 2.2190001 1.072
8.6269999 2.201 1.05
8.5679998 2.2130001 1.044
8.5550003 2.237 1.043
8.5469999 2.263 1.043
8.5539999 2.293 1.045
8.573 2.326 1.048
8.5740004 2.3540001 1.049
8.6040001 2.391 1.053
8.7519999 2.46 1.072
15.674 -6.7080002 1.966
15.485 -6.5809999 1.942
15.502 -6.5419998 1.944
15.59 -6.533 1.954
15.706 -6.5339999 1.9680001
15.857 -6.5500002 1.987
12.38 -3.2030001 1.5319999
12.314 -3.1500001 1.524
12.293 -3.108 1.521
12.285 -3.0699999 1.5190001
12.318 -3.0420001 1.523
12.342 -3.0120001 1.526
12.379 -2.9849999 1.53
12.428 -2.96 1.535
12.395 -2.9159999 1.531
12.354 -2.8699999 1.525
12.425 -2.8499999 1.534
22.459999 -3.5090001 2.7550001
22.343 -3.425 2.74
22.325001 -3.3570001 2.737
22.329 -3.293 2.737
22.358 -3.2320001 2.7390001
22.333 -2.7079999 2.73
22.363001 -2.6470001 2.733
22.356001 -2.5810001 2.7320001
22.243 -2.503 2.717
22.136 -2.427 2.7030001
22.069 -2.355 2.694
22.073 -2.2920001 2.694
22.171 -2.237 2.7049999
22.426001 -2.198 2.7360001
22.438999 -2.1340001 2.7360001
22.528999 -2.0769999 2.7460001
22.486 -2.0079999 2.7409999
22.525999 -1.946 2.7449999
23.253 3.312 2.8110001
23.280001 3.3740001 2.8150001
23.23 3.4260001 2.8110001
23.275 3.4920001 2.8180001
23.259001 3.549 2.8169999
23.275999 3.612 2.8210001
23.285999 3.674 2.8239999
23.417999 3.756 2.842
13.591 2.3989999 1.655
13.422 2.4059999 1.636
13.35 2.4300001 1.628
13.33 2.4630001 1.627
13.31 2.497 1.625
13.324 2.5369999 1.628
13.349 2.579 1.632
13.521 2.651 1.655
8.8310003 2.266 1.099
8.6280003 2.2409999 1.075
8.5620003 2.2509999 1.067
8.5489998 2.2750001 1.067
8.5419998 2.3010001 1.067
8.5489998 2.3310001 1.069
8.5450001 2.358 1.0700001
8.573 2.3940001 1.074
8.6450005 2.4430001 1.084
8.7919998 2.513 1.104
12.359 -8.1049995 1.617
12.427 -8.0719995 1.624
12.469 -8.0229998 1.628
12.535 -7.9889998 1.635
12.605 -7.9569998 1.643
12.693 -7.9359999 1.653
12.779 -7.914 1.663
12.851 -7.8829999 1.671
12.963 -7.8759999 1.684
13.068 -7.8639998 1.696
13.211 -7.875 1.7130001
15.69 -6.494 1.985
15.581 -6.3829999 1.97
15.712 -6.3699999 1.9859999
15.883 -6.3730001 2.006
12.438 -3.2969999 1.5470001
12.292 -3.2179999 1.529
12.281 -3.1760001 1.527
12.276 -3.135 1.526
12.303 -3.1029999 1.529
12.329 -3.0699999 1.531
12.338 -3.0339999 1.5319999
12.332 -2.994 1.531
12.344 -2.9590001 1.5319999
12.485 -2.954 1.549
22.440001 -3.484 2.766
22.330999 -3.4100001 2.7520001
22.323999 -3.352 2.7509999
22.323999 -3.296 2.7509999
22.305 -3.2379999 2.7479999
22.292 -3.1800001 2.7460001
22.302999 -3.1270001 2.747
22.327999 -3.075 2.7490001
22.433001 -3.0350001 2.7620001
22.399 -2.9760001 2.757
22.356001 -2.9170001 2.7520001
22.423 -2.661 2.7579999
22.372 -2.6029999 2.7509999
22.384001 -2.553 2.753
22.389999 -2.5020001 2.753
22.382999 -2.451 2.7520001
22.334999 -2.395 2.7460001
22.287001 -2.3399999 2.74
22.243 -2.286 2.734
22.177 -2.23 2.7249999
22.146 -2.178 2.721
22.183001 -2.1329999 2.7260001
22.344999 -2.0999999 2.7449999
22.450001 -2.0139999 2.7579999
22.514999 -1.972 2.766
13.374 0.223 1.643
13.427 0.24699999 1.649
13.394 0.27000001 1.645
13.385 0.294 1.643
13.426 0.31900001 1.648
13.449 0.34400001 1.651
13.481 0.37 1.655
13.607 2.427 1.6950001
13.393 2.428 1.669
13.327 2.4560001 1.6619999
13.315 2.4920001 1.6619999
13.305 2.53 1.661
13.33 2.575 1.666
13.457 2.6389999 1.682
8.6639996 2.2390001 1.099
8.5760002 2.244 1.0880001
