# .PCD v0.7 - Point Cloud Data file format
VERSION 0.7
FIELDS x y z
SIZE 4 4 4
TYPE F F F
COUNT 1 1 1
WIDTH 1822
HEIGHT 1
VIEWPOINT 0 0 0 1 0 0 0
POINTS 1822
DATA ascii
9.0089998 2.881 -0.199
8.9940004 2.908 -0.199
9.0139999 2.9460001 -0.2
9.2060003 3.0409999 -0.205
11.866 3.9630001 -0.26499999
11.87 4.006 -0.26499999
11.908 4.0619998 -0.26699999
11.907 4.1040001 -0.26699999
11.918 4.151 -0.26800001
11.919 4.1950002 -0.26899999
11.937 4.2449999 -0.27000001
11.94 4.29 -0.27000001
11.951 4.3369999 -0.271
11.988 4.395 -0.273
12.023 4.4530001 -0.27399999
12.051 4.5079999 -0.27500001
12.059 4.5560002 -0.27599999
12.069 4.605 -0.27700001
12.081 4.6550002 -0.278
12.1 4.7080002 -0.27900001
12.152 4.7750001 -0.28099999
12.162 4.8249998 -0.28200001
12.19 4.8829999 -0.28299999
12.191 4.9299998 -0.28400001
12.199 4.98 -0.28400001
12.211 5.033 -0.285
12.222 5.085 -0.28600001
12.256 5.1469998 -0.28799999
12.265 5.1989999 -0.289
12.302 5.263 -0.28999999
12.304 5.3119998 -0.29100001
12.335 5.375 -0.292
12.345 5.428 -0.29300001
12.354 5.4809999 -0.294
12.388 5.546 -0.296
12.396 5.5999999 -0.296
12.399 5.651 -0.29699999
12.419 5.711 -0.29800001
12.391 5.7480001 -0.29800001
12.417 5.8109999 -0.30000001
12.44 5.8730001 -0.301
12.493 5.9489999 -0.303
6.5949998 3.168 -0.16
12.689 6.0949998 -0.308
6.4819999 3.1400001 -0.15800001
6.4460001 3.1500001 -0.15700001
6.3959999 3.152 -0.156
6.3759999 3.1689999 -0.156
6.3470001 3.181 -0.156
6.336 3.2030001 -0.156
6.3280001 3.2249999 -0.156
6.3369999 3.257 -0.15700001
6.3940001 3.313 -0.15899999
6.4289999 3.359 -0.16
6.415 3.3789999 -0.16
6.4039998 3.401 -0.16
6.4000001 3.427 -0.16
6.3909998 3.45 -0.161
6.3979998 3.4809999 -0.161
6.428 3.526 -0.162
6.4980001 3.5929999 -0.164
13.136 7.2639999 -0.333
13.002 7.2459998 -0.33000001
13.042 7.3270001 -0.33199999
13.07 7.4000001 -0.33399999
13.103 7.4780002 -0.336
10.692 6.2940001 -0.27700001
10.534 6.2480001 -0.273
10.459 6.2519999 -0.27200001
10.359 6.2389998 -0.27000001
10.306 6.2540002 -0.26899999
10.211 6.243 -0.26800001
10.16 6.2589998 -0.26699999
10.109 6.2740002 -0.266
10.037 6.276 -0.26499999
9.9840002 6.29 -0.264
9.9969997 6.3439999 -0.26499999
10.114 6.4660001 -0.26899999
10.282 6.6209998 -0.27399999
9.6020002 6.829 -0.266
9.5059996 6.8080001 -0.264
9.4090004 6.7849998 -0.26199999
6.704 -4.4250002 -0.035999998
6.724 -4.3959999 -0.035999998
6.7620001 -4.3779998 -0.037
6.7930002 -4.3569999 -0.037
6.8109999 -4.3260002 -0.037
6.8299999 -4.2969999 -0.037
6.849 -4.2670002 -0.037
6.8670001 -4.2379999 -0.037
6.8889999 -4.21 -0.037
6.9029999 -4.1789999 -0.037
6.9320002 -4.1560001 -0.037
6.9499998 -4.1259999 -0.037
6.967 -4.0970001 -0.037
6.9829998 -4.0669999 -0.037
7.0139999 -4.046 -0.037
7.0310001 -4.0159998 -0.037
7.0479999 -3.987 -0.037
7.0770001 -3.9649999 -0.037
7.1030002 -3.941 -0.037
7.0780001 -3.8889999 -0.035999998
7.1059999 -3.8670001 -0.037
7.1409998 -3.848 -0.037
7.1609998 -3.8210001 -0.037
7.1859999 -3.7969999 -0.037
7.2129998 -3.7739999 -0.037
7.2389998 -3.7509999 -0.037
7.2550001 -3.7219999 -0.037
7.2849998 -3.701 -0.037
7.2950001 -3.6700001 -0.037
7.3119998 -3.642 -0.037
7.3400002 -3.6199999 -0.037
7.348 -3.5880001 -0.037
7.368 -3.562 -0.037
7.3930001 -3.539 -0.037
7.408 -3.5109999 -0.037
7.4250002 -3.484 -0.037
7.4419999 -3.457 -0.037
7.4520001 -3.427 -0.037
7.4860001 -3.408 -0.037
7.5 -3.3800001 -0.037
7.5229998 -3.3570001 -0.037
7.546 -3.3329999 -0.037
7.5749998 -3.312 -0.037
7.5879998 -3.2839999 -0.037
7.6020002 -3.256 -0.037
7.6279998 -3.234 -0.037
7.652 -3.211 -0.037
7.6659999 -3.1830001 -0.037
7.7090001 -3.168 -0.037
7.7150002 -3.138 -0.037
7.7540002 -3.1210001 -0.037
7.757 -3.0899999 -0.037
7.7610002 -3.059 -0.037
7.8010001 -3.043 -0.037
7.822 -3.0190001 -0.037
7.848 -2.997 -0.037
7.869 -2.973 -0.037
7.8940001 -2.951 -0.037
7.9039998 -2.9230001 -0.037
7.9219999 -2.898 -0.037
7.9429998 -2.875 -0.037
7.9559999 -2.848 -0.037
7.9860001 -2.8280001 -0.037
8.0089998 -2.806 -0.037
8.0450001 -2.7869999 -0.037
8.052 -2.7590001 -0.037
8.0769997 -2.737 -0.037
8.1169996 -2.721 -0.037
8.1359997 -2.697 -0.037
8.1669998 -2.677 -0.037
8.1820002 -2.652 -0.037
8.2110004 -2.631 -0.037
8.2329998 -2.608 -0.037
8.2600002 -2.5869999 -0.037
8.2770004 -2.563 -0.037
8.302 -2.5409999 -0.037
8.342 -2.5239999 -0.037999999
8.3649998 -2.5020001 -0.037999999
8.3669996 -2.473 -0.037999999
8.3859997 -2.45 -0.037999999
8.4250002 -2.4319999 -0.037999999
8.4359999 -2.4059999 -0.037999999
8.4619999 -2.385 -0.037999999
8.4890003 -2.3640001 -0.037999999
8.5050001 -2.3399999 -0.037999999
8.5439997 -2.323 -0.037999999
8.5679998 -2.3010001 -0.037999999
8.6110001 -2.2839999 -0.037999999
8.6190004 -2.2579999 -0.037999999
8.6450005 -2.237 -0.037999999
8.6630001 -2.214 -0.037999999
8.6719999 -2.188 -0.037999999
8.7010002 -2.168 -0.037999999
8.7150002 -2.1440001 -0.037999999
8.7620001 -2.128 -0.037999999
8.7869997 -2.1070001 -0.037999999
8.8079996 -2.0840001 -0.037999999
8.8260002 -2.0610001 -0.037999999
8.8330002 -2.036 -0.037999999
8.8739996 -2.0179999 -0.037999999
8.9490004 -2.0090001 -0.037999999
9.0050001 -1.994 -0.039000001
8.9790001 -1.962 -0.037999999
8.9610004 -1.931 -0.037999999
8.9799995 -1.909 -0.037999999
9.0109997 -1.8890001 -0.037999999
9.0109997 -1.863 -0.037999999
9.0369997 -1.842 -0.037999999
9.0629997 -1.822 -0.037999999
9.0909996 -1.801 -0.037999999
9.1169996 -1.781 -0.037999999
9.1339998 -1.758 -0.037999999
9.1400003 -1.734 -0.037999999
9.1569996 -1.712 -0.037999999
9.2180004 -1.698 -0.037999999
9.1789999 -1.665 -0.037999999
9.2290001 -1.649 -0.037999999
9.2460003 -1.627 -0.037999999
9.257 -1.604 -0.037999999
9.29 -1.585 -0.037999999
9.309 -1.563 -0.037999999
9.3339996 -1.543 -0.037999999
9.3529997 -1.522 -0.037999999
9.3839998 -1.502 -0.037999999
9.401 -1.4809999 -0.037999999
9.4060001 -1.457 -0.037999999
9.4449997 -1.439 -0.039000001
9.4659996 -1.418 -0.039000001
9.4870005 -1.397 -0.039000001
9.5200005 -1.378 -0.039000001
9.5209999 -1.355 -0.039000001
9.5530005 -1.336 -0.039000001
9.5839996 -1.317 -0.039000001
9.6040001 -1.296 -0.039000001
9.6339998 -1.276 -0.039000001
9.6669998 -1.257 -0.039000001
9.6680002 -1.234 -0.039000001
9.6920004 -1.214 -0.039000001
9.7030001 -1.193 -0.039000001
9.7110004 -1.171 -0.039000001
9.75 -1.153 -0.039000001
9.7679996 -1.132 -0.039000001
9.8170004 -1.1160001 -0.039000001
9.8290005 -1.094 -0.039000001
9.8579998 -1.075 -0.039000001
9.8629999 -1.054 -0.039000001
9.8719997 -1.0319999 -0.039000001
9.9399996 -1.017 -0.039000001
9.9189997 -0.99299997 -0.039000001
9.9650002 -0.97600001 -0.039000001
9.974 -0.95499998 -0.039000001
10.005 -0.93599999 -0.039000001
10.022 -0.91600001 -0.039000001
10.044 -0.89700001 -0.039000001
10.073 -0.87800002 -0.039000001
10.095 -0.85900003 -0.039000001
10.099 -0.838 -0.039000001
10.125 -0.81900001 -0.039000001
10.183 -0.80199999 -0.039000001
10.188 -0.78200001 -0.039000001
10.25 -0.76599997 -0.039000001
10.257 -0.74599999 -0.039000001
10.288 -0.727 -0.039000001
10.338 -0.70999998 -0.039999999
10.339 -0.69 -0.039999999
10.398 -0.67299998 -0.039999999
10.473 -0.65700001 -0.039999999
10.508 -0.639 -0.039999999
10.544 -0.62099999 -0.039999999
9.526 0.117 -0.15099999
9.6949997 0.13699999 -0.154
9.9779997 0.15899999 -0.15800001
9.9890003 0.178 -0.15899999
9.9919996 0.197 -0.15899999
10.022 0.21600001 -0.15899999
10.006 0.235 -0.15899999
10.03 0.255 -0.16
10.01 0.27399999 -0.16
10.02 0.294 -0.16
10.012 0.31400001 -0.16
9.3000002 0.31 -0.149
9.2309999 0.32699999 -0.148
9.1730003 0.34299999 -0.147
9.1450005 0.361 -0.147
9.1499996 0.38100001 -0.147
9.1499996 0.40000001 -0.147
9.2040005 0.42199999 -0.148
9.2620001 0.44499999 -0.149
10.099 0.50700003 -0.163
10.093 0.52899998 -0.163
10.053 0.54900002 -0.163
10.07 0.57200003 -0.163
10.095 0.59600002 -0.164
10.104 0.62 -0.164
10.119 0.64399999 -0.16500001
10.137 0.66799998 -0.16500001
10.16 0.69300002 -0.16599999
10.173 0.71799999 -0.16599999
10.195 0.74400002 -0.167
10.2 0.76800001 -0.167
10.195 0.792 -0.167
10.237 0.81999999 -0.168
10.259 0.847 -0.169
10.26 0.87199998 -0.169
10.277 0.89899999 -0.17
10.304 0.926 -0.17
10.301 0.95200002 -0.171
10.308 0.97799999 -0.171
10.33 1.006 -0.17200001
10.341 1.034 -0.17200001
10.355 1.062 -0.17299999
10.397 1.0930001 -0.17299999
10.4 1.12 -0.17399999
10.43 1.15 -0.175
10.45 1.1799999 -0.175
10.485 1.212 -0.176
10.497 1.2410001 -0.177
10.497 1.2690001 -0.177
10.515 1.299 -0.177
10.534 1.33 -0.178
10.556 1.3609999 -0.17900001
10.573 1.392 -0.17900001
10.601 1.425 -0.18000001
10.613 1.456 -0.18000001
10.635 1.488 -0.18099999
10.637 1.518 -0.182
10.641 1.548 -0.182
10.691 1.586 -0.183
10.707 1.618 -0.184
10.729 1.652 -0.184
10.757 1.687 -0.185
10.78 1.721 -0.186
10.798 1.755 -0.186
10.808 1.788 -0.18700001
10.839 1.825 -0.18799999
10.854 1.859 -0.18799999
10.876 1.895 -0.189
10.893 1.9299999 -0.19
10.956 1.973 -0.191
10.986 2.0109999 -0.192
11.024 2.0510001 -0.193
11.035 2.086 -0.19400001
11.045 2.1210001 -0.19400001
11.1 2.165 -0.19499999
11.137 2.2060001 -0.19599999
11.17 2.247 -0.197
11.198 2.2869999 -0.198
11.214 2.3239999 -0.199
11.255 2.3670001 -0.2
11.274 2.4059999 -0.20100001
11.279 2.4419999 -0.20100001
11.34 2.4909999 -0.20299999
11.347 2.5280001 -0.20299999
11.363 2.5669999 -0.204
11.411 2.6140001 -0.205
11.412 2.6500001 -0.206
11.448 2.694 -0.207
11.491 2.7409999 -0.208
11.504 2.7809999 -0.208
11.541 2.8269999 -0.20999999
11.591 2.8759999 -0.211
11.612 2.9189999 -0.212
11.62 2.9579999 -0.212
11.644 3.0020001 -0.213
11.649 3.0409999 -0.214
11.688 3.089 -0.215
11.691 3.1289999 -0.215
11.721 3.175 -0.21600001
11.737 3.2179999 -0.21699999
11.766 3.2650001 -0.21799999
11.796 3.312 -0.219
11.85 3.3670001 -0.22
11.914 3.424 -0.222
11.974 3.4809999 -0.22400001
9.4519997 2.78 -0.177
9.2390003 2.7479999 -0.17299999
9.1870003 2.7639999 -0.17299999
9.1639996 2.7880001 -0.17200001
9.1540003 2.8150001 -0.17299999
9.0959997 2.8280001 -0.17200001
9.0129995 2.8329999 -0.171
8.9949999 2.858 -0.171
8.9899998 2.8870001 -0.171
9.0459995 2.9360001 -0.17200001
12.288 3.9890001 -0.234
12.184 3.9960001 -0.233
12.209 4.0469999 -0.234
12.245 4.1009998 -0.235
12.246 4.1430001 -0.236
12.249 4.1869998 -0.236
12.289 4.243 -0.23800001
12.298 4.289 -0.23800001
12.307 4.335 -0.23899999
12.327 4.3850002 -0.23999999
12.351 4.4369998 -0.241
12.38 4.4899998 -0.242
12.379 4.533 -0.242
12.38 4.5770001 -0.243
12.399 4.6279998 -0.244
12.412 4.677 -0.245
12.452 4.7360001 -0.24600001
12.46 4.783 -0.24699999
12.478 4.8340001 -0.248
12.486 4.881 -0.248
12.526 4.9419999 -0.25
12.547 4.9949999 -0.25099999
12.559 5.0440001 -0.252
12.58 5.098 -0.25299999
12.58 5.1430001 -0.25299999
12.614 5.2020001 -0.25400001
12.63 5.2540002 -0.255
12.621 5.2950001 -0.25600001
12.645 5.3509998 -0.257
12.664 5.4050002 -0.25799999
12.705 5.4679999 -0.259
12.711 5.5170002 -0.25999999
12.722 5.5669999 -0.26100001
12.744 5.6230001 -0.26199999
12.745 5.6690001 -0.26300001
12.774 5.7290001 -0.264
12.765 5.7709999 -0.264
12.813 5.8390002 -0.266
12.854 5.9039998 -0.26699999
12.862 5.9549999 -0.26800001
12.867 6.0040002 -0.26899999
12.916 6.0739999 -0.27000001
12.907 6.1170001 -0.271
12.945 6.1820002 -0.27200001
6.619 3.1849999 -0.139
13.073 6.2909999 -0.27599999
6.4980001 3.151 -0.13699999
6.447 3.1489999 -0.13600001
6.414 3.1570001 -0.13600001
6.3779998 3.1619999 -0.13600001
6.3569999 3.175 -0.13500001
6.3369999 3.188 -0.13500001
6.3260002 3.2060001 -0.13500001
6.3249998 3.2279999 -0.13600001
6.3140001 3.2460001 -0.13600001
6.329 3.277 -0.13699999
6.3709998 3.322 -0.138
6.369 3.3440001 -0.138
6.3759999 3.3710001 -0.139
6.369 3.3900001 -0.139
6.3889999 3.425 -0.14
6.3709998 3.438 -0.139
6.3699999 3.461 -0.14
6.388 3.494 -0.141
6.434 3.543 -0.142
6.5840001 3.6489999 -0.146
13.656 7.618 -0.303
13.585 7.6279998 -0.30199999
10.636 6.2030001 -0.23999999
10.514 6.1700001 -0.23800001
10.444 6.1659999 -0.237
10.366 6.158 -0.236
10.287 6.1479998 -0.235
10.232 6.152 -0.234
10.152 6.1389999 -0.233
10.109 6.1490002 -0.23199999
10.046 6.1469998 -0.23100001
9.9809999 6.1430001 -0.23
9.9359999 6.1500001 -0.23
9.9139996 6.1719999 -0.23
9.9289999 6.2160001 -0.23100001
10.01 6.302 -0.233
9.7150002 6.7119999 -0.237
9.6309996 6.6859999 -0.235
9.5710001 6.6750002 -0.235
9.4960003 6.6539998 -0.233
9.4309998 6.638 -0.23199999
9.3920002 6.6409998 -0.23199999
9.3660002 6.652 -0.23199999
9.335 6.6609998 -0.23199999
9.323 6.6810002 -0.23199999
9.3140001 6.704 -0.23199999
9.316 6.7340002 -0.233
9.309 6.757 -0.233
9.3059998 6.7839999 -0.234
7.1680002 -4.211 -0.021
7.1950002 -4.2059999 -0.021
7.1929998 -4.1849999 -0.021
7.1989999 -4.1680002 -0.021
7.211 -4.1550002 -0.021
7.23 -4.145 -0.021
7.2280002 -4.1230001 -0.021
7.2420001 -4.1110001 -0.021
7.2639999 -4.1030002 -0.021
7.2449999 -4.0710001 -0.021
7.2680001 -4.0640001 -0.021
7.29 -4.0560002 -0.021
7.2859998 -4.0320001 -0.02
7.3000002 -4.0190001 -0.02
7.3099999 -4.0040002 -0.02
7.3130002 -3.9849999 -0.02
7.3189998 -3.967 -0.02
7.3309999 -3.9530001 -0.02
7.3520002 -3.9430001 -0.02
7.3579998 -3.925 -0.02
7.349 -3.9000001 -0.02
7.323 -3.865 -0.02
7.2859998 -3.8239999 -0.02
7.3070002 -3.8150001 -0.02
7.3060002 -3.793 -0.02
7.375 -3.8080001 -0.02
7.427 -3.8139999 -0.02
7.4359999 -3.7969999 -0.02
7.454 -3.7850001 -0.02
7.4580002 -3.7650001 -0.02
7.461 -3.7449999 -0.02
7.4699998 -3.7290001 -0.02
7.4860001 -3.7149999 -0.02
7.4889998 -3.6949999 -0.02
7.4990001 -3.678 -0.02
7.5180001 -3.6659999 -0.02
7.5190001 -3.645 -0.018999999
7.5419998 -3.6340001 -0.018999999
7.5630002 -3.622 -0.018999999
7.5679998 -3.6029999 -0.018999999
7.566 -3.5799999 -0.018999999
7.5760002 -3.563 -0.018999999
7.5900002 -3.5480001 -0.018999999
7.6009998 -3.5309999 -0.018999999
7.6149998 -3.516 -0.018999999
7.6199999 -3.4960001 -0.018999999
7.652 -3.4890001 -0.018999999
7.664 -3.4719999 -0.018999999
7.671 -3.4530001 -0.018999999
7.6890001 -3.4389999 -0.018999999
7.6869998 -3.4159999 -0.018999999
7.7080002 -3.4030001 -0.018999999
7.7059999 -3.3800001 -0.018999999
7.7389998 -3.372 -0.018999999
7.7410002 -3.3510001 -0.018999999
7.756 -3.335 -0.018999999
7.7779999 -3.322 -0.018999999
7.7789998 -3.3 -0.018999999
7.7849998 -3.28 -0.018999999
7.8060002 -3.266 -0.018999999
7.823 -3.2509999 -0.017999999
7.8429999 -3.2360001 -0.017999999
7.8590002 -3.22 -0.017999999
7.8579998 -3.197 -0.017999999
7.8740001 -3.181 -0.017999999
7.862 -3.154 -0.017999999
7.9099998 -3.1500001 -0.017999999
7.9310002 -3.135 -0.017999999
7.9510002 -3.1199999 -0.017999999
7.9530001 -3.098 -0.017999999
7.9679999 -3.0810001 -0.017999999
7.987 -3.0650001 -0.017999999
7.9959998 -3.046 -0.017999999
8.0319996 -3.036 -0.017999999
8.0480003 -3.0190001 -0.017999999
8.0459995 -2.9949999 -0.017999999
8.0570002 -2.9760001 -0.017999999
8.0819998 -2.9619999 -0.017999999
8.1000004 -2.9449999 -0.017999999
8.1160002 -2.927 -0.017999999
8.1239996 -2.9070001 -0.017999999
8.1309996 -2.8859999 -0.017999999
8.1529999 -2.8699999 -0.017999999
8.177 -2.855 -0.017999999
8.1870003 -2.835 -0.017999999
8.1949997 -2.8139999 -0.017999999
8.2370005 -2.8050001 -0.017999999
8.2229996 -2.776 -0.017000001
8.25 -2.7620001 -0.017000001
8.2700005 -2.744 -0.017000001
8.2790003 -2.724 -0.017000001
8.283 -2.701 -0.017000001
8.3129997 -2.687 -0.017000001
8.3179998 -2.665 -0.017000001
8.3450003 -2.6489999 -0.017000001
8.368 -2.632 -0.017000001
8.3859997 -2.6140001 -0.017000001
8.4020004 -2.595 -0.017000001
8.4239998 -2.5769999 -0.017000001
8.4329996 -2.556 -0.017000001
8.4549999 -2.5380001 -0.017000001
8.4779997 -2.52 -0.017000001
8.4910002 -2.5 -0.017000001
8.5089998 -2.4809999 -0.017000001
8.5240002 -2.461 -0.017000001
8.5380001 -2.4400001 -0.017000001
8.5450001 -2.418 -0.017000001
8.5719995 -2.401 -0.017000001
8.5900002 -2.381 -0.017000001
8.6129999 -2.3629999 -0.017000001
8.6379995 -2.345 -0.017000001
8.6529999 -2.3239999 -0.017000001
8.6719999 -2.3039999 -0.016000001
8.6990004 -2.286 -0.016000001
8.691 -2.26 -0.016000001
8.7309999 -2.2449999 -0.016000001
8.7589998 -2.227 -0.016000001
8.7790003 -2.207 -0.016000001
8.8030005 -2.187 -0.016000001
8.8050003 -2.1630001 -0.016000001
8.8170004 -2.141 -0.016000001
8.849 -2.1229999 -0.016000001
8.8699999 -2.102 -0.016000001
8.901 -2.0840001 -0.016000001
8.915 -2.062 -0.016000001
8.9440002 -2.043 -0.016000001
8.9650002 -2.0220001 -0.016000001
8.9960003 -2.0039999 -0.016000001
9.0229998 -1.984 -0.016000001
9.0690002 -1.9680001 -0.016000001
9.0880003 -1.946 -0.016000001
9.1000004 -1.923 -0.016000001
9.0719995 -1.891 -0.016000001
9.1140003 -1.874 -0.016000001
9.1129999 -1.847 -0.016000001
9.1359997 -1.826 -0.016000001
9.1660004 -1.806 -0.016000001
9.1949997 -1.785 -0.015
9.2279997 -1.765 -0.015
9.2410002 -1.7410001 -0.015
9.2720003 -1.721 -0.015
9.2950001 -1.699 -0.015
9.3260002 -1.677 -0.015
9.3360004 -1.653 -0.015
9.3529997 -1.6289999 -0.015
9.3959999 -1.61 -0.015
9.4280005 -1.5880001 -0.015
9.4320002 -1.562 -0.015
9.448 -1.538 -0.015
9.46 -1.513 -0.015
9.5089998 -1.494 -0.015
9.54 -1.471 -0.015
9.5649996 -1.448 -0.015
9.599 -1.426 -0.015
9.6140003 -1.401 -0.015
9.6560001 -1.3789999 -0.015
9.7080002 -1.359 -0.015
9.7329998 -1.335 -0.015
9.7489996 -1.309 -0.015
9.7819996 -1.286 -0.015
9.816 -1.262 -0.015
9.8479996 -1.238 -0.015
9.8879995 -1.215 -0.015
9.9200001 -1.191 -0.015
9.9809999 -1.17 -0.015
10.011 -1.145 -0.015
10.014 -1.117 -0.014
10.032 -1.091 -0.014
10.078 -1.067 -0.014
10.123 -1.043 -0.014
10.197 -1.022 -0.014
10.169 -0.99000001 -0.014
10.23 -0.96700001 -0.014
10.265 -0.94099998 -0.014
10.3 -0.91500002 -0.014
10.375 -0.89200002 -0.014
10.393 -0.86400002 -0.014
10.443 -0.83899999 -0.014
10.531 -0.81599998 -0.014
10.653 -0.79500002 -0.014
10.665 -0.76599997 -0.014
10.715 -0.73900002 -0.014
10.785 -0.713 -0.014
9.6280003 0.063000001 -0.12899999
9.6090002 0.071999997 -0.12899999
9.6090002 0.081 -0.12899999
9.5939999 0.090000004 -0.12899999
9.6029997 0.1 -0.12899999
9.573 0.11 -0.12899999
9.559 0.12 -0.12899999
9.585 0.131 -0.12899999
9.6090002 0.142 -0.13
9.6479998 0.153 -0.13
9.7580004 0.16599999 -0.132
10.637 0.234 -0.145
10.587 0.24600001 -0.14399999
10.498 0.25799999 -0.14300001
10.495 0.27200001 -0.14300001
10.493 0.28600001 -0.14300001
10.407 0.29800001 -0.142
10.455 0.31400001 -0.14300001
10.488 0.33000001 -0.14399999
10.475 0.345 -0.14399999
9.3549995 0.322 -0.12800001
9.2609997 0.333 -0.127
9.2040005 0.345 -0.126
9.1789999 0.35800001 -0.126
9.1669998 0.37200001 -0.126
9.1630001 0.38600001 -0.126
9.1599998 0.40099999 -0.126
9.2030001 0.41800001 -0.127
9.2779999 0.43700001 -0.12800001
10.412 0.50800002 -0.14399999
10.396 0.52499998 -0.14399999
10.397 0.54299998 -0.145
10.42 0.56199998 -0.145
10.41 0.57999998 -0.145
10.436 0.60000002 -0.146
10.433 0.61900002 -0.146
10.456 0.63999999 -0.146
10.466 0.66000003 -0.147
10.459 0.67900002 -0.147
10.469 0.699 -0.147
10.469 0.72000003 -0.147
10.487 0.741 -0.148
10.492 0.76200002 -0.148
10.512 0.78399998 -0.149
10.532 0.80699998 -0.149
10.529 0.82800001 -0.149
10.548 0.85100001 -0.15000001
10.559 0.87400001 -0.15000001
10.565 0.89600003 -0.15000001
10.588 0.921 -0.15099999
10.589 0.94300002 -0.15099999
10.599 0.96700001 -0.152
10.602 0.99000001 -0.152
10.624 1.015 -0.152
10.664 1.0420001 -0.153
10.667 1.066 -0.153
10.684 1.092 -0.154
10.701 1.118 -0.154
10.706 1.143 -0.155
10.727 1.17 -0.155
10.75 1.197 -0.156
10.762 1.224 -0.156
10.79 1.252 -0.15700001
10.773 1.276 -0.15700001
10.793 1.304 -0.15800001
10.808 1.332 -0.15800001
10.819 1.359 -0.15800001
10.838 1.388 -0.15899999
10.864 1.418 -0.16
10.878 1.447 -0.16
10.883 1.475 -0.16
10.912 1.507 -0.161
10.909 1.534 -0.161
10.934 1.5650001 -0.162
10.955 1.596 -0.163
10.97 1.627 -0.163
11 1.66 -0.164
11.027 1.693 -0.16500001
11.028 1.723 -0.16500001
11.034 1.753 -0.16500001
11.053 1.785 -0.16599999
11.083 1.8200001 -0.167
11.09 1.851 -0.167
11.139 1.89 -0.168
11.172 1.926 -0.169
11.197 1.961 -0.17
11.241 2 -0.171
11.279 2.039 -0.17200001
11.28 2.0699999 -0.17200001
11.286 2.1040001 -0.17200001
11.327 2.1429999 -0.17299999
11.342 2.1789999 -0.17399999
11.391 2.221 -0.175
11.399 2.256 -0.175
11.442 2.2969999 -0.176
11.457 2.3340001 -0.177
11.479 2.372 -0.178
11.517 2.414 -0.17900001
11.545 2.454 -0.18000001
11.556 2.4909999 -0.18000001
11.588 2.533 -0.18099999
11.617 2.575 -0.182
11.639 2.615 -0.182
11.662 2.6559999 -0.183
11.679 2.6960001 -0.184
11.721 2.7409999 -0.185
11.749 2.7850001 -0.186
11.779 2.8280001 -0.18700001
11.8 2.8699999 -0.18700001
11.816 2.9119999 -0.18799999
11.823 2.951 -0.18799999
11.821 2.9879999 -0.189
11.891 3.0439999 -0.19
11.907 3.086 -0.191
11.93 3.131 -0.192
11.956 3.1760001 -0.193
12.006 3.2290001 -0.19400001
12.003 3.267 -0.19400001
12.042 3.3180001 -0.19499999
12.064 3.3640001 -0.19599999
12.076 3.4070001 -0.197
12.1 3.454 -0.198
12.113 3.4990001 -0.198
12.147 3.549 -0.199
12.141 3.589 -0.2
9.2969999 2.78 -0.153
9.1949997 2.7809999 -0.152
9.1470003 2.7980001 -0.15099999
9.1409998 2.8269999 -0.152
9.118 2.852 -0.152
9.0310001 2.8559999 -0.15000001
8.9790001 2.8710001 -0.15000001
8.9639997 2.8970001 -0.15000001
8.9969997 2.9400001 -0.15099999
12.52 4.0910001 -0.20999999
9.2469997 3.0539999 -0.155
12.366 4.085 -0.208
12.367 4.1290002 -0.20900001
12.395 4.1830001 -0.20999999
12.402 4.23 -0.20999999
12.414 4.2779999 -0.211
12.423 4.3260002 -0.212
12.431 4.3740001 -0.212
12.465 4.4320002 -0.213
12.481 4.4829998 -0.214
12.517 4.5419998 -0.215
12.522 4.5900002 -0.21600001
12.56 4.651 -0.21699999
12.601 4.7129998 -0.21799999
12.615 4.7649999 -0.219
12.634 4.8200002 -0.22
12.686 4.8870001 -0.221
12.698 4.9400001 -0.222
12.735 5.0029998 -0.223
12.754 5.059 -0.22400001
12.753 5.1069999 -0.22499999
12.753 5.1560001 -0.22499999
12.783 5.2179999 -0.226
12.798 5.2729998 -0.227
12.809 5.3280001 -0.228
12.856 5.3979998 -0.229
12.878 5.4569998 -0.23
12.895 5.5149999 -0.23100001
12.915 5.5749998 -0.23199999
12.918 5.6269999 -0.233
12.958 5.6960001 -0.234
12.971 5.7540002 -0.235
13.009 5.823 -0.236
13.015 5.8779998 -0.237
13.044 5.9439998 -0.23800001
13.084 6.0149999 -0.23999999
13.101 6.0760002 -0.23999999
13.112 6.1350002 -0.241
13.127 6.1960001 -0.242
6.651 3.1659999 -0.123
13.222 6.2950001 -0.245
6.506 3.1240001 -0.12
6.4419999 3.1199999 -0.12
6.4159999 3.1340001 -0.119
6.3839998 3.145 -0.119
6.3649998 3.1630001 -0.119
6.348 3.181 -0.119
6.322 3.1949999 -0.119
6.3260002 3.224 -0.119
6.342 3.2590001 -0.12
6.3769999 3.3039999 -0.121
6.3839998 3.335 -0.121
6.381 3.3610001 -0.122
6.3909998 3.3940001 -0.122
6.3829999 3.4170001 -0.122
6.3930001 3.45 -0.123
6.4039998 3.484 -0.123
6.4549999 3.54 -0.125
6.7979999 3.7579999 -0.132
10.731 6.2179999 -0.212
10.586 6.1820002 -0.20900001
10.466 6.1589999 -0.208
10.386 6.1589999 -0.207
10.319 6.1669998 -0.206
10.239 6.165 -0.205
10.172 6.171 -0.204
10.098 6.1729999 -0.20299999
10.026 6.1750002 -0.20200001
9.974 6.1890001 -0.20200001
9.9139996 6.197 -0.20100001
9.875 6.2189999 -0.20100001
9.8739996 6.2649999 -0.20100001
9.9320002 6.348 -0.20299999
10.183 6.5560002 -0.20900001
9.6850004 6.7919998 -0.206
9.5909996 6.7729998 -0.204
9.5469999 6.789 -0.204
9.4960003 6.7989998 -0.204
9.4209995 6.7909999 -0.20299999
6.868 -4.5310001 -0.0040000002
6.8959999 -4.507 -0.0040000002
6.9229999 -4.4809999 -0.0040000002
6.9580002 -4.46 -0.0040000002
6.974 -4.428 -0.0040000002
7.007 -4.4060001 -0.0040000002
7.0209999 -4.3730001 -0.0040000002
7.0469999 -4.3470001 -0.003
7.0630002 -4.3150001 -0.003
7.092 -4.2909999 -0.003
7.1129999 -4.2620001 -0.003
7.1230001 -4.2280002 -0.003
7.1539998 -4.2049999 -0.003
7.1719999 -4.1750002 -0.003
7.191 -4.1459999 -0.003
7.2129998 -4.119 -0.003
7.2360001 -4.092 -0.003
7.2519999 -4.0619998 -0.003
7.2459998 -4.0180001 -0.003
7.1869998 -3.947 -0.003
7.2150002 -3.924 -0.003
7.2550001 -3.908 -0.003
7.3260002 -3.908 -0.003
7.3769999 -3.8959999 -0.0020000001
7.3899999 -3.865 -0.0020000001
7.402 -3.8340001 -0.0020000001
7.421 -3.806 -0.0020000001
7.447 -3.7820001 -0.0020000001
7.4660001 -3.7550001 -0.0020000001
7.487 -3.7279999 -0.0020000001
7.507 -3.701 -0.0020000001
7.506 -3.664 -0.0020000001
7.5489998 -3.6489999 -0.0020000001
7.5689998 -3.622 -0.0020000001
7.5739999 -3.589 -0.0020000001
7.6040001 -3.5669999 -0.0020000001
7.6240001 -3.5409999 -0.0020000001
7.6370001 -3.5109999 -0.0020000001
7.658 -3.4860001 -0.0020000001
7.6830001 -3.461 -0.001
7.704 -3.4360001 -0.001
7.723 -3.4100001 -0.001
7.7470002 -3.3859999 -0.001
7.7750001 -3.3629999 -0.001
7.7870002 -3.335 -0.001
7.8000002 -3.306 -0.001
7.8270001 -3.283 -0.001
7.8379998 -3.2539999 -0.001
7.862 -3.23 -0.001
7.8889999 -3.2079999 -0.001
7.9120002 -3.184 -0.001
7.9369998 -3.161 -0.001
7.9439998 -3.1300001 -0.001
7.9860001 -3.1140001 -0.001
8.0080004 -3.0899999 -0.001
8.0349998 -3.0669999 -0
8.0600004 -3.0439999 -0
8.0950003 -3.0250001 -0
8.1140003 -3 -0
8.1339998 -2.9749999 -0
8.1540003 -2.951 -0
8.191 -2.9319999 -0
8.2159996 -2.9089999 -0
8.224 -2.8800001 -0
8.2480001 -2.8570001 -0
8.2629995 -2.8310001 -0
8.2880001 -2.8080001 -0
8.3299999 -2.7909999 -0
8.3470001 -2.766 -0
8.3629999 -2.74 -0
8.3850002 -2.717 -0
8.4069996 -2.6930001 -0
8.4320002 -2.671 -0
8.467 -2.651 -0
8.5010004 -2.632 -0
8.526 -2.609 -0
8.5579996 -2.589 -0
8.5930004 -2.569 -0
8.5710001 -2.533 -0
8.5930004 -2.51 -0
8.6210003 -2.4879999 -0
8.632 -2.4619999 -0
8.6829996 -2.447 -0
8.7060003 -2.424 -0
8.7250004 -2.401 -0
8.7629995 -2.382 0.001
8.7779999 -2.3570001 0.001
8.802 -2.3340001 0.001
8.8400002 -2.316 0.001
8.8620005 -2.293 0.001
8.8809996 -2.2690001 0.001
8.8990002 -2.2449999 0.001
8.915 -2.221 0.001
8.9359999 -2.198 0.001
8.9750004 -2.1789999 0.001
9.0039997 -2.1589999 0.001
9.0450001 -2.1400001 0.001
9.0570002 -2.115 0.001
9.092 -2.096 0.001
9.1020002 -2.0699999 0.001
9.1190004 -2.0469999 0.0020000001
9.1219997 -2.02 0.0020000001
9.1540003 -2 0.0020000001
9.1899996 -1.9809999 0.0020000001
9.1960001 -1.955 0.0020000001
9.2390003 -1.937 0.0020000001
9.2510004 -1.913 0.0020000001
9.2819996 -1.892 0.0020000001
9.3280001 -1.875 0.0020000001
9.3219995 -1.847 0.0020000001
9.3409996 -1.824 0.0020000001
9.3900003 -1.808 0.0020000001
9.4209995 -1.7869999 0.0020000001
9.4390001 -1.7640001 0.0020000001
9.5019999 -1.75 0.003
9.4840002 -1.721 0.003
9.5030003 -1.698 0.003
9.5299997 -1.677 0.003
9.5349998 -1.653 0.003
9.5979996 -1.638 0.003
9.599 -1.612 0.003
9.6269999 -1.592 0.003
9.6759996 -1.575 0.003
9.79 -1.567 0.003
9.7700005 -1.539 0.003
9.7250004 -1.507 0.003
9.7539997 -1.4859999 0.003
9.7810001 -1.466 0.003
9.8000002 -1.444 0.0040000002
9.8290005 -1.424 0.0040000002
9.8690004 -1.405 0.0040000002
9.8889999 -1.383 0.0040000002
9.9399996 -1.3660001 0.0040000002
9.9639997 -1.345 0.0040000002
9.9589996 -1.3200001 0.0040000002
10.015 -1.303 0.0040000002
10.037 -1.2819999 0.0040000002
10.055 -1.26 0.0040000002
10.084 -1.24 0.0040000002
10.099 -1.2180001 0.0040000002
10.127 -1.198 0.0040000002
10.137 -1.176 0.0049999999
10.168 -1.156 0.0049999999
10.185 -1.135 0.0049999999
10.221 -1.115 0.0049999999
10.276 -1.098 0.0049999999
10.3 -1.0779999 0.0049999999
10.331 -1.058 0.0049999999
10.355 -1.0369999 0.0049999999
10.396 -1.0190001 0.0049999999
10.416 -0.99800003 0.0049999999
10.467 -0.98000002 0.0049999999
10.477 -0.958 0.0049999999
10.539 -0.94199997 0.0049999999
10.564 -0.921 0.0060000001
10.561 -0.89899999 0.0060000001
10.56 -0.87699997 0.0060000001
10.616 -0.85900003 0.0060000001
10.65 -0.83999997 0.0060000001
10.678 -0.81999999 0.0060000001
10.734 -0.80299997 0.0060000001
10.818 -0.787 0.0060000001
10.86 -0.76800001 0.0060000001
10.925 -0.75099999 0.0060000001
10.857 -0.72500002 0.0060000001
10.914 -0.70700002 0.0060000001
10.99 -0.69099998 0.0070000002
11.002 -0.67000002 0.0070000002
10.354 0.12899999 -0.112
10.373 0.148 -0.112
10.358 0.167 -0.112
10.396 0.18700001 -0.113
10.39 0.206 -0.113
10.424 0.226 -0.113
10.439 0.24699999 -0.114
10.45 0.26699999 -0.114
9.4569998 0.25999999 -0.103
9.2910004 0.27399999 -0.102
9.2299995 0.28999999 -0.101
9.191 0.308 -0.101
9.1739998 0.32600001 -0.101
9.1520004 0.34400001 -0.101
9.1529999 0.36300001 -0.101
9.1569996 0.382 -0.101
9.2080002 0.40400001 -0.102
9.3330002 0.42899999 -0.103
10.493 0.505 -0.116
10.496 0.528 -0.117
10.506 0.551 -0.117
10.55 0.57700002 -0.118
10.53 0.59899998 -0.118
10.558 0.625 -0.118
10.557 0.648 -0.118
10.555 0.67199999 -0.119
10.575 0.69800001 -0.119
10.592 0.72399998 -0.119
10.604 0.74900001 -0.12
10.618 0.77499998 -0.12
10.619 0.80000001 -0.12
10.644 0.82800001 -0.121
10.657 0.85399997 -0.121
10.675 0.88200003 -0.122
10.688 0.90899998 -0.122
10.71 0.93699998 -0.123
10.722 0.96499997 -0.123
10.726 0.99199998 -0.123
10.748 1.021 -0.124
10.772 1.05 -0.124
10.783 1.079 -0.125
10.806 1.108 -0.125
10.816 1.137 -0.125
10.836 1.1670001 -0.126
10.845 1.197 -0.126
10.852 1.226 -0.127
10.871 1.257 -0.127
10.889 1.2869999 -0.12800001
10.919 1.3200001 -0.12800001
10.916 1.349 -0.12800001
10.948 1.382 -0.12899999
10.983 1.4170001 -0.13
10.99 1.447 -0.13
11.013 1.48 -0.131
11.026 1.513 -0.131
11.038 1.545 -0.131
11.064 1.579 -0.132
11.088 1.614 -0.133
11.123 1.65 -0.133
11.132 1.683 -0.134
11.149 1.717 -0.134
11.173 1.752 -0.13500001
11.186 1.786 -0.13500001
11.234 1.826 -0.13600001
11.261 1.863 -0.13699999
11.29 1.901 -0.13699999
11.313 1.938 -0.138
11.36 1.979 -0.139
11.395 2.0190001 -0.14
11.416 2.056 -0.14
11.445 2.095 -0.141
11.471 2.1340001 -0.141
11.501 2.174 -0.142
11.521 2.2130001 -0.14300001
11.565 2.256 -0.14399999
11.59 2.296 -0.14399999
11.615 2.336 -0.145
11.652 2.3789999 -0.146
11.702 2.425 -0.147
11.711 2.4630001 -0.147
11.748 2.507 -0.148
11.773 2.549 -0.149
11.801 2.592 -0.149
11.817 2.632 -0.15000001
11.872 2.6819999 -0.15099999
11.911 2.7279999 -0.152
11.933 2.77 -0.152
11.941 2.8099999 -0.153
11.961 2.8529999 -0.153
11.979 2.895 -0.154
12.001 2.9389999 -0.155
11.996 2.9760001 -0.155
12.056 3.03 -0.156
12.088 3.0769999 -0.15700001
12.131 3.1270001 -0.15800001
12.127 3.1659999 -0.15800001
12.148 3.211 -0.15899999
12.165 3.2550001 -0.15899999
12.182 3.299 -0.16
12.197 3.3440001 -0.161
12.212 3.388 -0.161
12.226 3.4319999 -0.162
12.261 3.483 -0.163
12.273 3.527 -0.163
12.296 3.575 -0.164
12.328 3.625 -0.16500001
9.323 2.773 -0.125
12.38 3.6819999 -0.16599999
9.2080002 2.7690001 -0.124
9.1680002 2.7880001 -0.123
9.1520004 2.8139999 -0.123
9.1330004 2.839 -0.124
9.0819998 2.8540001 -0.123
9.0159998 2.8640001 -0.123
8.9809999 2.8840001 -0.122
8.9700003 2.911 -0.123
9.0089998 2.9549999 -0.123
12.648 4.1479998 -0.17299999
9.276 3.0739999 -0.127
12.524 4.1500001 -0.17200001
12.517 4.191 -0.17299999
12.547 4.244 -0.17299999
12.534 4.283 -0.17399999
12.556 4.3340001 -0.17399999
12.574 4.3839998 -0.175
12.584 4.4310002 -0.176
12.6 4.4809999 -0.176
12.601 4.526 -0.177
12.645 4.586 -0.178
12.672 4.6399999 -0.17900001
12.705 4.6960001 -0.18000001
12.751 4.7579999 -0.18099999
12.768 4.8099999 -0.182
12.806 4.869 -0.183
12.851 4.9320002 -0.184
12.864 4.9819999 -0.184
12.96 5.066 -0.186
12.964 5.1129999 -0.18700001
12.976 5.164 -0.18799999
12.971 5.2090001 -0.18799999
12.971 5.2550001 -0.18799999
13.013 5.3189998 -0.19
13.013 5.3649998 -0.19
13.041 5.4239998 -0.191
13.066 5.4809999 -0.192
13.089 5.5380001 -0.193
13.113 5.5949998 -0.19400001
13.131 5.6500001 -0.19400001
13.205 5.7290001 -0.19599999
13.224 5.7849998 -0.197
13.267 5.8530002 -0.198
13.285 5.9089999 -0.199
13.289 5.9580002 -0.199
13.296 6.0100002 -0.2
13.327 6.072 -0.20100001
13.377 6.1430001 -0.20200001
13.374 6.191 -0.20299999
13.418 6.2600002 -0.204
13.418 6.309 -0.205
13.454 6.375 -0.206
13.472 6.4320002 -0.207
6.6079998 3.1789999 -0.101
13.694 6.5879998 -0.211
6.4879999 3.145 -0.1
6.4380002 3.1440001 -0.098999999
6.414 3.1559999 -0.098999999
6.3860002 3.1659999 -0.098999999
6.3579998 3.175 -0.098999999
6.3429999 3.191 -0.098999999
6.329 3.2060001 -0.098999999
6.3119998 3.221 -0.098999999
6.3150001 3.2460001 -0.098999999
6.3280001 3.276 -0.1
6.3439999 3.3069999 -0.1
6.3559999 3.336 -0.101
6.362 3.3629999 -0.101
6.3639998 3.3870001 -0.102
6.3740001 3.4159999 -0.102
6.382 3.4430001 -0.102
6.3969998 3.4749999 -0.103
6.415 3.5079999 -0.103
6.5079999 3.582 -0.105
10.649 6.1329999 -0.176
10.487 6.0770001 -0.17399999
10.426 6.079 -0.17299999
10.368 6.0830002 -0.17299999
10.306 6.0840001 -0.17200001
10.251 6.0879998 -0.17200001
10.199 6.0939999 -0.171
10.139 6.0939999 -0.171
10.082 6.0960002 -0.17
10.046 6.1100001 -0.17
9.9910002 6.112 -0.17
9.9549999 6.125 -0.17
9.9320002 6.1469998 -0.17
9.9139996 6.1700001 -0.17
9.9870005 6.2509999 -0.17200001
9.6219997 6.7410002 -0.176
9.5900002 6.7490001 -0.176
9.5559998 6.756 -0.176
9.5279999 6.7659998 -0.176
9.5030003 6.7789998 -0.176
9.4940004 6.803 -0.176
9.4919996 6.8309999 -0.176
9.4759998 6.849 -0.177
9.4820004 6.882 -0.177
9.5039997 6.927 -0.178
7.3319998 -4.3109999 0.013
7.336 -4.2919998 0.013
7.3499999 -4.2800002 0.013
7.3590002 -4.2639999 0.013
7.3699999 -4.2490001 0.013
7.3850002 -4.237 0.013
7.3940001 -4.2210002 0.013
7.4000001 -4.204 0.013
7.4250002 -4.197 0.013
7.4260001 -4.177 0.013
7.4349999 -4.1599998 0.013
7.4330001 -4.138 0.013
7.447 -4.125 0.014
7.4569998 -4.1090002 0.014
7.473 -4.0970001 0.014
7.4790001 -4.079 0.014
7.4889998 -4.0630002 0.014
7.5089998 -4.052 0.014
7.52 -4.0370002 0.014
7.5229998 -4.0170002 0.014
7.533 -4 0.014
7.5289998 -3.9760001 0.014
7.5510001 -3.967 0.014
7.552 -3.9449999 0.014
7.5359998 -3.915 0.014
7.5780001 -3.915 0.015
7.592 -3.901 0.015
7.6009998 -3.8840001 0.015
7.6170001 -3.8699999 0.015
7.6240001 -3.852 0.015
7.6269999 -3.8310001 0.015
7.6430001 -3.8169999 0.015
7.6539998 -3.8010001 0.015
7.6659999 -3.7850001 0.015
7.6830001 -3.7709999 0.015
7.6900001 -3.7520001 0.015
7.698 -3.734 0.016000001
7.7140002 -3.72 0.016000001
7.7290001 -3.7049999 0.016000001
7.7319999 -3.684 0.016000001
7.7509999 -3.6700001 0.016000001
7.7550001 -3.6500001 0.016000001
7.7680001 -3.6340001 0.016000001
7.7989998 -3.6259999 0.016000001
7.8000002 -3.6040001 0.016000001
7.8010001 -3.5810001 0.016000001
7.8249998 -3.5699999 0.016000001
7.8280001 -3.549 0.017000001
7.855 -3.5380001 0.017000001
7.8590002 -3.517 0.017000001
7.8639998 -3.497 0.017000001
7.881 -3.4809999 0.017000001
7.901 -3.4679999 0.017000001
7.9089999 -3.448 0.017000001
7.928 -3.434 0.017000001
7.9450002 -3.418 0.017000001
7.967 -3.405 0.017000001
7.9840002 -3.3889999 0.017000001
7.9899998 -3.368 0.017999999
8.0030003 -3.3510001 0.017999999
8.0279999 -3.3380001 0.017999999
8.0279999 -3.3150001 0.017999999
8.0419998 -3.2969999 0.017999999
8.0579996 -3.28 0.017999999
8.0799999 -3.266 0.017999999
8.0880003 -3.2460001 0.017999999
8.1020002 -3.2279999 0.017999999
8.1169996 -3.21 0.017999999
8.1440001 -3.198 0.018999999
8.1490002 -3.1760001 0.018999999
8.1569996 -3.1559999 0.018999999
8.1890001 -3.1440001 0.018999999
8.2150002 -3.131 0.018999999
8.2309999 -3.1129999 0.018999999
8.25 -3.096 0.018999999
8.2460003 -3.0710001 0.018999999
8.2690001 -3.0550001 0.018999999
8.2770004 -3.0339999 0.018999999
8.2959995 -3.017 0.02
8.2919998 -2.9920001 0.02
8.3280001 -2.9809999 0.02
8.3330002 -2.9590001 0.02
8.3540001 -2.9419999 0.02
8.3900003 -2.931 0.02
8.3859997 -2.905 0.02
8.4049997 -2.8870001 0.02
8.4320002 -2.872 0.02
8.4200001 -2.8440001 0.02
8.467 -2.835 0.021
8.4689999 -2.812 0.021
8.4890003 -2.7939999 0.021
8.5170002 -2.7780001 0.021
8.5190001 -2.7550001 0.021
8.5509996 -2.74 0.021
8.552 -2.7160001 0.021
8.5690002 -2.697 0.021
8.5790005 -2.675 0.021
8.6049995 -2.658 0.022
8.6639996 -2.651 0.022
8.6820002 -2.632 0.022
8.6700001 -2.6029999 0.022
8.684 -2.5829999 0.022
8.6999998 -2.562 0.022
8.7250004 -2.5450001 0.022
8.743 -2.5250001 0.022
8.7629995 -2.5050001 0.022
8.7849998 -2.4860001 0.023
8.809 -2.4679999 0.023
8.8529997 -2.4549999 0.023
8.868 -2.4330001 0.023
8.8800001 -2.411 0.023
8.8800001 -2.3859999 0.023
8.8940001 -2.3640001 0.023
8.9259996 -2.3469999 0.023
8.9350004 -2.323 0.024
8.9809999 -2.3099999 0.024
8.9940004 -2.2869999 0.024
9.0080004 -2.2650001 0.024
9.0410004 -2.247 0.024
9.0550003 -2.2249999 0.024
9.0799999 -2.2049999 0.024
9.1020002 -2.184 0.024
9.1059999 -2.1589999 0.025
9.1199999 -2.1359999 0.025
9.1499996 -2.1170001 0.025
9.1709995 -2.095 0.025
9.2139997 -2.079 0.025
9.2229996 -2.0550001 0.025
9.2519999 -2.0350001 0.025
9.2749996 -2.013 0.025
9.2919998 -1.99 0.026000001
9.3120003 -1.9680001 0.026000001
9.3360004 -1.946 0.026000001
9.3780003 -1.928 0.026000001
9.3870001 -1.903 0.026000001
9.4329996 -1.885 0.026000001
9.4499998 -1.862 0.026000001
9.4759998 -1.84 0.027000001
9.5170002 -1.8200001 0.027000001
9.5559998 -1.801 0.027000001
9.5830002 -1.778 0.027000001
9.6020002 -1.755 0.027000001
9.6339998 -1.733 0.027000001
9.6610003 -1.71 0.028000001
9.684 -1.686 0.028000001
9.6949997 -1.661 0.028000001
9.7379999 -1.64 0.028000001
9.7589998 -1.6160001 0.028000001
9.7969999 -1.594 0.028000001
9.8549995 -1.576 0.028000001
9.8940001 -1.554 0.028999999
9.8730001 -1.522 0.028999999
9.8940001 -1.497 0.028999999
9.9390001 -1.476 0.028999999
9.9680004 -1.452 0.028999999
10.02 -1.431 0.028999999
10.057 -1.4069999 0.029999999
10.096 -1.3839999 0.029999999
10.142 -1.362 0.029999999
10.158 -1.335 0.029999999
10.211 -1.313 0.029999999
10.197 -1.2819999 0.029999999
10.269 -1.262 0.030999999
10.332 -1.24 0.030999999
10.327 -1.21 0.030999999
10.393 -1.188 0.030999999
10.421 -1.1619999 0.030999999
10.475 -1.138 0.032000002
10.534 -1.114 0.032000002
10.63 -1.094 0.032000002
10.636 -1.0650001 0.032000002
10.686 -1.039 0.033
10.701 -1.01 0.033
10.717 -0.98100001 0.033
10.734 -0.95300001 0.033
10.8 -0.92799997 0.033
10.877 -0.903 0.033
10.948 -0.87800002 0.034000002
10.973 -0.84899998 0.034000002
10.989 -0.81900001 0.034000002
11.03 -0.79100001 0.034000002
11.089 -0.764 0.035
11.142 -0.736 0.035
9.698 0.075000003 -0.082000002
9.6639996 0.083999999 -0.082000002
9.6260004 0.093000002 -0.081
9.6160002 0.103 -0.081
9.6059999 0.113 -0.081
9.5620003 0.122 -0.081
9.54 0.132 -0.081
9.5439997 0.14300001 -0.081
9.559 0.154 -0.081
9.5740004 0.16500001 -0.082000002
9.6210003 0.178 -0.082000002
9.6960001 0.191 -0.082999997
11.103 0.30500001 -0.096000001
11.128 0.32100001 -0.096000001
11.113 0.336 -0.097000003
11.079 0.35100001 -0.096000001
11.199 0.37099999 -0.097999997
9.3240004 0.33700001 -0.081
9.2379999 0.34799999 -0.081
9.1940002 0.36000001 -0.081
9.1730003 0.37400001 -0.081
9.1479998 0.38699999 -0.079999998
9.1709995 0.403 -0.081
9.1829996 0.419 -0.081
9.2449999 0.43700001 -0.082000002
11.04 0.54000002 -0.097999997
10.985 0.55599999 -0.097999997
10.981 0.57499999 -0.097999997
10.958 0.59299999 -0.097999997
10.939 0.611 -0.097999997
10.954 0.63200003 -0.097999997
10.979 0.653 -0.097999997
10.978 0.67299998 -0.098999999
10.982 0.69400001 -0.098999999
10.978 0.71399999 -0.098999999
10.968 0.73400003 -0.098999999
10.954 0.75400001 -0.098999999
10.992 0.778 -0.1
10.997 0.80000001 -0.1
11.006 0.82300001 -0.1
11.015 0.84500003 -0.101
11.042 0.87 -0.101
11.046 0.89300001 -0.101
11.054 0.91600001 -0.102
11.058 0.93900001 -0.102
11.067 0.963 -0.102
11.086 0.98900002 -0.103
11.09 1.013 -0.103
11.077 1.035 -0.103
11.122 1.064 -0.104
11.138 1.09 -0.104
11.129 1.114 -0.104
11.144 1.14 -0.104
11.154 1.166 -0.105
11.178 1.194 -0.105
11.192 1.221 -0.106
11.214 1.25 -0.106
11.25 1.28 -0.107
11.226 1.304 -0.107
11.234 1.331 -0.107
11.258 1.3609999 -0.107
11.27 1.39 -0.108
11.293 1.42 -0.108
11.29 1.447 -0.108
11.313 1.478 -0.109
11.349 1.511 -0.109
11.35 1.539 -0.11
11.368 1.5700001 -0.11
11.388 1.602 -0.111
11.395 1.632 -0.111
11.437 1.6670001 -0.112
11.45 1.699 -0.112
11.496 1.7359999 -0.113
11.519 1.7690001 -0.113
11.532 1.802 -0.114
11.569 1.8380001 -0.114
11.601 1.874 -0.115
11.639 1.9119999 -0.116
11.655 1.946 -0.116
11.672 1.9809999 -0.116
11.693 2.016 -0.117
11.701 2.05 -0.117
11.722 2.086 -0.118
11.747 2.1240001 -0.118
11.784 2.1630001 -0.119
11.792 2.198 -0.119
11.842 2.2409999 -0.12
11.845 2.276 -0.121
11.886 2.3180001 -0.121
11.917 2.358 -0.122
11.96 2.402 -0.123
11.95 2.4349999 -0.123
12.017 2.483 -0.124
12.025 2.5209999 -0.124
12.046 2.5610001 -0.125
12.044 2.5969999 -0.125
12.082 2.641 -0.126
12.108 2.6830001 -0.126
12.131 2.7260001 -0.127
12.17 2.7709999 -0.12800001
12.192 2.8139999 -0.12800001
12.198 2.8529999 -0.12899999
12.221 2.8959999 -0.12899999
12.24 2.9389999 -0.13
12.243 2.9779999 -0.13
12.268 3.023 -0.131
12.271 3.062 -0.131
12.287 3.1059999 -0.132
12.31 3.151 -0.132
12.3 3.188 -0.133
12.308 3.23 -0.133
12.322 3.273 -0.134
12.356 3.322 -0.134
12.369 3.3659999 -0.13500001
12.408 3.418 -0.13600001
12.42 3.4619999 -0.13600001
12.42 3.5039999 -0.13600001
12.447 3.553 -0.13699999
12.464 3.5999999 -0.138
12.491 3.6500001 -0.138
12.535 3.7049999 -0.139
9.2419996 2.763 -0.103
12.676 3.79 -0.141
9.1780005 2.7750001 -0.102
9.1450005 2.796 -0.102
9.1389999 2.826 -0.102
9.1379995 2.858 -0.103
9.0430002 2.859 -0.102
8.9770002 2.8699999 -0.102
8.9610004 2.8959999 -0.102
8.9809999 2.934 -0.102
9.092 3.003 -0.104
12.683 4.1890001 -0.145
12.675 4.2309999 -0.145
12.706 4.2870002 -0.146
12.746 4.3460002 -0.147
12.764 4.3979998 -0.147
12.75 4.4390001 -0.148
12.767 4.4910002 -0.148
12.803 4.5510001 -0.149
12.808 4.599 -0.15000001
12.848 4.6609998 -0.15099999
12.918 4.7340002 -0.152
12.984 4.8070002 -0.153
12.999 4.8610001 -0.154
13.024 4.9180002 -0.154
13.052 4.9780002 -0.155
13.094 5.0430002 -0.156
13.17 5.1230001 -0.15800001
13.206 5.1869998 -0.15800001
13.231 5.2470002 -0.15899999
13.232 5.2979999 -0.16
13.273 5.3649998 -0.161
13.253 5.408 -0.161
13.284 5.473 -0.162
13.335 5.5450001 -0.163
13.338 5.599 -0.163
13.385 5.671 -0.164
13.408 5.7329998 -0.16500001
13.414 5.789 -0.16599999
13.479 5.8699999 -0.167
13.514 5.9390001 -0.168
13.596 6.0300002 -0.17
13.623 6.0960002 -0.17
13.616 6.1479998 -0.171
13.631 6.21 -0.17200001
13.609 6.2550001 -0.17200001
13.61 6.3109999 -0.17200001
13.61 6.3660002 -0.17299999
13.654 6.4429998 -0.17399999
13.681 6.5120001 -0.175
6.6090002 3.1730001 -0.083999999
6.4879999 3.142 -0.082999997
6.4349999 3.1429999 -0.082999997
6.395 3.1500001 -0.082999997
6.375 3.1670001 -0.082999997
6.355 3.184 -0.082000002
6.336 3.201 -0.082999997
6.3169999 3.2179999 -0.082999997
6.322 3.247 -0.082999997
6.3299999 3.279 -0.082999997
6.342 3.312 -0.083999999
6.349 3.3429999 -0.083999999
6.3499999 3.3710001 -0.083999999
6.362 3.405 -0.085000001
6.369 3.4360001 -0.085000001
6.382 3.471 -0.085000001
6.381 3.4979999 -0.086000003
6.428 3.553 -0.086999997
6.697 3.7309999 -0.090999998
10.573 6.1729999 -0.146
10.428 6.1360002 -0.145
10.37 6.1479998 -0.14399999
10.31 6.1589999 -0.14399999
10.238 6.1630001 -0.14300001
10.178 6.1739998 -0.14300001
10.119 6.184 -0.142
10.05 6.1880002 -0.142
10.004 6.2059999 -0.142
9.9580002 6.223 -0.142
9.8940001 6.23 -0.141
9.8549995 6.2509999 -0.141
9.8369999 6.2859998 -0.141
9.8800001 6.3590002 -0.142
10.055 6.5190001 -0.145
9.6709995 6.875 -0.146
9.6090002 6.8790002 -0.145
9.5190001 6.8610001 -0.14399999
7.0229998 -4.631 0.028999999
7.0580001 -4.6100001 0.028999999
7.0819998 -4.5819998 0.028999999
7.118 -4.5609999 0.029999999
7.1279998 -4.5240002 0.029999999
7.1630001 -4.5019999 0.029999999
7.1900001 -4.4759998 0.029999999
7.211 -4.4460001 0.029999999
7.2350001 -4.4180002 0.029999999
7.2610002 -4.3920002 0.029999999
7.2779999 -4.3600001 0.030999999
7.2919998 -4.3260002 0.030999999
7.322 -4.302 0.030999999
7.3429999 -4.2729998 0.030999999
7.3639998 -4.244 0.030999999
7.3870001 -4.2160001 0.030999999
7.4060001 -4.1859999 0.030999999
7.4289999 -4.1589999 0.030999999
7.4429998 -4.1259999 0.032000002
7.4629998 -4.098 0.032000002
7.4640002 -4.0580001 0.032000002
7.4689999 -4.0219998 0.032000002
7.5 -3.9990001 0.032000002
7.553 -3.9879999 0.032000002
7.5580001 -3.9519999 0.032000002
7.5770001 -3.9230001 0.032000002
7.5970001 -3.895 0.033
7.6160002 -3.8670001 0.033
7.6300001 -3.836 0.033
7.6599998 -3.813 0.033
7.6739998 -3.7820001 0.033
7.7049999 -3.76 0.033
7.723 -3.7320001 0.033
7.7309999 -3.698 0.033
7.7789998 -3.684 0.034000002
7.7839999 -3.6500001 0.034000002
7.8249998 -3.6329999 0.034000002
7.8340001 -3.5999999 0.034000002
7.8319998 -3.563 0.034000002
7.8670001 -3.543 0.034000002
7.8940001 -3.52 0.035
7.915 -3.493 0.035
7.9200001 -3.46 0.035
7.9429998 -3.4349999 0.035
7.9720001 -3.4119999 0.035
8.0010004 -3.3900001 0.035
8.0369997 -3.3699999 0.035
8.0419998 -3.3380001 0.035
8.073 -3.316 0.035999998
8.1000004 -3.293 0.035999998
8.1169996 -3.266 0.035999998
8.1560001 -3.247 0.035999998
8.1680002 -3.2179999 0.035999998
8.1820002 -3.1900001 0.035999998
8.2180004 -3.1700001 0.037
8.2410002 -3.1459999 0.037
8.2799997 -3.1270001 0.037
8.2959995 -3.0999999 0.037
8.3129997 -3.073 0.037
8.3330002 -3.0469999 0.037
8.3540001 -3.0220001 0.037999999
8.3730001 -2.997 0.037999999
8.4049997 -2.9749999 0.037999999
8.4180002 -2.948 0.037999999
8.4379997 -2.9219999 0.037999999
8.4779997 -2.904 0.037999999
8.4969997 -2.8789999 0.037999999
8.5310001 -2.858 0.039000001
8.5459995 -2.832 0.039000001
8.5740004 -2.809 0.039000001
8.599 -2.786 0.039000001
8.6140003 -2.7590001 0.039000001
8.6429996 -2.737 0.039000001
8.6719999 -2.7149999 0.039999999
8.7360001 -2.704 0.039999999
8.7729998 -2.684 0.039999999
8.7589998 -2.6489999 0.039999999
8.7790003 -2.625 0.039999999
8.7989998 -2.5999999 0.039999999
8.8470001 -2.5840001 0.041000001
8.8760004 -2.562 0.041000001
8.9320002 -2.5469999 0.041000001
8.9779997 -2.53 0.041000001
8.9890003 -2.503 0.041999999
8.9969997 -2.4749999 0.041999999
8.9949999 -2.4449999 0.041999999
9.0319996 -2.425 0.041999999
9.0620003 -2.4030001 0.041999999
9.0790005 -2.378 0.041999999
9.1090002 -2.3570001 0.041999999
9.1309996 -2.3329999 0.043000001
9.165 -2.312 0.043000001
9.1809998 -2.2869999 0.043000001
9.2159996 -2.267 0.043000001
9.2410002 -2.244 0.043000001
9.2390003 -2.2149999 0.043000001
9.2889996 -2.198 0.044
9.2950001 -2.171 0.044
9.3339996 -2.151 0.044
9.3859997 -2.135 0.044
9.4130001 -2.1129999 0.044
9.4469995 -2.092 0.045000002
9.4659996 -2.0680001 0.045000002
9.4980001 -2.0469999 0.045000002
9.5190001 -2.023 0.045000002
9.5509996 -2.0020001 0.045000002
9.573 -1.979 0.045000002
9.5909996 -1.955 0.046
9.6260004 -1.9349999 0.046
9.6739998 -1.9170001 0.046
9.6940002 -1.8940001 0.046
9.7110004 -1.87 0.046
9.743 -1.849 0.046999998
9.7650003 -1.826 0.046999998
9.8030005 -1.806 0.046999998
9.8319998 -1.784 0.046999998
9.8409996 -1.7589999 0.046999998
9.8640003 -1.7359999 0.046999998
9.8990002 -1.716 0.048
9.941 -1.696 0.048
9.9549999 -1.6720001 0.048
9.9899998 -1.652 0.048
10.009 -1.6289999 0.048
10.078 -1.614 0.048999999
10.159 -1.601 0.048999999
10.154 -1.574 0.048999999
10.111 -1.541 0.048999999
10.135 -1.5190001 0.048999999
10.174 -1.499 0.050000001
10.214 -1.48 0.050000001
10.274 -1.4630001 0.050000001
10.277 -1.438 0.050000001
10.304 -1.416 0.050000001
10.317 -1.393 0.050999999
10.359 -1.373 0.050999999
10.383 -1.352 0.050999999
10.401 -1.329 0.050999999
10.46 -1.312 0.050999999
10.477 -1.289 0.052000001
10.502 -1.267 0.052000001
10.54 -1.247 0.052000001
10.564 -1.226 0.052000001
10.594 -1.205 0.052000001
10.64 -1.186 0.052999999
10.649 -1.163 0.052999999
10.687 -1.143 0.052999999
10.693 -1.119 0.052999999
10.753 -1.102 0.054000001
10.758 -1.0779999 0.054000001
10.769 -1.056 0.054000001
10.8 -1.035 0.054000001
10.846 -1.016 0.054000001
10.849 -0.99299997 0.054000001
10.865 -0.97100002 0.054000001
10.876 -0.949 0.055
10.9 -0.92799997 0.055
10.928 -0.90799999 0.055
10.947 -0.88700002 0.055
10.961 -0.86500001 0.055
11.002 -0.84600002 0.055
11.027 -0.82499999 0.056000002
11.078 -0.80699998 0.056000002
11.097 -0.78600001 0.056000002
11.126 -0.76599997 0.056000002
11.178 -0.74699998 0.057
11.225 -0.72799999 0.057
11.244 -0.708 0.057
11.274 -0.68800002 0.057
11.283 -0.66600001 0.057
11.359 -0.64899999 0.057999998
10.917 0.15800001 -0.063000001
10.881 0.177 -0.063000001
10.896 0.197 -0.063000001
10.885 0.21699999 -0.064000003
10.907 0.23800001 -0.064000003
10.918 0.259 -0.064000003
10.897 0.28 -0.064000003
10.941 0.30199999 -0.064999998
10.978 0.32499999 -0.064999998
9.3170004 0.294 -0.055
9.2290001 0.31 -0.055
9.1870003 0.32699999 -0.055
9.1660004 0.345 -0.055
9.1470003 0.36399999 -0.055
9.1610003 0.38299999 -0.055
9.165 0.403 -0.055
9.2399998 0.426 -0.056000002
9.4879999 0.458 -0.057999998
10.945 0.55199999 -0.067000002
10.953 0.57599998 -0.067000002
10.967 0.60100001 -0.067000002
10.947 0.62400001 -0.067000002
10.965 0.64999998 -0.068000004
10.981 0.676 -0.068000004
10.998 0.70200002 -0.068000004
10.999 0.727 -0.068000004
10.982 0.75099999 -0.068999998
10.999 0.778 -0.068999998
