# .PCD v0.7 - Point Cloud Data file format
VERSION 0.7
FIELDS x y z
SIZE 4 4 4
TYPE F F F
COUNT 1 1 1
WIDTH 1960
HEIGHT 1
VIEWPOINT 0 0 0 1 0 0 0
POINTS 1960
DATA ascii
17.290001 5.783 1.105
17.219 5.8179998 1.101
17.363001 5.927 1.1109999
7.9629998 4.0300002 0.53399998
7.8839998 4.0190001 0.52899998
7.835 4.0219998 0.52700001
7.809 4.0370002 0.52499998
7.8099999 4.0669999 0.52600002
7.849 4.1160002 0.52899998
7.8709998 4.1560001 0.53200001
7.8319998 4.164 0.52999997
7.7870002 4.1680002 0.52700001
7.7639999 4.184 0.52600002
7.7480001 4.204 0.52600002
7.7360001 4.2259998 0.52600002
7.7259998 4.2480001 0.52600002
7.6929998 4.2579999 0.52399999
7.6560001 4.2659998 0.52200001
7.6459999 4.2880001 0.52200001
7.6389999 4.3119998 0.52200001
7.664 4.3540001 0.52499998
7.6799998 4.3909998 0.52600002
7.816 4.4970002 0.53600001
12.418 -6.6669998 0.88800001
12.416 -6.6290002 0.88800001
12.379 -6.573 0.88499999
12.379 -6.5359998 0.88499999
12.417 -6.5209999 0.88800001
12.672 -6.3569999 0.90499997
12.725 -6.3460002 0.90899998
12.674 -6.283 0.90499997
12.78 -6.2979999 0.912
12.82 -6.2800002 0.91500002
12.792 -6.2290001 0.91299999
13.803 -5.5419998 0.98000002
13.828 -5.5120001 0.98199999
13.806 -5.4219999 0.98000002
13.817 -5.3850002 0.98100001
13.866 -5.3639998 0.98400003
13.897 -5.335 0.986
13.852 -5.277 0.98299998
13.872 -5.244 0.98400003
13.84 -5.191 0.98199999
13.853 -5.1550002 0.98199999
13.874 -5.1220002 0.98400003
13.879 -5.0830002 0.98400003
13.889 -5.046 0.98400003
13.899 -5.0089998 0.98500001
13.895 -4.967 0.98500001
13.923 -4.9359999 0.986
13.966 -4.9099998 0.98900002
13.942 -4.8610001 0.98699999
13.959 -4.8260002 0.98799998
14.053 -4.8169999 0.995
14.088 -4.7880001 0.99699998
14.257 -4.8039999 1.0089999
14.315 -4.7810001 1.013
11.207 -2.046 0.78500003
11.076 -1.9910001 0.77499998
10.987 -1.943 0.76899999
10.937 -1.902 0.76499999
10.94 -1.8710001 0.76499999
10.975 -1.845 0.76800001
11.048 -1.826 0.77200001
13.051 -0.542 0.903
12.949 -0.5 0.89600003
12.855 -0.46000001 0.889
12.779 -0.41999999 0.884
12.753 -0.38299999 0.88200003
12.747 -0.34599999 0.88099998
12.772 -0.31 0.88300002
12.791 -0.27399999 0.884
12.835 -0.23800001 0.88700002
12.936 -0.20299999 0.89300001
12.982 -0.16599999 0.89600003
13.25 0.88800001 0.83600003
13.189 0.90799999 0.83200002
13.166 0.93099999 0.82999998
13.179 0.95700002 0.83099997
13.184 0.98299998 0.83099997
13.248 1.066 0.83600003
13.225 1.091 0.83399999
22.527 2.0439999 1.4220001
22.393999 2.079 1.414
22.334 2.1210001 1.41
22.347 2.1700001 1.4119999
22.368 2.221 1.413
22.367001 2.2690001 1.413
22.362 2.3180001 1.413
22.413 2.3729999 1.4170001
22.5 2.4330001 1.423
23.040001 2.5439999 1.457
22.948 2.586 1.452
22.777 2.619 1.441
22.754 2.6700001 1.4400001
22.698999 2.7160001 1.437
22.664 2.766 1.4349999
22.591999 2.8110001 1.431
22.464001 2.848 1.424
22.43 2.898 1.4220001
22.333 2.9400001 1.416
22.320999 2.993 1.416
22.298 3.0450001 1.415
22.268 3.0969999 1.414
22.309 3.158 1.4170001
22.326 3.217 1.419
22.385 3.283 1.423
22.490999 3.3559999 1.4299999
22.534 3.4200001 1.434
22.606001 3.49 1.439
22.679001 3.5610001 1.444
23.023001 3.675 1.467
23.087999 3.747 1.472
23.09 3.809 1.472
22.729 3.9960001 1.452
22.643999 4.0430002 1.448
22.656 4.1079998 1.449
22.721001 4.1830001 1.454
22.854 4.2719998 1.464
22.794001 4.3249998 1.461
22.764 4.3839998 1.46
22.764 4.4489999 1.46
22.868999 4.5349998 1.4680001
19.518999 4.6290002 1.2640001
19.402 4.6609998 1.258
19.455 4.7350001 1.262
8.0220003 4.0479999 0.56400001
7.927 4.033 0.55800003
7.862 4.0339999 0.55400002
7.8379998 4.0549998 0.55299997
7.8800001 4.1110001 0.55699998
7.8850002 4.1469998 0.55800003
7.8410001 4.158 0.55599999
7.79 4.164 0.55299997
7.7620001 4.184 0.55199999
7.7490001 4.21 0.55199999
7.73 4.2329998 0.551
7.7090001 4.256 0.551
7.6750002 4.2709999 0.54900002
7.6440001 4.2880001 0.54799998
7.6430001 4.3210001 0.54900002
7.6459999 4.3569999 0.55000001
7.6789999 4.4099998 0.55299997
7.7620001 4.4920001 0.56
11.385 -7.473 0.85399997
11.442 -7.4400001 0.85799998
11.502 -7.408 0.861
11.568 -7.3790002 0.866
11.599 -7.3280001 0.86699998
11.643 -7.2859998 0.87
11.672 -7.2350001 0.87099999
11.752 -7.2150002 0.87599999
11.795 -7.1719999 0.87900001
11.838 -7.1300001 0.88099998
11.858 -7.073 0.88200003
11.905 -7.0339999 0.88499999
11.942 -6.9879999 0.88700002
11.986 -6.947 0.88999999
12.034 -6.908 0.89300001
12.062 -6.8569999 0.89399999
12.151 -6.8410001 0.89999998
12.207 -6.8070002 0.90399998
12.234 -6.757 0.90499997
12.212 -6.6789999 0.903
12.265 -6.6440001 0.90600002
12.281 -6.5879998 0.90700001
12.303 -6.5359998 0.90799999
12.359 -6.5019999 0.91100001
12.4 -6.461 0.91299999
12.46 -6.428 0.917
12.531 -6.402 0.92199999
12.553 -6.3509998 0.92299998
12.622 -6.323 0.92699999
12.627 -6.2639999 0.92699999
12.697 -6.237 0.93199998
12.751 -6.2020001 0.935
12.845 -6.1859999 0.94199997
12.931 -6.1659999 0.94700003
13.117 -6.1929998 0.95999998
13.867 -5.3930001 1.005
13.934 -5.3629999 1.01
14.005 -5.3330002 1.015
14.027 -5.2859998 1.016
13.992 -5.217 1.013
14.035 -5.177 1.015
14.114 -5.151 1.021
14.095 -5.0890002 1.0190001
14.104 -5.0370002 1.0190001
14.162 -5.0029998 1.023
14.193 -4.96 1.025
11.189 -2.1240001 0.796
11.065 -2.0699999 0.787
11.013 -2.03 0.78399998
10.949 -1.989 0.77899998
10.909 -1.952 0.77600002
10.909 -1.9220001 0.77600002
10.947 -1.9 0.778
11.01 -1.882 0.78299999
12.995 -0.35499999 0.921
12.957 -0.33199999 0.91799998
12.957 -0.31099999 0.91900003
12.948 -0.289 0.91799998
12.928 -0.26800001 0.917
12.911 -0.24699999 0.91500002
12.943 -0.226 0.91799998
13.097 -0.208 0.92900002
13.068 -0.167 0.92699999
13.041 -0.146 0.92500001
13.233 0.89300001 0.875
13.213 0.92199999 0.87300003
13.221 0.95300001 0.87400001
13.211 0.98299998 0.87300003
13.343 1.024 0.88200003
13.263 1.049 0.87699997
13.182 1.074 0.87099999
13.227 1.11 0.875
13.282 1.146 0.87800002
22.483 2.1059999 1.488
22.357 2.1489999 1.479
22.341 2.2030001 1.479
22.375999 2.263 1.4809999
22.402 2.322 1.483
22.391001 2.378 1.483
22.447001 2.441 1.487
23.040001 2.5650001 1.526
22.955 2.615 1.521
23.014 2.6819999 1.525
22.875999 2.7260001 1.516
22.792999 2.776 1.511
22.801001 2.8380001 1.512
22.707001 2.8859999 1.506
22.636999 2.938 1.502
22.441999 2.974 1.49
22.379 3.026 1.4859999
22.332001 3.0799999 1.483
22.299999 3.1370001 1.482
22.344 3.2049999 1.485
22.393999 3.2739999 1.489
22.433001 3.342 1.492
22.563999 3.425 1.501
22.714001 3.5109999 1.512
23.354 4.7030001 1.5650001
23.287001 4.7600002 1.561
23.364 4.8470001 1.567
19.481001 4.586 1.314
19.385 4.6240001 1.308
19.434999 4.698 1.312
8.0909996 4.1830001 0.588
8.0030003 4.1680002 0.583
7.9380002 4.1630001 0.57800001
7.8889999 4.1659999 0.57599998
7.8520002 4.1750002 0.574
7.8140001 4.1830001 0.57099998
7.7750001 4.191 0.56900001
7.743 4.2010002 0.56800002
7.7350001 4.2259998 0.56800002
7.7270002 4.2490001 0.56800002
7.698 4.2620001 0.56699997
7.6690001 4.2729998 0.565
7.6570001 4.2950001 0.565
7.6500001 4.3189998 0.565
7.664 4.3540001 0.56699997
7.6830001 4.3930001 0.56900001
7.809 4.493 0.579
13.328 -6.415 1.011
13.362 -6.3920002 1.0140001
13.339 -6.342 1.012
13.384 -6.3239999 1.015
13.502 -6.3400002 1.024
13.556 -6.3249998 1.028
13.668 -6.3369999 1.036
13.845 -6.3790002 1.05
14.172 -5.8610001 1.071
14.2 -5.8309999 1.073
14.261 -5.8130002 1.0779999
14.324 -5.7129998 1.082
14.278 -5.652 1.0779999
14.317 -5.625 1.081
14.382 -5.4809999 1.085
14.486 -5.4790001 1.0930001
14.615 -5.1399999 1.101
14.696 -5.1259999 1.107
11.08 -2.023 0.82499999
11.035 -1.983 0.82099998
10.956 -1.937 0.815
10.919 -1.899 0.81199998
10.922 -1.868 0.81199998
10.979 -1.846 0.81599998
11.117 -1.837 0.82599998
13.12 -0.39199999 0.96399999
13.106 -0.354 0.963
13.105 -0.31600001 0.963
13.257 0.84100002 0.898
13.269 0.866 0.89899999
13.249 0.889 0.898
13.173 0.90799999 0.89300001
13.159 0.93199998 0.89200002
13.177 0.95899999 0.89300001
13.211 0.986 0.89499998
13.124 1.005 0.889
13.085 1.028 0.88700002
13.084 1.054 0.88700002
13.135 1.085 0.88999999
13.174 1.115 0.89300001
13.217 1.145 0.89600003
13.312 1.323 0.90399998
13.143 1.334 0.89200002
23.304001 3.4790001 1.5930001
23.212999 3.5250001 1.5880001
23.212999 3.585 1.5880001
23.176001 3.6400001 1.587
23.202 3.7049999 1.589
23.181 3.763 1.589
23.16 3.8210001 1.5880001
23.169001 3.885 1.589
23.148001 3.944 1.589
23.145 4.007 1.589
23.15 4.0710001 1.591
23.141001 4.1329999 1.591
23.127001 4.1950002 1.591
23.16 4.2649999 1.594
23.451 4.651 1.619
23.365999 4.7020001 1.614
23.299 4.756 1.6109999
23.208 4.8049998 1.605
23.237 4.8800001 1.609
19.725 4.678 1.374
19.445 4.6719999 1.3559999
19.472 4.7389998 1.359
8.0500002 4.165 0.61199999
7.9510002 4.1479998 0.60500002
7.8889999 4.1500001 0.602
7.8520002 4.164 0.60000002
7.8119998 4.177 0.59799999
7.7740002 4.1900001 0.59600002
7.7329998 4.2020001 0.59299999
7.7220001 4.2290001 0.59299999
7.71 4.257 0.59399998
7.6750002 4.2709999 0.59200001
7.6529999 4.2930002 0.59100002
7.6529999 4.3270001 0.59200001
7.6500001 4.3590002 0.59299999
7.6880002 4.4159999 0.597
7.8499999 4.5440001 0.61000001
11.874 -7.7930002 0.94599998
11.938 -7.7610002 0.94999999
11.999 -7.7259998 0.954
12.065 -7.6950002 0.95899999
12.09 -7.6370001 0.95999998
12.178 -7.6199999 0.96600002
12.191 -7.5549998 0.96600002
12.195 -7.4860001 0.96600002
12.208 -7.4219999 0.96600002
12.227 -7.3629999 0.96700001
12.258 -7.3109999 0.96799999
12.265 -7.2449999 0.96799999
12.275 -7.1820002 0.96799999
12.285 -7.119 0.96799999
12.311 -7.0650001 0.97000003
12.343 -7.0159998 0.972
12.356 -6.9559999 0.972
12.405 -6.9169998 0.97500002
12.444 -6.8709998 0.977
12.495 -6.8330002 0.98100001
12.55 -6.7969999 0.98400003
13.127 -6.8379998 1.027
13.154 -6.7859998 1.028
13.181 -6.7340002 1.03
13.216 -6.6849999 1.0319999
13.341 -6.6830001 1.041
13.343 -6.618 1.04
13.296 -6.5300002 1.036
13.327 -6.4819999 1.038
13.295 -6.402 1.035
13.336 -6.3579998 1.0369999
13.35 -6.302 1.038
13.392 -6.2600002 1.04
13.508 -6.2509999 1.049
13.605 -6.2329998 1.056
13.711 -6.2189999 1.063
13.826 -6.2080002 1.072
13.955 -6.204 1.081
14.06 -6.1869998 1.089
14.141 -6.1599998 1.094
14.098 -6.079 1.091
14.161 -6.0450001 1.095
14.172 -5.9879999 1.095
14.2 -5.9380002 1.097
14.228 -5.8899999 1.098
14.215 -5.823 1.097
14.23 -5.77 1.097
14.294 -5.7360001 1.102
14.282 -5.6719999 1.1
14.358 -5.6430001 1.1059999
14.428 -5.6110001 1.1109999
14.419 -5.5489998 1.109
14.431 -5.4949999 1.11
14.528 -5.474 1.117
14.546 -5.4229999 1.118
14.577 -5.3769999 1.12
14.596 -5.3260002 1.1210001
14.81 -5.1760001 1.135
14.793 -5.1139998 1.133
14.847 -5.0760002 1.137
11.282 -2.142 0.852
11.075 -2.072 0.83700001
11.034 -2.0339999 0.833
10.954 -1.99 0.82700002
10.906 -1.951 0.82300001
10.906 -1.9220001 0.82300001
10.905 -1.893 0.82300001
10.953 -1.872 0.82599998
11.077 -1.864 0.83600003
13.025 0.19599999 0.92500001
13.052 0.219 0.926
13.051 0.242 0.926
13.052 0.266 0.926
13.039 0.28999999 0.92500001
13.056 0.31400001 0.926
13.083 0.33899999 0.92799997
13.065 0.36399999 0.926
13.09 0.389 0.92799997
13.092 0.41499999 0.92799997
13.088 0.44 0.92699999
13.084 0.46599999 0.92699999
13.064 0.491 0.92500001
13.104 0.51899999 0.92799997
13.057 0.54400003 0.92500001
13.104 0.57300001 0.92799997
13.085 0.59899998 0.92699999
13.109 0.62800002 0.92799997
13.181 0.65899998 0.93300003
13.105 0.68300003 0.92799997
13.157 0.71399999 0.93199998
13.139 0.74199998 0.93000001
13.131 0.76999998 0.93000001
13.138 0.80000001 0.93000001
13.113 0.82700002 0.92799997
13.144 0.85900003 0.93099999
13.124 0.88700002 0.92900002
13.1 0.91600001 0.92799997
13.062 0.94300002 0.92500001
13.058 0.97299999 0.92500001
13.052 1.003 0.92400002
13.035 1.033 0.92299998
13.011 1.062 0.92199999
13.021 1.094 0.92199999
13.056 1.128 0.92500001
13.081 1.1619999 0.92699999
13.107 1.196 0.92900002
13.177 1.235 0.93400002
13.164 1.266 0.93300003
23.052999 2.2179999 1.635
13.138 1.2970001 0.93099999
23.056999 2.276 1.635
13.125 1.3279999 0.93099999
13.109 1.36 0.93000001
13.098 1.392 0.92900002
13.236 1.4400001 0.93900001
23.209 3.0139999 1.651
23.204 3.076 1.651
23.193001 3.1370001 1.65
23.171 3.198 1.649
23.155001 3.2590001 1.649
23.108 3.316 1.646
23.212 3.395 1.654
23.107 3.5090001 1.648
23.084999 3.5699999 1.647
23.087999 3.6359999 1.648
23.08 3.7 1.648
23.080999 3.766 1.648
23.072001 3.8310001 1.648
23.073 3.8970001 1.649
23.066 3.9630001 1.649
23.062 4.0289998 1.65
23.08 4.0999999 1.652
23.083 4.1680002 1.653
23.08 4.2350001 1.653
23.167999 4.3200002 1.66
23.309999 4.625 1.674
23.399 4.7140002 1.681
23.253 4.7550001 1.6720001
23.209999 4.816 1.67
23.349001 4.9169998 1.681
8.0889997 4.2129998 0.63200003
7.9790001 4.184 0.625
7.9109998 4.177 0.62
7.8779998 4.1890001 0.61799997
7.8210001 4.1869998 0.61500001
7.7820001 4.1950002 0.61199999
7.7550001 4.2080002 0.611
7.744 4.2309999 0.611
7.7189999 4.2449999 0.61000001
7.6960001 4.2610002 0.60900003
7.678 4.2789998 0.60799998
7.6620002 4.2979999 0.60699999
7.6599998 4.3239999 0.60799998
7.6659999 4.3559999 0.60900003
7.7010002 4.4039998 0.61299998
7.8249998 4.5029998 0.62400001
14.239 -6.5640001 1.1440001
14.206 -6.507 1.141
14.157 -6.4429998 1.137
14.175 -6.4089999 1.138
14.303 -6.4250002 1.148
14.279 -6.3720002 1.146
14.364 -6.3670001 1.153
14.398 -6.3400002 1.155
14.429 -6.1409998 1.1569999
14.447 -6.1059999 1.158
14.511 -6.0900002 1.163
14.532 -6.0560002 1.165
14.52 -6.0079999 1.163
14.527 -5.9679999 1.164
14.572 -5.9429998 1.1670001
14.606 -5.914 1.17
14.604 -5.8699999 1.169
14.663 -5.8070002 1.173
14.666 -5.7649999 1.174
14.752 -5.756 1.1799999
14.718 -5.6989999 1.177
14.867 -5.625 1.189
14.919 -5.6009998 1.192
11.206 -2.079 0.884
11.044 -2.016 0.87099999
11 -1.976 0.86699998
10.925 -1.931 0.861
10.889 -1.893 0.85799998
10.885 -1.8609999 0.85699999
10.952 -1.841 0.86199999
11.155 -1.8430001 0.87800002
13.142 0.40200001 0.954
13.138 0.419 0.954
13.187 0.495 0.95700002
13.138 0.51200002 0.95300001
13.075 0.52899998 0.94800001
13.208 0.55400002 0.958
13.139 0.57099998 0.95300001
13.094 0.58999997 0.949
13.105 0.611 0.94999999
13.187 0.63599998 0.95599997
13.135 0.65399998 0.95200002
13.129 0.676 0.95099998
13.124 0.69700003 0.95099998
13.085 0.71700001 0.94800001
13.052 0.73799998 0.94599998
13.049 0.75999999 0.94499999
13.056 0.78299999 0.94599998
13.054 0.80599999 0.94599998
13.057 0.82999998 0.94599998
13.039 0.852 0.94499999
13.006 0.87400001 0.94199997
12.981 0.89700001 0.94099998
12.96 0.92000002 0.93900001
12.931 0.94199997 0.93699998
12.926 0.96700001 0.93699998
12.898 0.99000001 0.935
12.889 1.0140001 0.93400002
12.888 1.04 0.93400002
12.886 1.0650001 0.93400002
12.898 1.092 0.935
12.917 1.12 0.93699998
12.945 1.15 0.93900001
12.945 1.177 0.93900001
23.103001 2.0999999 1.676
13.011 1.21 0.94400001
23.152 2.154 1.6799999
13.078 1.244 0.949
23.113001 2.1989999 1.678
12.989 1.2640001 0.94300002
23.101999 2.2479999 1.677
13.013 1.294 0.94499999
13.027 1.324 0.94599998
13.022 1.352 0.94599998
13.112 1.391 0.95300001
13.177 1.427 0.958
23.237 2.517 1.689
13.218 1.461 0.96100003
23.038 2.5469999 1.675
23.000999 2.596 1.673
22.999001 2.6489999 1.673
13.183 1.549 0.95899999
22.992001 2.701 1.673
13.09 1.568 0.95300001
23.011999 2.757 1.675
13.019 1.59 0.94800001
23.048 2.816 1.678
13.033 1.623 0.949
23.033001 2.869 1.678
13.112 1.664 0.95499998
23.016001 2.9219999 1.677
23.013 2.977 1.678
23.02 3.0339999 1.679
23.003 3.0880001 1.678
23.014 3.1459999 1.6799999
23.009001 3.2030001 1.6799999
23.025 3.263 1.682
23.055 3.325 1.6849999
23.115 3.3929999 1.6900001
23.039 3.441 1.6849999
23.01 3.4949999 1.684
23.014 3.556 1.6849999
23.025999 3.618 1.687
23.025999 3.678 1.687
23.025 3.7390001 1.688
23.030001 3.8010001 1.689
23.037001 3.8640001 1.691
23.021999 3.924 1.691
23.031 3.9879999 1.692
23.042 4.053 1.694
23.042999 4.1170001 1.6950001
23.049 4.1820002 1.697
23.063999 4.2490001 1.699
23.132999 4.3260002 1.705
23.398001 4.6420002 1.729
23.329 4.6960001 1.725
23.381001 4.7740002 1.73
23.337999 4.8330002 1.728
8.2019997 4.244 0.66799998
8.0010004 4.1750002 0.653
7.927 4.1700001 0.648
7.8720002 4.1750002 0.64399999
7.829 4.1859999 0.64200002
7.783 4.1960001 0.639
7.7540002 4.2140002 0.63800001
7.724 4.2309999 0.63599998
7.7069998 4.2550001 0.63599998
7.6719999 4.27 0.634
7.652 4.2930002 0.63300002
7.6529999 4.3270001 0.63499999
7.6589999 4.3649998 0.63599998
7.7020001 4.4239998 0.64099997
7.8499999 4.5440001 0.65399998
12.597 -8.2659998 1.062
12.676 -8.2390003 1.068
12.76 -8.2150002 1.074
12.826 -8.1789999 1.079
12.882 -8.1359997 1.082
12.906 -8.0740004 1.084
12.983 -8.0450001 1.089
13.073 -8.0240002 1.096
13.118 -7.974 1.099
13.144 -7.914 1.1
13.19 -7.8649998 1.103
13.311 -7.862 1.112
13.351 -7.8099999 1.115
13.455 -7.796 1.122
13.571 -7.493 1.128
13.596 -7.4349999 1.1289999
13.729 -7.4349999 1.1390001
13.599 -7.2930002 1.128
13.836 -7.349 1.147
13.762 -7.1680002 1.1390001
13.823 -7.1300001 1.143
13.887 -7.0939999 1.148
14.245 -6.461 1.169
14.238 -6.3930001 1.168
14.265 -6.3410001 1.169
14.324 -6.303 1.174
14.369 -6.2589998 1.177
14.475 -6.2410002 1.1849999
14.572 -6.2199998 1.192
14.599 -6.1680002 1.194
14.545 -6.0819998 1.189
14.56 -6.026 1.189
14.562 -5.9650002 1.189
14.61 -5.9239998 1.192
14.663 -5.8839998 1.196
14.692 -5.8340001 1.198
14.749 -5.796 1.202
14.817 -5.7620001 1.207
14.812 -5.6999998 1.206
14.851 -5.6550002 1.2079999
14.994 -5.6490002 1.219
11.105 -2.0780001 0.88700002
11.036 -2.0350001 0.88099998
10.942 -1.988 0.87400001
10.891 -1.949 0.87
10.884 -1.918 0.86900002
10.884 -1.8890001 0.86900002
10.899 -1.863 0.87
10.966 -1.845 0.875
11.184 -1.852 0.89200002
12.9 0.19599999 0.97600001
12.925 0.219 0.97799999
12.953 0.243 0.98000002
12.954 0.266 0.98000002
12.968 0.28999999 0.98100001
12.962 0.31400001 0.98000002
12.968 0.338 0.98000002
12.99 0.36300001 0.98199999
13.017 0.389 0.98400003
12.995 0.41299999 0.98199999
13.015 0.43900001 0.98299998
12.993 0.46399999 0.98199999
13.028 0.49200001 0.98400003
13.024 0.51800001 0.98400003
13.036 0.54500002 0.98400003
13.058 0.57200003 0.986
13.063 0.60000002 0.986
13.049 0.62599999 0.98500001
13.06 0.65499997 0.986
13.039 0.68099999 0.98400003
13.03 0.70899999 0.98400003
13.012 0.736 0.98199999
13.021 0.76499999 0.98299998
13.008 0.79299998 0.98199999
13.001 0.82200003 0.98199999
12.993 0.85000002 0.98100001
12.981 0.87900001 0.98000002
12.952 0.90700001 0.97799999
12.925 0.935 0.97600001
12.909 0.963 0.97500002
12.877 0.991 0.97299999
12.862 1.02 0.972
12.851 1.05 0.97100002
12.855 1.081 0.97100002
12.872 1.113 0.97299999
12.891 1.146 0.97399998
12.919 1.1799999 0.97600001
12.931 1.2130001 0.97799999
23.052999 2.1630001 1.743
12.946 1.247 0.97899997
23.051001 2.22 1.743
13.034 1.2869999 0.986
23.056999 2.2780001 1.744
12.959 1.313 0.98000002
23.087 2.339 1.747
13.001 1.35 0.98400003
12.998 1.382 0.98400003
13.053 1.4220001 0.98799998
13.119 1.4630001 0.99299997
23.152 2.5810001 1.753
13.169 1.502 0.99699998
22.964001 2.6199999 1.739
22.950001 2.678 1.739
13.167 1.571 0.99800003
22.943001 2.737 1.739
13.063 1.5930001 0.99000001
22.966 2.8010001 1.7410001
12.988 1.618 0.98500001
22.974001 2.862 1.742
12.973 1.651 0.98400003
22.996 2.9260001 1.744
13.075 1.699 0.99199998
22.983 2.9860001 1.744
22.974001 3.0469999 1.744
22.958 3.1070001 1.743
22.962999 3.1700001 1.744
22.969999 3.234 1.745
22.973 3.2980001 1.7460001
22.99 3.3640001 1.748
23.044001 3.4360001 1.752
23.004999 3.4949999 1.75
22.976999 3.5550001 1.749
22.982 3.6210001 1.75
22.992001 3.687 1.751
23.003 3.7550001 1.753
23 3.8199999 1.753
22.999001 3.8859999 1.7539999
23.004999 3.954 1.755
23.006001 4.0209999 1.756
23.018 4.0900002 1.758
23.021 4.158 1.7589999
23.035 4.2280002 1.761
23.062 4.302 1.7640001
23.351999 4.4250002 1.7869999
19.768 4.6550002 1.526
19.549 4.665 1.51
19.419001 4.6960001 1.501
19.504 4.7779999 1.508
8.2259998 4.2839999 0.68800002
8.04 4.217 0.67299998
7.9510002 4.1989999 0.66600001
7.8769999 4.1890001 0.66100001
7.842 4.1989999 0.65899998
7.8200002 4.2160001 0.65799999
7.777 4.2210002 0.65499997
7.7509999 4.2350001 0.65399998
7.723 4.2480001 0.65200001
7.7010002 4.2639999 0.65100002
7.6760001 4.2779999 0.64999998
7.6739998 4.3049998 0.65100002
7.6609998 4.3249998 0.64999998
7.6869998 4.368 0.653
7.7680001 4.4429998 0.66100001
14.641 -6.7969999 1.243
14.69 -6.776 1.247
14.744 -6.6269999 1.251
14.679 -6.5539999 1.245
14.719 -6.5289998 1.248
14.845 -6.3210001 1.257
14.927 -6.3119998 1.2640001
14.984 -6.2919998 1.2690001
15.01 -6.2579999 1.271
17.971001 -3.5940001 1.498
18.004999 -3.549 1.501
11.193 -2.076 0.93199998
11.046 -2.017 0.91900003
10.981 -1.973 0.91399997
10.891 -1.925 0.90600002
10.868 -1.89 0.90399998
10.871 -1.859 0.90399998
10.904 -1.8329999 0.90700001
11.002 -1.817 0.91399997
13.162 0.206 1.022
13.124 0.21799999 1.0190001
13.14 0.26100001 1.0190001
13.084 0.27399999 1.0140001
13.164 0.30599999 1.0190001
13.11 0.31999999 1.015
13.136 0.38699999 1.016
13.135 0.40400001 1.016
13.138 0.42199999 1.015
13.218 0.442 1.021
13.12 0.45699999 1.0140001
13.195 0.47799999 1.0190001
13.245 0.49900001 1.023
13.133 0.514 1.0140001
13.134 0.53299999 1.0140001
13.174 0.55500001 1.017
13.08 0.57099998 1.01
13.091 0.59100002 1.01
13.102 0.61199999 1.011
13.093 0.63300002 1.01
13.103 0.65499997 1.011
13.07 0.67400002 1.008
13.095 0.69700003 1.01
13.091 0.71899998 1.01
13.058 0.74000001 1.007
13.032 0.76099998 1.005
13.039 0.78399998 1.006
13.035 0.80699998 1.005
13.01 0.82800001 1.0039999
12.991 0.85100001 1.002
12.966 0.87300003 1
12.927 0.89399999 0.99699998
12.902 0.917 0.995
12.879 0.94 0.99400002
12.824 0.95999998 0.99000001
12.794 0.98299998 0.98699999
12.786 1.007 0.98699999
12.79 1.033 0.98699999
12.795 1.059 0.98799998
12.809 1.086 0.98900002
12.825 1.114 0.99000001
12.856 1.143 0.99299997
23.027 2.0480001 1.779
12.959 1.179 1.001
23.007999 2.0940001 1.778
12.911 1.202 0.99800003
22.981001 2.1400001 1.776
12.989 1.237 1.0039999
23.048 2.1949999 1.7819999
12.99 1.265 1.0039999
23.235001 2.263 1.7970001
13.008 1.295 1.006
13.015 1.324 1.007
13.053 1.3559999 1.01
13.106 1.391 1.0140001
13.132 1.423 1.016
23.055 2.4990001 1.785
13.263 1.467 1.027
22.924999 2.5369999 1.775
22.914 2.5880001 1.775
22.915001 2.641 1.776
13.108 1.541 1.016
22.927 2.6949999 1.777
13.042 1.564 1.011
22.924999 2.7490001 1.778
13.018 1.591 1.0089999
22.933001 2.8039999 1.779
13.076 1.63 1.0140001
22.941 2.859 1.78
22.947001 2.915 1.781
22.951 2.971 1.7819999
22.952 3.027 1.783
22.957001 3.0840001 1.784
22.948999 3.1389999 1.784
22.959999 3.198 1.786
22.962999 3.256 1.7869999
22.997 3.319 1.79
23.049999 3.385 1.795
22.988001 3.434 1.791
22.978001 3.4920001 1.791
22.981001 3.552 1.7920001
22.988001 3.6129999 1.794
23.009001 3.677 1.796
22.993 3.7349999 1.796
23.004 3.7980001 1.798
22.992001 3.858 1.798
22.992001 3.9200001 1.799
23.004999 3.9849999 1.801
23.000999 4.0469999 1.802
23.013 4.1129999 1.804
23.014 4.1760001 1.8049999
23.018 4.2410002 1.806
23.048 4.3109999 1.8099999
23.195 4.4039998 1.822
19.855 4.6500001 1.577
19.681999 4.6700001 1.564
19.476999 4.6810002 1.549
19.354 4.7119999 1.541
19.377001 4.7779999 1.544
8.3559999 4.3239999 0.72600001
8.0830002 4.2179999 0.704
7.9650002 4.191 0.69499999
7.8909998 4.1859999 0.68900001
7.8499999 4.198 0.68699998
7.8000002 4.2049999 0.68300003
7.7719998 4.224 0.68199998
7.7490001 4.2449999 0.68099999
7.7140002 4.2600002 0.67900002
7.677 4.2729998 0.67699999
7.665 4.3010001 0.67699999
7.671 4.3379998 0.67900002
7.691 4.3829999 0.68199998
7.8000002 4.4809999 0.69300002
13.264 -8.7030001 1.1799999
13.316 -8.6540003 1.184
13.422 -8.6400003 1.192
13.436 -8.5670004 1.192
13.504 -8.5279999 1.197
13.535 -8.467 1.199
13.614 -8.4350004 1.205
13.653 -8.3780003 1.207
13.695 -8.3240004 1.21
13.754 -8.2799997 1.214
13.784 -8.2189999 1.216
13.828 -8.1660004 1.219
13.921 -8.1429996 1.226
14.144 -8.0380001 1.243
14.047 -7.9060001 1.233
14.056 -7.835 1.233
14.228 -7.855 1.248
14.187 -7.757 1.243
14.213 -7.6220002 1.244
14.241 -7.5630002 1.245
14.25 -7.494 1.245
14.44 -7.5209999 1.261
14.325 -7.388 1.25
14.351 -7.3299999 1.252
14.376 -7.2709999 1.253
14.405 -7.2140002 1.255
14.471 -7.177 1.26
14.461 -7.1009998 1.258
14.483 -7.0419998 1.2589999
14.586 -7.0229998 1.267
12.025 -5.7319999 1.044
12.02 -5.6729999 1.043
12.178 -5.691 1.056
14.664 -6.7849998 1.271
14.651 -6.7119999 1.2690001
14.705 -6.6690001 1.273
14.734 -6.6149998 1.275
14.772 -6.566 1.277
14.75 -6.4899998 1.275
14.841 -6.4640002 1.2819999
14.949 -6.4460001 1.291
14.96 -6.3850002 1.291
17.933001 -3.658 1.513
17.934999 -3.6070001 1.513
11.095 -2.076 0.935
11.015 -2.0309999 0.92799997
10.926 -1.985 0.92000002
10.866 -1.944 0.91500002
10.857 -1.913 0.91399997
10.862 -1.885 0.91399997
10.878 -1.859 0.91500002
10.915 -1.836 0.91799998
10.996 -1.821 0.92500001
13.067 0.048 1.097
13.041 0.066 1.095
12.877 0.197 1.035
12.913 0.221 1.038
12.917 0.244 1.038
12.946 0.26800001 1.04
12.953 0.29100001 1.04
12.961 0.315 1.041
13.002 0.34099999 1.044
12.986 0.36500001 1.0420001
12.995 0.38999999 1.043
13.024 0.41600001 1.045
13.014 0.44100001 1.044
13 0.46599999 1.043
13.03 0.493 1.045
13.031 0.51999998 1.045
13.027 0.546 1.045
13.047 0.57300001 1.046
13.046 0.60000002 1.046
13.043 0.62800002 1.046
13.059 0.65600002 1.0470001
13.046 0.68300003 1.046
13.049 0.71100003 1.0470001
13.025 0.73799998 1.045
13.02 0.76700002 1.044
13.003 0.79400003 1.043
13.011 0.824 1.044
12.979 0.85100001 1.041
12.962 0.87900001 1.04
12.919 0.90600002 1.036
12.876 0.93199998 1.033
12.843 0.95999998 1.03
12.803 0.98699999 1.027
12.762 1.0140001 1.024
12.756 1.043 1.024
12.775 1.075 1.025
12.793 1.108 1.027
12.817 1.141 1.029
12.851 1.175 1.0319999
12.944 1.215 1.04
23.163 2.175 1.8609999
12.928 1.2460001 1.039
23.075001 2.224 1.854
13.032 1.288 1.0470001
12.993 1.317 1.044
13.056 1.357 1.05
13.043 1.388 1.049
13.087 1.426 1.052
13.116 1.4630001 1.0549999
23.135 2.5810001 1.8609999
22.944 2.619 1.846
22.892 2.6730001 1.8430001
22.888 2.733 1.8430001
13.127 1.602 1.057
22.907 2.7950001 1.845
13.076 1.63 1.053
22.917 2.8570001 1.846
13.087 1.666 1.0549999
22.922001 2.9189999 1.847
22.92 2.98 1.848
22.919001 3.0409999 1.848
22.924 3.1040001 1.849
22.926001 3.1670001 1.85
22.931 3.23 1.851
22.929001 3.293 1.852
22.952 3.3599999 1.854
23.011999 3.4330001 1.86
22.966999 3.49 1.857
22.962 3.5539999 1.857
22.964001 3.619 1.858
22.983 3.687 1.8609999
22.968 3.75 1.86
22.981001 3.8180001 1.862
22.99 3.8859999 1.864
22.986 3.9519999 1.864
22.990999 4.02 1.865
22.997 4.0879998 1.867
22.997999 4.1550002 1.868
23 4.223 1.869
23.014999 4.2940001 1.8710001
23.073 4.3730001 1.877
19.729 4.6459999 1.619
19.492001 4.652 1.601
19.405001 4.6929998 1.595
19.475 4.7719998 1.601
8.3140001 4.3309999 0.74000001
8.1129999 4.2550001 0.72299999
8.0080004 4.23 0.71399999
7.9320002 4.2189999 0.708
7.8730001 4.2160001 0.704
7.8400002 4.2270002 0.70200002
7.809 4.2389998 0.69999999
7.7849998 4.2540002 0.699
7.7589998 4.2690001 0.69800001
7.7319999 4.2820001 0.69599998
7.7069998 4.296 0.69499999
7.7059999 4.3239999 0.69599998
7.7189999 4.3590002 0.69800001
7.802 4.434 0.70599997
17.975 -3.595 1.5779999
17.910999 -3.53 1.572
18 -3.4949999 1.579
11.066 -2.02 0.97000003
10.979 -1.973 0.96200001
10.889 -1.925 0.954
10.852 -1.887 0.94999999
10.849 -1.855 0.94999999
10.875 -1.8279999 0.95200002
10.924 -1.804 0.95599997
11.068 -1.796 0.96799999
13.09 -0.34799999 1.131
13.046 -0.30899999 1.127
13.008 -0.271 1.124
13.078 -0.235 1.1289999
12.929 0.176 1.113
12.902 0.213 1.1109999
12.997 0.252 1.118
13.035 0.145 1.076
13.084 0.15700001 1.079
13.095 0.22 1.0779999
13.053 0.233 1.074
13.106 0.248 1.0779999
13.068 0.26100001 1.074
13.121 0.292 1.0779999
13.072 0.30599999 1.074
13.067 0.32100001 1.073
13.053 0.33700001 1.071
13.035 0.35299999 1.0700001
13.026 0.36899999 1.069
13.025 0.38499999 1.068
13.061 0.40400001 1.071
13.096 0.42199999 1.074
13.096 0.57300001 1.072
13.152 0.59600002 1.077
13.097 0.61400002 1.072
13.103 0.63499999 1.072
13.129 0.65799999 1.074
13.157 0.68000001 1.077
13.099 0.699 1.072
13.099 0.72100002 1.072
13.085 0.74299997 1.071
13.046 0.76300001 1.067
13.032 0.78500003 1.066
13.03 0.80800003 1.066
12.997 0.829 1.064
12.971 0.85100001 1.061
12.945 0.87300003 1.059
12.932 0.89600003 1.058
12.884 0.917 1.0549999
12.856 0.93900001 1.052
12.822 0.96200001 1.05
12.78 0.98299998 1.046
12.781 1.008 1.0470001
12.792 1.035 1.048
12.799 1.061 1.048
12.791 1.086 1.048
12.818 1.114 1.05
12.869 1.145 1.0549999
12.922 1.177 1.059
23.072001 2.102 1.891
12.958 1.2079999 1.062
23.087 2.152 1.893
13.026 1.242 1.068
12.994 1.266 1.066
13.057 1.301 1.071
13.025 1.326 1.069
13.056 1.358 1.072
13.09 1.391 1.075
13.136 1.425 1.079
23.007999 2.4960001 1.89
13.258 1.4680001 1.089
22.910999 2.5369999 1.882
22.882999 2.586 1.881
13.123 1.513 1.079
22.886 2.6389999 1.882
13.173 1.55 1.0829999
22.886 2.6919999 1.882
22.896999 2.747 1.8839999
22.912001 2.803 1.886
22.896999 2.855 1.885
22.908001 2.9119999 1.887
22.906 2.967 1.887
22.924 3.0250001 1.89
22.922001 3.0799999 1.89
22.92 3.1370001 1.891
22.936001 3.1960001 1.893
22.92 3.2509999 1.892
22.965 3.3150001 1.897
23.004 3.3789999 1.901
22.954 3.431 1.898
22.959 3.4909999 1.899
22.947001 3.5480001 1.899
22.955999 3.6099999 1.901
22.961 3.671 1.902
22.978001 3.734 1.905
22.965 3.793 1.905
22.973 3.8559999 1.9069999
22.964001 3.9170001 1.9069999
22.966999 3.98 1.908
22.975 4.0440001 1.91
22.996 4.1110001 1.913
22.993999 4.1739998 1.914
22.979 4.2350001 1.914
22.992001 4.302 1.916
23.004 4.369 1.918
23.070999 4.447 1.925
23.225 4.5430002 1.939
8.1219997 4.2389998 0.75199997
8.0050001 4.2119999 0.74199998
7.9169998 4.1999998 0.73500001
7.869 4.2080002 0.73199999
7.8309999 4.2220001 0.72899997
7.7979999 4.2389998 0.727
7.7719998 4.2589998 0.72600001
7.7550001 4.283 0.72600001
7.7069998 4.2909999 0.722
7.7140002 4.329 0.72399998
7.7319999 4.3730001 0.727
7.8410001 4.4699998 0.73900002
11.105 6.9390001 1.068
10.908 6.8670001 1.051
10.934 6.934 1.056
27.601 19.764 2.7509999
27.482 19.815001 2.7449999
14.003 -8.842 1.306
14.039 -8.7810001 1.308
14.087 -8.7270002 1.312
14.082 -8.6400003 1.3099999
14.144 -8.5959997 1.3150001
14.186 -8.5389996 1.318
14.25 -8.4960003 1.323
14.356 -8.4770002 1.331
14.515 -8.4899998 1.345
14.55 -8.4280005 1.347
14.631 -8.3940001 1.354
17.966 -3.7160001 1.595
17.907 -3.6530001 1.589
17.914 -3.6029999 1.589
18.323 -3.53 1.624
11.296 -2.145 1.001
18.306 -3.4760001 1.623
11.049 -2.0680001 0.97899997
10.969 -2.0220001 0.972
10.864 -1.973 0.96200001
10.831 -1.938 0.95899999
10.832 -1.909 0.95899999
10.834 -1.88 0.95899999
10.868 -1.857 0.96200001
10.905 -1.835 0.96499997
10.967 -1.816 0.97000003
12.959 -0.35299999 1.142
12.945 -0.331 1.141
12.867 -0.30700001 1.1339999
12.814 -0.285 1.13
12.776 -0.26300001 1.126
12.762 -0.242 1.125
12.767 -0.222 1.126
12.756 -0.20100001 1.125
12.766 -0.18099999 1.126
12.784 -0.162 1.127
12.822 -0.142 1.131
12.886 -0.123 1.137
13.12 -0.105 1.1569999
12.997 0.067000002 1.148
13.054 0.085000001 1.153
12.857 0.199 1.094
12.876 0.222 1.095
12.884 0.245 1.096
12.889 0.26800001 1.096
12.874 0.29100001 1.094
12.919 0.31600001 1.098
12.951 0.34099999 1.101
12.987 0.36700001 1.104
13.081 0.39399999 1.1109999
13.12 0.421 1.115
13.114 0.44600001 1.114
13.139 0.47299999 1.1160001
13.124 0.498 1.114
13.057 0.52200001 1.109
13.053 0.54900002 1.108
13.031 0.574 1.1059999
13.026 0.60100001 1.1059999
13.06 0.63 1.109
13.044 0.65700001 1.107
13.046 0.685 1.108
13.051 0.713 1.108
13.047 0.741 1.108
13.023 0.76800001 1.1059999
13.009 0.796 1.105
12.987 0.824 1.103
12.964 0.85100001 1.101
12.95 0.88 1.1
12.921 0.90700001 1.097
12.891 0.935 1.095
12.862 0.96200001 1.0930001
12.822 0.98900002 1.089
12.778 1.016 1.086
12.778 1.046 1.086
12.799 1.079 1.0880001
12.815 1.1109999 1.089
12.833 1.143 1.091
12.899 1.181 1.097
12.947 1.217 1.101
12.981 1.252 1.104
13.004 1.2869999 1.1059999
13.012 1.3200001 1.107
13.036 1.3559999 1.11
13.039 1.3890001 1.11
13.077 1.426 1.114
13.123 1.465 1.118
22.955999 2.563 1.956
13.17 1.5039999 1.122
22.865 2.612 1.948
13.166 1.538 1.122
22.858999 2.671 1.948
13.047 1.558 1.112
22.865999 2.7320001 1.95
13.172 1.608 1.123
22.884001 2.7939999 1.952
13.168 1.642 1.123
22.879 2.8540001 1.952
22.882999 2.915 1.9529999
22.882 2.977 1.9529999
22.877001 3.0380001 1.954
22.882999 3.0999999 1.955
22.892 3.164 1.956
22.893 3.227 1.957
22.895 3.29 1.9579999
22.914 3.3559999 1.96
22.951 3.425 1.964
22.948 3.4890001 1.965
22.923 3.55 1.964
22.938 3.6170001 1.966
22.931 3.681 1.966
22.943001 3.7479999 1.9680001
22.941999 3.813 1.969
22.959999 3.882 1.971
22.945999 3.9460001 1.971
22.964001 4.0159998 1.973
22.952999 4.0809999 1.973
22.971001 4.152 1.976
22.971001 4.2189999 1.977
22.98 4.289 1.979
22.976 4.3559999 1.98
23.007 4.4310002 1.983
23.068001 4.5120001 1.99
23.193001 4.6059999 2.0009999
8.0620003 4.23 0.76200002
7.9180002 4.1830001 0.74900001
7.8590002 4.1799998 0.74400002
7.8600001 4.21 0.74599999
7.8449998 4.23 0.745
7.8169999 4.244 0.74400002
7.7979999 4.2620001 0.74299997
7.8000002 4.2919998 0.74400002
7.7880001 4.3140001 0.74400002
7.7870002 4.3410001 0.745
7.835 4.3969998 0.75
11.253 6.763 1.094
11.217 6.7820001 1.092
11.169 6.7930002 1.089
11.164 6.8299999 1.09
11.153 6.8629999 1.091
10.895 7.164 1.084
10.827 7.1560001 1.079
17.952999 -3.5910001 1.655
17.909 -3.53 1.651
17.975 -3.4909999 1.656
11.096 -2.026 1.021
10.981 -1.973 1.01
10.866 -1.92 1
10.833 -1.883 0.99599999
10.824 -1.85 0.995
10.859 -1.825 0.99800003
10.887 -1.798 1.001
10.954 -1.777 1.006
12.998 -0.456 1.181
12.891 -0.41499999 1.171
12.802 -0.37599999 1.1619999
12.745 -0.33700001 1.1569999
12.719 -0.30000001 1.154
12.701 -0.26300001 1.152
12.713 -0.226 1.153
12.727 -0.19 1.154
12.748 -0.154 1.155
12.805 -0.117 1.16
12.997 -0.082000002 1.177
13.093 0.149 1.142
13.102 0.16 1.142
13.118 0.17200001 1.143
13.095 0.20900001 1.14
13.06 0.222 1.136
13.047 0.235 1.135
13.065 0.29300001 1.135
13.107 0.30899999 1.138
13.034 0.32300001 1.131
13.013 0.338 1.1289999
12.956 0.352 1.124
12.933 0.368 1.122
12.867 0.38299999 1.1160001
12.855 0.39899999 1.114
12.868 0.417 1.115
12.925 0.43599999 1.12
13.001 0.45699999 1.126
13.257 0.542 1.148
13.233 0.56099999 1.146
13.125 0.57599998 1.136
13.147 0.597 1.138
13.086 0.61500001 1.132
13.056 0.63499999 1.13
13.036 0.65499997 1.128
13.078 0.67799997 1.132
13.107 0.70099998 1.1339999
13.111 0.72299999 1.1339999
13.091 0.745 1.133
13.085 0.76700002 1.132
13.045 0.787 1.1289999
13.022 0.80900002 1.127
13.009 0.83099997 1.126
12.968 0.852 1.122
12.95 0.875 1.1210001
12.92 0.89700001 1.118
12.912 0.92000002 1.117
12.902 0.94400001 1.117
12.894 0.96799999 1.1160001
12.877 0.99199998 1.115
12.889 1.018 1.1160001
12.915 1.046 1.118
12.914 1.072 1.118
12.926 1.099 1.12
12.933 1.126 1.1210001
12.948 1.154 1.122
12.978 1.183 1.125
13.021 1.215 1.1289999
13.004 1.2410001 1.128
12.991 1.267 1.127
13.042 1.3 1.131
13.079 1.3329999 1.135
13.076 1.3609999 1.135
13.09 1.392 1.137
22.966 2.4419999 1.994
13.15 1.427 1.142
22.875999 2.484 1.987
13.211 1.464 1.148
22.851999 2.533 1.9859999
13.185 1.4910001 1.146
22.864 2.586 1.987
13.112 1.513 1.14
22.862 2.638 1.988
13.103 1.5420001 1.1390001
22.878 2.6930001 1.99
13.159 1.58 1.145
22.867001 2.7449999 1.99
22.879 2.8010001 1.9910001
22.875999 2.855 1.992
22.877001 2.9089999 1.993
22.877001 2.9649999 1.994
22.888 3.0209999 1.995
22.898001 3.079 1.997
22.902 3.1359999 1.998
22.9 3.1919999 1.999
22.889 3.2479999 1.999
22.922001 3.3110001 2.003
22.952 3.3729999 2.006
22.938999 3.4300001 2.006
22.926001 3.487 2.006
22.927 3.5469999 2.007
22.934999 3.608 2.0090001
22.952999 3.671 2.0120001
22.937 3.7290001 2.0109999
22.934999 3.79 2.0120001
22.952 3.8540001 2.0150001
22.945 3.915 2.0150001
22.955999 3.9790001 2.0179999
22.971001 4.0440001 2.02
22.954 4.105 2.02
22.961 4.1690001 2.0220001
22.968 4.2350001 2.0239999
22.971001 4.2989998 2.0250001
22.979 4.3660002 2.027
22.979 4.4310002 2.029
22.987 4.4980001 2.0309999
23.013 4.5689998 2.0339999
23.037001 4.6399999 2.0380001
23.061001 4.7119999 2.0409999
23.073 4.7820001 2.0439999
23.075001 4.8499999 2.046
23.066 4.9159999 2.046
8.0319996 4.1919999 0.787
7.8930001 4.1539998 0.77499998
7.842 4.1599998 0.77100003
7.8390002 4.1929998 0.77200001
7.8400002 4.2270002 0.773
7.8130002 4.2470002 0.77200001
7.8039999 4.277 0.77200001
7.789 4.302 0.77200001
7.7969999 4.342 0.77399999
7.849 4.4050002 0.78100002
11.338 6.3629999 1.128
11.25 6.3639998 1.1210001
11.2 6.3860002 1.118
11.187 6.4289999 1.118
11.17 6.4689999 1.119
11.211 6.5430002 1.125
28.164 19.618 2.9519999
27.995001 19.636999 2.9400001
27.969999 19.757 2.9430001
27.621 19.783001 2.918
27.413 19.77 2.901
17.91 -3.7049999 1.668
17.902 -3.652 1.6670001
17.950001 -3.6099999 1.671
11.131 -2.1140001 1.035
11.004 -2.059 1.023
10.883 -2.007 1.011
10.818 -1.965 1.005
10.809 -1.934 1.0039999
10.82 -1.9069999 1.005
10.832 -1.88 1.006
10.864 -1.857 1.0089999
10.877 -1.83 1.01
10.973 -1.818 1.0190001
13.026 -0.37599999 1.204
12.885 -0.34999999 1.191
12.827 -0.32699999 1.186
12.758 -0.30399999 1.1799999
12.714 -0.28200001 1.176
12.7 -0.26100001 1.174
12.696 -0.241 1.174
12.685 -0.22 1.173
12.682 -0.2 1.173
12.701 -0.18000001 1.175
12.709 -0.16 1.176
12.733 -0.141 1.178
12.769 -0.121 1.181
12.854 -0.102 1.189
13.09 -0.083999999 1.211
12.871 0.20100001 1.155
12.88 0.22400001 1.156
12.855 0.24600001 1.154
12.839 0.26899999 1.152
12.816 0.292 1.15
12.818 0.31600001 1.15
12.835 0.34 1.151
12.882 0.36500001 1.155
12.936 0.39199999 1.16
13.025 0.419 1.168
13.176 0.44999999 1.181
13.119 0.47400001 1.176
13.073 0.498 1.1720001
13.045 0.523 1.169
13.048 0.55000001 1.169
13.041 0.57599998 1.168
13.021 0.60299999 1.1670001
13.005 0.62900001 1.165
13.039 0.65799999 1.168
13.064 0.68699998 1.17
13.086 0.71600002 1.1720001
13.089 0.745 1.173
13.059 0.77200001 1.17
13.043 0.80000001 1.169
13.008 0.82599998 1.166
12.997 0.85500002 1.165
12.955 0.88099998 1.161
12.922 0.90899998 1.158
12.896 0.93599999 1.156
12.905 0.96700001 1.1569999
12.884 0.99599999 1.155
12.894 1.027 1.156
12.91 1.058 1.158
12.923 1.09 1.159
12.93 1.122 1.16
12.942 1.154 1.161
12.953 1.187 1.1619999
12.984 1.222 1.165
13.016 1.257 1.169
12.998 1.2869999 1.1670001
13 1.3200001 1.168
13.06 1.359 1.173
13.083 1.395 1.176
13.121 1.432 1.179
22.948999 2.506 2.063
13.153 1.47 1.183
22.851 2.553 2.0550001
22.834 2.6110001 2.0539999
13.231 1.5470001 1.1900001
22.841999 2.671 2.0550001
13.124 1.569 1.181
22.847 2.7309999 2.056
13.158 1.607 1.184
22.851 2.7920001 2.0569999
22.849001 2.852 2.0580001
22.851 2.9130001 2.059
22.844999 2.974 2.059
22.856001 3.0369999 2.0610001
22.871 3.0999999 2.063
22.875 3.1630001 2.0639999
22.874001 3.2260001 2.0639999
22.877001 3.289 2.066
22.886999 3.3540001 2.0669999
22.917999 3.4219999 2.0710001
22.903999 3.484 2.0699999
22.906 3.549 2.072
22.916 3.615 2.073
22.924 3.681 2.075
22.929001 3.747 2.076
22.92 3.8110001 2.0769999
22.940001 3.881 2.079
22.931 3.9449999 2.0799999
22.947001 4.0149999 2.082
22.955999 4.0830002 2.0840001
22.952 4.1500001 2.085
22.945999 4.2160001 2.085
22.969 4.2880001 2.0880001
22.969999 4.3559999 2.0899999
22.972 4.4250002 2.0910001
22.983999 4.4959998 2.0929999
22.976999 4.5640001 2.0940001
23.002001 4.638 2.0969999
23.018 4.711 2.0999999
23.021999 4.7820001 2.102
23.017 4.8509998 2.102
23.107 4.941 2.112
8.0389996 4.1890001 0.80199999
7.8790002 4.1339998 0.787
7.8449998 4.145 0.78500003
7.8200002 4.1599998 0.78299999
7.8109999 4.184 0.78299999
7.8169999 4.2160001 0.78500003
7.8319998 4.2519999 0.78799999
7.8379998 4.2849998 0.78899997
7.868 4.3299999 0.79299998
7.9499998 4.4039998 0.80299997
11.293 6.6669998 1.156
11.11 6.599 1.1390001
11.043 6.599 1.1339999
11.01 6.619 1.132
10.986 6.6430001 1.131
10.965 6.6700001 1.131
10.956 6.704 1.131
10.967 6.75 1.1339999
10.989 6.803 1.138
11.194 6.9689999 1.161
17.943001 -3.589 1.733
17.908001 -3.53 1.73
17.959 -3.487 1.734
11.072 -2.0209999 1.068
10.918 -1.961 1.053
10.836 -1.915 1.045
10.812 -1.8789999 1.0420001
10.82 -1.849 1.0420001
10.845 -1.822 1.045
10.872 -1.795 1.0470001
10.92 -1.771 1.051
12.939 -0.45199999 1.2309999
12.844 -0.412 1.222
12.738 -0.37200001 1.211
12.713 -0.33500001 1.209
12.695 -0.29699999 1.207
12.693 -0.26100001 1.206
12.717 -0.22499999 1.2079999
12.712 -0.18799999 1.207
12.758 -0.152 1.211
12.853 -0.116 1.22
13.129 -0.079999998 1.2460001
13.213 0.82200003 1.205
13.162 0.84299999 1.201
13.136 0.86500001 1.198
13.098 0.88599998 1.1950001
13.032 0.90600002 1.189
13.008 0.92900002 1.187
12.998 0.95300001 1.186
12.99 0.977 1.1849999
12.994 1.002 1.186
13.02 1.03 1.189
13.056 1.059 1.192
13.09 1.087 1.1950001
13.108 1.115 1.197
13.114 1.143 1.198
13.095 1.168 1.196
13.127 1.198 1.2
13.194 1.232 1.206
13.18 1.2589999 1.205
13.224 1.291 1.209
13.278 1.325 1.215
13.237 1.35 1.211
22.945 2.3399999 2.0999999
22.871 2.3829999 2.0940001
22.830999 2.4289999 2.0910001
22.812 2.4790001 2.0899999
22.833 2.5320001 2.092
22.84 2.585 2.0929999
22.836 2.6370001 2.0940001
22.839001 2.6900001 2.095
22.861 2.7460001 2.0969999
22.858 2.8 2.098
22.879999 2.8570001 2.1010001
22.863001 2.9089999 2.0999999
22.853001 2.9630001 2.0999999
22.868999 3.0209999 2.102
22.862 3.076 2.1029999
22.865999 3.1329999 2.1040001
22.881001 3.191 2.1059999
22.888 3.25 2.108
22.906 3.3099999 2.1110001
22.958 3.3759999 2.1159999
22.944 3.4319999 2.1159999
22.914 3.487 2.115
22.908001 3.5450001 2.115
22.917 3.6059999 2.1170001
22.913 3.6659999 2.118
22.938 3.7309999 2.1210001
22.937 3.7920001 2.122
22.941999 3.8540001 2.1240001
22.941 3.9159999 2.125
22.948 3.9790001 2.1270001
22.952999 4.0430002 2.1289999
22.971001 4.1090002 2.132
22.957001 4.1700001 2.132
22.959999 4.2340002 2.1340001
22.969 4.3000002 2.1359999
22.966 4.3639998 2.1370001
22.983 4.4330001 2.1400001
22.986 4.4990001 2.142
22.982 4.5640001 2.1429999
22.997999 4.6339998 2.1459999
23.003 4.7010002 2.148
22.992001 4.7659998 2.1489999
23.014999 4.8390002 2.152
23.032 4.9099998 2.155
23.052999 4.9829998 2.1589999
23.093 5.0599999 2.164
23.143999 5.1409998 2.171
8.0240002 4.1539998 0.829
7.8629999 4.105 0.81400001
7.823 4.1170001 0.81099999
7.8169999 4.1479998 0.81099999
7.809 4.178 0.81199998
7.8210001 4.2179999 0.815
7.8280001 4.256 0.81699997
7.862 4.309 0.82200003
8.007 4.4239998 0.838
11.373 6.3340001 1.193
11.235 6.3070002 1.1799999
11.194 6.3330002 1.178
11.18 6.3759999 1.178
11.179 6.4250002 1.1799999
11.178 6.474 1.182
11.288 6.5890002 1.196
29.396 19.205 3.2
29.253 19.25 3.1900001
29.120001 19.302 3.181
29.011999 19.370001 3.1760001
28.892 19.427999 3.168
28.152 19.614 3.1170001
28.004 19.648001 3.1059999
27.886 19.702 3.099
27.738001 19.735001 3.089
27.570999 19.752001 3.076
27.427 19.785 3.066
17.92 -3.707 1.747
17.878 -3.6470001 1.742
17.944 -3.609 1.748
11.147 -2.1170001 1.085
10.97 -2.053 1.068
10.873 -2.0050001 1.058
10.814 -1.964 1.052
10.802 -1.933 1.051
10.795 -1.902 1.05
10.811 -1.876 1.051
10.837 -1.852 1.053
10.862 -1.8279999 1.056
10.934 -1.811 1.062
11.121 -1.813 1.08
22.370001 -3.138 2.171
22.337 -3.0780001 2.1670001
22.395 -3.0320001 2.1730001
22.403999 -2.9790001 2.1730001
22.452999 -2.9319999 2.178
13.064 -0.35499999 1.2640001
12.953 -0.33000001 1.2539999
12.851 -0.30599999 1.244
12.796 -0.28400001 1.239
12.759 -0.26199999 1.235
12.758 -0.241 1.235
12.769 -0.221 1.2359999
12.776 -0.20100001 1.237
12.814 -0.18099999 1.2410001
12.856 -0.161 1.245
12.895 -0.142 1.249
12.984 -0.123 1.257
13.205 -0.104 1.279
12.931 0.204 1.222
12.944 0.227 1.223
12.966 0.25 1.224
12.972 0.27399999 1.225
12.971 0.29699999 1.224
13.046 0.32300001 1.2309999
13.079 0.34799999 1.234
13.119 0.37400001 1.238
13.159 0.92699999 1.2410001
13.115 0.954 1.237
13.092 0.98199999 1.235
13.098 1.013 1.2359999
13.129 1.0470001 1.239
13.296 1.091 1.255
13.402 1.132 1.265
23.011999 2.339 2.1760001
22.882999 2.3840001 2.164
22.832001 2.437 2.1600001
22.806999 2.4920001 2.158
22.806999 2.5510001 2.1589999
22.804001 2.609 2.1589999
22.809 2.6689999 2.161
22.802 2.7279999 2.161
22.841 2.793 2.165
22.858999 2.855 2.1670001
22.851 2.915 2.1670001
22.839001 2.9749999 2.1670001
22.855 3.0380001 2.1689999
22.849001 3.099 2.1689999
22.856001 3.1619999 2.171
22.861 3.2260001 2.1719999
22.867001 3.289 2.174
22.888 3.3559999 2.1760001
22.931999 3.4260001 2.1819999
22.922001 3.4879999 2.1819999
22.889999 3.5480001 2.1800001
22.903999 3.6140001 2.1819999
22.895 3.678 2.1819999
22.913 3.7460001 2.1849999
22.917 3.812 2.1860001
22.924 3.8789999 2.188
22.938999 3.948 2.1900001
22.936001 4.0139999 2.191
22.945 4.0830002 2.1930001
22.964001 4.1529999 2.1960001
22.961 4.2199998 2.197
22.969 4.29 2.1989999
22.969999 4.3579998 2.2
22.981001 4.4289999 2.2030001
22.983 4.4980001 2.204
22.993 4.5689998 2.2060001
23 4.6389999 2.2079999
23.01 4.711 2.211
23.032 4.7859998 2.214
23.032 4.8559999 2.2149999
23.059999 4.9320002 2.2190001
23.066999 5.0050001 2.2219999
23.121 5.0879998 2.2279999
23.312 5.2020001 2.2479999
8.1829996 4.2340002 0.85900003
7.9130001 4.1230001 0.83200002
7.8249998 4.1059999 0.824
7.8039999 4.1240001 0.82300001
7.7989998 4.1500001 0.82300001
7.789 4.1729999 0.82300001
7.8109999 4.2129998 0.82700002
7.8410001 4.2579999 0.83099997
7.9109998 4.3249998 0.83999997
17.938999 -3.5880001 1.812
17.907 -3.53 1.808
18.014 -3.4979999 1.819
11.06 -2.0190001 1.115
10.873 -1.9529999 1.096
10.826 -1.913 1.091
10.804 -1.878 1.089
10.798 -1.845 1.0880001
10.835 -1.8200001 1.091
10.852 -1.7920001 1.0930001
10.902 -1.768 1.097
11.066 -1.762 1.114
22.408001 -3.1789999 2.2520001
22.229 -3.089 2.234
22.308001 -3.0350001 2.2409999
22.364 -2.9779999 2.2460001
13.034 -0.41600001 1.296
12.924 -0.37599999 1.285
12.853 -0.336 1.278
12.828 -0.29899999 1.275
12.866 -0.26300001 1.278
12.916 -0.226 1.283
12.998 -0.19 1.291
13.081 -0.154 1.298
22.910999 1.906 2.2
22.827999 1.9450001 2.1930001
22.802999 1.989 2.191
22.804001 2.0369999 2.191
22.816 2.085 2.1930001
22.819 2.1329999 2.194
22.819 2.1819999 2.194
22.816 2.23 2.1949999
22.809 2.279 2.1949999
22.789 2.326 2.1930001
22.808001 2.378 2.1960001
22.802 2.428 2.1960001
22.823 2.4820001 2.1989999
22.834999 2.5350001 2.2
22.83 2.586 2.201
22.839001 2.6389999 2.2019999
22.854 2.694 2.2049999
22.857 2.7479999 2.2060001
22.851 2.8010001 2.2060001
22.872999 2.858 2.2090001
22.857 2.9100001 2.2079999
22.853001 2.9649999 2.2090001
22.888 3.0250001 2.2130001
22.871 3.079 2.2130001
22.864 3.1340001 2.2130001
22.886 3.194 2.2160001
22.884001 3.2509999 2.217
22.889999 3.309 2.2179999
22.934999 3.3740001 2.224
22.917999 3.4300001 2.223
22.912001 3.4879999 2.224
22.907 3.5469999 2.2249999
22.917 3.608 2.227
22.927 3.6700001 2.2290001
22.948999 3.734 2.2320001
22.934 3.793 2.2320001
22.950001 3.8570001 2.2349999
22.940001 3.9170001 2.2360001
22.944 3.98 2.237
22.962 4.046 2.24
22.964001 4.1090002 2.2420001
22.976999 4.1750002 2.2449999
22.974001 4.2379999 2.2460001
22.997999 4.3070002 2.25
23.006001 4.3730001 2.2520001
22.990999 4.4359999 2.2520001
23.007 4.5040002 2.2550001
23.021 4.573 2.2579999
23.041 4.6430001 2.2620001
23.048 4.7119999 2.2639999
23.056 4.7810001 2.267
23.069 4.8509998 2.27
23.073999 4.9200001 2.2720001
23.091999 4.993 2.2750001
23.118999 5.0669999 2.28
23.176001 5.1500001 2.2869999
23.271999 5.2410002 2.2980001
7.9299998 4.1059999 0.86299998
7.8390002 4.0929999 0.85399997
7.7950001 4.1040001 0.85100001
7.7940001 4.1370001 0.852
7.7919998 4.1690001 0.85299999
7.8060002 4.211 0.85600001
7.836 4.2610002 0.861
7.9809999 4.375 0.87800002
29.476 19.261999 3.3789999
29.295 19.283001 3.365
27.971001 19.768 3.2750001
27.818001 19.797001 3.263
27.597 19.775999 3.244
17.969 -3.717 1.83
17.884001 -3.648 1.821
17.924 -3.605 1.825
11.027 -2.063 1.1210001
10.889 -2.0079999 1.107
10.809 -1.9630001 1.099
10.799 -1.932 1.097
10.79 -1.902 1.096
10.794 -1.873 1.096
10.808 -1.847 1.098
10.83 -1.822 1.1
10.886 -1.803 1.105
10.945 -1.784 1.1109999
11.029 -1.7690001 1.119
22.282 -3.125 2.2590001
22.229 -3.063 2.253
22.263 -3.0139999 2.257
22.320999 -2.9679999 2.2620001
22.417 -2.927 2.2720001
22.65 -1.845 2.2909999
22.691 -1.801 2.2950001
22.572001 -1.7460001 2.283
22.658001 -1.706 2.2909999
13.133 -0.28999999 1.3279999
13.047 -0.26699999 1.319
13.083 -0.24699999 1.323
13.221 -0.207 1.337
13.148 -0.185 1.33
13.815 0.671 1.368
13.735 0.69700003 1.36
13.763 0.727 1.363
13.732 0.755 1.36
22.811001 1.984 2.2620001
22.791 2.0380001 2.2609999
22.766001 2.0910001 2.2590001
