# .PCD v0.7 - Point Cloud Data file format
VERSION 0.7
FIELDS x y z
SIZE 4 4 4
TYPE F F F
COUNT 1 1 1
WIDTH 1648
HEIGHT 1
VIEWPOINT 0 0 0 1 0 0 0
POINTS 1648
DATA ascii
7.0549998 -1.689 -0.347
7.0640001 -1.6720001 -0.34799999
7.0739999 -1.654 -0.34799999
7.085 -1.636 -0.34799999
7.1100001 -1.622 -0.34900001
7.1079998 -1.601 -0.34900001
7.125 -1.585 -0.34999999
7.1290002 -1.566 -0.34999999
7.1500001 -1.55 -0.35100001
7.1539998 -1.53 -0.35100001
7.2020001 -1.52 -0.35299999
7.1950002 -1.498 -0.352
7.2140002 -1.482 -0.35299999
7.223 -1.4630001 -0.35299999
7.237 -1.446 -0.354
7.2690001 -1.432 -0.35499999
7.277 -1.4119999 -0.35499999
7.2839999 -1.393 -0.35600001
7.296 -1.375 -0.35600001
7.3200002 -1.359 -0.35699999
7.3270001 -1.339 -0.35699999
7.3390002 -1.321 -0.35800001
7.3569999 -1.303 -0.35800001
7.3579998 -1.2819999 -0.35800001
7.3940001 -1.268 -0.36000001
7.4029999 -1.248 -0.36000001
7.4190001 -1.23 -0.361
7.4320002 -1.211 -0.361
7.4499998 -1.193 -0.36199999
7.4590001 -1.173 -0.36199999
7.474 -1.155 -0.36199999
7.5 -1.138 -0.36399999
7.533 -1.1210001 -0.36500001
7.5359998 -1.1 -0.36500001
7.539 -1.08 -0.36500001
7.5609999 -1.061 -0.366
7.5890002 -1.044 -0.36700001
7.6040001 -1.024 -0.36700001
7.6300001 -1.007 -0.36899999
7.6370001 -0.986 -0.36899999
7.652 -0.96600002 -0.36899999
7.6630001 -0.94599998 -0.37
7.6890001 -0.92699999 -0.37099999
7.7059999 -0.90799999 -0.37099999
7.7220001 -0.88800001 -0.37200001
7.7329998 -0.86699998 -0.37200001
7.7259998 -0.84500003 -0.37200001
7.7649999 -0.82700002 -0.373
7.7810001 -0.80699998 -0.37400001
7.8130002 -0.78799999 -0.375
7.8189998 -0.76700002 -0.375
7.8629999 -0.74900001 -0.377
7.868 -0.727 -0.377
7.9000001 -0.708 -0.37900001
7.9289999 -0.68800002 -0.38
7.9520001 -0.66799998 -0.38100001
7.947 -0.64499998 -0.38
7.9640002 -0.62400001 -0.38100001
7.9990001 -0.60399997 -0.382
8.0150003 -0.583 -0.38299999
8.0559998 -0.56300002 -0.38499999
8.052 -0.54000002 -0.384
8.0860004 -0.51999998 -0.38600001
8.1090002 -0.498 -0.38699999
8.1300001 -0.477 -0.38699999
8.1739998 -0.456 -0.389
8.1879997 -0.43399999 -0.38999999
8.2489996 -0.414 -0.39300001
8.2639999 -0.391 -0.39300001
8.2799997 -0.36899999 -0.39399999
8.3830004 -0.34999999 -0.398
8.3730001 -0.32600001 -0.398
8.158 0.193 -0.53600001
8.1219997 0.20299999 -0.53399998
8.0530005 0.213 -0.52999997
8.0889997 0.226 -0.53200001
8.0319996 0.236 -0.528
8.0089998 0.24699999 -0.52700001
7.9860001 0.25799999 -0.52600002
8.0120001 0.27200001 -0.52700001
7.9899998 0.28299999 -0.52600002
7.9759998 0.29499999 -0.52499998
7.9809999 0.308 -0.52600002
7.9749999 0.32100001 -0.52600002
7.961 0.33399999 -0.52499998
7.9530001 0.347 -0.52499998
7.9460001 0.36000001 -0.52399999
7.9359999 0.373 -0.52399999
7.9390001 0.38699999 -0.52399999
7.928 0.40000001 -0.52399999
7.9369998 0.41499999 -0.52499998
7.9359999 0.42899999 -0.52499998
7.9260001 0.44299999 -0.52399999
7.941 0.45899999 -0.52600002
7.9400001 0.47400001 -0.52600002
7.954 0.48899999 -0.52700001
7.9250002 0.50300002 -0.52499998
7.9359999 0.51899999 -0.52600002
7.9299998 0.53399998 -0.52600002
7.9349999 0.55000001 -0.52700001
7.961 0.56699997 -0.52899998
7.9390001 0.58200002 -0.528
7.9429998 0.59799999 -0.528
7.9299998 0.61400002 -0.528
7.928 0.63 -0.528
7.9359999 0.64700001 -0.52899998
7.928 0.66299999 -0.52899998
7.9359999 0.68099999 -0.52999997
7.9380002 0.69800001 -0.52999997
7.934 0.71499997 -0.52999997
7.941 0.73299998 -0.53100002
7.9450002 0.75099999 -0.53200001
7.9580002 0.76999998 -0.53299999
7.9499998 0.787 -0.53299999
7.9460001 0.80500001 -0.53299999
7.9530001 0.824 -0.53399998
7.9650002 0.84299999 -0.53500003
7.9520001 0.86000001 -0.53399998
7.9460001 0.87800002 -0.53399998
7.9629998 0.89899999 -0.53600001
7.9569998 0.917 -0.53600001
7.9619999 0.93699998 -0.537
7.9619999 0.95599997 -0.537
7.9629998 0.97600001 -0.53799999
7.9660001 0.99599999 -0.53799999
7.9640002 1.015 -0.53899997
7.9549999 1.034 -0.53899997
7.9619999 1.0549999 -0.53899997
7.9699998 1.076 -0.54000002
7.974 1.097 -0.54100001
7.9850001 1.119 -0.542
7.9819999 1.1390001 -0.54299998
7.98 1.159 -0.54299998
7.9889998 1.181 -0.54400003
7.9970002 1.204 -0.54500002
7.9970002 1.225 -0.546
8.0209999 1.25 -0.54799998
8.0349998 1.274 -0.54900002
8.0340004 1.295 -0.55000001
8.0279999 1.316 -0.55000001
8.0539999 1.342 -0.55199999
8.0570002 1.365 -0.55299997
8.0670004 1.3890001 -0.55400002
8.0480003 1.408 -0.55400002
8.0889997 1.438 -0.55699998
8.0889997 1.461 -0.55800003
8.085 1.483 -0.55800003
8.0799999 1.505 -0.55800003
8.0959997 1.531 -0.56
8.1040001 1.556 -0.56099999
8.1199999 1.5829999 -0.56300002
8.1129999 1.605 -0.56300002
8.1339998 1.633 -0.565
8.1350002 1.658 -0.56599998
8.1490002 1.6849999 -0.56800002
8.1440001 1.7079999 -0.56800002
8.1700001 1.738 -0.56999999
8.1780005 1.7640001 -0.57200003
8.1689997 1.7869999 -0.57200003
8.1669998 1.812 -0.57200003
8.1969995 1.8430001 -0.57499999
8.1920004 1.867 -0.57499999
8.2040005 1.895 -0.57700002
8.2200003 1.925 -0.579
8.2290001 1.9529999 -0.57999998
8.2360001 1.98 -0.58099997
8.2329998 2.0050001 -0.58200002
8.2489996 2.036 -0.58399999
8.2700005 2.0669999 -0.58600003
8.2609997 2.0910001 -0.58600003
8.283 2.1240001 -0.588
8.2880001 2.152 -0.58999997
8.3009996 2.1819999 -0.59100002
8.3030005 2.21 -0.59200001
8.3109999 2.2390001 -0.59399998
8.3240004 2.27 -0.59500003
8.3149996 2.2950001 -0.59500003
8.3249998 2.326 -0.597
8.3470001 2.3599999 -0.59899998
8.3649998 2.3929999 -0.602
8.3780003 2.425 -0.60299999
8.3760004 2.4530001 -0.60399997
8.3909998 2.4860001 -0.60600001
8.4060001 2.5190001 -0.60799998
8.4049997 2.5480001 -0.60900003
8.4160004 2.5799999 -0.61000001
8.4110003 2.608 -0.611
8.4230003 2.641 -0.61299998
8.4230003 2.6700001 -0.61400002
8.4370003 2.704 -0.616
8.4510002 2.7390001 -0.61799997
8.4569998 2.77 -0.61900002
8.4639997 2.803 -0.62
8.4829998 2.8399999 -0.62300003
8.4879999 2.872 -0.62400001
8.5159998 2.9119999 -0.62699997
8.5229998 2.9449999 -0.62900001
8.5369997 2.9809999 -0.63099998
8.5500002 3.017 -0.63300002
8.5640001 3.053 -0.63499999
8.5830002 3.092 -0.63700002
8.5889997 3.125 -0.639
8.6120005 3.1659999 -0.64099997
8.6090002 3.197 -0.64200002
8.6230001 3.234 -0.64399999
8.6269999 3.2679999 -0.64499998
8.6459999 3.3080001 -0.648
8.6490002 3.342 -0.64899999
8.6630001 3.3800001 -0.65100002
8.6800003 3.4200001 -0.65399998
8.684 3.4549999 -0.65499997
8.7040005 3.4960001 -0.65799999
8.7150002 3.5339999 -0.66000003
8.7320004 3.575 -0.662
8.7550001 3.618 -0.66500002
8.7440004 3.648 -0.66500002
8.7550001 3.687 -0.667
8.7930002 3.7379999 -0.671
8.802 3.776 -0.67299998
8.823 3.8199999 -0.676
8.8319998 3.859 -0.67799997
8.8360004 3.8959999 -0.68000001
8.8660002 3.9449999 -0.68300003
8.8929996 3.993 -0.68599999
8.8889999 4.027 -0.68699998
8.8900003 4.0640001 -0.68900001
8.8800001 4.0949998 -0.68900001
8.9060001 4.1440001 -0.69199997
8.9090004 4.1820002 -0.69400001
8.9239998 4.2249999 -0.69599998
8.9309998 4.2659998 -0.69800001
8.9659996 4.3200002 -0.70200002
8.9750004 4.3610001 -0.704
8.96 4.3909998 -0.704
8.9750004 4.4359999 -0.70700002
8.9870005 4.48 -0.70899999
7.4219999 3.7309999 -0.58700001
7.3390002 3.721 -0.58099997
7.3109999 3.737 -0.57999998
7.3010001 3.7639999 -0.57999998
7.3340001 3.812 -0.58399999
7.487 3.924 -0.59799999
9.0430002 4.7779999 -0.72299999
9.0579996 4.8260002 -0.72600001
9.0579996 4.8649998 -0.727
9.073 4.9120002 -0.73000002
9.0679998 4.9489999 -0.73100001
9.0930004 5.0029998 -0.73500001
9.1359997 5.0669999 -0.73900002
9.1370001 5.1079998 -0.741
9.1330004 5.1459999 -0.74199998
9.1149998 5.1760001 -0.74199998
7.4489999 4.2639999 -0.60799998
7.2709999 4.1939998 -0.59399998
7.2129998 4.1929998 -0.59100002
7.178 4.2049999 -0.58899999
7.1799998 4.2389998 -0.59100002
7.2129998 4.2909999 -0.59500003
7.322 4.3889999 -0.60500002
9.1389999 5.52 -0.75700003
9.1359997 5.5609999 -0.75800002
9.1379995 5.6040001 -0.75999999
9.1400003 5.6469998 -0.76099998
9.151 5.697 -0.764
9.1660004 5.7480001 -0.76700002
9.1470003 5.7789998 -0.76700002
9.1669998 5.8340001 -0.76999998
9.177 5.8839998 -0.773
9.1639996 5.9190001 -0.773
9.1730003 5.9679999 -0.77600002
9.1739998 6.0120001 -0.77700001
9.1759996 6.0570002 -0.77899998
9.1569996 6.0879998 -0.77899998
9.1709995 6.1409998 -0.78200001
9.1549997 6.1739998 -0.78299999
9.1499996 6.2150002 -0.78399998
9.1499996 6.2589998 -0.78600001
9.1389999 6.296 -0.78600001
9.1370001 6.3390002 -0.78799999
9.1359997 6.382 -0.79000002
9.1169996 6.414 -0.79000002
9.1110001 6.454 -0.79100001
9.0880003 6.4829998 -0.79100001
9.052 6.5019999 -0.79000002
9.033 6.5320001 -0.79000002
5.6139998 -3.724 -0.28299999
5.6350002 -3.7019999 -0.28299999
5.6529999 -3.678 -0.28400001
5.6700001 -3.654 -0.28400001
5.6880002 -3.6300001 -0.285
5.7119999 -3.6099999 -0.28600001
5.7290001 -3.586 -0.28600001
5.743 -3.5599999 -0.287
5.7709999 -3.543 -0.28799999
5.783 -3.516 -0.28799999
5.8010001 -3.494 -0.289
5.803 -3.461 -0.28799999
5.8249998 -3.4400001 -0.289
5.8340001 -3.4130001 -0.289
5.8470001 -3.3870001 -0.28999999
5.881 -3.3740001 -0.29100001
5.8920002 -3.348 -0.29100001
5.902 -3.3210001 -0.29100001
5.9200001 -3.2980001 -0.292
5.9320002 -3.273 -0.292
5.9429998 -3.247 -0.292
5.961 -3.2249999 -0.29300001
5.9749999 -3.201 -0.29300001
5.987 -3.1760001 -0.294
6.0100002 -3.1570001 -0.29499999
6.026 -3.135 -0.29499999
6.0539999 -3.118 -0.296
6.0770001 -3.099 -0.29699999
6.092 -3.076 -0.29699999
6.1079998 -3.0539999 -0.29800001
6.1269999 -3.033 -0.29899999
6.132 -3.0050001 -0.29800001
6.151 -2.9849999 -0.29899999
6.1609998 -2.96 -0.29899999
6.1929998 -2.9460001 -0.301
6.1919999 -2.9159999 -0.30000001
6.2129998 -2.8959999 -0.301
6.2270002 -2.8740001 -0.301
6.2389998 -2.8499999 -0.30199999
6.2620001 -2.832 -0.303
6.2789998 -2.8110001 -0.303
6.2979999 -2.7909999 -0.30399999
6.3080001 -2.767 -0.30399999
6.3449998 -2.7550001 -0.30599999
6.3610001 -2.733 -0.30599999
6.3909998 -2.7179999 -0.30700001
6.3909998 -2.6900001 -0.30700001
6.4109998 -2.6700001 -0.308
6.4229999 -2.648 -0.308
6.4419999 -2.628 -0.30899999
6.4590001 -2.608 -0.30899999
6.48 -2.589 -0.31
6.4980001 -2.569 -0.31099999
6.507 -2.5450001 -0.31099999
6.5430002 -2.5320001 -0.31200001
6.5650001 -2.5139999 -0.31299999
6.5669999 -2.4879999 -0.31299999
6.5760002 -2.4649999 -0.31299999
6.5879998 -2.4430001 -0.31400001
6.599 -2.421 -0.31400001
6.6220002 -2.4030001 -0.315
6.6409998 -2.3829999 -0.315
6.6659999 -2.3659999 -0.31600001
6.6630001 -2.3399999 -0.31600001
6.6739998 -2.3180001 -0.31600001
6.6960001 -2.3 -0.317
6.6919999 -2.273 -0.317
6.717 -2.256 -0.31799999
6.7360001 -2.237 -0.31799999
6.7470002 -2.2160001 -0.31900001
6.7680001 -2.198 -0.31900001
6.7690001 -2.1730001 -0.31900001
6.7820001 -2.1530001 -0.31999999
6.803 -2.135 -0.31999999
6.8099999 -2.112 -0.31999999
6.829 -2.0940001 -0.32100001
6.835 -2.072 -0.32100001
6.8569999 -2.0539999 -0.322
6.8779998 -2.036 -0.32300001
6.8779998 -2.0120001 -0.32300001
6.8969998 -1.994 -0.32300001
6.908 -1.973 -0.324
6.9169998 -1.952 -0.324
6.9530001 -1.939 -0.32499999
6.9699998 -1.92 -0.32600001
6.9689999 -1.897 -0.32600001
6.9790001 -1.876 -0.32600001
7.0019999 -1.859 -0.32699999
7.0170002 -1.84 -0.32699999
7.026 -1.8200001 -0.32800001
7.0320001 -1.798 -0.32800001
7.066 -1.784 -0.329
7.085 -1.767 -0.33000001
7.0970001 -1.747 -0.33000001
7.1079998 -1.727 -0.331
7.1420002 -1.7130001 -0.33199999
7.1529999 -1.693 -0.33199999
7.1799998 -1.678 -0.333
7.1919999 -1.658 -0.33399999
7.1900001 -1.636 -0.333
7.2069998 -1.618 -0.33399999
7.23 -1.601 -0.33500001
7.2449999 -1.5829999 -0.336
7.2490001 -1.562 -0.336
7.2810001 -1.5470001 -0.33700001
7.2930002 -1.529 -0.33700001
7.2979999 -1.508 -0.33700001
7.2940001 -1.4859999 -0.33700001
7.3210001 -1.471 -0.338
7.3449998 -1.454 -0.33899999
7.3639998 -1.437 -0.34
7.375 -1.418 -0.34
7.3839998 -1.399 -0.34
7.402 -1.382 -0.34099999
7.4349999 -1.368 -0.34200001
7.4239998 -1.345 -0.34200001
7.4569998 -1.331 -0.34299999
7.4580002 -1.311 -0.34299999
7.467 -1.2920001 -0.34299999
7.4879999 -1.275 -0.34400001
7.4980001 -1.257 -0.34400001
7.5159998 -1.24 -0.345
7.533 -1.223 -0.34599999
7.5489998 -1.206 -0.34599999
7.552 -1.187 -0.34599999
7.5780001 -1.171 -0.347
7.5760002 -1.151 -0.347
7.6040001 -1.136 -0.34799999
7.605 -1.117 -0.34799999
7.6230001 -1.1 -0.34900001
7.6370001 -1.0829999 -0.34900001
7.6430001 -1.0650001 -0.34900001
7.6529999 -1.0470001 -0.34999999
7.677 -1.0319999 -0.35100001
7.6789999 -1.013 -0.35100001
7.6929998 -0.99699998 -0.35100001
7.711 -0.98000002 -0.352
7.7160001 -0.96200001 -0.352
7.7270002 -0.94499999 -0.352
7.7480001 -0.93000001 -0.35299999
7.7529998 -0.912 -0.35299999
7.7550001 -0.89399999 -0.35299999
7.7810001 -0.87900001 -0.354
7.7740002 -0.861 -0.354
7.8080001 -0.84600002 -0.35499999
7.8179998 -0.82999998 -0.35600001
7.8319998 -0.81400001 -0.35600001
7.8410001 -0.79699999 -0.35699999
7.849 -0.77999997 -0.35699999
7.8670001 -0.76499999 -0.35800001
7.8790002 -0.74900001 -0.35800001
7.8920002 -0.73299998 -0.35800001
7.9130001 -0.71700001 -0.359
7.928 -0.70200002 -0.36000001
7.9390001 -0.68599999 -0.36000001
7.9549999 -0.67000002 -0.361
7.9520001 -0.653 -0.361
7.9920001 -0.63999999 -0.36199999
8.0039997 -0.62400001 -0.36300001
8.0290003 -0.60900003 -0.36399999
8.0810003 -0.597 -0.366
8.0740004 -0.57999998 -0.366
8.0480003 -0.56199998 -0.36399999
8.0710001 -0.54699999 -0.36500001
8.0869999 -0.53200001 -0.366
8.1000004 -0.51700002 -0.36700001
8.125 -0.50199997 -0.368
8.1169996 -0.486 -0.36700001
8.132 -0.47099999 -0.368
8.1599998 -0.45699999 -0.36899999
8.1870003 -0.44299999 -0.37
8.1610003 -0.426 -0.36899999
8.2069998 -0.41299999 -0.37099999
8.2290001 -0.39899999 -0.37200001
8.2379999 -0.384 -0.37200001
8.2729998 -0.37 -0.37400001
8.2779999 -0.35600001 -0.37400001
8.2819996 -0.34099999 -0.37400001
8.3280001 -0.32800001 -0.37599999
8.3769999 -0.315 -0.37799999
8.4110003 -0.301 -0.37900001
8.4560003 -0.28799999 -0.38100001
8.4429998 -0.273 -0.38100001
7.9699998 0.086999997 -0.50300002
8 0.102 -0.505
7.9899998 0.117 -0.50400001
8.0170002 0.133 -0.50599998
8.007 0.148 -0.50599998
8.0229998 0.163 -0.50700003
8.0010004 0.178 -0.50599998
8.0089998 0.19400001 -0.50599998
7.9980001 0.20999999 -0.50599998
8.0019999 0.226 -0.50599998
7.987 0.242 -0.50599998
7.9959998 0.25799999 -0.50599998
8.007 0.27500001 -0.50700003
8.0030003 0.29100001 -0.50700003
8.0050001 0.308 -0.50800002
8.0050001 0.32499999 -0.50800002
7.987 0.34200001 -0.50700003
7.9949999 0.359 -0.50800002
8.0030003 0.377 -0.50800002
7.994 0.39399999 -0.50800002
7.987 0.41100001 -0.50800002
8 0.43000001 -0.509
8.0109997 0.449 -0.50999999
8.0170002 0.46700001 -0.51099998
8.0039997 0.48500001 -0.50999999
8.007 0.50300002 -0.51099998
7.9850001 0.52100003 -0.509
7.9990001 0.54000002 -0.51099998
8.0080004 0.56 -0.51099998
8.0240002 0.57999998 -0.51300001
8.0290003 0.60000002 -0.51300001
8.0419998 0.62 -0.51499999
8.0249996 0.63800001 -0.514
8.0450001 0.65899998 -0.51499999
8.0360003 0.67799997 -0.51499999
8.0419998 0.699 -0.51599997
8.0450001 0.71899998 -0.51599997
8.059 0.741 -0.51800001
8.0559998 0.76099998 -0.51800001
8.0749998 0.78299999 -0.51899999
8.0649996 0.80299997 -0.51899999
8.0469999 0.82200003 -0.51800001
8.0749998 0.84600002 -0.52100003
8.0570002 0.86500001 -0.51999998
8.0559998 0.88599998 -0.51999998
8.0679998 0.90799999 -0.52100003
8.0530005 0.92799997 -0.52100003
8.0780001 0.95300001 -0.523
8.0719995 0.97399998 -0.523
8.0780001 0.99599999 -0.52399999
8.0819998 1.018 -0.52399999
8.0760002 1.04 -0.52399999
8.1029997 1.0650001 -0.52700001
8.085 1.085 -0.52600002
8.1120005 1.1109999 -0.528
8.0880003 1.131 -0.52700001
8.1020002 1.155 -0.528
8.1000004 1.178 -0.52899998
8.1110001 1.202 -0.52999997
8.1079998 1.225 -0.52999997
8.1309996 1.252 -0.53200001
8.1359997 1.276 -0.53299999
8.132 1.299 -0.53299999
8.1350002 1.323 -0.53399998
8.1429996 1.348 -0.53500003
8.1540003 1.373 -0.53600001
8.1590004 1.398 -0.537
8.1599998 1.4220001 -0.53799999
8.1709995 1.448 -0.53899997
8.1780005 1.474 -0.54000002
8.1800003 1.499 -0.54100001
8.1999998 1.527 -0.54299998
8.1969995 1.551 -0.54299998
8.1999998 1.576 -0.54400003
8.2089996 1.603 -0.54500002
8.2299995 1.632 -0.54699999
8.2259998 1.6569999 -0.54699999
8.2349997 1.684 -0.54799998
8.2270002 1.7079999 -0.54900002
8.2489996 1.738 -0.551
8.2650003 1.767 -0.55199999
8.2670002 1.793 -0.55299997
8.2679996 1.819 -0.55400002
8.2679996 1.845 -0.55400002
8.2770004 1.873 -0.55599999
8.2919998 1.902 -0.55699998
8.2959995 1.9299999 -0.55800003
8.2980003 1.957 -0.55900002
8.3120003 1.9859999 -0.56099999
8.3269997 2.017 -0.56199998
8.3319998 2.0450001 -0.56300002
8.3540001 2.0769999 -0.565
8.3479996 2.1029999 -0.56599998
8.3590002 2.132 -0.56699997
8.3859997 2.1670001 -0.56999999
8.3879995 2.1949999 -0.57099998
8.3839998 2.221 -0.57099998
8.3850002 2.2490001 -0.57200003
8.3909998 2.2780001 -0.57300001
8.4180002 2.313 -0.57499999
8.4169998 2.3410001 -0.57599998
8.427 2.372 -0.57800001
8.448 2.4059999 -0.57999998
8.4630003 2.438 -0.58099997
8.4589996 2.4649999 -0.58200002
8.4720001 2.497 -0.58399999
8.474 2.527 -0.58499998
8.467 2.553 -0.58499998
8.4790001 2.585 -0.58600003
8.4770002 2.6140001 -0.58700001
8.4940004 2.648 -0.58899999
8.5030003 2.6789999 -0.59100002
8.5120001 2.7119999 -0.59200001
8.5109997 2.7409999 -0.59299999
8.5209999 2.773 -0.59399998
8.5369997 2.8069999 -0.59600002
8.5559998 2.8429999 -0.59799999
8.559 2.8740001 -0.59899998
8.5679998 2.9059999 -0.60100001
8.5799999 2.941 -0.60299999
8.6000004 2.977 -0.60500002
8.6140003 3.0120001 -0.60699999
8.6289997 3.0469999 -0.60900003
8.6420002 3.082 -0.61000001
8.6560001 3.118 -0.61199999
8.6669998 3.152 -0.61400002
8.6890001 3.191 -0.61699998
8.6949997 3.224 -0.61799997
8.6920004 3.253 -0.61900002
8.7200003 3.2950001 -0.62099999
8.724 3.3269999 -0.62300003
8.7220001 3.3570001 -0.62300003
8.7329998 3.392 -0.625
8.7329998 3.424 -0.62599999
8.75 3.461 -0.62800002
8.7620001 3.4979999 -0.63
8.79 3.54 -0.63300002
8.7980003 3.575 -0.63499999
8.7989998 3.6070001 -0.63599998
8.8280001 3.651 -0.639
8.8500004 3.6919999 -0.64200002
8.8549995 3.7260001 -0.64300001
8.849 3.7550001 -0.64300001
8.8900003 3.8039999 -0.64700001
8.8889999 3.836 -0.648
8.9160004 3.8800001 -0.65100002
8.9160004 3.9119999 -0.65200001
8.9390001 3.9549999 -0.65499997
8.9519997 3.993 -0.65700001
8.9540005 4.027 -0.65799999
8.9890003 4.0749998 -0.662
8.9770002 4.1030002 -0.662
9.0030003 4.1469998 -0.66500002
9.0019999 4.1799998 -0.66600001
9.0270004 4.224 -0.66900003
9.0270004 4.257 -0.67000002
9.0290003 4.2909999 -0.67199999
9.0620003 4.3400002 -0.67500001
9.0830002 4.3829999 -0.67799997
9.0979996 4.4239998 -0.68000001
9.099 4.4580002 -0.68099999
9.1020002 4.4920001 -0.68300003
9.1440001 4.5469999 -0.68699998
9.1280003 4.572 -0.68699998
7.5630002 3.816 -0.56999999
7.362 3.7409999 -0.55599999
7.3140001 3.744 -0.55299997
7.2940001 3.76 -0.55299997
7.2810001 3.78 -0.55299997
7.289 3.8110001 -0.55400002
7.3410001 3.865 -0.55900002
9.2390003 4.8979998 -0.70499998
9.2419996 4.934 -0.70700002
9.2620001 4.9780002 -0.70899999
9.2609997 5.0120001 -0.71100003
9.2880001 5.0599999 -0.71399999
9.3039999 5.1030002 -0.71600002
9.3299999 5.151 -0.72000003
9.3640003 5.204 -0.72399998
9.3879995 5.2509999 -0.727
9.3769999 5.2789998 -0.727
9.3800001 5.316 -0.72899997
7.369 4.2020001 -0.57300001
7.25 4.1609998 -0.565
7.2179999 4.1690001 -0.56400001
7.1760001 4.1700001 -0.56099999
7.1630001 4.1890001 -0.56099999
7.1950002 4.2340002 -0.565
7.2820001 4.3109999 -0.57300001
9.4969997 5.6560001 -0.74800003
9.4949999 5.6890001 -0.75
9.5059996 5.73 -0.75199997
9.5209999 5.7729998 -0.75400001
9.5290003 5.8119998 -0.75599998
9.5509996 5.8590002 -0.75999999
9.5480003 5.8920002 -0.76099998
9.5649996 5.9359999 -0.764
9.5830002 5.9809999 -0.76599997
9.6090002 6.0310001 -0.76999998
9.6120005 6.0669999 -0.77100003
9.6090002 6.099 -0.773
9.6210003 6.1399999 -0.77499998
9.6210003 6.1739998 -0.77700001
9.6140003 6.2020001 -0.77700001
9.6280003 6.2449999 -0.77999997
9.6379995 6.2849998 -0.78200001
9.6479998 6.3249998 -0.78399998
9.6709995 6.3730001 -0.78799999
9.6759996 6.4099998 -0.79000002
9.6700001 6.4380002 -0.79100001
9.71 6.4980001 -0.79500002
9.7390003 6.5500002 -0.79900002
9.7209997 6.5710001 -0.79900002
9.717 6.6009998 -0.80000001
9.7370005 6.6469998 -0.80299997
9.7399998 6.6820002 -0.80500001
9.7259998 6.704 -0.80599999
9.7419996 6.7470002 -0.80800003
9.7790003 6.8049998 -0.81300002
9.7959995 6.848 -0.81599998
9.8009996 6.8839998 -0.81800002
5.98 -3.4879999 -0.28099999
5.987 -3.4749999 -0.28099999
6.0009999 -3.467 -0.28200001
6.007 -3.4530001 -0.28200001
6.0089998 -3.438 -0.28200001
6.0279999 -3.4319999 -0.28200001
6.0300002 -3.4159999 -0.28200001
6.0320001 -3.401 -0.28200001
6.0430002 -3.3900001 -0.28299999
6.052 -3.378 -0.28299999
6.0570002 -3.3640001 -0.28299999
6.046 -3.3410001 -0.28299999
6.0419998 -3.3210001 -0.28200001
6.052 -3.3099999 -0.28299999
6.0809999 -3.309 -0.28400001
6.0960002 -3.3 -0.28400001
6.0949998 -3.2820001 -0.28400001
6.0960002 -3.266 -0.28400001
6.1030002 -3.2520001 -0.28400001
6.1240001 -3.2460001 -0.285
6.1360002 -3.2349999 -0.28600001
6.151 -3.2260001 -0.28600001
6.158 -3.2119999 -0.28600001
6.1500001 -3.191 -0.28600001
6.1719999 -3.1849999 -0.287
6.1739998 -3.168 -0.287
6.1789999 -3.1530001 -0.287
6.1919999 -3.142 -0.287
6.1929998 -3.1259999 -0.287
6.2059999 -3.1140001 -0.28799999
6.2179999 -3.1029999 -0.28799999
6.2280002 -3.0899999 -0.28799999
6.2399998 -3.0780001 -0.289
6.2340002 -3.0580001 -0.289
6.2480001 -3.0469999 -0.289
6.2589998 -3.0339999 -0.289
6.276 -3.0250001 -0.28999999
6.289 -3.013 -0.29100001
6.2880001 -2.9949999 -0.28999999
6.296 -2.9809999 -0.29100001
6.303 -2.9660001 -0.29100001
6.316 -2.954 -0.29100001
6.329 -2.9419999 -0.292
6.3429999 -2.931 -0.292
6.3369999 -2.9100001 -0.292
6.3600001 -2.902 -0.29300001
6.3769999 -2.892 -0.29300001
6.3769999 -2.8740001 -0.29300001
6.3920002 -2.862 -0.294
6.4039998 -2.849 -0.294
6.415 -2.836 -0.29499999
6.4250002 -2.822 -0.29499999
6.4229999 -2.803 -0.29499999
6.441 -2.7920001 -0.29499999
6.4569998 -2.7809999 -0.296
6.46 -2.7639999 -0.296
6.4770002 -2.753 -0.29699999
6.4790001 -2.7349999 -0.29699999
6.5 -2.7249999 -0.29699999
6.5040002 -2.7079999 -0.29699999
6.5209999 -2.697 -0.29800001
6.5300002 -2.6819999 -0.29800001
6.5430002 -2.668 -0.29899999
6.5469999 -2.651 -0.29899999
6.5630002 -2.6389999 -0.29899999
6.5819998 -2.628 -0.30000001
6.5760002 -2.6070001 -0.30000001
6.5949998 -2.595 -0.30000001
6.6090002 -2.582 -0.301
6.6149998 -2.5650001 -0.301
6.619 -2.5480001 -0.301
6.6339998 -2.5350001 -0.30199999
6.6399999 -2.5179999 -0.30199999
6.651 -2.503 -0.30199999
6.6669998 -2.49 -0.303
6.664 -2.47 -0.30199999
6.6789999 -2.457 -0.303
6.6989999 -2.4449999 -0.30399999
6.691 -2.4230001 -0.303
6.7030001 -2.408 -0.30399999
6.717 -2.3940001 -0.30399999
6.7160001 -2.3740001 -0.30399999
6.7290001 -2.3599999 -0.30399999
6.7360001 -2.3429999 -0.30500001
6.7550001 -2.3299999 -0.30500001
6.7589998 -2.312 -0.30500001
6.7789998 -2.3 -0.30599999
6.7789998 -2.28 -0.30599999
6.7849998 -2.263 -0.30599999
6.7989998 -2.2479999 -0.30599999
6.8169999 -2.2349999 -0.30700001
6.822 -2.217 -0.30700001
6.8070002 -2.1930001 -0.30599999
6.8439999 -2.1849999 -0.308
6.8530002 -2.168 -0.308
6.8639998 -2.152 -0.30899999
6.8649998 -2.1329999 -0.308
6.8759999 -2.1170001 -0.30899999
6.8870001 -2.0999999 -0.30899999
6.8870001 -2.0810001 -0.30899999
6.9120002 -2.069 -0.31
6.9330001 -2.0550001 -0.31099999
6.9229999 -2.033 -0.31
6.947 -2.02 -0.31099999
6.9549999 -2.0020001 -0.31099999
6.9660001 -1.9859999 -0.31200001
6.9710002 -1.967 -0.31200001
6.9840002 -1.951 -0.31200001
6.9889998 -1.933 -0.31200001
7.0089998 -1.918 -0.31299999
7.0120001 -1.899 -0.31299999
7.0339999 -1.885 -0.31400001
7.0440001 -1.867 -0.31400001
7.0489998 -1.849 -0.31400001
7.0609999 -1.832 -0.31400001
7.098 -1.821 -0.31600001
7.0910001 -1.799 -0.315
7.1100001 -1.784 -0.31600001
7.1259999 -1.767 -0.317
7.1399999 -1.751 -0.317
7.1669998 -1.737 -0.31799999
7.198 -1.724 -0.31900001
7.204 -1.705 -0.31900001
7.2189999 -1.688 -0.31999999
7.2270002 -1.669 -0.31999999
7.2319999 -1.65 -0.31999999
7.25 -1.633 -0.32100001
7.2659998 -1.6160001 -0.32100001
7.2849998 -1.6 -0.322
7.2839999 -1.579 -0.322
7.3080001 -1.564 -0.32300001
7.3270001 -1.5470001 -0.32300001
7.3319998 -1.527 -0.32300001
7.348 -1.51 -0.324
7.3460002 -1.488 -0.324
7.3670001 -1.472 -0.32499999
7.3829999 -1.454 -0.32499999
7.401 -1.437 -0.32600001
7.4169998 -1.419 -0.32600001
7.4299998 -1.4 -0.32699999
7.4429998 -1.381 -0.32699999
7.4640002 -1.364 -0.32800001
7.4879999 -1.347 -0.329
7.4949999 -1.327 -0.329
7.5050001 -1.308 -0.329
7.5250001 -1.29 -0.33000001
7.5409999 -1.272 -0.33000001
7.5679998 -1.255 -0.331
7.5739999 -1.234 -0.331
7.5910001 -1.215 -0.33199999
7.6059999 -1.196 -0.33199999
7.6199999 -1.177 -0.333
7.6269999 -1.1569999 -0.333
7.651 -1.1390001 -0.33399999
7.6719999 -1.12 -0.33500001
7.6859999 -1.1 -0.33500001
7.7140002 -1.0829999 -0.336
7.7220001 -1.062 -0.336
7.7309999 -1.041 -0.33700001
7.743 -1.021 -0.33700001
7.7579999 -1.001 -0.33700001
7.77 -0.98100001 -0.338
7.7979999 -0.96200001 -0.33899999
7.8169999 -0.94199997 -0.33899999
7.8429999 -0.92299998 -0.34
7.8559999 -0.903 -0.34099999
7.868 -0.88200003 -0.34099999
7.8699999 -0.86000001 -0.34099999
7.9089999 -0.84200001 -0.34200001
7.9400001 -0.82300001 -0.34400001
7.947 -0.801 -0.34400001
7.973 -0.78100002 -0.345
8.0089998 -0.76200002 -0.34599999
8.026 -0.741 -0.347
8.0360003 -0.71899998 -0.347
8.059 -0.699 -0.34799999
8.1110001 -0.68000001 -0.34999999
8.1040001 -0.65700001 -0.34900001
8.1339998 -0.63700002 -0.34999999
8.1450005 -0.61400002 -0.35100001
8.158 -0.59200001 -0.35100001
8.184 -0.57099998 -0.352
8.1969995 -0.54900002 -0.352
8.2309999 -0.528 -0.354
8.2600002 -0.50700003 -0.35499999
8.2670002 -0.484 -0.35499999
8.2919998 -0.46200001 -0.35600001
8.3360004 -0.44100001 -0.35699999
8.3479996 -0.41800001 -0.35800001
8.3950005 -0.39700001 -0.359
8.4020004 -0.373 -0.36000001
8.4329996 -0.35100001 -0.361
8.4519997 -0.32800001 -0.361
8.5690002 -0.308 -0.366
8.3549995 0.177 -0.50400001
8.3500004 0.18799999 -0.50300002
8.3009996 0.198 -0.50099999
8.2770004 0.20900001 -0.49900001
8.2410002 0.22 -0.49700001
8.2349997 0.23199999 -0.49700001
8.2139997 0.243 -0.49599999
8.217 0.255 -0.49599999
8.1969995 0.26699999 -0.495
8.1920004 0.27900001 -0.495
8.1730003 0.292 -0.49399999
8.1700001 0.30399999 -0.49399999
8.1680002 0.317 -0.49399999
8.1829996 0.331 -0.495
8.1739998 0.34400001 -0.495
8.165 0.35800001 -0.49399999
8.1669998 0.37099999 -0.495
8.1689997 0.38600001 -0.495
8.1709995 0.40000001 -0.495
8.1789999 0.41499999 -0.49599999
8.1789999 0.42899999 -0.49599999
8.184 0.44400001 -0.49700001
8.1750002 0.45899999 -0.49700001
8.1789999 0.47400001 -0.49700001
8.1669998 0.48800001 -0.49700001
8.1809998 0.505 -0.498
8.1730003 0.51999998 -0.49700001
8.1870003 0.53600001 -0.49900001
8.1949997 0.55299997 -0.49900001
8.1969995 0.56900001 -0.5
8.1929998 0.58499998 -0.5
8.1940002 0.602 -0.5
8.1899996 0.61799997 -0.5
8.1960001 0.63499999 -0.50099999
8.1899996 0.65200001 -0.50099999
8.2010002 0.67000002 -0.50199997
8.2080002 0.68800002 -0.50300002
8.2189999 0.70599997 -0.50400001
8.217 0.72399998 -0.50400001
8.2250004 0.74199998 -0.505
8.2320004 0.76099998 -0.505
8.2189999 0.778 -0.505
8.2150002 0.796 -0.505
8.2360001 0.81599998 -0.50700003
8.243 0.83600003 -0.50800002
8.2349997 0.85399997 -0.50700003
8.2309999 0.87199998 -0.50800002
8.2399998 0.89200002 -0.509
8.2449999 0.912 -0.509
8.2510004 0.93199998 -0.50999999
8.2539997 0.95200002 -0.51099998
8.2469997 0.97100002 -0.51099998
8.2399998 0.99000001 -0.51099998
8.2539997 1.012 -0.51200002
8.2740002 1.035 -0.514
8.2639999 1.054 -0.51300001
8.2690001 1.075 -0.514
8.2720003 1.096 -0.51499999
8.2690001 1.117 -0.51499999
8.2869997 1.14 -0.51700002
8.3000002 1.163 -0.51800001
8.2880001 1.183 -0.51800001
8.2989998 1.206 -0.51899999
8.3140001 1.23 -0.51999998
8.3249998 1.253 -0.52200001
8.323 1.275 -0.52200001
8.3190002 1.2970001 -0.52200001
8.3269997 1.3200001 -0.523
8.3280001 1.3430001 -0.52399999
8.3290005 1.3660001 -0.52399999
8.3219995 1.387 -0.52399999
8.3339996 1.4119999 -0.52600002
8.3380003 1.436 -0.52700001
8.3369999 1.459 -0.52700001
8.3629999 1.487 -0.52899998
8.3649998 1.511 -0.52999997
8.3669996 1.535 -0.53100002
8.3620005 1.558 -0.53100002
8.3640003 1.582 -0.53200001
8.375 1.608 -0.53299999
8.3909998 1.636 -0.53500003
8.3660002 1.655 -0.53399998
8.3990002 1.686 -0.53600001
8.3879995 1.709 -0.53600001
8.3979998 1.7359999 -0.53799999
8.4110003 1.7640001 -0.53899997
8.4160004 1.79 -0.54000002
8.4200001 1.816 -0.54100001
8.4289999 1.844 -0.542
8.4449997 1.873 -0.54400003
8.434 1.896 -0.54400003
8.4469995 1.925 -0.54500002
8.4549999 1.9529999 -0.54699999
8.4549999 1.979 -0.54699999
8.4569998 2.006 -0.54799998
8.4799995 2.039 -0.55000001
8.4840002 2.066 -0.551
8.4770002 2.0910001 -0.551
8.4890003 2.1210001 -0.55299997
8.4969997 2.151 -0.55400002
8.5129995 2.1819999 -0.55599999
8.5120001 2.2090001 -0.55699998
8.5150003 2.2379999 -0.55800003
8.5340004 2.2709999 -0.56
8.5690002 2.3080001 -0.56300002
8.5679998 2.336 -0.56300002
8.5810003 2.368 -0.565
8.585 2.398 -0.56599998
8.6129999 2.434 -0.56900001
8.5970001 2.4590001 -0.56900001
8.6140003 2.493 -0.56999999
8.6160002 2.5220001 -0.57099998
8.6049995 2.5480001 -0.57099998
8.6110001 2.5799999 -0.57300001
8.6300001 2.615 -0.57499999
8.6280003 2.6440001 -0.57599998
8.6190004 2.6719999 -0.57599998
8.6459999 2.71 -0.579
8.632 2.7360001 -0.57800001
8.6520004 2.7720001 -0.58099997
8.6619997 2.806 -0.58200002
8.6730003 2.8410001 -0.58399999
8.6949997 2.8789999 -0.58600003
8.7150002 2.9159999 -0.588
8.7150002 2.948 -0.58899999
8.7259998 2.983 -0.59100002
8.7340002 3.017 -0.59299999
8.7410002 3.0510001 -0.59399998
8.7700005 3.0929999 -0.597
8.776 3.128 -0.59799999
8.79 3.165 -0.60000002
8.8059998 3.2030001 -0.602
8.802 3.2349999 -0.60299999
8.8240004 3.2750001 -0.60500002
8.8319998 3.3110001 -0.60699999
8.8470001 3.3499999 -0.60900003
8.835 3.3789999 -0.60900003
8.8549995 3.4200001 -0.61199999
8.8660002 3.4579999 -0.61299998
8.8769999 3.4960001 -0.61500001
8.8950005 3.5369999 -0.61799997
8.9029999 3.575 -0.61900002
8.9139996 3.6129999 -0.62099999
8.9350004 3.6570001 -0.62400001
8.9610004 3.7019999 -0.62599999
8.9650002 3.7390001 -0.62800002
8.9829998 3.7809999 -0.63
9.007 3.8269999 -0.63300002
9.04 3.8770001 -0.63599998
9.0430002 3.914 -0.63800001
9.0500002 3.9530001 -0.639
9.066 3.9960001 -0.64200002
9.0620003 4.0310001 -0.64300001
9.092 4.0809999 -0.64600003
9.1070004 4.1240001 -0.648
9.1090002 4.1620002 -0.64999998
9.1260004 4.2069998 -0.65200001
9.1440001 4.2519999 -0.65399998
9.1459999 4.2909999 -0.65600002
9.1639996 4.3369999 -0.65799999
9.177 4.381 -0.66000003
9.2130003 4.4369998 -0.66399997
9.2030001 4.4699998 -0.66500002
9.2270002 4.52 -0.66799998
9.2299995 4.5609999 -0.66900003
9.2550001 4.612 -0.67199999
9.2720003 4.6589999 -0.67500001
9.2679996 4.697 -0.676
7.4460001 3.8050001 -0.54400003
7.3260002 3.7750001 -0.53600001
7.2870002 3.786 -0.53399998
7.2639999 3.8050001 -0.53399998
7.2610002 3.835 -0.53500003
7.3060002 3.891 -0.53899997
9.3579998 5.0240002 -0.69199997
9.3699999 5.0710001 -0.69400001
9.3719997 5.1129999 -0.69599998
9.3929996 5.1659999 -0.699
9.3999996 5.211 -0.70099998
9.4130001 5.2600002 -0.70300001
9.4490004 5.322 -0.70700002
9.4589996 5.3699999 -0.70899999
9.4580002 5.4120002 -0.71100003
9.448 5.448 -0.71200001
7.3660002 4.2800002 -0.55599999
7.2389998 4.2389998 -0.54699999
7.1849999 4.2399998 -0.54400003
7.145 4.2490001 -0.542
7.1360002 4.276 -0.54299998
7.1539998 4.3200002 -0.54500002
7.2470002 4.4089999 -0.55400002
9.5179996 5.835 -0.72899997
9.5240002 5.882 -0.73100001
9.5290003 5.9289999 -0.73299998
9.5459995 5.9840002 -0.736
9.5380001 6.0240002 -0.73699999
9.5500002 6.0760002 -0.73900002
9.5459995 6.118 -0.74000001
9.5509996 6.1659999 -0.74199998
9.5640001 6.2199998 -0.745
9.5609999 6.263 -0.74699998
9.5439997 6.2969999 -0.74699998
9.5349998 6.3369999 -0.74800003
9.5489998 6.3920002 -0.75099999
9.5389996 6.4310002 -0.75099999
9.5340004 6.473 -0.75300002
9.5220003 6.5110002 -0.75300002
9.507 6.546 -0.75400001
9.526 6.6059999 -0.75700003
9.5150003 6.645 -0.75800002
9.5100002 6.6880002 -0.759
9.4980001 6.7259998 -0.75999999
9.4860001 6.7639999 -0.76099998
9.4799995 6.8060002 -0.76200002
9.4390001 6.823 -0.75999999
5.717 -3.79 -0.259
5.7470002 -3.773 -0.25999999
5.7639999 -3.7479999 -0.25999999
5.7800002 -3.7219999 -0.25999999
5.789 -3.6919999 -0.26100001
5.8049998 -3.6670001 -0.26100001
5.8099999 -3.635 -0.26100001
5.8189998 -3.605 -0.26100001
5.8460002 -3.5880001 -0.26199999
5.8870001 -3.5780001 -0.26300001
5.8930001 -3.5469999 -0.26300001
5.9050002 -3.52 -0.264
5.928 -3.5 -0.264
5.9530001 -3.48 -0.26499999
5.973 -3.4579999 -0.266
5.9949999 -3.437 -0.266
6.0019999 -3.408 -0.266
6.0209999 -3.385 -0.26699999
6.0419998 -3.365 -0.26800001
6.0440001 -3.3329999 -0.26699999
6.0669999 -3.313 -0.26800001
6.0840001 -3.29 -0.26899999
6.1030002 -3.2679999 -0.26899999
6.1230001 -3.247 -0.27000001
6.1370001 -3.223 -0.27000001
6.1550002 -3.2 -0.271
6.1630001 -3.1730001 -0.271
6.1890001 -3.155 -0.27200001
6.2140002 -3.1370001 -0.27200001
6.2199998 -3.108 -0.27200001
6.2340002 -3.085 -0.273
6.2509999 -3.062 -0.273
6.283 -3.0469999 -0.27399999
6.2940001 -3.0220001 -0.27500001
6.3109999 -3 -0.27500001
6.3150001 -2.9719999 -0.27500001
6.335 -2.9519999 -0.27599999
6.3559999 -2.9319999 -0.27599999
6.3759999 -2.9119999 -0.27700001
6.3930001 -2.8900001 -0.27700001
6.4109998 -2.869 -0.278
6.4219999 -2.8440001 -0.278
6.4439998 -2.825 -0.27900001
6.4569998 -2.802 -0.27900001
6.474 -2.7809999 -0.28
6.4889998 -2.7579999 -0.28
6.507 -2.7379999 -0.28099999
6.5320001 -2.72 -0.28099999
6.5409999 -2.6960001 -0.28200001
6.5650001 -2.677 -0.28200001
6.5749998 -2.6530001 -0.28299999
6.5960002 -2.6340001 -0.28299999
6.6170001 -2.615 -0.28400001
6.6279998 -2.592 -0.28400001
6.6440001 -2.5699999 -0.285
6.6659999 -2.552 -0.285
6.6820002 -2.53 -0.28600001
6.6820002 -2.5039999 -0.28600001
6.7010002 -2.484 -0.28600001
6.7220001 -2.4649999 -0.287
6.7189999 -2.437 -0.287
6.7529998 -2.4230001 -0.28799999
6.7600002 -2.3989999 -0.28799999
6.783 -2.381 -0.289
6.7849998 -2.3559999 -0.289
6.8070002 -2.3369999 -0.289
6.8010001 -2.309 -0.289
6.8200002 -2.29 -0.289
6.836 -2.27 -0.28999999
6.8509998 -2.2490001 -0.28999999
6.8629999 -2.2279999 -0.29100001
6.8709998 -2.2060001 -0.29100001
6.8930001 -2.187 -0.29100001
6.9120002 -2.1689999 -0.292
6.927 -2.148 -0.29300001
6.9349999 -2.1259999 -0.29300001
6.948 -2.105 -0.29300001
6.9650002 -2.086 -0.294
6.9749999 -2.0650001 -0.294
6.9879999 -2.0439999 -0.294
6.993 -2.0209999 -0.294
7.0229998 -2.006 -0.29499999
7.0209999 -1.9809999 -0.29499999
7.0489998 -1.966 -0.296
7.0679998 -1.947 -0.29699999
7.0799999 -1.927 -0.29699999
7.0939999 -1.9069999 -0.29699999
7.105 -1.886 -0.29800001
7.112 -1.865 -0.29800001
7.1469998 -1.851 -0.29899999
7.177 -1.835 -0.30000001
7.1859999 -1.814 -0.30000001
7.1939998 -1.794 -0.30000001
7.237 -1.781 -0.30199999
7.2350001 -1.758 -0.30199999
7.256 -1.74 -0.303
7.2740002 -1.722 -0.303
7.2940001 -1.704 -0.30399999
7.3049998 -1.684 -0.30399999
7.3109999 -1.663 -0.30399999
7.3189998 -1.643 -0.30399999
7.3390002 -1.625 -0.30500001
7.3590002 -1.608 -0.30599999
7.3779998 -1.59 -0.30599999
7.382 -1.569 -0.30599999
7.3979998 -1.551 -0.30700001
7.4120002 -1.5319999 -0.30700001
7.4299998 -1.5140001 -0.308
7.4400001 -1.495 -0.308
7.4580002 -1.477 -0.30899999
7.4590001 -1.456 -0.30899999
7.473 -1.437 -0.30899999
7.4759998 -1.4170001 -0.30899999
7.5159998 -1.404 -0.31099999
7.5450001 -1.388 -0.31200001
7.5370002 -1.3660001 -0.31099999
7.5560002 -1.348 -0.31200001
7.5739999 -1.331 -0.31200001
7.5900002 -1.313 -0.31299999
7.6040001 -1.295 -0.31299999
7.6139998 -1.277 -0.31400001
7.6230001 -1.258 -0.31400001
7.6420002 -1.2410001 -0.31400001
7.6500001 -1.222 -0.315
7.6750002 -1.206 -0.31600001
7.671 -1.186 -0.315
7.6869998 -1.168 -0.31600001
7.7069998 -1.152 -0.31600001
7.7069998 -1.132 -0.31600001
7.7399998 -1.118 -0.31799999
7.7529998 -1.1 -0.31799999
7.7719998 -1.0829999 -0.31900001
7.7800002 -1.0650001 -0.31900001
7.7919998 -1.048 -0.31900001
7.7989998 -1.03 -0.31900001
7.8179998 -1.013 -0.31999999
7.8429999 -0.99800003 -0.32100001
7.8390002 -0.97799999 -0.32100001
7.8470001 -0.96100003 -0.32100001
7.8610001 -0.94400001 -0.32100001
7.8759999 -0.92699999 -0.322
7.882 -0.91000003 -0.322
7.9070001 -0.89399999 -0.32300001
7.8990002 -0.875 -0.322
7.9260001 -0.86000001 -0.32300001
7.9559999 -0.84500003 -0.32499999
7.961 -0.82800001 -0.32499999
7.9619999 -0.81 -0.32499999
7.994 -0.796 -0.32600001
8.0080004 -0.77899998 -0.32600001
8.0249996 -0.76300001 -0.32699999
8.0340004 -0.74699998 -0.32699999
8.0450001 -0.73000002 -0.32699999
8.073 -0.71499997 -0.32800001
8.0749998 -0.69800001 -0.32800001
8.0740004 -0.68099999 -0.32800001
8.099 -0.66600001 -0.329
8.125 -0.65100002 -0.33000001
8.1520004 -0.63599998 -0.331
8.1420002 -0.61900002 -0.331
8.1669998 -0.60399997 -0.33199999
8.1990004 -0.58999997 -0.333
8.2049999 -0.574 -0.333
8.2299995 -0.55900002 -0.33399999
8.2370005 -0.54299998 -0.33399999
8.2469997 -0.52700001 -0.33399999
8.2609997 -0.51200002 -0.33500001
8.2919998 -0.498 -0.336
8.2989998 -0.48199999 -0.336
8.3240004 -0.46700001 -0.33700001
8.3330002 -0.45199999 -0.338
8.3430004 -0.43700001 -0.338
8.3699999 -0.42199999 -0.33899999
8.4110003 -0.40900001 -0.34
8.4130001 -0.39300001 -0.34
8.4390001 -0.37900001 -0.34099999
8.4549999 -0.36399999 -0.34200001
8.4809999 -0.34999999 -0.34299999
8.507 -0.336 -0.34400001
8.5120001 -0.32100001 -0.34400001
8.5279999 -0.30599999 -0.345
8.5649996 -0.29300001 -0.34599999
8.5979996 -0.27900001 -0.347
8.6459999 -0.26499999 -0.34900001
8.7329998 -0.25299999 -0.35299999
8.1160002 0.090000004 -0.46799999
8.1479998 0.106 -0.47
8.1599998 0.121 -0.47099999
8.151 0.13600001 -0.47
8.1420002 0.15099999 -0.47
8.1560001 0.167 -0.47099999
8.1470003 0.183 -0.47099999
8.1339998 0.198 -0.47
8.1470003 0.215 -0.47099999
8.1470003 0.23100001 -0.47099999
8.1309996 0.24699999 -0.47
8.1330004 0.26300001 -0.47099999
8.1379995 0.28 -0.47099999
8.1440001 0.29800001 -0.472
8.1440001 0.315 -0.472
8.158 0.33199999 -0.47299999
8.1619997 0.34999999 -0.47299999
8.1520004 0.36700001 -0.47299999
8.1709995 0.38600001 -0.47400001
8.1610003 0.403 -0.47400001
8.1630001 0.421 -0.47400001
8.165 0.44 -0.47499999
8.1789999 0.45899999 -0.47600001
8.1619997 0.47600001 -0.47499999
8.1820002 0.49599999 -0.477
8.1750002 0.51499999 -0.477
8.1800003 0.53399998 -0.477
8.1820002 0.55299997 -0.477
8.198 0.574 -0.479
8.1960001 0.59299999 -0.479
8.2040005 0.61299998 -0.47999999
8.1870003 0.63200003 -0.479
8.2019997 0.653 -0.47999999
8.1870003 0.671 -0.47999999
8.2220001 0.69499999 -0.48199999
8.2340002 0.71600002 -0.48300001
8.2320004 0.736 -0.48300001
8.2320004 0.75700003 -0.484
8.2390003 0.778 -0.484
8.2329998 0.79900002 -0.484
8.2399998 0.82099998 -0.48500001
8.2559996 0.84399998 -0.486
8.257 0.86500001 -0.48699999
8.2519999 0.88599998 -0.48699999
8.2489996 0.90700001 -0.48699999
8.2679996 0.93099999 -0.48899999
8.2639999 0.95300001 -0.48899999
8.2690001 0.97500002 -0.49000001
8.2770004 0.99800003 -0.49000001
8.2959995 1.023 -0.49200001
8.2980003 1.046 -0.493
8.3050003 1.069 -0.493
8.2930002 1.091 -0.493
8.3070002 1.115 -0.49399999
8.3369999 1.142 -0.49700001
8.3380003 1.166 -0.49700001
8.3509998 1.191 -0.498
8.3400002 1.2130001 -0.498
8.3509998 1.238 -0.49900001
8.368 1.2640001 -0.50099999
8.3649998 1.288 -0.50099999
8.3870001 1.3150001 -0.50300002
8.3900003 1.34 -0.50400001
8.3909998 1.364 -0.50400001
8.4090004 1.392 -0.50599998
8.3809996 1.4119999 -0.50400001
8.415 1.442 -0.50700003
8.4200001 1.4680001 -0.50800002
8.4239998 1.493 -0.509
8.4490004 1.523 -0.51099998
8.4449997 1.5470001 -0.51099998
8.4460001 1.573 -0.51200002
8.46 1.601 -0.51300001
8.4610004 1.626 -0.514
8.4790001 1.656 -0.51499999
8.4799995 1.682 -0.51599997
8.4890003 1.709 -0.51700002
8.4910002 1.7359999 -0.51800001
8.5080004 1.765 -0.51899999
8.526 1.796 -0.52100003
8.5369997 1.824 -0.52200001
8.5299997 1.849 -0.52200001
8.5439997 1.8789999 -0.52399999
8.5649996 1.911 -0.52600002
8.5790005 1.941 -0.52700001
8.5819998 1.9680001 -0.528
8.5930004 1.998 -0.52899998
8.5939999 2.026 -0.52999997
8.6079998 2.0569999 -0.53200001
8.6149998 2.086 -0.53299999
8.625 2.1159999 -0.53399998
8.6350002 2.1459999 -0.53500003
8.6379995 2.175 -0.53600001
8.6599998 2.2090001 -0.53799999
8.6610003 2.237 -0.53899997
8.6689997 2.2679999 -0.54000002
8.691 2.302 -0.542
8.724 2.339 -0.54500002
8.7290001 2.369 -0.546
8.724 2.3959999 -0.546
8.7390003 2.4300001 -0.54799998
8.7489996 2.461 -0.54900002
8.7600002 2.494 -0.551
8.7550001 2.5209999 -0.551
8.7749996 2.5569999 -0.55299997
8.7930002 2.5910001 -0.55500001
8.8140001 2.6270001 -0.55699998
8.8120003 2.6559999 -0.55800003
8.8210001 2.6889999 -0.55900002
8.8400002 2.7249999 -0.56099999
8.8540001 2.7590001 -0.56300002
8.8629999 2.7920001 -0.56400001
8.8540001 2.8199999 -0.56400001
8.8629999 2.8529999 -0.56599998
8.8909998 2.892 -0.56800002
8.8879995 2.9219999 -0.56900001
8.9069996 2.9590001 -0.57099998
8.9239998 2.9949999 -0.57300001
8.934 3.03 -0.574
8.9219999 3.056 -0.574
8.9420004 3.0940001 -0.57599998
8.9429998 3.1259999 -0.57700002
8.9610004 3.1630001 -0.579
8.9820004 3.2019999 -0.58099997
8.9720001 3.23 -0.58200002
8.9849997 3.267 -0.583
8.9890003 3.3 -0.58499998
8.9980001 3.335 -0.58600003
9.007 3.3699999 -0.58700001
9.0139999 3.404 -0.58899999
9.0340004 3.444 -0.59100002
9.0530005 3.483 -0.59299999
9.0670004 3.5209999 -0.59500003
9.0799999 3.5580001 -0.597
9.0900002 3.595 -0.59799999
9.1090002 3.635 -0.60100001
9.118 3.671 -0.602
9.1370001 3.711 -0.60399997
9.1450005 3.747 -0.60600001
9.1669998 3.79 -0.60799998
9.1780005 3.8269999 -0.61000001
9.191 3.865 -0.61199999
9.2150002 3.9089999 -0.61400002
9.2410002 3.9530001 -0.61699998
9.2530003 3.9920001 -0.61900002
9.2609997 4.0289998 -0.62099999
9.2679996 4.0650001 -0.62199998
9.2860003 4.1069999 -0.62400001
9.2930002 4.1440001 -0.62599999
9.3240004 4.1919999 -0.62900001
9.3380003 4.2319999 -0.63099998
9.3409996 4.2670002 -0.63200003
9.3660002 4.3130002 -0.63499999
9.3780003 4.3520002 -0.63700002
9.3870001 4.3909998 -0.63800001
9.4069996 4.434 -0.64099997
9.3990002 4.4650002 -0.64099997
9.4099998 4.5050001 -0.64300001
9.434 4.5510001 -0.64600003
9.4440002 4.5900002 -0.648
9.4580002 4.632 -0.64999998
9.4790001 4.677 -0.65200001
9.4870005 4.7150002 -0.65399998
9.5 4.756 -0.65600002
9.5019999 4.7919998 -0.65700001
9.5200005 4.836 -0.66000003
9.5419998 4.882 -0.662
7.448 3.8380001 -0.51800001
7.2969999 3.7869999 -0.50800002
7.257 3.793 -0.50599998
7.244 3.812 -0.50599998
7.2350001 3.8340001 -0.50700003
7.2350001 3.8610001 -0.50800002
7.2849998 3.914 -0.51200002
9.6529999 5.2220001 -0.68000001
9.6689997 5.2659998 -0.68199998
9.6789999 5.3060002 -0.68400002
9.6879997 5.3470001 -0.68599999
9.698 5.388 -0.68800002
9.7200003 5.4349999 -0.69099998
9.7110004 5.4650002 -0.69099998
9.7229996 5.5079999 -0.69300002
9.7320004 5.5479999 -0.69499999
7.5450001 4.329 -0.54000002
7.302 4.2150002 -0.523
7.2160001 4.1919999 -0.51800001
7.1799998 4.197 -0.51700002
7.1490002 4.2049999 -0.51499999
7.1589999 4.2360001 -0.51700002
7.1760001 4.2719998 -0.51899999
7.2740002 4.3569999 -0.52700001
9.8479996 5.934 -0.71499997
9.8400002 5.9650002 -0.71600002
9.8439999 6.0019999 -0.71700001
9.8669996 6.0510001 -0.72100002
9.8620005 6.0830002 -0.72100002
9.8640003 6.119 -0.72299999
9.8839998 6.1669998 -0.72600001
9.8859997 6.2030001 -0.727
9.9069996 6.2509999 -0.73000002
9.9049997 6.2839999 -0.73100001
9.9119997 6.3239999 -0.73299998
9.9259996 6.3670001 -0.736
9.934 6.4070001 -0.73799998
9.9469995 6.4499998 -0.74000001
9.9519997 6.4879999 -0.74199998
9.9580002 6.526 -0.74400002
9.9750004 6.5710001 -0.74599999
9.9919996 6.6160002 -0.74900001
9.9890003 6.6479998 -0.75
10.015 6.6999998 -0.75400001
10.005 6.7270002 -0.75400001
10.032 6.7789998 -0.75800002
10.038 6.816 -0.75999999
10.022 6.8390002 -0.75999999
9.9949999 6.8540001 -0.759
10.046 6.9219999 -0.764
10.043 6.9530001 -0.76599997
10.072 7.006 -0.76899999
10.089 7.0500002 -0.77200001
10.1 7.0910001 -0.77399999
10.139 7.152 -0.77899998
6.073 -3.5450001 -0.255
6.0799999 -3.5320001 -0.255
6.0900002 -3.5209999 -0.255
6.0970001 -3.5079999 -0.255
6.1090002 -3.4979999 -0.25600001
6.1030002 -3.4779999 -0.255
6.119 -3.47 -0.25600001
6.1240001 -3.4549999 -0.25600001
6.132 -3.4419999 -0.25600001
6.1469998 -3.4330001 -0.257
6.1459999 -3.4159999 -0.257
6.1420002 -3.3959999 -0.25600001
6.1529999 -3.385 -0.257
6.1620002 -3.3729999 -0.257
6.1729999 -3.3610001 -0.257
6.171 -3.3429999 -0.257
6.1900001 -3.336 -0.25799999
6.1830001 -3.3150001 -0.257
6.191 -3.302 -0.25799999
6.184 -3.2809999 -0.257
6.2319999 -3.2880001 -0.259
6.2529998 -3.2820001 -0.25999999
6.2729998 -3.2750001 -0.26100001
6.2610002 -3.25 -0.25999999
6.2740002 -3.24 -0.25999999
6.2740002 -3.2219999 -0.25999999
6.2800002 -3.207 -0.25999999
6.296 -3.197 -0.26100001
6.302 -3.1830001 -0.26100001
6.3070002 -3.1670001 -0.26100001
6.3299999 -3.161 -0.26199999
6.329 -3.142 -0.26199999
6.336 -3.128 -0.26199999
6.3579998 -3.1199999 -0.26300001
6.362 -3.1040001 -0.26300001
6.3660002 -3.0880001 -0.26300001
6.3790002 -3.0769999 -0.26300001
6.3769999 -3.0569999 -0.26300001
6.3870001 -3.0439999 -0.26300001
6.4050002 -3.0339999 -0.264
6.4130001 -3.02 -0.264
6.427 -3.0079999 -0.26499999
6.4419999 -2.997 -0.26499999
6.4530001 -2.983 -0.26499999
6.4679999 -2.9719999 -0.266
6.474 -2.9560001 -0.266
6.493 -2.9460001 -0.26699999
6.4970002 -2.9300001 -0.26699999
6.5019999 -2.9130001 -0.26699999
6.5079999 -2.898 -0.26699999
6.5170002 -2.8829999 -0.26699999
6.5380001 -2.8729999 -0.26800001
6.559 -2.8640001 -0.26899999
6.5500002 -2.8410001 -0.26800001
6.5609999 -2.8269999 -0.26800001
6.5710001 -2.813 -0.26899999
6.5830002 -2.799 -0.26899999
6.6030002 -2.789 -0.27000001
6.6160002 -2.7750001 -0.27000001
6.6209998 -2.7579999 -0.27000001
6.6360002 -2.7460001 -0.271
6.651 -2.733 -0.271
6.6630001 -2.7190001 -0.27200001
6.6630001 -2.7 -0.271
6.6820002 -2.688 -0.27200001
6.6900001 -2.6719999 -0.27200001
6.6950002 -2.655 -0.27200001
6.71 -2.642 -0.273
6.71 -2.6229999 -0.273
6.7140002 -2.605 -0.273
6.743 -2.5969999 -0.27399999
6.7259998 -2.5710001 -0.273
6.7480001 -2.5599999 -0.27399999
6.7680001 -2.549 -0.27399999
6.7750001 -2.5320001 -0.27399999
6.7930002 -2.5190001 -0.27500001
6.8039999 -2.5039999 -0.27500001
6.8140001 -2.4879999 -0.27599999
6.8340001 -2.4749999 -0.27599999
6.848 -2.461 -0.27700001
6.8379998 -2.438 -0.27599999
6.8530002 -2.424 -0.27700001
6.8639998 -2.408 -0.27700001
6.8839998 -2.395 -0.278
6.8740001 -2.372 -0.27700001
6.8829999 -2.3559999 -0.27700001
6.9050002 -2.3429999 -0.278
6.8940001 -2.3199999 -0.27700001
6.901 -2.303 -0.278
6.9229999 -2.29 -0.278
6.9330001 -2.2739999 -0.27900001
6.9460001 -2.2579999 -0.27900001
6.9590001 -2.2420001 -0.27900001
6.9640002 -2.224 -0.27900001
6.967 -2.2049999 -0.27900001
6.9759998 -2.188 -0.28
6.9980001 -2.175 -0.28
7.007 -2.158 -0.28099999
7.0120001 -2.1389999 -0.28099999
7.0349998 -2.1259999 -0.28099999
7.0380001 -2.1070001 -0.28099999
7.0500002 -2.0899999 -0.28200001
7.0689998 -2.076 -0.28200001
7.0749998 -2.0580001 -0.28200001
7.0819998 -2.039 -0.28299999
7.0929999 -2.0220001 -0.28299999
7.1100001 -2.007 -0.28299999
7.1160002 -1.988 -0.28299999
7.1350002 -1.973 -0.28400001
7.1560001 -1.959 -0.285
7.1609998 -1.9400001 -0.285
7.171 -1.9220001 -0.285
7.1989999 -1.909 -0.28600001
7.1950002 -1.888 -0.28600001
7.1929998 -1.8660001 -0.285
7.2470002 -1.86 -0.287
7.257 -1.842 -0.28799999
7.2649999 -1.823 -0.28799999
7.2839999 -1.807 -0.28799999
7.289 -1.788 -0.28799999
7.3000002 -1.77 -0.289
7.3169999 -1.753 -0.289
7.3299999 -1.735 -0.28999999
7.3410001 -1.717 -0.28999999
7.3540001 -1.699 -0.28999999
7.3720002 -1.682 -0.29100001
7.3829999 -1.664 -0.29100001
7.3959999 -1.646 -0.29100001
7.4060001 -1.627 -0.292
7.4190001 -1.609 -0.292
7.4359999 -1.591 -0.29300001
7.454 -1.574 -0.29300001
7.4660001 -1.5549999 -0.29300001
7.4840002 -1.538 -0.294
7.493 -1.518 -0.294
7.5209999 -1.503 -0.29499999
7.5279999 -1.483 -0.29499999
7.5419998 -1.464 -0.296
7.5250001 -1.439 -0.29499999
7.5560002 -1.424 -0.296
7.5830002 -1.4069999 -0.29699999
7.5830002 -1.386 -0.29699999
7.6170001 -1.3710001 -0.29800001
