# .PCD v0.7 - Point Cloud Data file format
VERSION 0.7
FIELDS x y z
SIZE 4 4 4
TYPE F F F
COUNT 1 1 1
WIDTH 1801
HEIGHT 1
VIEWPOINT 0 0 0 1 0 0 0
POINTS 1801
DATA ascii
26.674999 -8.448 4.9060001
26.698999 -8.3599997 4.908
26.719 -7.1760001 4.888
26.715 -7.0879998 4.8860002
26.704 -6.9980001 4.882
26.773001 -6.9299998 4.8930001
26.74 -6.835 4.8850002
26.709 -6.7420001 4.8779998
26.705999 -6.6560001 4.8759999
26.693001 -6.5689998 4.8720002
26.697001 -6.487 4.8709998
26.711 -6.4070001 4.8720002
26.726 -6.3280001 4.8740001
26.726999 -6.2459998 4.8730001
26.704 -6.1589999 4.8670001
26.705999 -6.0780001 4.8660002
26.705999 -5.9980001 4.8639998
26.766001 -5.9310002 4.8740001
30.867001 2.457 5.777
30.868 2.529 5.7779999
30.858 2.5999999 5.7779999
30.816 2.6700001 5.7719998
30.854 2.747 5.7800002
30.832001 2.819 5.7779999
30.829 2.8940001 5.7789998
30.844999 2.97 5.783
30.834 3.0450001 5.783
30.844 3.122 5.7870002
30.863001 3.201 5.7919998
30.853001 3.277 5.7919998
30.834999 3.3529999 5.79
30.861 3.4349999 5.7969999
30.847 3.5120001 5.7969999
30.851999 3.592 5.8000002
30.82 3.668 5.796
30.825001 3.7490001 5.7989998
30.815001 3.8280001 5.8000002
30.851 3.914 5.809
30.827 3.993 5.8070002
30.851 4.0780001 5.8140001
30.858 4.1620002 5.8179998
30.843 4.243 5.8179998
30.862 4.329 5.8239999
30.855 4.4120002 5.8249998
30.864 4.4980001 5.8299999
30.879999 4.586 5.836
30.864 4.6690001 5.836
30.861 4.7540002 5.8379998
30.860001 4.8410001 5.8410001
30.886999 4.9320002 5.849
30.872999 5.0170002 5.8499999
30.879 5.1059999 5.8540001
30.917999 5.2010002 5.8649998
30.909 5.2880001 5.8670001
30.914 5.3779998 5.8709998
30.903999 5.4660001 5.8730001
30.909 5.5560002 5.8769999
30.914 5.6479998 5.882
30.940001 5.743 5.8899999
30.927 5.8319998 5.8920002
30.959999 5.9299998 5.902
30.951 6.0209999 5.9039998
30.952999 6.1129999 5.908
30.961 6.2080002 5.914
30.966 6.302 5.9190001
30.962999 6.395 5.9219999
30.964001 6.4899998 5.927
30.98 6.5879998 5.934
30.936001 6.6729999 5.9299998
30.955 6.7719998 5.9380002
30.983 6.8740001 5.948
30.962999 6.9660001 5.948
31.011 7.073 5.9619999
31.02 7.1719999 5.9679999
31.01 7.2670002 5.9710002
31.023001 7.368 5.9780002
31.049999 7.4720001 5.9879999
31.035999 7.5669999 5.9899998
31.023001 7.6630001 5.993
31.052999 7.7690001 6.0029998
31.052999 7.869 6.0079999
31.075001 7.974 6.0180001
31.052999 8.0690002 6.0190001
31.034 8.1639996 6.02
31.068001 8.2740002 6.0320001
31.055 8.3719997 6.0349998
31.061001 8.4750004 6.0409999
31.097 8.5869999 6.0539999
31.101999 8.6899996 6.0599999
31.093 8.79 6.0640001
31.087 8.8920002 6.0679998
31.153999 9.0139999 6.0869999
31.16 9.1199999 6.0939999
31.155001 9.2220001 6.099
31.174 9.3319998 6.1079998
26.114 -12.7 4.9920001
26.156 -12.64 4.9990001
26.187 -12.575 5.0040002
26.235001 -12.278 5.0079999
26.204 -12.184 5.0009999
26.209 -12.106 5.0009999
26.308001 -12.072 5.0180001
26.271 -11.975 5.0100002
26.23 -11.876 5.0009999
26.275 -11.816 5.0079999
26.267 -11.733 5.006
26.245001 -11.643 5
26.299 -11.587 5.0089998
26.273001 -11.495 5.0029998
26.399 -11.309 5.0229998
26.349001 -11.208 5.013
26.32 -11.116 5.006
26.361 -11.053 5.0120001
26.34 -10.964 5.007
26.333 -10.881 5.0050001
26.344 -10.805 5.0050001
26.384001 -10.742 5.0120001
26.381001 -10.66 5.0100002
26.378 -10.579 5.0079999
26.386 -10.502 5.0079999
26.436001 -10.442 5.0170002
26.381001 -10.341 5.0050001
26.391001 -10.264 5.0050001
26.4 -10.188 5.006
26.462 -10.132 5.0170002
26.469999 -10.054 5.0170002
26.478001 -9.9779997 5.0170002
26.448999 -9.8859997 5.0100002
26.466 -9.8129997 5.0120001
26.483999 -9.7390003 5.0139999
26.481001 -9.658 5.0120001
26.462 -9.5710001 5.007
26.461 -9.4910002 5.006
26.493 -9.4219999 5.0110002
26.52 -9.3520002 5.0139999
26.507999 -9.2679996 5.0110002
26.537001 -9.198 5.0149999
26.531 -9.1149998 5.013
26.566 -9.0469999 5.0180001
26.629 -8.9890003 5.0279999
26.594 -8.8970003 5.0209999
26.533001 -8.7969999 5.0079999
26.570999 -8.7290001 5.0139999
26.575001 -8.6499996 5.013
26.584 -8.573 5.013
26.625 -8.507 5.02
26.6 -8.4189997 5.0139999
26.663 -8.3579998 5.0240002
26.643999 -7.9530001 5.0139999
26.638 -7.8709998 5.0120001
26.641001 -7.632 5.0079999
26.693001 -7.5669999 5.0159998
26.719 -7.4949999 5.02
26.725 -7.177 5.0149999
26.695 -7.0890002 5.0079999
26.716999 -7.0149999 5.0110002
26.702 -6.9310002 5.007
26.693001 -6.849 5.0040002
26.697001 -6.7709999 5.0029998
26.702 -6.6919999 5.0029998
26.694 -6.6110001 5
26.714001 -6.5359998 5.0019999
26.704 -6.454 4.9990001
26.705 -6.375 4.9980001
26.718 -6.2989998 4.9990001
26.712999 -6.2179999 4.9970002
26.714001 -6.138 4.9949999
26.715 -6.059 4.994
26.719 -5.9809999 4.993
26.724001 -5.902 4.993
26.753 -5.829 4.9970002
30.981001 3.487 5.882
30.955999 3.5550001 5.8790002
30.917999 3.6210001 5.875
30.952999 3.697 5.8839998
30.927 3.7650001 5.881
30.941 3.8399999 5.8870001
30.931999 3.9119999 5.888
30.914 3.983 5.8870001
30.937 4.0599999 5.895
30.954 4.138 5.901
30.962 4.2140002 5.9050002
30.995001 4.2950001 5.915
30.934 4.3629999 5.9060001
30.973 4.4460001 5.9169998
30.952 4.5209999 5.9169998
30.947001 4.598 5.9190001
30.959 4.6789999 5.9250002
30.934999 4.7550001 5.9239998
30.92 4.8330002 5.9250002
30.940001 4.9159999 5.9320002
30.931999 4.9959998 5.934
30.941999 5.0799999 5.9400001
30.931999 5.1599998 5.9419999
30.993999 5.2529998 5.9580002
30.944 5.3280001 5.9520001
30.955999 5.415 5.9590001
30.923 5.493 5.9569998
31.021999 5.5960002 5.98
30.968 5.6719999 5.974
30.952999 5.7550001 5.9749999
30.983999 5.848 5.9860001
30.993 5.9369998 5.9920001
30.952999 6.0170002 5.9889998
30.948999 6.105 5.993
30.962999 6.1960001 6
30.997 6.2930002 6.0120001
30.959999 6.375 6.0089998
31.083 6.4910002 6.0380001
31.072001 6.5799999 6.0409999
31.002001 6.6570001 6.033
30.974001 6.743 6.0320001
30.993999 6.8400002 6.0419998
31.003 6.9349999 6.0489998
30.966 7.02 6.0469999
31.004999 7.1240001 6.0599999
31.027 7.224 6.0700002
31.037001 7.3210001 6.0770001
31.025999 7.415 6.0809999
31.027 7.5110002 6.0869999
31.073999 7.6199999 6.1020002
31.035 7.7069998 6.0999999
31.063 7.8119998 6.1110001
31.042 7.9060001 6.1129999
30.996 8.092 6.1160002
31.018999 8.198 6.1269999
31.041 8.3039999 6.138
31.08 8.4160004 6.152
31.040001 8.507 6.151
31.068001 8.6169996 6.1630001
31.072001 8.7200003 6.1700001
31.143999 9.052 6.2049999
31.148001 9.158 6.2119999
31.125 9.257 6.2150002
31.136999 9.5799999 6.2389998
31.106001 9.677 6.2399998
31.200001 10.033 6.2810001
31.124001 10.118 6.2729998
31.164 10.573 6.3119998
31.193001 10.696 6.3260002
24.77 -16.275 4.8909998
24.888 -16.197001 4.9099998
24.966 -16.094 4.921
25.066 -16.004999 4.9359999
25.149 -15.906 4.948
25.360001 -15.438 4.9720001
25.400999 -15.315 4.9759998
25.476 -15.214 4.9860001
25.468 -15.065 4.98
25.559999 -14.975 4.994
26.233 -12.529 5.0479999
26.233 -12.405 5.0440001
26.243 -12.288 5.0430002
26.287001 -12.186 5.0479999
26.327999 -11.963 5.0500002
26.327 -11.843 5.0469999
26.313999 -11.719 5.0409999
26.381001 -11.63 5.0510001
26.379999 -11.513 5.0479999
26.378 -11.395 5.0450001
26.4 -11.289 5.046
26.421 -11.184 5.0469999
26.472 -11.091 5.0539999
26.459999 -10.973 5.0489998
26.42 -10.844 5.039
26.458 -10.748 5.0430002
26.493999 -10.651 5.0469999
26.459999 -10.527 5.0380001
26.474001 -10.424 5.0380001
26.487 -10.32 5.0380001
26.469999 -10.206 5.0320001
26.497 -10.109 5.0349998
26.493 -10.001 5.0320001
26.513 -9.9020004 5.033
26.507999 -9.7950001 5.0300002
26.521999 -9.6960001 5.0300002
26.552 -9.6029997 5.033
26.545 -9.4980001 5.0289998
26.547001 -9.3959999 5.027
26.552999 -9.2959995 5.026
26.562 -9.198 5.026
26.573 -9.1020002 5.0250001
26.608 -9.0139999 5.0300002
26.634001 -8.9230003 5.033
26.615 -8.8179998 5.027
26.618999 -8.7220001 5.0250001
26.629999 -8.6280003 5.0250001
26.624001 -8.5290003 5.0219998
26.638 -8.4379997 5.0229998
26.636 -8.3409996 5.02
26.686001 -8.2620001 5.0279999
26.667 -7.9749999 5.0180001
26.639999 -7.875 5.0110002
26.686001 -7.7049999 5.0159998
26.68 -7.612 5.013
26.681999 -7.5219998 5.0120001
26.719999 -7.2659998 5.013
26.645 -7.1570001 4.9980001
26.665001 -7.0749998 5
26.655001 -6.9860001 4.9959998
26.664 -6.902 4.9959998
26.673 -6.8189998 4.9959998
26.653 -6.7280002 4.9910002
26.693001 -6.6539998 4.9970002
26.712999 -6.5749998 4.9990001
26.697001 -6.487 4.994
26.681 -6.4000001 4.9899998
26.684999 -6.3179998 4.9889998
26.671 -6.2329998 4.9850001
26.714001 -6.1609998 4.9910002
26.702999 -6.0780001 4.9879999
26.715 -6 4.9889998
26.732 -5.9229999 4.9899998
30.940001 2.6110001 5.954
30.851999 2.677 5.9390001
30.882999 2.7539999 5.9460001
30.857 2.825 5.9429998
30.865999 2.901 5.9460001
30.878 2.977 5.9499998
30.853001 3.0510001 5.947
30.844999 3.1259999 5.947
30.868999 3.2060001 5.954
30.898001 3.286 5.961
30.846001 3.358 5.9530001
30.812 3.4330001 5.9489999
30.827 3.513 5.954
30.865999 3.5969999 5.9640002
30.865999 3.677 5.9660001
30.809999 3.7509999 5.9580002
30.893 3.842 5.9759998
30.865999 3.9200001 5.973
30.847 3.9990001 5.9720001
30.862 4.0830002 5.9770002
30.834 4.1620002 5.9749999
30.857 4.2490001 5.9819999
30.882999 4.336 5.9899998
30.878 4.4200001 5.9920001
30.857 4.5009999 5.9899998
30.856001 4.586 5.993
30.882999 4.6760001 6.0019999
30.886999 4.7620001 6.0050001
30.868 4.8460002 6.0050001
30.886 4.9359999 6.0120001
30.881001 5.0219998 6.0139999
30.893999 5.112 6.02
30.891001 5.1999998 6.0229998
30.899 5.29 6.0279999
30.902 5.3790002 6.0320001
30.892 5.467 6.0339999
30.934 5.5650001 6.0450001
30.93 5.6550002 6.0489998
30.910999 5.7420001 6.0489998
30.929001 5.8369999 6.0560002
30.910999 5.9250002 6.0560002
30.910999 6.0170002 6.0599999
30.955 6.118 6.073
30.934999 6.2069998 6.073
30.971001 6.3070002 6.085
31.007 6.4089999 6.0960002
30.976 6.4959998 6.0939999
30.976999 6.5910001 6.099
30.992001 6.6890001 6.1059999
30.981001 6.7820001 6.1079998
30.987 6.8790002 6.1139998
31.018999 6.9829998 6.125
31.028999 7.0819998 6.132
31.087999 7.1919999 6.1479998
31.009001 7.2709999 6.1370001
31.062 7.381 6.1529999
31.073999 7.4819999 6.1599998
31.089001 7.5840001 6.1680002
31.084999 7.7820001 6.177
31.061001 7.875 6.178
31.138 7.9949999 6.198
31.054001 8.073 6.1869998
31.101999 8.1870003 6.2020001
31.134001 8.2959995 6.2129998
31.087 8.3850002 6.21
26.087 -12.854 5.1139998
26.132999 -12.797 5.1220002
26.106001 -12.704 5.1160002
26.122 -12.632 5.118
26.127001 -12.555 5.1170001
26.122999 -12.473 5.1149998
26.201 -12.43 5.1290002
26.156 -12.329 5.119
26.198999 -12.269 5.1269999
26.181 -12.181 5.1220002
26.233 -12.125 5.131
26.268 -12.061 5.1360002
26.290001 -11.99 5.1389999
26.243999 -11.889 5.1290002
26.294001 -11.832 5.138
26.294001 -11.752 5.1360002
26.229 -11.643 5.1220002
26.368 -11.624 5.1479998
26.271999 -11.502 5.1279998
26.275999 -11.423 5.1279998
26.316 -11.36 5.1339998
26.292999 -11.271 5.1290002
26.275 -11.183 5.1240001
26.305 -11.116 5.1279998
26.292 -11.03 5.125
26.285999 -10.947 5.1220002
26.312 -10.878 5.1259999
26.306999 -10.796 5.1240001
26.325001 -10.724 5.1259999
26.363001 -10.659 5.132
26.386999 -10.588 5.1350002
26.363001 -10.499 5.1290002
26.358999 -10.417 5.1269999
26.382999 -10.347 5.131
26.374001 -10.263 5.1279998
26.414 -10.198 5.1339998
26.396999 -10.112 5.1290002
26.407 -10.035 5.1300001
26.405001 -9.9549999 5.1279998
26.431 -9.8839998 5.132
26.458 -9.8140001 5.1360002
26.459999 -9.7349997 5.1350002
26.441999 -9.6479998 5.1300001
26.466999 -9.5780001 5.1339998
26.448 -9.4899998 5.1290002
26.454 -9.4130001 5.1279998
26.497 -9.3479996 5.1350002
26.458 -9.2539997 5.1259999
26.552 -9.2069998 5.1430001
26.556999 -9.1280003 5.1430001
26.541 -9.0430002 5.1389999
26.569 -8.9720001 5.1430001
26.561001 -8.8889999 5.1399999
26.562 -8.8100004 5.138
26.603001 -8.743 5.145
26.573 -8.6529999 5.138
26.575001 -8.5740004 5.1370001
26.554001 -8.4870005 5.131
26.615999 -8.427 5.1420002
26.587 -8.3380003 5.1350002
26.684999 -8.1280003 5.1500001
26.618 -8.0270004 5.1360002
26.631001 -7.9510002 5.1370001
26.624001 -7.869 5.1339998
26.645 -7.796 5.1370001
26.707001 -7.6529999 5.1459999
26.672001 -7.5630002 5.138
26.666 -7.4819999 5.1350002
26.705999 -7.4130001 5.1409998
26.667999 -7.1630001 5.1300001
26.67 -7.0840001 5.1290002
26.674999 -7.006 5.1279998
26.681 -6.927 5.1279998
26.690001 -6.8499999 5.1279998
26.672001 -6.7659998 5.1230001
26.667 -6.6849999 5.1209998
26.660999 -6.6040001 5.118
26.704 -6.5349998 5.125
26.702 -6.4549999 5.1230001
26.674 -6.369 5.1170001
26.679001 -6.29 5.1160002
26.718 -6.2199998 5.1220002
26.698 -6.1360002 5.1170001
26.719999 -6.0609999 5.1199999
26.705 -5.9780002 5.1149998
26.726999 -5.9039998 5.118
26.715 -5.822 5.1139998
26.761999 -5.7519999 5.1220002
26.771999 -5.6750002 5.1220002
30.938 3.6259999 6.0409999
30.929001 3.6960001 6.0419998
30.976999 3.7739999 6.0539999
30.940001 3.842 6.0489998
30.966999 3.9189999 6.0570002
30.951 4.0650001 6.0599999
30.959 4.1409998 6.0650001
31.004 4.2220001 6.0770001
30.924 4.2880001 6.0640001
30.937 4.3660002 6.0700002
30.961 4.447 6.0780001
30.964001 4.5250001 6.0819998
30.978001 4.605 6.0890002
30.948 4.6799998 6.086
31.003 4.7680001 6.1009998
30.973 4.8439999 6.099
31.000999 5.0100002 6.112
30.962999 5.086 6.1090002
30.983 5.171 6.1160002
30.966 5.2519999 6.1170001
30.941999 5.3309999 6.1170001
30.952 5.4169998 6.1230001
30.914 5.494 6.1199999
30.959 5.6729999 6.1370001
30.974001 5.7620001 6.145
30.974001 5.849 6.1490002
31.007999 5.9429998 6.1609998
30.944 6.0180001 6.1529999
31.033001 6.1240001 6.1750002
31.061001 6.2189999 6.1859999
31.011999 6.2989998 6.1810002
30.981001 6.382 6.1799998
30.993999 6.4759998 6.1880002
31.021 6.572 6.198
30.968 6.6529999 6.1929998
30.988001 6.7490001 6.2020001
30.966 6.8369999 6.2030001
30.986 6.9349999 6.2129998
31.035 7.04 6.2280002
31.073999 7.1430001 6.2420001
31.024 7.2259998 6.237
30.992001 7.3140001 6.237
31.039 7.421 6.2519999
31.030001 8.1049995 6.2930002
31.086 8.2189999 6.3109999
31.073999 8.3170004 6.3150001
31.068001 8.4169998 6.3200002
31.059999 8.5159998 6.3249998
31.032 8.6110001 6.3260002
24.743999 -16.261999 5.007
24.85 -16.177 5.0240002
24.914 -16.063999 5.0320001
24.99 -15.961 5.0430002
25.065001 -15.857 5.0539999
25.145 -15.756 5.0650001
25.177999 -15.627 5.0669999
25.236 -15.514 5.0739999
25.287001 -15.398 5.0799999
25.356001 -15.293 5.0900002
25.419001 -15.184 5.098
25.455999 -15.062 5.1009998
25.507 -14.948 5.1069999
25.549999 -14.83 5.112
25.591 -14.712 5.1160002
25.66 -14.61 5.1259999
25.722 -14.505 5.1339998
26.198999 -12.766 5.1729999
26.152 -12.618 5.1599998
26.18 -12.507 5.1620002
26.190001 -12.388 5.1609998
26.200001 -12.27 5.1599998
26.243 -12.168 5.165
26.268 -12.059 5.1669998
26.294001 -11.951 5.1690001
26.298 -11.833 5.1659999
26.353001 -11.739 5.1739998
26.368 -11.627 5.1739998
26.348 -11.501 5.1669998
26.368999 -11.394 5.1680002
26.393 -11.289 5.1700001
26.379999 -11.169 5.164
26.41 -11.068 5.1669998
26.409 -10.954 5.164
26.372 -10.827 5.1539998
26.43 -10.739 5.1620002
26.426001 -10.626 5.1589999
26.43 -10.518 5.1570001
26.458 -10.42 5.1599998
26.438999 -10.304 5.1539998
26.475 -10.21 5.158
26.483999 -10.106 5.1570001
26.469999 -9.9940004 5.152
26.51 -9.9029999 5.1570001
26.487 -9.79 5.1500001
26.514999 -9.6960001 5.1529999
26.518 -9.5930004 5.151
26.546 -9.5 5.1539998
26.531 -9.3920002 5.1490002
26.518 -9.2860003 5.1440001
26.541 -9.1929998 5.1459999
26.540001 -9.092 5.1430001
26.559 -8.9989996 5.145
26.584999 -8.9090004 5.1469998
26.563999 -8.8030005 5.1409998
26.583 -8.7119999 5.1430001
26.621 -8.6269999 5.1479998
26.621 -8.5299997 5.1459999
26.58 -8.4209995 5.1360002
26.59 -8.3290005 5.1360002
26.624001 -8.2440004 5.1399999
26.636 -8.1540003 5.1399999
26.650999 -8.0649996 5.1409998
26.642 -7.9689999 5.1370001
26.613001 -7.868 5.1300001
26.667999 -7.7919998 5.138
26.719 -7.5339999 5.1430001
26.757 -7.4549999 5.1479998
26.729 -7.3579998 5.1409998
26.658001 -7.25 5.125
26.639999 -7.1570001 5.1199999
26.643999 -7.0710001 5.119
26.636 -6.9819999 5.1160002
26.646 -6.8979998 5.1160002
26.666 -6.8179998 5.118
26.669001 -6.7329998 5.1170001
26.674999 -6.6500001 5.1170001
26.665001 -6.5630002 5.1129999
26.676001 -6.4819999 5.1139998
26.662001 -6.3959999 5.1090002
26.709999 -6.3249998 5.1170001
26.688 -6.237 5.1110001
26.697001 -6.158 5.1110001
26.694 -6.0760002 5.1090002
26.694 -5.9949999 5.1079998
26.701 -5.9169998 5.1079998
26.733 -5.8439999 5.112
30.891001 2.983 6.1149998
30.84 3.053 6.1059999
30.910999 3.1370001 6.1220002
30.874001 3.21 6.1170001
30.879 3.2880001 6.1199999
30.893 3.3670001 6.125
30.836 3.4400001 6.1160002
30.792999 3.513 6.1090002
30.822001 3.596 6.1170001
30.797001 3.6730001 6.1149998
30.849001 3.7590001 6.1279998
30.839001 3.839 6.1279998
30.834999 3.9200001 6.1300001
30.843 4.0019999 6.1339998
30.861 4.0869999 6.1399999
30.834999 4.1659999 6.138
30.809999 4.2459998 6.1360002
30.867001 4.3379998 6.1500001
30.844999 4.4190001 6.1490002
30.863001 4.506 6.1550002
30.884001 4.5939999 6.1630001
30.892 4.6810002 6.1669998
30.882 4.7649999 6.1680002
30.886 4.8530002 6.1719999
30.903999 4.9419999 6.1799998
30.908001 5.0300002 6.184
30.893999 5.1160002 6.184
30.921 5.2090001 6.1929998
30.886 5.2919998 6.1900001
30.899 5.3829999 6.1960001
30.908001 5.474 6.2020001
30.910999 5.5650001 6.2059999
30.927999 5.658 6.2129998
30.972 5.757 6.2259998
30.941 5.8429999 6.224
30.987 5.9429998 6.237
30.934999 6.0250001 6.2309999
31.000999 6.131 6.2480001
30.962999 6.2160001 6.2449999
30.952999 6.3080001 6.2470002
30.955 6.402 6.2519999
31 6.506 6.2659998
30.971001 6.5939999 6.2639999
30.987 6.6929998 6.2719998
31.018 6.7950001 6.283
31.018999 6.8909998 6.2880001
30.995001 6.9809999 6.2880001
30.98 7.0749998 6.289
31.024 7.1820002 6.303
31.084 7.2930002 6.3200002
31.030001 7.3779998 6.3140001
26.108999 -13.354 5.2519999
26.052 -13.245 5.2389998
26.052999 -13.166 5.2379999
26.096001 -13.107 5.2459998
26.108 -13.033 5.2470002
26.052 -12.926 5.2340002
26.049999 -12.845 5.2329998
26.082001 -12.781 5.2379999
26.087999 -12.704 5.2379999
26.110001 -12.635 5.2410002
26.101999 -12.551 5.2379999
26.139999 -12.489 5.2449999
26.120001 -12.4 5.2389998
26.15 -12.334 5.244
26.212 -12.283 5.2550001
26.174 -12.185 5.2459998
26.193001 -12.114 5.2490001
26.219999 -12.046 5.2529998
26.236 -11.974 5.2550001
26.188 -11.871 5.244
26.218 -11.805 5.2490001
26.23 -11.73 5.25
26.212 -11.642 5.2449999
26.278 -11.591 5.257
26.222 -11.487 5.244
26.249001 -11.418 5.2480001
26.256001 -11.341 5.2480001
26.252001 -11.259 5.2459998
26.266001 -11.185 5.2480001
26.277 -11.11 5.2490001
26.259001 -11.022 5.244
26.290001 -10.955 5.2490001
26.302 -10.88 5.25
26.301001 -10.8 5.2480001
26.312 -10.724 5.2490001
26.344999 -10.657 5.2540002
26.325001 -10.569 5.2490001
26.316999 -10.486 5.2459998
26.357 -10.422 5.2529998
26.356001 -10.341 5.2509999
26.377001 -10.269 5.2540002
26.378 -10.19 5.2529998
26.402 -10.119 5.256
26.392 -10.035 5.2529998
26.398001 -9.9569998 5.2529998
26.424999 -9.8870001 5.257
26.422001 -9.8059998 5.2550001
26.419001 -9.7250004 5.2529998
26.437 -9.651 5.2550001
26.438999 -9.5719995 5.2540002
26.445999 -9.4940004 5.2540002
26.461 -9.4189997 5.256
26.465 -9.3409996 5.2550001
26.48 -9.2659998 5.257
26.487 -9.1879997 5.257
26.49 -9.1090002 5.256
26.489 -9.0290003 5.2540002
26.518 -8.9589996 5.2589998
26.545 -8.8879995 5.2620001
26.573 -8.8170004 5.2670002
26.563999 -8.6540003 5.2620001
26.548 -8.5679998 5.257
26.576 -8.4969997 5.2620001
26.568001 -8.415 5.2589998
26.596001 -8.3430004 5.263
26.584 -8.2600002 5.2589998
26.589001 -8.1809998 5.2579999
26.594 -8.1029997 5.2579999
26.570999 -8.0159998 5.2519999
26.584 -7.9400001 5.2529998
26.599001 -7.8639998 5.2550001
26.621 -7.7909999 5.2579999
26.677 -7.2470002 5.2589998
26.666 -7.165 5.2550001
26.643 -7.079 5.2490001
26.705 -7.0149999 5.2600002
26.68 -6.9289999 5.2529998
26.631001 -6.836 5.2420001
26.660999 -6.7639999 5.2470002
26.688999 -6.6919999 5.2509999
26.669001 -6.6069999 5.2449999
26.681999 -6.5310001 5.2459998
26.667999 -6.448 5.2420001
26.68 -6.3709998 5.243
26.702999 -6.2969999 5.2459998
26.697001 -6.2160001 5.243
26.697001 -6.1360002 5.2420001
26.701 -6.0580001 5.2410002
26.691 -5.9759998 5.2379999
26.707001 -5.9000001 5.2389998
26.738001 -5.8270001 5.244
26.729 -5.7459998 5.2410002
26.726999 -5.6659999 5.2389998
31.084 5.7859998 6.3340001
31.018999 5.8600001 6.3260002
24.723 -16.253 5.125
24.823999 -16.164 5.1409998
24.906 -16.063999 5.1529999
24.974001 -15.955 5.1620002
25.051001 -15.852 5.1739998
25.1 -15.732 5.1789999
25.146 -15.611 5.184
25.195 -15.493 5.1900001
25.264 -15.388 5.1989999
25.305 -15.266 5.2030001
25.362 -15.154 5.21
25.406 -15.036 5.2150002
25.462 -14.925 5.2220001
25.507 -14.809 5.2270002
25.530001 -14.681 5.2280002
25.582001 -14.57 5.2340002
25.627001 -14.456 5.2389998
25.684999 -14.35 5.2470002
25.76 -14.253 5.2579999
25.737 -14.103 5.25
25.806 -14.005 5.2600002
25.862 -13.9 5.2670002
25.919001 -13.796 5.2750001
25.997999 -13.309 5.276
26.023001 -13.192 5.277
26.030001 -13.067 5.2750001
26.052999 -12.951 5.276
26.084 -12.84 5.2789998
26.112 -12.727 5.2810001
26.149 -12.62 5.2849998
26.153999 -12.498 5.283
26.153999 -12.374 5.2789998
26.176001 -12.262 5.2800002
26.216 -12.159 5.2849998
26.242001 -12.05 5.2870002
26.274 -11.944 5.29
26.277 -11.827 5.2870002
26.297001 -11.717 5.2880001
26.306 -11.603 5.2870002
26.337 -11.5 5.29
26.32 -11.376 5.2839999
26.326 -11.263 5.2820001
26.375 -11.169 5.2880001
26.374001 -11.055 5.2849998
26.356001 -10.935 5.2789998
26.372 -10.829 5.2789998
26.415001 -10.735 5.2849998
26.408001 -10.621 5.2810001
26.438 -10.524 5.2839999
26.450001 -10.419 5.2839999
26.445 -10.308 5.2800002
26.433001 -10.196 5.2750001
26.457001 -10.098 5.277
26.464001 -9.9940004 5.276
26.476 -9.8929996 5.2750001
26.482 -9.79 5.2740002
26.488001 -9.6879997 5.2719998
26.476 -9.5799999 5.2680001
26.500999 -9.4860001 5.27
26.493 -9.3809996 5.2659998
26.516001 -9.2869997 5.2680001
26.518999 -9.1870003 5.2659998
26.537001 -9.0930004 5.2680001
26.552999 -8.9989996 5.2680001
26.547001 -8.8979998 5.2649999
26.561001 -8.8039999 5.2649999
26.632999 -8.7290001 5.277
26.632999 -8.632 5.2750001
26.612 -8.5279999 5.2690001
26.569 -8.4189997 5.2579999
26.594 -8.3310003 5.2610002
26.642 -8.2510004 5.2680001
26.601 -8.1440001 5.2579999
26.583 -8.0450001 5.2519999
26.594999 -7.9559999 5.2529998
26.608999 -7.868 5.2529998
26.612 -7.777 5.2519999
26.648001 -7.6960001 5.257
26.750999 -7.454 5.2719998
26.632 -7.3319998 5.2459998
26.641001 -7.2459998 5.2459998
26.636 -7.1570001 5.243
26.66 -7.0760002 5.2459998
26.631001 -6.9809999 5.2389998
26.629999 -6.895 5.237
26.67 -6.8189998 5.243
26.642 -6.7270002 5.2360001
26.625999 -6.638 5.2309999
26.660999 -6.5630002 5.2360001
26.68 -6.4840002 5.2379999
26.646 -6.3920002 5.23
26.653 -6.3119998 5.23
26.67 -6.2340002 5.2319999
26.712 -6.1620002 5.2379999
26.708 -6.0799999 5.2360001
26.732 -6.0040002 5.2389998
26.679001 -5.9120002 5.2270002
26.715 -5.8400002 5.2329998
30.910999 3.141 6.2859998
30.851 3.2119999 6.276
30.900999 3.2939999 6.2880001
30.905001 3.3729999 6.2909999
30.907 3.451 6.2940001
30.905001 3.53 6.296
30.841999 3.602 6.2849998
30.856001 3.684 6.2909999
30.83 3.7609999 6.2880001
30.843 3.8429999 6.2930002
30.813999 3.921 6.29
30.819 4.0029998 6.2930002
30.843 4.0890002 6.3010001
30.868 4.1750002 6.309
30.868 4.2579999 6.3119998
30.848 4.3390002 6.3109999
30.851 4.4229999 6.3150001
30.870001 4.5110002 6.322
30.864 4.5949998 6.3239999
30.864 4.6810002 6.3270001
30.882 4.7690001 6.3340001
30.867001 4.8540001 6.3340001
30.896999 4.9450002 6.3439999
30.886 5.0310001 6.3449998
30.888 5.119 6.349
30.888 5.2069998 6.3530002
30.885 5.2950001 6.3559999
30.924999 5.3909998 6.368
30.886 5.474 6.3629999
30.917 5.5700002 6.3740001
30.951 5.6659999 6.3850002
30.91 5.75 6.3800001
30.914 5.842 6.3850002
30.909 5.9330001 6.388
30.950001 6.033 6.401
31.042 6.1430001 6.4239998
30.969999 6.3150001 6.4180002
30.934 6.402 6.415
30.993 6.5079999 6.4320002
31.014 6.6069999 6.441
30.974001 6.6939998 6.4380002
30.962999 6.7870002 6.4400001
31.025999 6.8959999 6.4580002
31.013 7.086 6.4650002
31.000999 7.1810002 6.4679999
31.025999 7.2839999 6.4780002
31.035999 7.3839998 6.4850001
25.879999 -13.96 5.3429999
25.912001 -13.898 5.348
25.912001 -13.819 5.3470001
25.969 -13.531 5.3540001
25.933001 -13.432 5.3449998
25.936001 -13.354 5.3439999
25.975 -13.295 5.3509998
25.993999 -13.225 5.3540001
26.052 -13.174 5.3639998
26.018 -12.998 5.355
26.047001 -12.932 5.3600001
26.132 -12.894 5.3759999
26.068001 -12.783 5.3610001
26.077999 -12.708 5.362
26.063 -12.62 5.3579998
26.068001 -12.543 5.3569999
26.094999 -12.476 5.362
26.083 -12.39 5.3579998
26.115999 -12.326 5.3629999
26.184999 -12.278 5.3759999
26.167 -12.11 5.3699999
26.155001 -12.024 5.3660002
26.212999 -11.97 5.3769999
26.191999 -11.881 5.3709998
26.205 -11.806 5.3720002
26.177 -11.714 5.3660002
26.143999 -11.619 5.3569999
26.228001 -11.576 5.3730001
26.232 -11.498 5.3730001
26.209999 -11.408 5.3670001
26.224001 -11.334 5.368
26.231001 -11.257 5.369
26.281 -11.198 5.3769999
26.278999 -11.117 5.375
26.252001 -11.026 5.369
26.254 -10.946 5.368
26.27 -10.873 5.3699999
26.297001 -10.804 5.3740001
26.292999 -10.722 5.3709998
26.306999 -10.648 5.3730001
26.306999 -10.567 5.3720002
26.295 -10.483 5.368
26.316999 -10.411 5.3709998
26.362 -10.349 5.3790002
26.353001 -10.265 5.3759999
26.408001 -10.206 5.3850002
26.412001 -10.128 5.3850002
26.388 -10.038 5.3779998
26.372 -9.9519997 5.3740001
26.368 -9.8699999 5.3709998
26.413 -9.8070002 5.3790002
26.416 -9.7279997 5.3779998
26.403 -9.6429996 5.375
26.402 -9.5629997 5.3730001
26.419001 -9.4890003 5.375
26.419001 -9.4090004 5.3730001
26.452 -9.3400002 5.3790002
26.462999 -9.2639999 5.3800001
26.478001 -9.1890001 5.381
26.462999 -9.1040001 5.3769999
26.468 -9.0249996 5.3759999
26.509001 -8.9589996 5.3829999
26.555 -8.8950005 5.3909998
26.608 -8.8319998 5.4000001
26.545 -8.7309999 5.3860002
26.562 -8.6560001 5.388
26.532 -8.566 5.381
26.527 -8.4849997 5.3779998
26.547001 -8.4110003 5.381
26.583 -8.342 5.3870001
26.577 -8.2609997 5.3839998
26.584999 -8.1829996 5.3839998
26.539 -8.0889997 5.3730001
26.552999 -8.0129995 5.375
26.566999 -7.9369998 5.3759999
26.551001 -7.8530002 5.3709998
26.584999 -7.783 5.3769999
26.643 -7.7199998 5.3870001
26.605 -7.6290002 5.3779998
26.615 -7.552 5.3779998
26.632 -7.4770002 5.3800001
26.620001 -7.3940001 5.3759999
26.608999 -7.3109999 5.3730001
26.605 -7.23 5.3699999
26.636999 -7.1589999 5.375
26.679001 -7.0900002 5.382
26.702999 -6.9359999 5.3839998
26.636 -6.8390002 5.369
26.646 -6.7620001 5.3699999
26.634001 -6.6789999 5.3660002
26.643 -6.6020002 5.3660002
26.679001 -6.5310001 5.3720002
26.659 -6.447 5.3660002
26.68 -6.3720002 5.369
26.666 -6.289 5.3649998
26.639999 -6.2030001 5.3579998
26.68 -6.1329999 5.3639998
26.711 -6.0609999 5.369
26.695999 -5.9780002 5.3639998
26.714001 -5.902 5.3660002
26.709999 -5.822 5.3639998
26.714001 -5.743 5.3629999
26.731001 -5.6669998 5.3649998
30.922001 4.369 6.3979998
30.941999 4.4489999 6.4060001
30.969999 4.5310001 6.415
30.909 4.6009998 6.4060001
30.931 4.842 6.4229999
30.937 4.9239998 6.428
30.971001 5.0110002 6.4390001
30.929001 5.086 6.4349999
31.040001 7.237 6.5819998
31.041 7.3330002 6.5879998
24.712999 -16.250999 5.2449999
24.799 -16.153 5.2579999
24.878 -16.051001 5.27
24.944 -15.94 5.2789998
25.025 -15.84 5.2919998
25.093 -15.732 5.3010001
25.143 -15.614 5.3070002
25.188 -15.493 5.3119998
25.254 -15.386 5.3210001
25.305 -15.271 5.3270001
25.365999 -15.161 5.336
25.406 -15.04 5.3400002
25.451 -14.924 5.3449998
25.503 -14.811 5.3509998
25.521 -14.68 5.3509998
25.594 -14.581 5.362
25.620001 -14.456 5.3629999
25.672001 -14.346 5.369
25.729 -14.24 5.3769999
25.729 -14.103 5.3730001
25.761999 -13.985 5.3759999
25.790001 -13.866 5.3779998
25.833 -13.754 5.3829999
25.861 -13.636 5.3850002
25.91 -13.53 5.3909998
25.922001 -13.405 5.3899999
25.934999 -13.281 5.388
26.003 -13.186 5.3990002
26.011 -13.061 5.3969998
26.046 -12.951 5.4000001
26.073 -12.838 5.402
26.082001 -12.716 5.401
26.146 -12.622 5.4099998
26.143999 -12.497 5.4060001
26.164 -12.383 5.4070001
26.153999 -12.255 5.401
26.187 -12.149 5.4050002
26.243 -12.054 5.4130001
26.261999 -11.942 5.414
26.313999 -11.846 5.421
26.277 -11.711 5.4099998
26.290001 -11.599 5.4099998
26.320999 -11.495 5.4130001
26.298 -11.37 5.4050002
26.329 -11.267 5.408
26.347 -11.161 5.4089999
26.367001 -11.055 5.4099998
26.375 -10.945 5.408
26.353001 -10.824 5.401
26.405001 -10.734 5.4089999
26.407 -10.624 5.4060001
26.42 -10.519 5.4060001
26.438999 -10.417 5.4070001
26.426001 -10.303 5.402
26.43 -10.197 5.4000001
26.433001 -10.091 5.3969998
26.473 -10 5.4029999
26.530001 -9.915 5.4120002
26.499001 -9.7980003 5.4029999
26.483 -9.6879997 5.3969998
26.49 -9.5869999 5.3959999
26.49 -9.4840002 5.3930001
26.493 -9.3830004 5.3909998
26.496 -9.2819996 5.3889999
26.51 -9.1859999 5.3899999
26.518999 -9.0889997 5.3889999
26.584999 -8.9119997 5.3979998
26.562 -8.8059998 5.3909998
26.601 -8.7209997 5.3959999
26.59 -8.5229998 5.3899999
26.552 -8.415 5.3800001
26.612 -8.3389997 5.3899999
26.577999 -8.2329998 5.3800001
26.575001 -8.1379995 5.3779998
26.579 -8.0450001 5.3759999
26.580999 -7.9530001 5.375
26.558001 -7.8540001 5.368
26.596001 -7.7740002 5.3740001
26.625999 -7.691 5.3779998
26.612 -7.5960002 5.3730001
26.618999 -7.5079999 5.3720002
26.580999 -7.408 5.3629999
26.597 -7.323 5.3639998
26.596001 -7.2350001 5.362
26.659 -7.164 5.3730001
26.676001 -7.0809999 5.3740001
26.674 -6.993 5.3720002
26.628 -6.895 5.3610001
26.625 -6.809 5.3590002
26.636 -6.7259998 5.3590002
26.635 -6.6409998 5.3569999
26.632 -6.5560002 5.355
26.67 -6.4819999 5.3610001
26.638 -6.3909998 5.3530002
26.636 -6.3080001 5.3509998
26.643 -6.2280002 5.3499999
26.639999 -6.145 5.348
26.68 -6.073 5.355
26.688999 -5.9949999 5.355
26.693001 -5.915 5.3540001
26.67 -5.8309999 5.348
30.858999 3.608 6.454
30.834999 3.6849999 6.4520001
30.819 3.7639999 6.4510002
30.813 3.8440001 6.4530001
30.825001 3.9260001 6.4580002
30.83 4.0089998 6.4619999
30.849001 4.0939999 6.4679999
30.847 4.1760001 6.4710002
30.836 4.2579999 6.4720001
30.847 4.3429999 6.4770002
30.882999 4.4320002 6.4879999
30.843 4.5110002 6.4829998
30.843 4.5960002 6.4860001
30.827999 4.6789999 6.4860001
30.841 4.7670002 6.4920001
30.912001 4.8649998 6.5100002
30.867001 5.0320001 6.5079999
30.914 5.1269999 6.5219998
30.937 5.2199998 6.5300002
30.921 5.3060002 6.5310001
30.871 5.3860002 6.5240002
30.885 5.4780002 6.5310001
25.951 -13.212 5.4720001
26.006001 -13.16 5.4819999
26.032 -13.093 5.4860001
26.045 -13.02 5.487
26.035999 -12.936 5.4840002
26.066999 -12.871 5.4899998
26.113001 -12.813 5.4980001
26.077999 -12.716 5.4889998
26.073999 -12.634 5.487
26.091 -12.562 5.4889998
26.09 -12.482 5.4879999
26.136 -12.424 5.4959998
26.200001 -11.892 5.5
26.212999 -11.817 5.5009999
26.214001 -11.737 5.5
26.153 -11.63 5.4860001
26.202999 -11.492 5.494
26.197001 -11.409 5.4910002
26.224001 -11.341 5.4949999
26.233999 -11.265 5.4959998
26.264999 -11.198 5.5009999
26.26 -11.115 5.4990001
26.275 -11.041 5.5
26.281 -10.964 5.5
26.306999 -10.894 5.5040002
26.298 -10.81 5.5009999
26.318001 -10.738 5.5040002
26.313999 -10.656 5.5019999
26.309999 -10.575 5.4990001
26.299 -10.49 5.4959998
26.318001 -10.417 5.4980001
26.337 -10.344 5.5009999
26.346001 -10.268 5.5009999
26.441 -10.063 5.5170002
26.407 -9.9700003 5.5079999
26.4 -9.8870001 5.5050001
26.405001 -9.809 5.5050001
26.409 -9.7299995 5.5040002
26.41 -9.6499996 5.5029998
26.407 -9.5690002 5.5009999
26.427 -9.4960003 5.5029998
26.459999 -9.427 5.5089998
26.479 -9.3540001 5.5110002
26.476999 -9.033 5.5050001
26.504999 -8.9619999 5.5089998
26.539 -8.8929996 5.5149999
26.556 -8.658 5.5139999
26.521 -8.566 5.5050001
26.528999 -8.4890003 5.506
26.554001 -8.4160004 5.5089998
26.556999 -8.3369999 5.5079999
26.551001 -8.2550001 5.5050001
26.552999 -8.1759996 5.5040002
26.533001 -8.0900002 5.4990001
26.549999 -8.0150003 5.5009999
26.546 -7.934 5.4980001
26.518999 -7.8460002 5.4910002
26.594 -7.7880001 5.5050001
26.608999 -7.7119999 5.507
26.601 -7.6300001 5.5040002
26.610001 -7.553 5.5040002
26.577999 -7.4640002 5.4959998
26.587999 -7.3870001 5.4970002
26.577 -7.3039999 5.493
26.587 -7.2270002 5.493
26.627001 -7.158 5.5
26.627001 -7.0780001 5.4980001
26.677 -7.0110002 5.507
26.697001 -6.9359999 5.5100002
26.615999 -6.836 5.4920001
26.635 -6.7610002 5.494
26.618999 -6.677 5.4889998
26.625 -6.599 5.4889998
26.629999 -6.52 5.4879999
26.625 -6.4390001 5.4860001
26.657 -6.3670001 5.4910002
26.646 -6.2849998 5.487
26.657 -6.2080002 5.4879999
26.669001 -6.131 5.4879999
26.665001 -6.0510001 5.4860001
26.660999 -5.9699998 5.4840002
26.698 -5.8990002 5.4899998
26.738001 -5.8280001 5.4959998
26.698999 -5.7399998 5.487
26.690001 -5.658 5.4829998
24.75 -16.280001 5.3759999
24.833 -16.18 5.3889999
24.91 -16.076 5.401
24.976 -15.966 5.4099998
25.042999 -15.856 5.4200001
25.101999 -15.743 5.427
25.132999 -15.612 5.4289999
25.215 -15.514 5.4419999
25.292 -15.414 5.454
25.312 -15.279 5.454
25.391001 -15.181 5.4660001
25.443001 -15.067 5.473
25.479 -14.944 5.4759998
25.506001 -14.817 5.4770002
25.535999 -14.693 5.4790001
25.576 -14.575 5.4829998
25.642 -14.473 5.493
25.709999 -14.372 5.5029998
25.740999 -14.251 5.506
25.739 -14.113 5.5009999
25.774 -13.996 5.5040002
25.813 -13.882 5.5089998
25.823999 -13.754 5.507
25.879999 -13.65 5.5149999
25.896999 -13.527 5.5149999
25.945 -13.42 5.5209999
25.98 -13.308 5.5240002
25.995001 -13.186 5.5240002
26.007 -13.063 5.5219998
26.013 -12.938 5.52
26.054001 -12.832 5.5250001
26.103001 -12.73 5.5320001
26.142 -12.499 5.533
26.157 -12.383 5.5320001
26.169001 -12.266 5.5310001
26.216999 -12.166 5.5380001
26.296 -11.488 5.5339999
26.329 -11.386 5.5380001
26.33 -11.271 5.5349998
26.409 -11.19 5.5479999
26.364 -11.057 5.5359998
26.354 -10.94 5.5310001
26.371 -10.834 5.5310001
26.407 -10.737 5.5359998
26.472 -10.653 5.546
26.431999 -10.526 5.5349998
26.466 -10.43 5.539
26.386999 -10.291 5.52
26.416 -10.194 5.5229998
26.468 -10.107 5.5310001
26.507 -9.6990004 5.5279999
26.514 -9.5979996 5.527
26.485001 -9.4840002 5.5180001
26.471001 -9.3769999 5.513
26.504 -9.2869997 5.5170002
26.531 -9.1960001 5.52
26.615999 -8.9250002 5.5300002
26.552 -8.8050003 5.5149999
26.568001 -8.4219999 5.5089998
26.576 -8.3290005 5.5079999
26.58 -8.2349997 5.507
26.556999 -8.1339998 5.5
26.577 -8.0469999 5.5019999
26.594 -7.9580002 5.5029998
26.583 -7.8629999 5.4980001
26.584 -7.7709999 5.4970002
26.643999 -7.697 5.507
26.584 -7.5890002 5.4920001
26.582001 -7.4990001 5.4899998
26.611 -7.4169998 5.494
26.586 -7.3210001 5.487
26.599001 -7.2360001 5.4879999
26.643999 -7.1609998 5.4949999
26.705 -7.0890002 5.506
26.639999 -6.9850001 5.4899998
26.643999 -6.9000001 5.4889998
26.625 -6.809 5.4840002
26.607 -6.7199998 5.4780002
26.664 -6.6490002 5.4879999
26.652 -6.5619998 5.4840002
26.67 -6.4819999 5.4860001
26.639999 -6.3920002 5.4780002
26.673 -6.3169999 5.4829998
26.632999 -6.2259998 5.473
26.622999 -6.1420002 5.4689999
26.665001 -6.0700002 5.4770002
26.731001 -5.9239998 5.487
26.702 -5.8379998 5.4790001
30.819 3.848 6.6209998
30.834 3.9319999 6.6269999
30.853001 4.0159998 6.6339998
30.816 4.0929999 6.6290002
30.868 4.1830001 6.6430001
30.872 4.2670002 6.6469998
30.882999 4.3520002 6.6529999
30.871 4.5190001 6.6570001
30.864 4.6030002 6.658
30.969999 4.7049999 6.6849999
30.896999 5.395 6.6989999
30.827 5.4720001 6.6880002
26.459 -9.7530003 5.6430001
26.482 -9.6809998 5.6459999
26.462 -9.5930004 5.6399999
26.605 -8.1949997 5.6430001
26.607 -8.1149998 5.6420002
26.579 -8.026 5.6339998
26.615999 -7.717 5.6360002
26.613001 -7.6360002 5.6339998
26.634001 -7.5619998 5.6370001
26.612 -7.4749999 5.6300001
26.677999 -7.3340001 5.6409998
26.628 -7.2399998 5.6290002
26.629 -7.1599998 5.6279998
26.631001 -7.0799999 5.6259999
26.687 -6.9349999 5.6350002
26.674999 -6.8520002 5.631
26.676001 -6.7719998 5.6300001
26.683001 -6.6939998 5.6300001
26.632999 -6.6020002 5.6170001
26.702999 -6.539 5.631
26.719999 -6.4629998 5.632
26.743999 -6.3889999 5.6360002
26.795 -6.3210001 5.645
26.715 -6.223 5.6269999
26.723 -6.0650001 5.625
26.764 -5.994 5.632
30.806999 4.0960002 6.796
30.834 4.1820002 6.8049998
30.865999 4.27 6.8150001
29.763 -13.343 6.5359998
29.747 -13.244 6.5310001
29.771999 -12.981 6.5310001
29.811001 -12.907 6.5380001
28.077999 -18.482 6.381
28.181 -18.372999 6.3979998
28.278999 -18.263 6.414
28.416 -18.177 6.4390001
29.347 -15.64 6.5469999
29.341 -15.485 6.5409999
29.540001 -14.994 6.5669999
29.528 -14.841 6.559
29.573999 -14.719 6.5650001
29.570999 -14.573 6.5599999
29.606001 -14.447 6.5630002
29.646999 -14.325 6.5679998
29.658001 -14.189 6.566
29.747999 -14.091 6.5819998
29.886 -13.197 6.5840001
29.865999 -13.055 6.5749998
29.891001 -12.934 6.5770001
29.882 -12.799 6.5710001
29.877001 -12.666 6.566
29.905001 -12.549 6.5689998
29.903999 -12.42 6.5650001
29.943001 -12.309 6.5700002
29.976 -11.944 6.566
30.025999 -11.84 6.5739999
30.006001 -11.709 6.566
30.021 -11.592 6.566
30.014999 -11.467 6.5609999
30.1 -10.902 6.5640001
30.091999 -10.782 6.559
30.076 -10.66 6.552
30.115 -10.557 6.5570002
30.115999 -10.443 6.5549998
30.195999 -9.6850004 6.552
30.18 -9.5710001 6.546
30.177 -9.4610004 6.5419998
30.165001 -9.3500004 6.5370002
30.181999 -9.2480001 6.5380001
30.237 -9.158 6.5469999
29.674999 -13.585 6.6680002
29.663 -13.489 6.664
29.750999 -13.345 6.6799998
29.728001 -13.244 6.6729999
29.716 -13.147 6.6690001
29.693001 -13.046 6.6620002
29.681 -12.949 6.658
29.750999 -12.797 6.6700001
29.76 -12.71 6.6700001
29.792 -12.632 6.6760001
29.82 -12.552 6.6799998
29.801001 -12.453 6.6739998
29.778 -12.352 6.6669998
29.789 -12.265 6.6680002
29.82 -12.187 6.6729999
29.871 -12.116 6.6830001
29.84 -11.921 6.6719999
29.864 -11.839 6.6760001
29.891001 -11.759 6.6799998
29.878 -11.662 6.6760001
29.917999 -11.495 6.6810002
29.937 -11.411 6.6830001
29.910999 -11.31 6.6760001
29.924999 -11.224 6.677
29.981001 -11.153 6.6880002
30.032 -11.081 6.698
29.961 -10.963 6.6799998
29.959 -10.871 6.678
30.099001 -10.373 6.698
30.033001 -10.258 6.6820002
30.056999 -10.175 6.6849999
30.087999 -10.094 6.6900001
30.115999 -10.013 6.6950002
30.084 -9.7279997 6.6820002
30.077999 -9.6350002 6.6789999
30.099001 -9.5509996 6.6820002
30.125 -9.4680004 6.6849999
30.084999 -9.3640003 6.6750002
30.146 -9.2919998 6.6859999
30.163 -9.2060003 6.6880002
30.118 -9.1009998 6.6760001
30.134001 -9.0150003 6.678
30.160999 -8.9320002 6.6820002
30.233 -8.7709999 6.6939998
30.183001 -8.665 6.6820002
28.030001 -18.457001 6.5120001
28.099001 -18.327 6.5219998
28.174 -18.201 6.533
28.285 -18.1 6.553
28.334 -17.959 6.5580001
28.419001 -17.841999 6.572
28.479 -17.709 6.5799999
28.545 -17.580999 6.5890002
28.615999 -17.457001 6.5999999
28.673 -17.326 6.6069999
28.731001 -17.195 6.6149998
28.806 -17.076 6.6269999
28.893 -16.964001 6.6409998
28.912001 -16.813 6.6399999
28.966999 -16.684 6.6469998
29.032 -16.561001 6.6570001
29.059999 -16.417999 6.658
29.169001 -16.320999 6.677
29.516001 -14.84 6.7020001
29.563 -14.718 6.7080002
29.577999 -14.581 6.7069998
29.559999 -14.429 6.6989999
29.615999 -14.315 6.7069998
29.636 -14.183 6.7069998
29.634001 -14.042 6.7020001
29.712999 -13.94 6.7160001
29.693001 -13.792 6.7069998
29.788 -13.698 6.724
29.759001 -13.548 6.7140002
29.792999 -13.428 6.717
29.785 -13.29 6.711
29.818001 -13.171 6.7150002
29.799 -13.03 6.7059999
29.812 -12.903 6.7049999
29.851999 -12.79 6.71
29.868 -12.666 6.71
29.856001 -12.532 6.704
29.875999 -12.412 6.704
29.893999 -12.292 6.7049999
29.959 -12.192 6.7160001
29.992001 -12.079 6.7189999
29.964001 -11.943 6.7090001
29.959 -11.817 6.7049999
29.948 -11.689 6.6989999
29.962999 -11.572 6.6989999
30.031 -11.477 6.711
30.023001 -11.352 6.7049999
30.011999 -11.228 6.6989999
30.02 -11.112 6.698
30.049 -11.004 6.7010002
30.037001 -10.882 6.6950002
30.047001 -10.768 6.6939998
30.118999 -10.678 6.7069998
30.091 -10.552 6.698
30.108999 -10.443 6.6989999
30.077 -10.205 6.6859999
30.105 -10.101 6.6890001
30.104 -9.9890003 6.6859999
30.160999 -9.6759996 6.6890001
30.132999 -9.5579996 6.6799998
30.156 -9.4569998 6.6830001
30.150999 -9.3470001 6.6789999
30.157 -9.2419996 6.678
30.152 -9.1339998 6.6739998
30.172001 -9.0349998 6.6760001
30.889999 5.3179998 7.2119999
30.797001 5.3909998 7.1950002
29.59 -13.646 6.7979999
29.608 -13.563 6.8000002
29.694 -13.328 6.8150001
29.659 -13.221 6.8049998
29.694 -13.145 6.8109999
29.679001 -13.047 6.8060002
29.708 -12.969 6.8109999
29.740999 -12.892 6.8169999
29.736 -12.798 6.8140001
29.743 -12.71 6.8140001
29.768999 -12.629 6.8179998
29.764 -12.536 6.8150001
29.754999 -12.441 6.8109999
29.739 -12.343 6.8060002
29.789 -12.272 6.816
29.830999 -12.198 6.823
29.843 -12.112 6.8239999
29.851999 -12.024 6.8239999
29.791 -11.908 6.809
29.818001 -11.827 6.8130002
29.849001 -11.748 6.8179998
29.856001 -11.66 6.8179998
29.875999 -11.576 6.8210001
29.93 -11.505 6.8309999
29.915001 -11.408 6.8260002
29.978001 -11.34 6.8390002
29.924 -11.229 6.8249998
29.908001 -11.131 6.8189998
29.941999 -11.053 6.8249998
30.025 -10.717 6.836
30.025 -10.626 6.835
30.004999 -10.527 6.8280001
30 -10.434 6.8249998
30.033001 -10.354 6.8309999
29.997999 -10.251 6.8210001
30.070999 -10.093 6.8340001
30.079 -10.004 6.8340001
30.096001 -9.9189997 6.836
30.107 -9.7390003 6.8340001
30.08 -9.6389999 6.8260002
30.101999 -9.5550003 6.8299999
30.073 -9.4549999 6.8210001
30.046 -9.3549995 6.8130002
30.091999 -9.2790003 6.822
30.125 -9.198 6.8270001
30.101 -9.099 6.8200002
30.156 -9.0249996 6.8299999
30.15 -8.9309998 6.8270001
30.181999 -8.6680002 6.829
30.208 -8.5839996 6.8319998
28 -18.444 6.6469998
28.093 -18.33 6.6630001
28.159 -18.198 6.6729999
28.26 -18.09 6.6900001
28.302999 -17.945999 6.6950002
28.403 -17.837999 6.7119999
28.483 -17.719 6.7249999
28.511 -17.566999 6.7259998
28.597 -17.452 6.7399998
28.667999 -17.329 6.7509999
28.722 -17.195999 6.7579999
28.778 -17.065001 6.7649999
28.844999 -16.941999 6.7750001
28.895 -16.809 6.7810001
28.943001 -16.676001 6.7870002
28.989 -16.542999 6.7930002
29.066 -16.427 6.8049998
29.103001 -16.291 6.8080001
29.190001 -16.181999 6.823
29.24 -15.899 6.8249998
29.273001 -15.764 6.8270001
29.288 -15.619 6.8260002
29.441999 -14.954 6.8369999
29.476999 -14.826 6.8400002
29.516001 -14.7 6.8449998
29.591999 -14.45 6.8530002
29.604 -14.314 6.8509998
29.624001 -14.182 6.8509998
29.645 -14.052 6.8520002
29.643999 -13.912 6.8470001
29.67 -13.786 6.849
29.712 -13.668 6.8540001
29.726 -13.538 6.8530002
29.781 -13.427 6.8610001
29.759001 -13.283 6.8520002
29.771999 -13.155 6.8509998
29.788 -13.029 6.8509998
29.820999 -12.912 6.8540001
29.856001 -12.795 6.8579998
29.829 -12.654 6.848
29.868999 -12.542 6.8530002
29.862 -12.41 6.848
29.9 -12.299 6.8530002
29.910999 -12.176 6.8520002
29.896 -12.044 6.8439999
29.936001 -11.935 6.8499999
29.927999 -11.808 6.8439999
29.931999 -11.686 6.842
29.954 -11.572 6.8429999
29.958 -11.452 6.8400002
30 -11.347 6.8470001
30 -11.227 6.8429999
30.052 -11.127 6.8520002
30.075001 -11.016 6.8540001
30.016001 -10.877 6.8369999
30.087999 -10.786 6.8499999
30.073 -10.548 6.8400002
30.075001 -10.434 6.8369999
30.106001 -9.9919996 6.8319998
30.115 -9.8839998 6.8309999
30.1 -9.5500002 6.8189998
30.089001 -9.4379997 6.8140001
30.132 -9.3439999 6.8210001
30.132999 -9.2370005 6.8179998
30.172001 -9.1420002 6.8239999
30.129 -9.0240002 6.8119998
29.618999 -13.485 6.9489999
29.667999 -13.416 6.9590001
29.638 -13.311 6.9499998
29.664 -13.231 6.954
29.757 -13.181 6.974
29.68 -13.056 6.9549999
29.721001 -12.982 6.9619999
29.698999 -12.881 6.9559999
29.781 -12.55 6.967
29.808001 -12.47 6.9720001
29.731001 -12.346 6.9520001
29.778 -12.274 6.961
29.778999 -12.183 6.96
29.855 -12.123 6.9749999
29.855 -12.031 6.974
29.766001 -11.904 6.9510002
29.816999 -11.833 6.961
29.870001 -11.762 6.9710002
29.841999 -11.66 6.9629998
29.893999 -11.589 6.973
29.927 -11.51 6.9790001
29.882 -11.401 6.967
30 -10.621 6.9770002
29.973 -10.52 6.9689999
30.003 -10.44 6.974
30.115 -9.8369999 6.987
30.056999 -9.7270002 6.9710002
30.042999 -9.6309996 6.9660001
30.112 -9.5620003 6.98
30.09 -9.4639997 6.973
30.051001 -9.3599997 6.9619999
30.105 -9.2860003 6.973
30.128 -9.2019997 6.9759998
30.083 -9.0970001 6.9640002
30.121 -9.0170002 6.9710002
30.103001 -8.9209995 6.9640002
28.000999 -18.452 6.7909999
28.091 -18.336 6.8070002
28.216 -18.243 6.8309999
28.278 -18.108999 6.8390002
28.32 -17.962999 6.8429999
28.427 -17.860001 6.8629999
28.511 -17.743 6.8769999
28.566999 -17.608 6.8839998
28.908001 -16.823 6.9310002
28.959 -16.691 6.9369998
29.455 -14.82 6.9819999
29.504 -14.699 6.9889998
29.540001 -14.573 6.993
29.591 -14.454 7
29.563 -14.158 6.9840002
29.624001 -14.047 6.994
29.695 -13.941 7.007
29.68 -13.795 6.9990001
29.704 -13.669 7
29.738001 -13.412 6.9990001
29.781 -13.297 7.0050001
29.754 -13.151 6.994
29.791 -13.035 6.9990001
29.811001 -12.911 6.9990001
29.849001 -12.797 7.0040002
29.851 -12.538 6.9970002
29.844 -12.407 6.9910002
29.893 -12.299 6.9990001
29.93 -12.188 7.0040002
29.922001 -12.058 6.9980001
29.941999 -11.941 6.9990001
29.941 -11.817 6.9949999
29.923 -11.686 6.987
29.927999 -11.566 6.9840002
29.969 -11.46 6.9910002
29.974001 -11.341 6.9879999
30.021999 -11.239 6.9959998
29.986 -11.106 6.9840002
30.089001 -10.327 6.9840002
30.063999 -10.205 6.9759998
30.087999 -9.8780003 6.9720001
30.096001 -9.7700005 6.9710002
30.113001 -9.665 6.9720001
30.073 -9.5430002 6.9590001
30.139 -9.3479996 6.9689999
30.098 -9.2279997 6.9569998
30.118 -9.1280003 6.9590001
29.802999 -12.2 7.1149998
29.837 -12.122 7.1209998
29.829 -12.027 7.1170001
29.819 -11.931 7.112
29.864 -11.858 7.1209998
29.877001 -11.771 7.1220002
29.853001 -11.67 7.1149998
30.073999 -10.102 7.132
30.028 -9.9949999 7.119
30.059999 -9.6400003 7.119
30.033001 -9.54 7.1110001
30.094 -9.3769999 7.1209998
30.127001 -9.2959995 7.1269999
30.068001 -9.0950003 7.1090002
30.148001 -9.0279999 7.1259999
30.150999 -8.9370003 7.125
30.113001 -8.7440004 7.112
30.120001 -8.6549997 7.1110001
30.131001 -8.4090004 7.2379999
30.15 -8.3129997 7.2399998
30.127001 -8.2060003 7.2319999
30.155001 -8.1129999 7.2360001
30.113001 -7.9039998 7.2210002
30.145 -7.8140001 7.2259998
30.159 -7.7199998 7.2270002
30.186001 -7.4369998 7.2259998
30.204 -7.3470001 7.2280002
30.219999 -7.256 7.23
30.242001 -7.1669998 7.2329998
30.205999 -7.0640001 7.2220001
30.223 -6.9749999 7.224
30.235001 -6.8860002 7.224
30.253 -5.908 7.2069998
30.322001 -5.835 7.2210002
30.274 -5.7399998 7.2080002
30.333 -5.6659999 7.2199998
30.330999 -5.4970002 7.2160001
30.27 -5.4029999 7.1999998
30.295 -5.3239999 7.204
30.298 -5.2420001 7.2030001
30.281 -5.1570001 7.198
30.289 -5.0770001 7.198
30.343 -5.0050001 7.2090001
30.35 -4.8449998 7.2080002
30.384001 -4.7709999 7.2150002
30.099001 -8.3800001 7.4000001
30.079 -8.2840004 7.3930001
30.069 -8.1899996 7.3889999
30.131001 -8.1160002 7.402
30.132 -8.0249996 7.4000001
30.120001 -7.7490001 7.3909998
30.139999 -7.6630001 7.3930001
30.114 -7.566 7.3850002
30.176001 -7.4899998 7.3979998
30.162001 -7.3959999 7.3920002
30.177 -7.3080001 7.3940001
30.174 -7.217 7.3909998
30.176001 -7.1259999 7.3889999
30.187 -7.0380001 7.3899999
30.204 -6.9510002 7.3909998
30.184 -6.8559999 7.3839998
30.247 -6.7789998 7.3979998
30.221001 -6.6820002 7.3889999
30.208 -6.5890002 7.3839998
30.271 -5.7859998 7.3790002
30.236 -5.6880002 7.368
30.278 -5.6059999 7.3759999
30.297001 -5.5190001 7.3790002
30.277 -5.4239998 7.3720002
30.285 -5.335 7.3709998
30.288 -5.2449999 7.3699999
30.297001 -5.066 7.3670001
30.32 -4.9790001 7.3709998
30.039 -8.3850002 7.3649998
30.110001 -8.3030005 7.3790002
30.104 -8.0019999 7.3699999
30.105 -7.9029999 7.368
30.108999 -7.8060002 7.3660002
30.18 -7.7259998 7.381
30.138 -7.619 7.368
30.118 -7.5170002 7.3610001
30.167999 -7.434 7.3699999
30.160999 -7.3369999 7.3660002
30.209 -7.2540002 7.3759999
30.150999 -7.1459999 7.3590002
30.216 -7.0669999 7.3730001
30.148001 -6.9590001 7.3540001
30.174999 -6.7810001 7.3559999
30.209 -6.697 7.362
30.246 -5.993 7.355
30.226 -5.902 7.348
30.268999 -5.8239999 7.3569999
30.240999 -5.48 7.3429999
30.274 -5.402 7.349
30.259001 -5.3169999 7.3439999
30.176001 -8.3129997 7.5689998
30.091 -8.198 7.546
30.162001 -8.1260004 7.5609999
30.124001 -7.7519999 7.5430002
30.129999 -7.6620002 7.5419998
30.080999 -7.559 7.5279999
30.108 -7.4749999 7.5320001
30.139 -7.3010001 7.5359998
30.242001 -7.2340002 7.559
