# .PCD v0.7 - Point Cloud Data file format
VERSION 0.7
FIELDS x y z
SIZE 4 4 4
TYPE F F F
COUNT 1 1 1
WIDTH 1913
HEIGHT 1
VIEWPOINT 0 0 0 1 0 0 0
POINTS 1913
DATA ascii
12.705 0.185 0.72299999
12.725 0.208 0.72399998
12.745 0.23100001 0.72500002
12.742 0.25400001 0.72399998
12.744 0.278 0.72399998
12.743 0.301 0.72399998
12.75 0.32499999 0.72399998
12.761 0.34999999 0.72500002
12.768 0.375 0.72500002
12.789 0.40000001 0.72600001
12.782 0.42500001 0.72500002
12.791 0.45100001 0.72600001
12.795 0.47600001 0.72600001
12.806 0.50300002 0.72600001
12.83 0.52999997 0.72799999
12.831 0.55599999 0.727
12.839 0.583 0.72799999
12.841 0.61000001 0.72799999
12.881 0.63999999 0.73000002
12.893 0.66799998 0.73100001
12.905 0.69599998 0.73100001
12.913 0.72500002 0.73199999
12.923 0.75400001 0.73199999
12.907 0.78200001 0.73100001
12.87 0.80800003 0.72899997
12.841 0.83499998 0.727
12.817 0.86299998 0.72600001
12.783 0.88999999 0.72399998
12.733 0.91600001 0.72100002
12.703 0.94300002 0.72000003
12.702 0.97299999 0.72000003
12.721 1.0039999 0.72100002
12.733 1.035 0.72100002
12.76 1.068 0.72299999
12.778 1.101 0.72399998
12.814 1.135 0.72600001
12.847 1.169 0.72799999
12.881 1.204 0.73000002
12.899 1.238 0.73100001
12.912 1.271 0.73199999
12.947 1.307 0.73400003
21.353001 2.1559999 1.211
12.963 1.342 0.73500001
21.355 2.21 1.211
12.966 1.375 0.73500001
21.386 2.2679999 1.2130001
12.972 1.409 0.736
21.413 2.326 1.215
12.984 1.443 0.73699999
21.378 2.3770001 1.2130001
13.031 1.482 0.73900002
21.440001 2.4389999 1.217
13.136 1.529 0.745
21.486 2.5009999 1.22
21.573999 2.5680001 1.225
21.582001 2.6259999 1.225
21.658001 2.6919999 1.23
21.77 2.7639999 1.237
21.868999 2.836 1.243
21.889999 2.898 1.244
16.299999 2.2019999 0.92699999
21.909 2.96 1.245
16.037001 2.21 0.912
15.87 2.23 0.903
15.757 2.2579999 0.89600003
15.728 2.2980001 0.89499998
15.829 2.3559999 0.90100002
22.167 3.362 1.262
22.167999 3.425 1.263
22.214001 3.4949999 1.266
22.285 3.569 1.27
22.357 3.645 1.275
22.361 3.7090001 1.275
22.427999 3.7850001 1.28
22.299 3.8280001 1.273
22.237 3.882 1.27
22.229 3.9449999 1.27
22.225 4.0100002 1.27
22.254 4.0809999 1.272
22.336 4.1620002 1.278
22.454 4.2509999 1.285
22.479 4.323 1.2869999
22.511999 4.3959999 1.289
22.52 4.4660001 1.29
22.573 4.5440001 1.294
22.573 4.6129999 1.295
22.700001 4.7080002 1.302
19.629999 5.1849999 1.138
19.638 5.2509999 1.1390001
19.593 5.303 1.137
19.778999 5.4190001 1.149
18.111 5.1999998 1.0549999
18.01 5.2309999 1.049
18.110001 5.3210001 1.056
17.683001 5.4920001 1.035
17.458 5.4809999 1.023
17.378 5.5149999 1.0190001
17.294001 5.5469999 1.015
17.297001 5.6069999 1.015
17.422001 5.7069998 1.024
17.288 5.7220001 1.017
17.25 5.7690001 1.015
17.239 5.8249998 1.015
11.174 6.5500002 0.708
11.11 6.552 0.70499998
11.08 6.5749998 0.704
11.039 6.5900002 0.70200002
11.021 6.619 0.70200002
10.994 6.6420002 0.70099998
10.962 6.6620002 0.69999999
10.964 6.7020001 0.70099998
10.958 6.737 0.70099998
10.958 6.777 0.70200002
11.016 6.8520002 0.70700002
7.6110001 -4.5250001 0.50999999
7.5960002 -4.4949999 0.509
7.6040001 -4.4780002 0.50999999
7.6160002 -4.4619999 0.51099998
7.618 -4.4419999 0.51099998
7.6279998 -4.4250002 0.51099998
7.6240001 -4.401 0.51099998
7.6469998 -4.3920002 0.51300001
7.6630001 -4.3790002 0.514
7.678 -4.3649998 0.51499999
7.7059999 -4.3590002 0.51599997
7.7309999 -4.3499999 0.51800001
7.7810001 -4.3559999 0.52100003
7.9099998 -4.4050002 0.52999997
7.8460002 -4.2090001 0.52499998
7.724 -4.1209998 0.51700002
7.6939998 -4.0819998 0.51499999
7.6900001 -4.0580001 0.514
7.6880002 -4.0339999 0.514
7.6929998 -4.0139999 0.51499999
7.6960001 -3.993 0.51499999
7.7160001 -3.9809999 0.51599997
7.743 -3.9719999 0.51800001
7.8099999 -3.983 0.52200001
7.9580002 -4.0359998 0.53200001
12.15 -6.0910001 0.81199998
12.137 -6.0479999 0.81099999
12.13 -6.0089998 0.81099999
12.151 -5.9840002 0.81199998
12.201 -5.973 0.815
12.196 -5.934 0.815
12.199 -5.9000001 0.815
12.208 -5.868 0.815
12.26 -5.8579998 0.81900001
12.314 -5.8470001 0.82200003
12.34 -5.823 0.824
12.374 -5.803 0.82599998
12.367 -5.763 0.82499999
12.429 -5.756 0.829
12.447 -5.7270002 0.82999998
12.458 -5.6960001 0.83099997
12.449 -5.6550002 0.82999998
12.494 -5.6389999 0.833
12.554 -5.6290002 0.83700001
12.567 -5.598 0.838
12.566 -5.5599999 0.838
12.584 -5.5310001 0.83899999
12.655 -5.5250001 0.84299999
12.729 -5.52 0.84799999
12.784 -5.506 0.852
12.79 -5.4710002 0.852
12.787 -5.4330001 0.852
12.861 -5.4260001 0.85600001
12.951 -5.4260001 0.86199999
12.929 -5.3790002 0.861
13 -5.3699999 0.86500001
13.032 -5.2680001 0.86699998
13.071 -5.2459998 0.86900002
13.699 -5.1360002 0.91000003
13.652 -5.0780001 0.90700001
13.686 -5.0500002 0.90899998
13.671 -5.0050001 0.90799999
13.664 -4.9619999 0.90700001
13.66 -4.921 0.90700001
13.655 -4.8790002 0.90600002
13.671 -4.8439999 0.90700001
13.72 -4.822 0.91000003
13.743 -4.789 0.91100001
13.774 -4.7600002 0.91299999
13.833 -4.7399998 0.917
13.784 -4.6830001 0.91399997
13.892 -4.6789999 0.921
13.931 -4.651 0.92299998
13.991 -4.4660001 0.926
14.008 -4.4310002 0.92699999
14.063 -4.4070001 0.93099999
14.039 -4.3590002 0.92900002
14.056 -4.323 0.93000001
14.262 -4.2199998 0.94300002
14.395 -4.217 0.95099998
14.585 -4.0180001 0.963
14.603 -3.98 0.96399999
14.161 -2.7909999 0.93000001
14.144 -2.747 0.92900002
14.179 -2.7119999 0.93099999
14.433 -2.7190001 0.94700003
14.07 -2.448 0.92299998
14.016 -2.398 0.91900003
14.102 -2.372 0.92400002
11.696 -1.293 0.76300001
11.586 -1.247 0.75599998
11.575 -1.2130001 0.755
11.587 -1.181 0.755
11.594 -1.148 0.75599998
11.641 -1.12 0.759
11.761 -1.097 0.76599997
12.982 -0.54000002 0.84200001
12.858 -0.498 0.83399999
12.725 -0.45699999 0.82499999
12.677 -0.41800001 0.82200003
12.645 -0.38100001 0.81999999
12.643 -0.345 0.81900001
12.629 -0.308 0.81800002
12.63 -0.27200001 0.81800002
12.638 -0.236 0.81800002
12.634 -0.2 0.81800002
12.668 -0.164 0.81999999
12.693 -0.12800001 0.82099998
12.783 -0.092 0.82700002
13.007 0.132 0.76700002
13.016 0.14399999 0.76700002
13.016 0.156 0.76700002
13.016 0.168 0.76700002
12.977 0.18000001 0.764
12.992 0.193 0.76499999
12.988 0.206 0.764
13.008 0.22 0.76499999
12.988 0.234 0.76300001
12.994 0.248 0.76300001
12.947 0.26199999 0.75999999
12.953 0.27700001 0.75999999
12.961 0.292 0.76099998
12.947 0.30700001 0.759
12.97 0.324 0.76099998
12.958 0.34 0.75999999
12.941 0.35600001 0.75800002
12.944 0.373 0.75800002
12.926 0.389 0.75700003
12.956 0.40700001 0.75800002
12.943 0.42500001 0.75800002
12.949 0.44299999 0.75800002
12.982 0.46200001 0.759
12.981 0.48100001 0.759
13.008 0.50099999 0.76099998
12.988 0.51999998 0.759
12.966 0.53799999 0.75800002
12.964 0.55800003 0.75800002
12.991 0.57999998 0.759
12.983 0.60000002 0.75800002
13.016 0.62199998 0.75999999
12.98 0.64099997 0.75800002
13.006 0.66399997 0.759
12.998 0.685 0.759
12.976 0.70599997 0.75800002
12.97 0.72799999 0.75700003
12.957 0.75 0.75599998
12.944 0.77200001 0.75599998
12.953 0.79500002 0.75599998
12.931 0.81699997 0.755
12.905 0.83899999 0.75300002
12.888 0.86199999 0.75199997
12.865 0.884 0.75099999
12.852 0.90700001 0.75
12.856 0.93199998 0.75
12.861 0.95700002 0.75099999
12.879 0.98400003 0.75199997
12.877 1.0089999 0.75199997
12.881 1.035 0.75199997
12.892 1.062 0.75300002
12.892 1.0880001 0.75300002
12.895 1.115 0.75300002
12.927 1.1440001 0.755
12.925 1.171 0.755
12.915 1.197 0.75400001
12.932 1.227 0.755
12.959 1.257 0.75700003
22.356001 2.1689999 1.306
12.981 1.2869999 0.75800002
22.099001 2.1919999 1.2920001
12.971 1.3150001 0.75800002
21.898001 2.22 1.28
12.966 1.3430001 0.75800002
21.917 2.27 1.281
12.996 1.375 0.75999999
21.91 2.3180001 1.281
13.078 1.413 0.76499999
21.948999 2.372 1.284
13.1 1.4450001 0.76599997
22.02 2.4289999 1.288
22.049 2.483 1.29
22.028 2.5309999 1.289
22.096001 2.5910001 1.294
22.201 2.655 1.3
22.172001 2.704 1.299
22.194 2.7590001 1.301
22.195999 2.813 1.301
22.153 2.8610001 1.299
16.129 2.122 0.94599998
16.002001 2.145 0.93900001
15.917 2.1730001 0.93400002
15.804 2.197 0.92799997
15.745 2.2279999 0.92500001
15.739 2.267 0.92500001
15.788 2.3139999 0.92799997
15.965 2.381 0.93900001
22.281 3.323 1.3099999
22.254999 3.3770001 1.309
22.301001 3.4419999 1.313
22.360001 3.5090001 1.317
22.424999 3.579 1.321
22.603001 3.6670001 1.332
22.679001 3.74 1.337
22.686001 3.802 1.3380001
22.664 3.859 1.3380001
22.436001 3.882 1.325
22.414 3.9389999 1.324
22.356001 3.9909999 1.321
22.336 4.0489998 1.321
22.355 4.1149998 1.323
22.504999 4.2049999 1.332
22.597 4.2859998 1.339
22.561001 4.3439999 1.337
22.563999 4.4089999 1.3380001
22.587999 4.4780002 1.34
22.625 4.5510001 1.3430001
22.653999 4.6230001 1.346
22.679001 4.6939998 1.348
17.504999 5.5310001 1.069
17.386999 5.5539999 1.063
17.364 5.6069999 1.063
17.361 5.6669998 1.064
17.518 5.7800002 1.075
17.349001 5.7859998 1.0650001
17.195 5.796 1.057
17.191 5.8559999 1.058
11.348 6.2649999 0.74800003
11.263 6.2680001 0.74299997
11.222 6.2940001 0.74199998
11.191 6.3260002 0.741
11.158 6.3579998 0.74000001
11.148 6.402 0.74000001
11.149 6.4530001 0.74199998
11.159 6.5079999 0.74400002
11.299 6.6409998 0.75400001
7.3239999 -4.8080001 0.51499999
7.3559999 -4.7839999 0.51700002
7.3649998 -4.744 0.51700002
7.3850002 -4.7119999 0.51800001
7.3979998 -4.6750002 0.51899999
7.4310002 -4.651 0.52100003
7.4510002 -4.619 0.52200001
7.4840002 -4.5949998 0.523
7.5019999 -4.5630002 0.52399999
7.5289998 -4.5349998 0.52600002
7.572 -4.5180001 0.528
7.6090002 -4.4959998 0.52999997
7.697 -4.5050001 0.53600001
7.8330002 -4.54 0.54500002
11.687 -6.7750001 0.81400001
11.559 -6.6360002 0.80400002
11.569 -6.5780001 0.80400002
11.615 -6.5409999 0.80699998
11.702 -6.526 0.81199998
7.743 -4.277 0.537
11.788 -6.5110002 0.81800002
7.6659999 -4.1939998 0.53100002
7.631 -4.1339998 0.52899998
7.6370001 -4.0970001 0.52899998
7.6529999 -4.066 0.52899998
7.6700001 -4.0359998 0.52999997
7.691 -4.007 0.53100002
7.7259998 -3.987 0.53299999
7.8000002 -3.9860001 0.53799999
12.238 -6.1919999 0.84399998
12.071 -6.0479999 0.83200002
12.08 -5.993 0.83200002
12.143 -5.9660001 0.83600003
12.177 -5.9239998 0.838
12.221 -5.8870001 0.83999997
12.219 -5.8270001 0.83999997
12.296 -5.8060002 0.84500003
12.332 -5.7649999 0.847
12.386 -5.7329998 0.85000002
12.421 -5.6919999 0.852
12.482 -5.6630001 0.85600001
12.497 -5.6129999 0.85600001
12.571 -5.5890002 0.861
12.637 -5.5619998 0.86500001
12.652 -5.513 0.86500001
12.67 -5.4650002 0.866
12.771 -5.4520001 0.87300003
12.813 -5.415 0.875
12.848 -5.3740001 0.87699997
12.915 -5.3470001 0.88099998
13.743 -5.1240001 0.93300003
13.705 -5.0560002 0.93000001
13.733 -5.0120001 0.93199998
13.737 -4.96 0.93199998
13.751 -4.9120002 0.93199998
13.781 -4.869 0.93400002
13.749 -4.8049998 0.93099999
13.789 -4.7670002 0.93400002
13.842 -4.7329998 0.93699998
13.871 -4.691 0.93900001
13.967 -4.671 0.94499999
14.083 -4.658 0.95200002
14.564 -4.349 0.98199999
14.483 -4.2750001 0.97600001
14.551 -4.2449999 0.98000002
14.688 -4.2340002 0.98900002
14.158 -2.888 0.94700003
14.143 -2.8440001 0.94599998
14.179 -2.8110001 0.94800001
14.408 -2.816 0.963
14.019 -2.5079999 0.93599999
14.02 -2.471 0.93599999
14.088 -2.4449999 0.94
11.72 -1.232 0.77999997
11.624 -1.196 0.77399999
11.6 -1.168 0.77200001
11.582 -1.141 0.77100003
11.584 -1.1160001 0.77100003
11.583 -1.091 0.77100003
11.603 -1.068 0.77200001
11.612 -1.044 0.77200001
11.641 -1.022 0.77399999
11.688 -1.001 0.77700001
13.007 -0.421 0.866
12.969 -0.398 0.86299998
12.863 -0.373 0.85600001
12.762 -0.34900001 0.84899998
12.718 -0.32600001 0.847
12.7 -0.30500001 0.84500003
12.692 -0.28400001 0.84500003
12.687 -0.26300001 0.84500003
12.686 -0.242 0.84500003
12.693 -0.222 0.84500003
12.694 -0.20200001 0.84500003
12.723 -0.182 0.847
12.759 -0.163 0.85000002
12.795 -0.14300001 0.852
12.808 -0.124 0.85299999
12.877 -0.105 0.85799998
12.863 0.19 0.792
12.877 0.212 0.79299998
12.891 0.236 0.79400003
12.903 0.259 0.79400003
12.903 0.28299999 0.79400003
12.91 0.30700001 0.79400003
12.929 0.33199999 0.79500002
12.939 0.35699999 0.796
12.927 0.38100001 0.79500002
12.956 0.40700001 0.796
12.953 0.43200001 0.796
12.966 0.458 0.79699999
12.985 0.48500001 0.79799998
12.998 0.51200002 0.79799998
13.018 0.53899997 0.80000001
13.017 0.56599998 0.79900002
12.999 0.59200001 0.79799998
13.021 0.62 0.79900002
13.047 0.64899999 0.801
13.051 0.67699999 0.801
13.037 0.70499998 0.80000001
13.021 0.73199999 0.79900002
13.032 0.76200002 0.80000001
13.002 0.78899997 0.79799998
12.989 0.81699997 0.79699999
12.981 0.84600002 0.79699999
12.952 0.87300003 0.79500002
12.957 0.903 0.79500002
12.921 0.93000001 0.79299998
12.892 0.958 0.79100001
12.921 0.991 0.79299998
12.962 1.024 0.796
12.942 1.054 0.79400003
12.929 1.0829999 0.79400003
12.94 1.1160001 0.79400003
12.945 1.148 0.79500002
12.973 1.182 0.79699999
12.946 1.211 0.79500002
12.929 1.242 0.79400003
22.365999 2.148 1.374
12.967 1.278 0.79699999
22.24 2.1919999 1.367
13.017 1.3150001 0.80000001
22.200001 2.243 1.364
13.053 1.352 0.80199999
22.193001 2.299 1.364
13.025 1.382 0.801
22.073999 2.3429999 1.357
13.06 1.419 0.80299997
22.011999 2.392 1.353
22.062 2.4549999 1.357
22.094999 2.516 1.359
22.124001 2.5769999 1.3609999
22.134001 2.6359999 1.362
22.410999 2.7279999 1.3789999
22.392 2.7850001 1.378
22.344 2.839 1.376
22.316999 2.895 1.375
22.302 2.9530001 1.374
16.073 2.1719999 0.99000001
22.489 3.039 1.386
15.96 2.2 0.98400003
15.871 2.2320001 0.97899997
15.747 2.2579999 0.97100002
15.718 2.2969999 0.97000003
15.738 2.3440001 0.97100002
15.894 2.411 0.98100001
22.497 3.4130001 1.3890001
22.353001 3.454 1.381
22.393999 3.5239999 1.3839999
22.434999 3.5940001 1.387
22.646 3.6930001 1.4
22.768999 3.7780001 1.408
22.819 3.852 1.4119999
22.808001 3.9159999 1.4119999
22.589001 3.944 1.399
22.445 3.9849999 1.39
22.434 4.0489998 1.39
22.475 4.1220002 1.393
22.575001 4.2069998 1.4
22.690001 4.296 1.408
22.586 4.3439999 1.402
22.613001 4.4169998 1.405
22.642 4.4910002 1.4069999
22.686001 4.5679998 1.41
22.76 4.652 1.416
17.737 5.5689998 1.128
17.566 5.5749998 1.118
17.502001 5.7930002 1.117
17.278999 5.7789998 1.104
17.228001 5.8210001 1.102
17.402 5.9400001 1.114
7.5580001 -4.4980001 0.542
7.5549998 -4.474 0.54100001
7.5650001 -4.4580002 0.542
7.5739999 -4.4419999 0.54299998
7.5809999 -4.4239998 0.54299998
7.5999999 -4.4130001 0.54400003
7.6079998 -4.395 0.54500002
7.625 -4.3829999 0.546
7.6399999 -4.369 0.54699999
7.6680002 -4.3629999 0.54900002
7.7140002 -4.3670001 0.55199999
7.75 -4.3639998 0.55500001
7.9050002 -4.428 0.56599998
7.8930001 -4.2839999 0.565
7.7410002 -4.178 0.55400002
7.6880002 -4.1269999 0.55000001
7.6570001 -4.0879998 0.54699999
7.6539998 -4.0640001 0.54699999
7.6550002 -4.0419998 0.54699999
7.6659999 -4.026 0.54799998
7.6810002 -4.0110002 0.54900002
7.6900001 -3.993 0.54900002
7.7179999 -3.9849999 0.551
7.7540002 -3.98 0.55400002
7.835 -3.9990001 0.56
12.705 -6.3730001 0.90700001
12.693 -6.3299999 0.90600002
12.718 -6.3049998 0.90799999
12.731 -6.2740002 0.90899998
12.802 -6.2709999 0.91399997
12.772 -6.2189999 0.91100001
12.918 -6.2519999 0.92199999
13.859 -5.4840002 0.98400003
13.786 -5.414 0.97899997
13.83 -5.3909998 0.98199999
13.894 -5.375 0.986
13.833 -5.3099999 0.98199999
13.847 -5.2750001 0.98199999
13.846 -5.2340002 0.98199999
13.859 -5.198 0.98299998
13.876 -5.164 0.98400003
13.847 -5.112 0.98199999
13.894 -5.0890002 0.98500001
13.881 -5.0430002 0.98400003
13.908 -5.0120001 0.986
13.915 -4.974 0.986
13.903 -4.9289999 0.98500001
13.938 -4.9000001 0.98699999
13.962 -4.868 0.98900002
13.998 -4.8390002 0.991
14.044 -4.8140001 0.99400002
14.062 -4.7789998 0.995
14.26 -4.8039999 1.0089999
14.381 -4.803 1.017
14.241 -2.8069999 0.99800003
14.146 -2.747 0.991
14.174 -2.711 0.99299997
14.323 -2.698 1.003
14.011 -2.437 0.98000002
14.014 -2.3970001 0.98000002
14.104 -2.372 0.98699999
11.651 -1.2869999 0.81099999
11.584 -1.2460001 0.80599999
11.572 -1.212 0.80500001
11.569 -1.178 0.80500001
11.59 -1.147 0.80599999
11.63 -1.117 0.80900002
11.799 -1.1 0.81999999
13.024 -0.54000002 0.90200001
12.956 -0.5 0.89700001
12.872 -0.46000001 0.89099997
12.787 -0.41999999 0.88499999
12.746 -0.382 0.88099998
12.745 -0.34599999 0.88099998
12.769 -0.31 0.88300002
12.791 -0.27399999 0.884
12.835 -0.23800001 0.88700002
12.946 -0.20299999 0.89399999
13 -0.16599999 0.898
13.324 0.89200002 0.83999997
13.2 0.90899998 0.83200002
13.178 0.93199998 0.83099997
13.17 0.95700002 0.83099997
13.211 0.98500001 0.833
13.23 1.0650001 0.83499998
13.268 1.094 0.83700001
22.403 2.0799999 1.415
22.339001 2.1210001 1.411
22.334 2.1689999 1.411
22.336 2.217 1.411
22.360001 2.2690001 1.413
22.372999 2.319 1.414
22.382999 2.3699999 1.415
22.476999 2.431 1.421
22.909 2.582 1.449
22.844999 2.6270001 1.446
22.747999 2.6689999 1.4400001
22.712 2.7179999 1.438
22.679001 2.767 1.436
22.660999 2.819 1.436
22.513 2.855 1.427
22.496 2.9070001 1.426
16.044001 2.112 1.017
15.943 2.138 1.011
15.884 2.1689999 1.008
15.785 2.1949999 1.002
15.719 2.2249999 0.99800003
15.709 2.2639999 0.99800003
15.748 2.309 1.001
15.857 2.3659999 1.008
22.561001 3.424 1.4349999
22.546 3.4809999 1.4349999
22.665001 3.5580001 1.443
22.978001 3.668 1.464
23.046 3.74 1.469
22.972 3.789 1.465
23.108999 3.8740001 1.474
22.721001 3.994 1.452
22.639 4.0419998 1.447
22.649 4.1069999 1.449
22.736 4.1859999 1.455
22.926001 4.2849998 1.4680001
22.813999 4.329 1.462
22.719999 4.375 1.457
22.768 4.4489999 1.461
22.885 4.5380001 1.469
19.531 4.632 1.265
19.415001 4.664 1.258
19.492001 4.744 1.2640001
7.2849998 -4.7820001 0.546
7.3109999 -4.7529998 0.54799998
7.3410001 -4.7270002 0.55000001
7.3660002 -4.6989999 0.551
7.3860002 -4.6669998 0.55199999
7.4120002 -4.638 0.55400002
7.4359999 -4.6090002 0.55500001
7.4580002 -4.579 0.55599999
7.4889998 -4.5539999 0.55800003
7.5229998 -4.5300002 0.56
7.5760002 -4.5190001 0.56400001
7.6279998 -4.507 0.56699997
7.744 -4.5320001 0.57499999
12.187 -7.131 0.90499997
12.038 -6.9770002 0.89399999
12.06 -6.9229999 0.89499998
12.07 -6.862 0.89499998
12.148 -6.8400002 0.89999998
7.717 -4.303 0.57099998
12.288 -6.8530002 0.91000003
7.6370001 -4.2179999 0.565
7.6079998 -4.1609998 0.56199998
7.6059999 -4.1199999 0.56199998
7.6100001 -4.0819998 0.56199998
7.6269999 -4.052 0.56199998
7.6430001 -4.0209999 0.56300002
7.684 -4.0029998 0.56599998
7.7319999 -3.9890001 0.56900001
7.8270001 -3.9990001 0.57599998
12.616 -6.3210001 0.92699999
12.603 -6.2519999 0.926
12.664 -6.2210002 0.92900002
12.73 -6.1919999 0.93400002
12.816 -6.1719999 0.93900001
12.918 -6.1599998 0.94599998
13.117 -6.1929998 0.95999998
13.95 -5.4829998 1.012
13.875 -5.3959999 1.006
13.888 -5.3449998 1.007
14.014 -5.3369999 1.015
14.033 -5.2880001 1.016
14.053 -5.2389998 1.017
14.148 -5.2189999 1.024
13.993 -5.1069999 1.012
14.017 -5.0609999 1.013
14.111 -5.04 1.02
14.246 -5.033 1.029
14.107 -4.9299998 1.0190001
14.215 -4.914 1.026
14.284 -2.9130001 1.018
14.13 -2.842 1.007
14.133 -2.802 1.007
14.19 -2.7739999 1.011
14.115 -2.5639999 1.0039999
13.98 -2.5009999 0.995
13.992 -2.4660001 0.995
14.046 -2.438 0.99900001
11.654 -1.225 0.82599998
11.6 -1.194 0.82200003
11.584 -1.1670001 0.82099998
11.584 -1.141 0.82099998
11.568 -1.114 0.81999999
11.573 -1.09 0.81999999
11.591 -1.067 0.82099998
11.612 -1.044 0.82300001
11.64 -1.022 0.82499999
11.692 -1.002 0.82800001
11.829 -0.98900002 0.838
12.984 -0.35499999 0.92000002
12.964 -0.33199999 0.91900003
12.95 -0.31099999 0.91799998
12.94 -0.289 0.917
12.915 -0.26699999 0.91600001
12.905 -0.24600001 0.91500002
12.931 -0.226 0.917
13.02 -0.16599999 0.92299998
13.083 -0.147 0.92799997
13.238 0.89399999 0.875
13.191 0.921 0.87199998
13.257 0.95599997 0.87599999
13.205 0.98299998 0.87300003
13.161 1.073 0.87
13.258 1.112 0.87699997
13.315 1.149 0.88
22.459 2.1029999 1.4859999
22.353001 2.1489999 1.479
22.344 2.204 1.479
22.357 2.2609999 1.48
22.372 2.319 1.4809999
22.372999 2.3759999 1.4809999
22.427999 2.4389999 1.485
22.959 2.556 1.521
22.983 2.618 1.523
22.952 2.675 1.521
22.819 2.7190001 1.513
22.749001 2.7709999 1.508
22.716 2.8269999 1.507
22.707001 2.8859999 1.506
22.613001 2.9349999 1.501
22.552 2.9879999 1.497
15.98 2.161 1.061
15.906 2.194 1.056
15.819 2.2249999 1.051
15.712 2.2539999 1.044
15.697 2.2950001 1.043
15.713 2.3410001 1.045
15.869 2.4089999 1.056
22.997999 4.3559999 1.538
22.997 4.4239998 1.539
23.287001 4.7600002 1.561
23.344999 4.8429999 1.566
19.530001 4.5970001 1.317
19.389999 4.6259999 1.308
19.427 4.6960001 1.312
7.5489998 -4.4959998 0.57599998
7.5380001 -4.4679999 0.57499999
7.5609999 -4.46 0.57599998
7.5679998 -4.4419999 0.57700002
7.5799999 -4.4260001 0.57800001
7.586 -4.408 0.57800001
7.599 -4.3940001 0.579
7.6209998 -4.3839998 0.58099997
7.6279998 -4.3660002 0.58099997
7.6589999 -4.3610001 0.583
7.6999998 -4.362 0.58700001
7.7329998 -4.3579998 0.58899999
7.862 -4.408 0.59899998
7.7670002 -4.1950002 0.59100002
7.6880002 -4.1300001 0.58499998
7.651 -4.0879998 0.58200002
7.6500001 -4.0650001 0.58200002
7.6459999 -4.04 0.58099997
7.6550002 -4.0229998 0.58200002
7.6750002 -4.0110002 0.583
7.6820002 -3.9920001 0.58399999
7.7090001 -3.983 0.58600003
7.7449999 -3.9790001 0.58899999
7.803 -3.9860001 0.59299999
7.98 -4.052 0.60600001
13.369 -6.4349999 1.0140001
13.342 -6.3829999 1.012
13.361 -6.3530002 1.0140001
13.385 -6.3239999 1.015
13.483 -6.3309999 1.023
13.548 -6.3210001 1.027
13.625 -6.3169999 1.033
13.745 -6.3319998 1.0420001
13.842 -6.336 1.049
14.177 -5.8210001 1.072
14.19 -5.7839999 1.072
14.255 -5.7690001 1.077
14.216 -5.711 1.074
14.295 -5.7010002 1.08
14.259 -5.645 1.077
14.298 -5.618 1.08
14.63 -5.1459999 1.102
14.722 -5.1350002 1.109
14.296 -2.8169999 1.0650001
14.153 -2.7479999 1.054
14.132 -2.7030001 1.053
14.22 -2.6789999 1.059
14.076 -2.4890001 1.0470001
13.982 -2.4319999 1.04
13.972 -2.3900001 1.039
14.222 -2.391 1.057
11.838 -1.341 0.87599999
11.611 -1.2819999 0.85900003
11.55 -1.242 0.85399997
11.56 -1.21 0.85500002
11.565 -1.177 0.85500002
11.583 -1.145 0.85600001
11.622 -1.1160001 0.85900003
11.686 -1.0880001 0.86299998
13.12 -0.39199999 0.96399999
13.074 -0.35299999 0.96100003
13.052 -0.315 0.95899999
13.305 0.81999999 0.90200001
13.24 0.83999997 0.89700001
13.263 0.88999999 0.89899999
13.211 0.91100001 0.89499998
13.174 0.93300003 0.89300001
13.199 0.95999998 0.89399999
13.205 0.986 0.89499998
13.135 1.006 0.88999999
13.089 1.029 0.88700002
13.104 1.056 0.88800001
13.123 1.084 0.88999999
13.181 1.115 0.89399999
13.22 1.145 0.89600003
13.286 1.3200001 0.90200001
13.154 1.336 0.89300001
16.233 2.099 1.1059999
15.983 2.105 1.089
15.902 2.1340001 1.084
15.857 2.1670001 1.082
15.735 2.1889999 1.074
15.688 2.2219999 1.071
15.676 2.26 1.071
15.71 2.3050001 1.073
15.805 2.359 1.08
23.266001 3.533 1.591
23.184999 3.5810001 1.587
23.164 3.638 1.586
23.17 3.7 1.587
23.181 3.763 1.589
23.179001 3.825 1.589
23.169001 3.885 1.589
23.145 3.944 1.589
23.153999 4.0079999 1.59
23.139 4.0689998 1.59
23.141001 4.1329999 1.591
23.142 4.197 1.592
23.164 4.2659998 1.594
23.347 4.631 1.612
23.323 4.6929998 1.6109999
23.271 4.7509999 1.609
23.204 4.8049998 1.605
23.256001 4.8839998 1.61
19.75 4.684 1.376
19.451 4.6739998 1.3559999
19.488001 4.743 1.36
7.2729998 -4.7729998 0.579
7.3060002 -4.7490001 0.58099997
7.3189998 -4.7129998 0.58200002
7.3520002 -4.6890001 0.58399999
7.3730001 -4.6570001 0.58499998
7.4029999 -4.632 0.58700001
7.4369998 -4.6090002 0.58899999
7.4520001 -4.5739999 0.58999997
7.4759998 -4.5450001 0.59100002
7.5180001 -4.527 0.59399998
7.566 -4.513 0.59799999
7.6490002 -4.5180001 0.60399997
12.33 -7.2140002 0.97299999
12.307 -7.132 0.97000003
12.317 -7.0689998 0.97000003
12.33 -7.0089998 0.97100002
12.401 -6.9809999 0.97500002
7.6539998 -4.2680001 0.60100001
7.6090002 -4.2020001 0.597
7.5809999 -4.1459999 0.59500003
7.579 -4.105 0.59399998
7.6030002 -4.0780001 0.59600002
7.6259999 -4.0510001 0.597
7.6529999 -4.026 0.59899998
7.6900001 -4.006 0.60100001
7.743 -3.994 0.60500002
7.8920002 -4.0310001 0.616
13.226 -6.625 1.0319999
13.271 -6.5830002 1.035
13.334 -6.5489998 1.039
13.362 -6.4990001 1.041
13.272 -6.3909998 1.033
13.264 -6.3239999 1.0319999
13.352 -6.303 1.038
13.415 -6.27 1.0420001
13.492 -6.244 1.048
13.586 -6.2249999 1.054
13.67 -6.2010002 1.0599999
13.834 -6.2119999 1.072
13.976 -6.2129998 1.0829999
13.997 -6.1599998 1.084
14.085 -6.1360002 1.09
14.189 -5.934 1.096
14.275 -5.9089999 1.102
14.244 -5.836 1.099
14.208 -5.7610002 1.096
14.306 -5.7410002 1.103
14.279 -5.671 1.1
14.369 -5.6469998 1.107
14.413 -5.605 1.109
14.392 -5.5380001 1.107
14.405 -5.4860001 1.108
14.538 -5.4780002 1.118
14.603 -5.4439998 1.122
14.542 -5.3639998 1.117
14.635 -5.3400002 1.124
14.731 -5.204 1.13
14.855 -5.191 1.1390001
14.789 -5.112 1.133
14.834 -5.072 1.136
14.857 -5.0240002 1.137
14.263 -2.869 1.079
14.136 -2.803 1.069
14.108 -2.7579999 1.066
14.165 -2.7290001 1.0700001
14.382 -2.7309999 1.087
14.143 -2.569 1.068
13.973 -2.5 1.0549999
13.946 -2.4579999 1.053
13.976 -2.4260001 1.0549999
14.163 -2.421 1.069
11.88 -1.302 0.89399999
11.748 -1.261 0.884
11.641 -1.224 0.87599999
11.581 -1.192 0.87099999
11.557 -1.164 0.86900002
11.547 -1.138 0.86799997
11.555 -1.113 0.86900002
11.564 -1.089 0.87
11.578 -1.066 0.87099999
11.605 -1.043 0.87300003
11.621 -1.02 0.87400001
11.647 -0.99800003 0.87599999
11.713 -0.97899997 0.88099998
13.005 0.19599999 0.92299998
13.046 0.219 0.926
13.031 0.242 0.92500001
13.066 0.266 0.92699999
13.051 0.28999999 0.926
13.057 0.31400001 0.926
13.067 0.33899999 0.92699999
13.08 0.36399999 0.92699999
13.07 0.389 0.926
13.075 0.414 0.92699999
13.082 0.44 0.92699999
13.084 0.46599999 0.92699999
13.086 0.49200001 0.92699999
13.106 0.51899999 0.92799997
13.091 0.54500002 0.92699999
13.063 0.57099998 0.92500001
13.104 0.60000002 0.92799997
13.075 0.62599999 0.926
13.121 0.65600002 0.92900002
13.133 0.685 0.93000001
13.136 0.713 0.93000001
13.154 0.74299997 0.93099999
13.097 0.76800001 0.92699999
13.126 0.79900002 0.92900002
13.118 0.82800001 0.92900002
13.122 0.85699999 0.92900002
13.124 0.88700002 0.92900002
13.094 0.91500002 0.92699999
13.069 0.94400001 0.92500001
13.058 0.97299999 0.92500001
13.049 1.003 0.92400002
13.028 1.0319999 0.92299998
12.991 1.0599999 0.92000002
13.002 1.092 0.921
13.047 1.127 0.92400002
13.069 1.161 0.926
13.075 1.193 0.92699999
13.153 1.233 0.93199998
13.137 1.2640001 0.93099999
13.117 1.295 0.93000001
13.113 1.327 0.93000001
13.074 1.3559999 0.92699999
13.055 1.387 0.926
13.181 1.434 0.935
23.232 2.8929999 1.651
23.327 2.967 1.658
23.209999 3.0139999 1.651
15.974 2.161 1.137
15.903 2.194 1.132
15.808 2.2249999 1.125
15.693 2.2520001 1.118
15.651 2.289 1.115
15.662 2.3340001 1.1160001
15.742 2.3900001 1.122
23.118 3.575 1.649
23.094 3.6370001 1.648
23.09 3.7019999 1.648
23.094 3.7679999 1.649
23.084999 3.8329999 1.649
23.08 3.8989999 1.65
23.066999 3.9630001 1.649
23.083 4.033 1.651
23.083 4.0999999 1.652
23.073 4.1659999 1.652
23.094 4.2379999 1.654
23.205999 4.3270001 1.663
23.330999 4.6290002 1.676
23.313999 4.6960001 1.675
23.238001 4.7519999 1.671
23.204 4.8150001 1.669
7.52 -4.4819999 0.60799998
7.5289998 -4.4660001 0.60900003
7.546 -4.454 0.61000001
7.5479999 -4.434 0.61000001
7.5560002 -4.4159999 0.611
7.5749998 -4.4050002 0.61199999
7.585 -4.3889999 0.61299998
7.599 -4.375 0.61400002
7.6199999 -4.3649998 0.61500001
7.638 -4.3520002 0.61699998
7.6589999 -4.342 0.61799997
7.6869998 -4.336 0.62099999
7.7509999 -4.349 0.62599999
7.8759999 -4.3959999 0.63599998
7.756 -4.1929998 0.62599999
7.684 -4.131 0.62
7.6409998 -4.085 0.616
7.6389999 -4.0619998 0.616
7.6430001 -4.0419998 0.616
7.6529999 -4.0240002 0.61699998
7.6620002 -4.007 0.61699998
7.6609998 -3.984 0.61699998
7.6859999 -3.974 0.61900002
7.7150002 -3.9660001 0.62099999
7.7620001 -3.967 0.625
7.862 -3.9949999 0.63300002
14.241 -6.5229998 1.1440001
14.161 -6.4450002 1.137
14.167 -6.4050002 1.138
14.256 -6.4039998 1.145
14.258 -6.362 1.145
14.396 -6.381 1.155
14.456 -6.152 1.159
14.433 -6.099 1.1569999
14.467 -6.0710001 1.16
14.524 -6.052 1.164
14.562 -6.0250001 1.1670001
14.521 -5.9650002 1.163
14.595 -5.9530001 1.169
14.553 -5.8930001 1.165
14.614 -5.8740001 1.17
14.664 -5.8509998 1.174
14.64 -5.7979999 1.1720001
14.627 -5.75 1.17
14.81 -5.7779999 1.1849999
14.765 -5.717 1.181
14.786 -5.638 1.182
14.802 -5.6009998 1.183
14.178 -2.753 1.119
14.123 -2.7019999 1.114
14.137 -2.6630001 1.115
14.23 -2.6400001 1.122
14.004 -2.4760001 1.104
13.951 -2.4260001 1.099
13.982 -2.391 1.101
14.142 -2.3770001 1.114
11.876 -1.3789999 0.93099999
11.718 -1.327 0.91900003
11.594 -1.279 0.90899998
11.532 -1.239 0.903
11.522 -1.205 0.903
11.535 -1.173 0.903
11.559 -1.142 0.90499997
11.595 -1.112 0.90799999
11.655 -1.084 0.912
13.156 0.33500001 0.95700002
13.146 0.35100001 0.95599997
13.286 0.37200001 0.96499997
13.167 0.403 0.95599997
13.129 0.419 0.95300001
13.222 0.44 0.95999998
13.182 0.45699999 0.95700002
13.188 0.47600001 0.95700002
13.106 0.49200001 0.95099998
13.145 0.51200002 0.954
13.117 0.53100002 0.95099998
13.136 0.551 0.95300001
13.112 0.56999999 0.95099998
13.142 0.59200001 0.95300001
13.155 0.61299998 0.954
13.13 0.63300002 0.95200002
13.112 0.653 0.94999999
13.107 0.67400002 0.94999999
13.116 0.69700003 0.94999999
13.066 0.71600002 0.94700003
13.062 0.73799998 0.94599998
13.045 0.75999999 0.94499999
13.05 0.78299999 0.94499999
13.055 0.80599999 0.94599998
13.045 0.829 0.94499999
13.019 0.85100001 0.94300002
13.003 0.87400001 0.94199997
12.983 0.89700001 0.94099998
12.96 0.92000002 0.93900001
12.928 0.94199997 0.93699998
12.917 0.96600002 0.93599999
12.901 0.99000001 0.935
12.898 1.015 0.935
12.89 1.04 0.93400002
12.888 1.0650001 0.93400002
12.892 1.092 0.935
12.914 1.12 0.93699998
12.949 1.15 0.93900001
12.952 1.177 0.94
23.118 2.102 1.677
12.99 1.2079999 0.94300002
23.099001 2.1489999 1.676
13.083 1.245 0.949
23.094999 2.197 1.676
12.985 1.263 0.94300002
23.083 2.2460001 1.676
13.018 1.295 0.94499999
23.167 2.3039999 1.682
13.042 1.325 0.94700003
13.037 1.354 0.94700003
13.116 1.391 0.95300001
13.159 1.425 0.95599997
23.266001 2.52 1.691
13.211 1.461 0.95999998
23.032 2.5469999 1.675
22.983999 2.5940001 1.6720001
22.99 2.648 1.673
13.174 1.548 0.95899999
23.000999 2.7019999 1.674
13.1 1.569 0.95300001
23.006001 2.757 1.675
13.025 1.591 0.94800001
23.025 2.813 1.677
13.028 1.622 0.949
23.027 2.868 1.677
13.104 1.663 0.95499998
23.017 2.9219999 1.677
23.034 2.98 1.679
15.989 2.1070001 1.166
23.143999 3.05 1.688
15.9 2.1340001 1.16
15.848 2.1670001 1.1569999
15.742 2.191 1.149
15.67 2.22 1.1440001
15.652 2.257 1.1440001
15.652 2.2969999 1.1440001
15.677 2.3410001 1.147
15.767 2.395 1.154
23.110001 3.5109999 1.691
23.030001 3.5580001 1.686
23.024 3.618 1.686
23.021999 3.678 1.687
23.02 3.7379999 1.688
23.024 3.8 1.689
23.030001 3.8629999 1.6900001
23.018 3.9230001 1.6900001
23.023001 3.987 1.692
23.030001 4.0510001 1.693
23.039 4.1160002 1.6950001
23.040001 4.1799998 1.696
23.052 4.2459998 1.698
23.103001 4.3210001 1.7029999
23.336 4.6300001 1.724
23.315001 4.6929998 1.724
23.325001 4.763 1.726
23.344 4.835 1.728
23.356001 4.9060001 1.73
19.575001 4.7649999 1.462
19.658001 4.8470001 1.47
7.2579999 -4.763 0.61199999
7.289 -4.7379999 0.61400002
7.3119998 -4.7080002 0.61500001
7.3379998 -4.6789999 0.61699998
7.3649998 -4.652 0.61900002
7.3909998 -4.6240001 0.62
7.4239998 -4.5999999 0.62300003
7.4549999 -4.5749998 0.625
7.4770002 -4.5450001 0.62599999
7.52 -4.5279999 0.62900001
7.572 -4.5159998 0.63300002
7.6609998 -4.5250001 0.63999999
7.6459999 -4.3039999 0.63599998
7.5819998 -4.2270002 0.63
7.5560002 -4.1719999 0.62800002
7.5609999 -4.1339998 0.62800002
7.5780001 -4.1040001 0.62900001
7.6009998 -4.0770001 0.63
7.6160002 -4.0450001 0.63099998
7.6500001 -4.0229998 0.63300002
7.6929998 -4.007 0.63700002
7.7589998 -4.0019999 0.64200002
14.263 -6.4689999 1.171
14.228 -6.3889999 1.1670001
14.235 -6.3270001 1.1670001
14.295 -6.29 1.171
14.397 -6.2709999 1.179
14.48 -6.244 1.1849999
14.551 -6.211 1.1900001
14.629 -6.1810002 1.196
14.546 -6.0830002 1.189
14.538 -6.0170002 1.187
14.598 -5.98 1.192
14.628 -5.9310002 1.194
14.659 -5.882 1.196
14.674 -5.8270001 1.196
14.758 -5.8000002 1.202
14.82 -5.763 1.207
14.81 -5.6989999 1.206
14.843 -5.652 1.2079999
14.96 -5.6370001 1.217
14.956 -5.5749998 1.216
15.078 -5.5609999 1.225
14.251 -2.826 1.14
14.129 -2.7620001 1.13
14.099 -2.7160001 1.127
14.153 -2.688 1.131
14.202 -2.658 1.135
14.108 -2.563 1.127
13.978 -2.5009999 1.1160001
13.949 -2.4579999 1.114
13.963 -2.4230001 1.115
14.038 -2.3989999 1.12
11.893 -1.331 0.94599998
11.771 -1.29 0.93599999
11.717 -1.258 0.93199998
11.628 -1.223 0.92500001
11.566 -1.1900001 0.92000002
11.538 -1.1619999 0.91799998
11.522 -1.135 0.91600001
11.517 -1.11 0.91600001
11.533 -1.086 0.917
11.557 -1.064 0.91900003
11.565 -1.04 0.92000002
11.605 -1.0190001 0.92299998
11.628 -0.99599999 0.92400002
11.679 -0.97600001 0.92799997
11.832 -0.96399999 0.94099998
12.906 0.19599999 0.977
12.933 0.219 0.97899997
12.933 0.242 0.97799999
12.945 0.266 0.97899997
12.958 0.28999999 0.98000002
12.966 0.31400001 0.98000002
12.983 0.338 0.98100001
12.982 0.36300001 0.98100001
12.997 0.38800001 0.98199999
13.002 0.414 0.98199999
13.015 0.43900001 0.98299998
13.021 0.465 0.98400003
13.019 0.491 0.98299998
13.033 0.51800001 0.98400003
13.047 0.54500002 0.98500001
13.041 0.57200003 0.98500001
13.066 0.60000002 0.98699999
13.049 0.62599999 0.98500001
13.054 0.65399998 0.986
13.041 0.68099999 0.98500001
13.027 0.70899999 0.98400003
13.023 0.73699999 0.98299998
13.009 0.76499999 0.98199999
13.005 0.79299998 0.98199999
13.018 0.82300001 0.98299998
13.002 0.85100001 0.98199999
12.973 0.87900001 0.98000002
12.943 0.90600002 0.977
12.928 0.935 0.97600001
12.894 0.96200001 0.97399998
12.877 0.991 0.97299999
12.862 1.02 0.972
12.853 1.05 0.97100002
12.849 1.08 0.97100002
12.86 1.112 0.972
12.884 1.146 0.97399998
12.922 1.1799999 0.977
12.933 1.2130001 0.97799999
23.052999 2.1630001 1.743
12.952 1.247 0.97899997
23.054001 2.22 1.744
13.062 1.29 0.98799998
23.075001 2.28 1.745
12.959 1.313 0.98000002
23.075001 2.3380001 1.7460001
13.007 1.35 0.98400003
23.204 2.4089999 1.756
12.998 1.382 0.98400003
13.048 1.421 0.98799998
13.103 1.461 0.99199998
23.205 2.5869999 1.757
13.176 1.503 0.99800003
22.987 2.622 1.7410001
13.289 1.551 1.007
22.924999 2.675 1.737
13.201 1.575 1
22.943001 2.737 1.739
13.056 1.592 0.98900002
22.948999 2.7980001 1.74
12.982 1.617 0.98400003
22.974001 2.862 1.742
12.964 1.65 0.98299998
22.99 2.9260001 1.744
13.063 1.697 0.991
22.985001 2.987 1.744
23.004 3.0510001 1.7460001
15.953 2.1589999 1.211
23.117001 3.1289999 1.755
15.869 2.191 1.205
15.783 2.2219999 1.199
15.656 2.247 1.1900001
15.623 2.286 1.188
15.623 2.329 1.188
15.664 2.3789999 1.192
15.736 2.4349999 1.198
23.069 3.569 1.756
22.997 3.6229999 1.751
22.995001 3.688 1.752
22.997 3.7539999 1.752
22.989 3.8180001 1.753
22.990999 3.885 1.753
23.003 3.9530001 1.755
23.021 4.0229998 1.757
23.018 4.0900002 1.758
23.021999 4.158 1.7589999
23.021 4.2259998 1.76
23.051001 4.2989998 1.763
23.229 4.402 1.778
19.753 4.651 1.525
19.535 4.6620002 1.5089999
19.41 4.6929998 1.5
19.452 4.7649999 1.5039999
7.5209999 -4.487 0.64300001
7.5250001 -4.4679999 0.64300001
7.5300002 -4.448 0.64300001
7.5300002 -4.4260001 0.64300001
7.5489998 -4.4159999 0.64499998
7.552 -4.395 0.64499998
7.5609999 -4.3790002 0.64600003
7.5890002 -4.3720002 0.648
7.6040001 -4.3590002 0.64899999
7.6149998 -4.3429999 0.64999998
7.6440001 -4.3369999 0.65200001
7.6570001 -4.322 0.653
7.6880002 -4.3169999 0.65600002
7.7509999 -4.329 0.66100001
7.862 -4.369 0.67000002
7.921 -4.3080001 0.67500001
7.7410002 -4.1880002 0.66000003
7.6750002 -4.1290002 0.65399998
7.6389999 -4.0869999 0.65100002
7.638 -4.0640001 0.65100002
7.6399999 -4.0430002 0.65100002
7.6430001 -4.0219998 0.65100002
7.6469998 -4.0019999 0.65100002
7.6620002 -3.987 0.65200001
7.671 -3.9690001 0.653
7.6989999 -3.96 0.65499997
7.7270002 -3.9519999 0.65700001
7.8130002 -3.973 0.66500002
14.725 -6.7490001 1.25
14.657 -6.6739998 1.244
12.228 -5.5320001 1.0369999
12.335 -5.5440001 1.046
14.717 -6.5710001 1.248
14.709 -6.5240002 1.247
14.777 -6.336 1.252
14.825 -6.3130002 1.256
14.858 -6.283 1.258
14.906 -6.2589998 1.262
14.912 -6.217 1.262
14.153 -2.707 1.179
14.123 -2.6600001 1.176
14.124 -2.6199999 1.176
14.175 -2.5880001 1.1799999
14.19 -2.55 1.181
13.975 -2.471 1.163
13.948 -2.425 1.16
13.965 -2.388 1.161
14.011 -2.355 1.165
11.787 -1.368 0.97600001
11.686 -1.322 0.96700001
11.578 -1.277 0.958
11.507 -1.2359999 0.95200002
11.496 -1.201 0.95099998
11.514 -1.17 0.95200002
11.535 -1.1390001 0.95300001
11.553 -1.107 0.95499998
11.603 -1.079 0.95899999
11.719 -1.056 0.96799999
13.112 0.21799999 1.018
13.159 0.233 1.021
13.202 0.24699999 1.024
13.134 0.27500001 1.018
13.116 0.28999999 1.016
13.107 0.30500001 1.015
13.092 0.31999999 1.0140001
13.187 0.338 1.021
13.172 0.354 1.0190001
13.103 0.36899999 1.0140001
13.155 0.38699999 1.017
13.094 0.456 1.012
13.196 0.47799999 1.0190001
13.194 0.49700001 1.0190001
13.202 0.51599997 1.0190001
13.148 0.53399998 1.015
13.132 0.55299997 1.0140001
13.096 0.57099998 1.011
13.097 0.59200001 1.011
13.1 0.61199999 1.011
13.096 0.63300002 1.011
13.106 0.65499997 1.011
13.105 0.676 1.011
13.111 0.69800001 1.011
13.083 0.71899998 1.0089999
13.063 0.74000001 1.008
13.021 0.75999999 1.0039999
13.033 0.78399998 1.005
13.032 0.80699998 1.005
13.016 0.829 1.0039999
12.991 0.85100001 1.002
12.984 0.87400001 1.002
12.929 0.89499998 0.99699998
12.907 0.917 0.99599999
12.879 0.94 0.99400002
12.831 0.96100003 0.99000001
12.801 0.98299998 0.98799998
12.786 1.007 0.98699999
12.794 1.033 0.98799998
12.795 1.059 0.98799998
12.802 1.086 0.98799998
12.819 1.113 0.99000001
12.856 1.143 0.99299997
23.018 2.0469999 1.778
12.945 1.178 1
22.997 2.0929999 1.777
12.906 1.202 0.99699998
22.98 2.1400001 1.776
12.99 1.237 1.0039999
23.052999 2.1949999 1.7819999
12.992 1.265 1.0039999
23.216 2.2609999 1.795
13.019 1.296 1.007
13.023 1.325 1.007
13.074 1.359 1.011
13.118 1.392 1.015
13.156 1.426 1.018
23.056 2.4990001 1.785
22.952 2.54 1.777
22.919001 2.589 1.775
22.903999 2.6389999 1.775
13.114 1.541 1.016
22.931 2.6960001 1.777
13.057 1.5650001 1.012
22.945999 2.7509999 1.779
13.027 1.592 1.01
22.938999 2.8039999 1.779
13.076 1.63 1.0140001
22.950001 2.8599999 1.781
22.952 2.9159999 1.7819999
22.975 2.974 1.784
15.954 2.1040001 1.239
23.153999 3.053 1.799
15.857 2.1300001 1.232
15.736 2.152 1.223
15.616 2.175 1.214
15.603 2.2119999 1.214
15.615 2.253 1.215
15.62 2.2939999 1.216
15.641 2.3369999 1.219
15.725 2.3900001 1.226
23.105 3.5109999 1.801
23.009001 3.556 1.794
22.990999 3.6140001 1.794
23 3.6760001 1.796
22.999001 3.7360001 1.796
22.989 3.796 1.7970001
23.004999 3.8599999 1.799
22.996 3.921 1.799
23.011999 3.9860001 1.801
23.007999 4.0479999 1.802
23.01 4.112 1.803
23.007999 4.1750002 1.804
23.028999 4.243 1.807
23.054001 4.3119998 1.8099999
23.238001 4.4120002 1.826
19.799 4.6360002 1.572
19.643999 4.6609998 1.561
19.440001 4.6719999 1.546
19.351 4.711 1.54
19.396999 4.783 1.545
7.25 -4.757 0.64499998
7.29 -4.7379999 0.648
7.3049998 -4.7020001 0.64899999
7.3260002 -4.671 0.64999998
7.3509998 -4.6420002 0.65100002
7.369 -4.6090002 0.653
7.4089999 -4.5900002 0.65600002
7.434 -4.5619998 0.65700001
7.461 -4.5339999 0.65899998
7.4970002 -4.513 0.662
7.539 -4.4949999 0.66500002
7.6100001 -4.494 0.671
7.7080002 -4.5079999 0.67900002
7.7140002 -4.3839998 0.67799997
7.6129999 -4.2849998 0.66799998
7.5679998 -4.2179999 0.66399997
7.5599999 -4.1739998 0.66299999
7.5580001 -4.132 0.662
7.5619998 -4.0949998 0.662
7.592 -4.0710001 0.66399997
7.6079998 -4.04 0.66500002
7.6370001 -4.0159998 0.667
7.6719999 -3.9960001 0.67000002
7.7389998 -3.9909999 0.67500001
7.9569998 -4.0640001 0.69400001
14.478 -7.323 1.262
14.434 -7.2290001 1.257
14.512 -7.197 1.263
14.515 -7.1279998 1.263
14.492 -7.0469999 1.26
14.538 -6.9990001 1.263
12.006 -5.723 1.0420001
12.009 -5.6680002 1.0420001
14.655 -6.849 1.271
14.664 -6.7849998 1.271
14.611 -6.6929998 1.266
14.645 -6.6420002 1.268
14.719 -6.6079998 1.274
14.787 -6.572 1.279
14.832 -6.526 1.2819999
14.863 -6.474 1.284
14.922 -6.434 1.288
14.95 -6.381 1.29
14.972 -6.3249998 1.291
14.167 -2.7690001 1.194
14.118 -2.72 1.1900001
14.092 -2.6760001 1.188
14.12 -2.642 1.1900001
14.148 -2.609 1.192
14.036 -2.55 1.182
13.937 -2.494 1.174
13.928 -2.4549999 1.173
13.958 -2.4230001 1.175
13.985 -2.3900001 1.177
14.213 -2.392 1.196
11.82 -1.323 0.99199998
11.716 -1.284 0.98299998
11.624 -1.248 0.97500002
11.574 -1.217 0.97100002
11.538 -1.187 0.96799999
11.514 -1.16 0.96600002
11.502 -1.133 0.96399999
11.497 -1.108 0.96399999
11.505 -1.084 0.96499997
11.514 -1.0599999 0.96499997
11.535 -1.0369999 0.96700001
11.564 -1.015 0.96899998
11.581 -0.99199998 0.97100002
11.615 -0.97100002 0.97399998
11.721 -0.95499998 0.98199999
12.881 0.197 1.035
12.928 0.221 1.039
12.917 0.244 1.038
12.94 0.26699999 1.039
12.94 0.29100001 1.039
12.954 0.315 1.04
12.992 0.34 1.043
12.986 0.36500001 1.0420001
13.013 0.38999999 1.044
13.033 0.41600001 1.046
13.017 0.44100001 1.045
13.022 0.46700001 1.045
13.03 0.493 1.045
13.035 0.51999998 1.046
13.027 0.546 1.045
13.018 0.57200003 1.044
13.028 0.60000002 1.045
13.037 0.62699997 1.046
13.043 0.65499997 1.046
13.034 0.68300003 1.045
13.058 0.71200001 1.0470001
13.021 0.73799998 1.044
13.016 0.76599997 1.044
13.015 0.79500002 1.044
12.995 0.82300001 1.0420001
12.984 0.85100001 1.041
12.961 0.87900001 1.04
12.911 0.90499997 1.036
12.876 0.93199998 1.033
12.838 0.95899999 1.03
12.783 0.98500001 1.026
12.764 1.0140001 1.024
12.766 1.044 1.025
12.783 1.076 1.026
12.802 1.108 1.028
12.826 1.142 1.03
12.865 1.176 1.033
12.977 1.219 1.0420001
23.190001 2.178 1.863
12.938 1.247 1.039
23.105 2.227 1.857
13.071 1.2920001 1.05
13.006 1.318 1.045
13.064 1.357 1.05
13.08 1.392 1.052
13.144 1.433 1.057
13.162 1.4680001 1.059
23.063 2.573 1.8559999
22.92 2.6170001 1.845
22.900999 2.674 1.844
22.902 2.734 1.844
13.125 1.601 1.057
22.908001 2.7950001 1.845
13.063 1.628 1.052
22.917 2.8570001 1.846
13.116 1.67 1.057
22.913 2.918 1.847
22.933001 2.9809999 1.849
16.191 2.1489999 1.306
22.965 3.0480001 1.852
15.93 2.1570001 1.285
15.797 2.1819999 1.275
15.609 2.1989999 1.26
15.562 2.2349999 1.257
15.577 2.28 1.258
15.609 2.3280001 1.261
15.629 2.375 1.263
15.712 2.4319999 1.271
23.080999 3.573 1.867
22.983999 3.622 1.86
22.975 3.6860001 1.86
22.976999 3.7520001 1.8609999
22.987 3.819 1.863
22.979 3.8840001 1.863
22.976999 3.95 1.863
22.982 4.0180001 1.865
22.997 4.0879998 1.867
22.996 4.1550002 1.868
22.987 4.2210002 1.868
23.02 4.2950001 1.872
23.087999 4.3759999 1.878
19.722 4.645 1.618
19.475 4.6479998 1.599
19.395 4.6900001 1.594
19.475 4.7719998 1.601
10.965 7.2080002 1.028
10.954 7.2389998 1.028
7.5180001 -4.4889998 0.67699999
7.5149999 -4.4650002 0.676
7.5219998 -4.447 0.67699999
7.5409999 -4.4359999 0.67900002
7.5409999 -4.414 0.67900002
7.5479999 -4.3959999 0.67900002
7.5549998 -4.3779998 0.68000001
7.5749998 -4.368 0.68099999
7.5949998 -4.3569999 0.68300003
7.6020002 -4.3390002 0.68400002
7.6269999 -4.3309999 0.68599999
7.6469998 -4.3200002 0.68699998
7.6869998 -4.3200002 0.69099998
7.7420001 -4.3280001 0.69599998
7.8629999 -4.3720002 0.70700002
7.7470002 -4.217 0.69599998
7.6719999 -4.1529999 0.68900001
7.6389999 -4.1129999 0.68599999
7.625 -4.0830002 0.68400002
7.6339998 -4.0650001 0.685
7.6360002 -4.0440001 0.685
7.6420002 -4.0240002 0.68599999
7.6490002 -4.0050001 0.68599999
7.6490002 -3.983 0.68599999
7.658 -3.9649999 0.68699998
7.7010002 -3.9649999 0.69
7.7410002 -3.9619999 0.69400001
7.823 -3.9809999 0.70099998
14.155 -2.6659999 1.2410001
14.114 -2.618 1.237
14.121 -2.5780001 1.238
14.108 -2.5350001 1.2359999
13.971 -2.47 1.224
13.939 -2.4230001 1.221
13.932 -2.382 1.22
13.985 -2.3499999 1.224
11.678 -1.354 1.018
11.581 -1.3099999 1.0089999
11.535 -1.271 1.005
11.497 -1.234 1.001
11.473 -1.198 0.99900001
11.489 -1.1670001 1
11.506 -1.135 1.001
11.539 -1.105 1.0039999
11.585 -1.076 1.008
11.679 -1.051 1.015
13.093 -0.34799999 1.132
13.029 -0.30899999 1.126
13.038 -0.27200001 1.126
13.103 -0.235 1.132
12.923 0.176 1.113
12.94 0.214 1.114
13.062 0.146 1.0779999
13.102 0.15800001 1.081
13.104 0.17 1.08
13.075 0.207 1.076
13.172 0.222 1.084
13.13 0.234 1.08
13.124 0.248 1.079
13.115 0.26199999 1.0779999
13.075 0.27599999 1.075
13.046 0.28999999 1.072
13.058 0.30599999 1.072
13.034 0.32100001 1.0700001
13.032 0.336 1.0700001
13.02 0.352 1.068
13.031 0.36899999 1.069
13.01 0.38499999 1.067
13.07 0.40400001 1.072
13.108 0.42300001 1.075
13.174 0.57700002 1.079
13.119 0.59399998 1.074
13.118 0.61500001 1.074
13.097 0.63499999 1.072
13.141 0.65799999 1.075
13.157 0.68000001 1.077
13.108 0.69999999 1.073
13.098 0.72100002 1.072
13.077 0.74199998 1.0700001
13.04 0.76300001 1.067
13.034 0.78500003 1.067
13.027 0.80800003 1.066
13.009 0.82999998 1.064
12.974 0.85100001 1.062
12.96 0.87400001 1.061
12.912 0.89499998 1.057
12.882 0.917 1.054
12.862 0.94 1.053
12.812 0.96100003 1.049
12.783 0.98299998 1.0470001
12.781 1.008 1.0470001
12.785 1.034 1.0470001
12.799 1.061 1.048
12.808 1.087 1.049
12.838 1.1160001 1.052
12.881 1.147 1.056
12.93 1.178 1.0599999
23.077999 2.102 1.892
12.972 1.209 1.063
23.058001 2.1489999 1.891
13.03 1.242 1.068
13.009 1.268 1.067
13.068 1.302 1.072
13.038 1.327 1.0700001
13.065 1.359 1.072
13.101 1.392 1.076
13.151 1.426 1.08
22.981001 2.493 1.888
13.247 1.467 1.0880001
22.893999 2.5350001 1.881
22.888 2.5869999 1.881
13.119 1.513 1.0779999
22.879999 2.6389999 1.881
13.167 1.549 1.0829999
22.886 2.6919999 1.882
22.895 2.747 1.8839999
22.888 2.8 1.8839999
22.909 2.8570001 1.886
22.923 2.9130001 1.888
22.938999 2.971 1.89
15.982 2.109 1.317
23.131001 3.052 1.9069999
15.842 2.1289999 1.306
15.702 2.1489999 1.295
15.61 2.175 1.288
15.551 2.2060001 1.284
15.564 2.247 1.286
15.588 2.29 1.288
15.614 2.3340001 1.291
15.661 2.381 1.295
15.778 2.4400001 1.306
23.033001 3.562 1.906
22.982 3.6140001 1.903
22.969999 3.6719999 1.903
22.964001 3.7320001 1.904
22.959999 3.793 1.904
22.962 3.8540001 1.906
22.961 3.9159999 1.9069999
22.973 3.9809999 1.909
22.978001 4.0440001 1.91
22.982 4.1079998 1.9119999
22.983 4.1719999 1.913
22.989 4.237 1.915
23 4.3039999 1.9170001
23.006001 4.3699999 1.919
23.066999 4.447 1.925
23.191 4.5370002 1.937
11.034 6.8940001 1.062
10.912 6.869 1.052
10.963 6.9520001 1.058
27.596001 19.76 2.7509999
27.436001 19.782 2.74
7.2420001 -4.7509999 0.67799997
7.2810001 -4.7309999 0.68099999
7.2909999 -4.6929998 0.68099999
7.316 -4.664 0.68300003
7.3369999 -4.6329999 0.68400002
7.3639998 -4.605 0.68599999
7.3909998 -4.5780001 0.68800002
7.414 -4.5489998 0.69
7.4549999 -4.5310001 0.69300002
7.4770002 -4.5 0.69400001
7.5139999 -4.48 0.69700003
7.5489998 -4.4569998 0.69999999
7.619 -4.4559999 0.70599997
7.7579999 -4.494 0.71799999
7.6989999 -4.375 0.71200001
7.605 -4.2800002 0.70200002
7.572 -4.2210002 0.699
7.552 -4.1690001 0.69599998
7.5510001 -4.1279998 0.69599998
7.5669999 -4.0970001 0.69700003
7.579 -4.0640001 0.69700003
7.5929999 -4.0320001 0.69800001
7.6220002 -4.0079999 0.69999999
7.6560001 -3.987 0.70300001
7.71 -3.9760001 0.708
7.829 -3.9979999 0.71799999
14.126 -2.7219999 1.252
14.096 -2.677 1.249
14.077 -2.6340001 1.247
14.077 -2.596 1.247
13.979 -2.539 1.238
13.905 -2.4879999 1.2309999
13.926 -2.454 1.233
13.95 -2.421 1.235
14.039 -2.3989999 1.243
11.757 -1.342 1.0369999
11.6 -1.298 1.023
11.57 -1.268 1.021
11.537 -1.239 1.018
11.513 -1.21 1.015
11.515 -1.1849999 1.016
11.483 -1.156 1.013
11.491 -1.132 1.013
11.493 -1.107 1.013
11.498 -1.0829999 1.0140001
11.512 -1.059 1.015
11.516 -1.035 1.015
11.543 -1.013 1.018
11.569 -0.991 1.02
11.599 -0.96899998 1.022
11.63 -0.94800001 1.025
11.716 -0.93099999 1.033
11.875 -0.91900003 1.0470001
12.974 -0.35299999 1.1440001
12.942 -0.331 1.141
12.868 -0.30700001 1.1339999
12.818 -0.285 1.13
12.775 -0.26300001 1.126
12.765 -0.242 1.125
12.758 -0.222 1.125
12.744 -0.20100001 1.124
12.763 -0.18099999 1.126
12.772 -0.161 1.126
12.805 -0.142 1.1289999
12.874 -0.123 1.136
13.059 -0.105 1.152
12.863 0.199 1.094
12.867 0.222 1.094
12.882 0.245 1.095
12.881 0.26800001 1.095
12.889 0.292 1.096
12.892 0.31600001 1.096
12.917 0.34 1.098
12.981 0.366 1.103
13.041 0.39300001 1.108
13.096 0.41999999 1.112
13.149 0.447 1.117
13.134 0.47299999 1.115
