# .PCD v0.7 - Point Cloud Data file format
VERSION 0.7
FIELDS x y z
SIZE 4 4 4
TYPE F F F
COUNT 1 1 1
WIDTH 1906
HEIGHT 1
VIEWPOINT 0 0 0 1 0 0 0
POINTS 1906
DATA ascii
11.534 -1.546 0.243
11.344 -1.488 0.23899999
11.253 -1.444 0.237
11.26 -1.413 0.237
11.341 -1.391 0.23899999
11.389 -1.364 0.23999999
11.435 -1.337 0.241
11.483 -1.3099999 0.242
11.588 -1.289 0.244
12.081 -1.309 0.25400001
12.104 -1.277 0.255
12.173 -1.25 0.25600001
12.228 -1.221 0.257
12.263 -1.189 0.25799999
12.312 -1.159 0.259
12.377 -1.13 0.26100001
12.366 -1.0930001 0.25999999
12.447 -1.0650001 0.26199999
12.504 -1.034 0.26300001
13.275 0.47 0.14399999
13.197 0.486 0.14300001
13.209 0.50700003 0.14300001
13.175 0.52600002 0.142
13.099 0.54299998 0.141
13.171 0.56699997 0.142
13.157 0.58700001 0.142
13.129 0.60799998 0.141
13.12 0.62900001 0.141
13.143 0.65200001 0.141
13.132 0.67299998 0.141
13.116 0.69499999 0.14
13.12 0.71799999 0.14
13.132 0.74199998 0.14
13.117 0.764 0.14
13.128 0.78899997 0.14
13.148 0.81400001 0.14
13.113 0.83600003 0.139
13.138 0.86199999 0.139
13.128 0.88599998 0.139
13.118 0.91000003 0.139
13.122 0.93599999 0.139
13.138 0.963 0.139
13.119 0.98699999 0.138
13.119 1.013 0.138
13.129 1.04 0.138
13.163 1.0700001 0.138
13.205 1.1 0.139
13.237 1.13 0.139
13.257 1.16 0.139
13.243 1.186 0.139
13.207 1.211 0.138
13.206 1.24 0.138
13.19 1.267 0.138
13.203 1.2970001 0.138
13.215 1.327 0.138
13.202 1.3559999 0.13699999
13.224 1.388 0.13699999
13.272 1.423 0.138
13.294 1.455 0.138
13.279 1.484 0.13699999
13.299 1.518 0.138
13.288 1.5470001 0.13699999
13.298 1.58 0.13699999
13.316 1.614 0.13699999
13.336 1.648 0.13699999
13.355 1.683 0.13699999
13.408 1.722 0.138
11.602 1.5190001 0.119
11.441 1.526 0.117
11.323 1.538 0.116
11.237 1.5549999 0.115
11.203 1.5779999 0.115
11.19 1.605 0.114
11.189 1.633 0.114
11.205 1.665 0.114
11.233 1.698 0.114
11.297 1.737 0.115
13.627 2.131 0.139
13.62 2.1670001 0.139
13.607 2.201 0.138
13.657 2.2449999 0.139
13.659 2.283 0.139
13.686 2.3239999 0.139
13.737 2.3710001 0.139
13.774 2.415 0.139
13.786 2.4549999 0.139
13.879 2.5109999 0.14
13.854 2.5450001 0.14
13.872 2.5869999 0.14
13.885 2.6289999 0.14
13.916 2.675 0.14
13.966 2.724 0.141
13.998 2.7709999 0.141
14.033 2.819 0.141
14.084 2.8699999 0.141
14.089 2.9119999 0.141
14.129 2.9619999 0.142
14.163 3.0120001 0.142
14.198 3.0610001 0.142
14.273 3.1199999 0.14300001
14.268 3.1619999 0.14300001
14.365 3.227 0.14300001
14.373 3.273 0.14300001
14.411 3.326 0.14399999
14.453 3.3800001 0.14399999
14.469 3.4289999 0.14399999
14.514 3.4849999 0.14399999
14.475 3.52 0.14399999
14.467 3.5639999 0.14399999
14.495 3.6170001 0.14399999
14.598 3.6889999 0.145
14.753 3.7750001 0.146
14.718 3.813 0.146
14.726 3.8629999 0.146
14.796 3.9289999 0.146
14.795 3.977 0.146
14.851 4.0409999 0.147
14.899 4.1030002 0.147
14.927 4.1599998 0.147
14.98 4.224 0.148
14.998 4.2789998 0.148
15.035 4.3400002 0.148
15.096 4.4089999 0.149
15.165 4.48 0.149
15.245 4.5549998 0.15000001
15.226 4.6020002 0.15000001
15.287 4.6729999 0.15000001
15.382 4.7540002 0.15099999
15.484 4.8400002 0.152
15.505 4.9000001 0.152
15.573 4.9759998 0.153
15.617 5.0450001 0.153
15.68 5.1199999 0.154
15.726 5.191 0.154
15.773 5.2620001 0.154
15.81 5.3309999 0.155
15.833 5.395 0.155
15.859 5.461 0.155
15.891 5.5300002 0.155
15.964 5.6129999 0.156
16.016001 5.6900001 0.156
16.035 5.7550001 0.156
16.148001 5.855 0.15800001
16.160999 5.9190001 0.15800001
16.219999 6.0009999 0.15800001
16.219999 6.0609999 0.15800001
16.226 6.1240001 0.15800001
12.371 5.8839998 0.119
12.318 5.9099998 0.119
12.271 5.9380002 0.118
12.011 5.862 0.116
11.956 5.8850002 0.115
11.956 5.9349999 0.115
12.008 6.0120001 0.116
12.221 6.2220001 0.118
12.222 6.2740002 0.118
12.268 6.3499999 0.118
12.155 6.3439999 0.117
12.104 6.369 0.117
12.114 6.4260001 0.117
12.21 6.5300002 0.118
7.8239999 -5.151 0.183
7.881 -5.1389999 0.184
7.9200001 -5.1160002 0.185
7.948 -5.085 0.185
7.9770002 -5.0549998 0.186
8.0050001 -5.0240002 0.186
8.0200005 -4.9850001 0.18700001
8.0620003 -4.9629998 0.18700001
8.0869999 -4.9310002 0.18799999
8.1149998 -4.901 0.18799999
8.1350002 -4.8660002 0.189
8.1689997 -4.8390002 0.189
8.1920004 -4.8060002 0.19
8.2069998 -4.7690001 0.19
8.2580004 -4.7529998 0.191
8.2729998 -4.7150002 0.192
8.2989998 -4.6849999 0.192
8.3240004 -4.6529999 0.193
8.3430004 -4.619 0.193
8.3879995 -4.599 0.19400001
8.4169998 -4.5710001 0.19400001
8.4700003 -4.5549998 0.19599999
8.5080004 -4.5310001 0.19599999
8.5039997 -4.4850001 0.19599999
8.5039997 -4.441 0.19599999
8.5450001 -4.4190001 0.197
8.566 -4.3860002 0.197
8.6000004 -4.3610001 0.198
8.625 -4.3309999 0.199
8.6680002 -4.309 0.2
8.6829996 -4.2750001 0.2
8.6879997 -4.2350001 0.2
8.724 -4.21 0.20100001
8.7320004 -4.1719999 0.20100001
8.7639999 -4.1459999 0.20100001
8.8070002 -4.125 0.20200001
8.8009996 -4.0809999 0.20200001
8.8339996 -4.0560002 0.20299999
8.8739996 -4.033 0.204
8.9049997 -4.007 0.204
8.9420004 -3.983 0.205
8.9560003 -3.9489999 0.205
8.9759998 -3.918 0.206
9.0170002 -3.8959999 0.207
9.0450001 -3.868 0.207
9.0760002 -3.842 0.208
9.1000004 -3.812 0.208
9.125 -3.7839999 0.20900001
9.1639996 -3.7609999 0.20999999
9.1850004 -3.7309999 0.20999999
9.2189999 -3.7060001 0.211
9.2399998 -3.675 0.211
9.276 -3.651 0.212
9.3059998 -3.625 0.213
9.3400002 -3.5999999 0.214
9.3850002 -3.579 0.215
9.4189997 -3.5539999 0.215
9.4630003 -3.533 0.21600001
9.4890003 -3.5050001 0.21699999
9.5209999 -3.4790001 0.21699999
9.5469999 -3.451 0.21799999
9.5679998 -3.421 0.21799999
9.5710001 -3.3859999 0.219
9.6219997 -3.3670001 0.22
9.6709995 -3.3469999 0.221
9.6879997 -3.316 0.221
9.724 -3.2920001 0.222
9.7460003 -3.263 0.222
9.7600002 -3.2320001 0.223
9.7910004 -3.2060001 0.223
9.835 -3.184 0.22400001
9.9689999 -3.191 0.227
9.9540005 -3.151 0.227
9.9300003 -3.1070001 0.226
9.9540005 -3.0799999 0.227
9.9720001 -3.05 0.227
9.9989996 -3.023 0.228
10.043 -3.0009999 0.229
10.027 -2.961 0.228
10.077 -2.9419999 0.23
10.095 -2.9119999 0.23
10.122 -2.885 0.23100001
10.157 -2.8610001 0.23100001
10.173 -2.832 0.23199999
10.202 -2.806 0.23199999
10.232 -2.78 0.233
10.275 -2.7579999 0.234
10.298 -2.73 0.234
10.32 -2.7019999 0.235
10.346 -2.6760001 0.235
10.407 -2.658 0.237
10.419 -2.628 0.237
10.434 -2.599 0.237
10.467 -2.5739999 0.23800001
10.499 -2.549 0.23899999
10.527 -2.523 0.23999999
10.549 -2.4960001 0.23999999
10.57 -2.4690001 0.23999999
10.611 -2.4460001 0.241
10.631 -2.418 0.242
10.662 -2.3929999 0.243
10.695 -2.368 0.243
10.713 -2.3410001 0.244
10.764 -2.3199999 0.245
10.802 -2.2969999 0.24600001
10.817 -2.2679999 0.24600001
10.868 -2.247 0.24699999
10.893 -2.221 0.248
10.922 -2.1960001 0.248
10.966 -2.174 0.249
10.989 -2.1470001 0.25
11.031 -2.1240001 0.25099999
11.093 -2.105 0.252
11.125 -2.0799999 0.25299999
11.18 -2.0599999 0.25400001
11.165 -2.027 0.25400001
11.221 -2.006 0.255
11.241 -1.98 0.25600001
11.28 -1.956 0.257
11.306 -1.931 0.257
11.353 -1.909 0.25799999
11.387 -1.8839999 0.259
11.44 -1.863 0.25999999
11.459 -1.836 0.26100001
11.52 -1.816 0.26199999
11.538 -1.79 0.26300001
11.545 -1.761 0.26300001
11.638 -1.7460001 0.26499999
11.659 -1.72 0.26499999
11.694 -1.696 0.266
11.719 -1.67 0.26699999
11.741 -1.6440001 0.26699999
11.786 -1.622 0.26800001
11.834 -1.599 0.26899999
11.844 -1.572 0.27000001
11.544 -1.5039999 0.26300001
11.306 -1.446 0.257
11.228 -1.41 0.25600001
11.229 -1.383 0.25600001
11.272 -1.362 0.257
11.313 -1.341 0.25799999
11.364 -1.321 0.259
11.379 -1.296 0.259
11.408 -1.273 0.25999999
11.458 -1.253 0.26100001
11.582 -1.2410001 0.264
12.4 -1.301 0.28299999
12.286 -1.261 0.28
12.303 -1.2359999 0.28099999
12.295 -1.2079999 0.28
12.384 -1.1900001 0.28200001
12.491 -1.173 0.285
12.532 -1.15 0.28600001
12.55 -1.125 0.28600001
12.531 -1.097 0.28600001
12.909 0.171 0.17900001
12.939 0.19499999 0.17900001
12.963 0.21799999 0.17900001
12.983 0.242 0.17900001
13.034 0.26800001 0.18000001
13.037 0.292 0.18000001
13.039 0.317 0.17900001
13.055 0.34200001 0.17900001
13.068 0.368 0.17900001
13.058 0.39300001 0.17900001
13.07 0.419 0.17900001
13.063 0.44499999 0.17900001
13.062 0.472 0.17900001
13.064 0.49900001 0.178
13.066 0.52600002 0.178
13.075 0.55299997 0.178
13.073 0.57999998 0.178
13.089 0.60900003 0.178
13.095 0.63700002 0.178
13.096 0.66600001 0.178
13.104 0.69400001 0.178
13.111 0.72399998 0.178
13.119 0.75300002 0.178
13.134 0.78299999 0.178
13.126 0.81199998 0.177
13.125 0.84200001 0.177
13.135 0.87300003 0.177
13.138 0.903 0.177
13.133 0.93400002 0.177
13.129 0.96399999 0.176
13.126 0.995 0.176
13.115 1.025 0.176
13.161 1.0599999 0.176
13.161 1.092 0.176
13.224 1.1289999 0.177
13.286 1.1670001 0.178
13.293 1.201 0.178
13.235 1.228 0.177
13.253 1.263 0.177
13.244 1.295 0.176
13.256 1.33 0.176
13.271 1.365 0.176
13.292 1.401 0.177
13.312 1.438 0.177
13.329 1.474 0.177
13.355 1.512 0.177
13.377 1.549 0.177
13.374 1.584 0.177
13.386 1.6210001 0.177
13.409 1.66 0.177
13.446 1.701 0.178
13.466 1.74 0.178
13.524 1.784 0.178
11.495 1.5470001 0.15099999
11.335 1.557 0.149
11.234 1.574 0.148
11.205 1.601 0.147
11.201 1.632 0.147
11.208 1.664 0.147
11.237 1.7 0.147
11.266 1.7359999 0.148
11.503 1.8049999 0.15099999
13.74 2.1960001 0.18000001
13.779 2.2409999 0.18000001
13.798 2.2839999 0.18000001
13.852 2.3329999 0.18099999
13.895 2.381 0.18099999
13.96 2.4330001 0.182
14.009 2.4820001 0.183
14.036 2.529 0.183
14.095 2.5810001 0.183
14.101 2.6240001 0.183
14.135 2.6719999 0.184
14.18 2.723 0.184
14.236 2.777 0.185
14.297 2.832 0.185
14.325 2.881 0.186
14.393 2.9389999 0.186
14.426 2.9890001 0.18700001
14.487 3.0469999 0.18700001
14.527 3.0999999 0.18799999
14.578 3.155 0.18799999
14.658 3.2179999 0.189
14.67 3.267 0.189
14.656 3.309 0.189
14.709 3.3670001 0.19
14.751 3.424 0.19
14.794 3.48 0.191
14.879 3.5469999 0.191
14.939 3.609 0.192
14.942 3.658 0.192
14.969 3.7119999 0.192
15.019 3.773 0.193
15.084 3.8380001 0.19400001
15.135 3.8989999 0.19400001
15.167 3.957 0.19400001
15.216 4.0190001 0.19499999
15.265 4.0819998 0.19599999
15.309 4.1440001 0.19599999
15.377 4.2129998 0.197
15.389 4.2659998 0.197
15.478 4.342 0.198
15.538 4.4109998 0.199
15.583 4.4749999 0.199
15.627 4.54 0.199
15.655 4.5999999 0.2
15.783 4.691 0.20100001
15.848 4.763 0.20200001
15.904 4.8330002 0.20299999
15.934 4.8959999 0.20299999
15.943 4.9530001 0.20299999
16.018999 5.0310001 0.204
16.125999 5.119 0.205
16.093 5.164 0.205
16.242001 5.2670002 0.206
16.226 5.3169999 0.206
16.313999 5.402 0.207
16.346001 5.4689999 0.207
16.424 5.552 0.208
16.371 5.5900002 0.208
16.469 5.6810002 0.20900001
16.48 5.7410002 0.20900001
16.535 5.8179998 0.20900001
16.579 5.8909998 0.20999999
16.591 5.954 0.20999999
16.621 6.0219998 0.20999999
16.684999 6.1040001 0.211
16.709999 6.1719999 0.211
13.126 5.5960002 0.16500001
12.888 5.5409999 0.162
12.729 5.5180001 0.16
12.618 5.5149999 0.15800001
12.758 5.6230001 0.16
12.379 5.9050002 0.155
12.235 5.881 0.153
12.282 5.9489999 0.154
12.21 6.0469999 0.153
12.149 6.0619998 0.152
12.164 6.1129999 0.152
12.266 6.2989998 0.153
12.197 6.3080001 0.152
12.251 6.381 0.153
8.54 -5.0409999 0.21600001
8.5690002 -5.0339999 0.21699999
8.5640001 -5.006 0.21699999
8.5900002 -4.9970002 0.21799999
8.6029997 -4.98 0.21799999
8.6040001 -4.9559999 0.21799999
8.625 -4.9429998 0.219
8.6350002 -4.9250002 0.219
8.6420002 -4.9039998 0.219
8.6370001 -4.8759999 0.219
8.658 -4.8629999 0.22
8.6969995 -4.8600001 0.221
8.7069998 -4.8410001 0.221
8.7019997 -4.8130002 0.221
8.7180004 -4.7969999 0.221
8.7290001 -4.7779999 0.222
8.7419996 -4.7600002 0.222
8.75 -4.7389998 0.222
8.7550001 -4.717 0.222
8.7539997 -4.691 0.222
8.776 -4.677 0.223
8.7779999 -4.6529999 0.223
8.8030005 -4.6399999 0.22400001
8.8260002 -4.6269999 0.22400001
8.8579998 -4.619 0.22499999
8.8920002 -4.6110001 0.226
8.8760004 -4.5770001 0.226
8.8710003 -4.5479999 0.226
8.8719997 -4.5229998 0.226
8.8730001 -4.4980001 0.226
8.8800001 -4.4759998 0.226
8.8959999 -4.4580002 0.226
8.9320002 -4.4510002 0.227
8.9370003 -4.427 0.227
8.9530001 -4.4089999 0.228
8.9709997 -4.3920002 0.228
8.9870005 -4.3740001 0.229
9.0039997 -4.355 0.229
9.0159998 -4.335 0.229
9.026 -4.3140001 0.23
9.0530005 -4.3010001 0.23
9.0819998 -4.2880001 0.23100001
9.1020002 -4.2709999 0.23199999
9.1029997 -4.2449999 0.23199999
9.118 -4.2259998 0.23199999
9.1169996 -4.1989999 0.23199999
9.1289997 -4.178 0.23199999
9.1569996 -4.1630001 0.233
9.1709995 -4.1430001 0.234
9.1960001 -4.1279998 0.234
9.1999998 -4.1030002 0.234
9.2279997 -4.0890002 0.235
9.2360001 -4.0650001 0.235
9.2679996 -4.053 0.236
9.2919998 -4.0359998 0.237
9.3070002 -4.0159998 0.237
9.3339996 -4 0.23800001
9.3249998 -3.9690001 0.23800001
9.3590002 -3.9560001 0.23800001
9.3739996 -3.9349999 0.23899999
9.3979998 -3.918 0.23999999
9.4040003 -3.8929999 0.23999999
9.4180002 -3.8710001 0.23999999
9.4379997 -3.852 0.241
9.4720001 -3.839 0.241
9.4720001 -3.8110001 0.241
9.4940004 -3.7920001 0.242
9.5159998 -3.773 0.243
9.5439997 -3.757 0.243
9.5889997 -3.747 0.245
9.5649996 -3.71 0.244
9.6049995 -3.697 0.245
9.6040001 -3.6689999 0.245
9.618 -3.6459999 0.245
9.6780005 -3.641 0.24699999
9.6859999 -3.6159999 0.24699999
9.7019997 -3.5940001 0.24699999
9.7060003 -3.5669999 0.248
9.7299995 -3.5469999 0.248
9.7250004 -3.517 0.248
9.7440004 -3.4960001 0.249
9.7819996 -3.4809999 0.25
9.7939997 -3.457 0.25
9.816 -3.4360001 0.25
9.8450003 -3.418 0.25099999
9.8430004 -3.3889999 0.25099999
9.8809996 -3.3729999 0.252
9.8739996 -3.342 0.252
9.9060001 -3.3239999 0.25299999
9.9440002 -3.3080001 0.25400001
9.9659996 -3.286 0.25400001
9.9879999 -3.2650001 0.255
10.022 -3.247 0.25600001
10.095 -3.2409999 0.25799999
10.077 -3.2060001 0.257
10.091 -3.181 0.25799999
10.125 -3.1630001 0.25799999
10.108 -3.128 0.25799999
10.114 -3.1010001 0.25799999
10.152 -3.0829999 0.259
10.161 -3.056 0.259
10.2 -3.039 0.25999999
10.2 -3.0090001 0.25999999
10.21 -2.983 0.26100001
10.248 -2.964 0.26199999
10.256 -2.937 0.26199999
10.278 -2.9130001 0.26199999
10.299 -2.8900001 0.26300001
10.319 -2.865 0.26300001
10.356 -2.846 0.264
10.404 -2.829 0.266
10.411 -2.8010001 0.266
10.446 -2.78 0.26699999
10.461 -2.7539999 0.26699999
10.498 -2.733 0.26800001
10.552 -2.717 0.26899999
10.574 -2.6919999 0.27000001
10.566 -2.6589999 0.27000001
10.607 -2.6389999 0.271
10.622 -2.612 0.271
10.629 -2.5829999 0.271
10.662 -2.5610001 0.27200001
10.68 -2.5339999 0.273
10.696 -2.507 0.273
10.735 -2.4849999 0.27399999
10.768 -2.4619999 0.27500001
10.81 -2.441 0.27599999
10.825 -2.4130001 0.27599999
10.855 -2.388 0.27700001
10.872 -2.3610001 0.278
10.907 -2.3369999 0.278
10.939 -2.313 0.27900001
10.992 -2.2920001 0.28099999
11.026 -2.2679999 0.28200001
11.043 -2.2390001 0.28200001
11.085 -2.2160001 0.28299999
11.141 -2.1949999 0.28400001
11.188 -2.1719999 0.28600001
11.226 -2.148 0.287
11.239 -2.118 0.287
11.3 -2.0969999 0.28799999
11.362 -2.076 0.28999999
11.386 -2.0469999 0.29100001
11.415 -2.02 0.29100001
11.457 -1.995 0.292
11.516 -1.972 0.294
11.538 -1.943 0.29499999
11.565 -1.914 0.29499999
11.626 -1.891 0.29699999
11.637 -1.859 0.29699999
11.741 -1.842 0.30000001
11.778 -1.814 0.301
11.818 -1.7869999 0.30199999
11.826 -1.7539999 0.30199999
11.887 -1.729 0.303
11.929 -1.701 0.30399999
11.96 -1.671 0.30500001
11.977 -1.6390001 0.30599999
11.421 -1.531 0.29100001
11.253 -1.476 0.287
11.228 -1.4400001 0.28600001
11.276 -1.414 0.28799999
11.348 -1.391 0.28999999
11.39 -1.364 0.29100001
11.442 -1.337 0.292
12.387 -1.377 0.31600001
12.41 -1.344 0.317
12.443 -1.312 0.317
12.507 -1.283 0.31900001
12.701 -1.267 0.324
13.571 0.44299999 0.213
13.587 0.463 0.213
13.557 0.48199999 0.213
13.524 0.50099999 0.212
13.484 0.51999998 0.211
13.452 0.53899997 0.211
13.485 0.56099999 0.211
13.453 0.58099997 0.20999999
13.483 0.60399997 0.211
13.475 0.62599999 0.20999999
13.418 0.64499998 0.20900001
13.453 0.66900003 0.20999999
13.421 0.69 0.20900001
13.436 0.71399999 0.20900001
13.417 0.736 0.208
13.421 0.75999999 0.208
13.446 0.78500003 0.20900001
13.424 0.80800003 0.208
13.417 0.83200002 0.208
13.425 0.85699999 0.208
13.429 0.88300002 0.208
13.451 0.91000003 0.208
13.451 0.935 0.208
13.454 0.96100003 0.208
13.469 0.98900002 0.208
13.476 1.016 0.208
13.493 1.044 0.208
13.504 1.072 0.208
13.502 1.099 0.208
13.573 1.132 0.20900001
13.668 1.169 0.20999999
13.634 1.194 0.20900001
13.619 1.222 0.20900001
13.605 1.249 0.20900001
13.611 1.279 0.20900001
13.601 1.308 0.208
13.601 1.337 0.208
13.647 1.372 0.20900001
13.692 1.4069999 0.20900001
13.737 1.443 0.20999999
13.781 1.478 0.20999999
13.762 1.508 0.20999999
13.78 1.541 0.20999999
13.797 1.575 0.20999999
13.817 1.61 0.211
13.841 1.646 0.211
13.891 1.684 0.212
13.923 1.722 0.212
13.931 1.756 0.212
11.487 1.476 0.175
11.332 1.484 0.17200001
11.272 1.5039999 0.171
11.24 1.528 0.171
11.233 1.5549999 0.17
11.222 1.582 0.17
11.236 1.612 0.17
11.279 1.647 0.171
14.647 2.1389999 0.222
11.412 1.696 0.17299999
14.34 2.131 0.21699999
14.199 2.1470001 0.215
14.224 2.188 0.215
14.259 2.2309999 0.21600001
14.309 2.277 0.21699999
14.335 2.319 0.21699999
14.397 2.368 0.21799999
14.459 2.4170001 0.219
14.464 2.457 0.219
14.482 2.5 0.219
14.501 2.543 0.219
14.521 2.5869999 0.219
14.578 2.6370001 0.22
14.589 2.6800001 0.22
14.649 2.733 0.221
14.722 2.7880001 0.222
14.793 2.8429999 0.223
14.848 2.8970001 0.22400001
14.874 2.9449999 0.22400001
14.852 2.983 0.22400001
14.877 3.0320001 0.22400001
14.918 3.0840001 0.22499999
14.967 3.138 0.22499999
15.012 3.1919999 0.226
15.009 3.2360001 0.226
15.045 3.289 0.226
14.892 3.3010001 0.22400001
14.813 3.3280001 0.223
14.746 3.358 0.222
14.797 3.415 0.223
14.911 3.487 0.22400001
15.141 3.5880001 0.228
15.182 3.645 0.228
15.18 3.6919999 0.228
15.217 3.7490001 0.229
15.289 3.8150001 0.23
15.416 3.895 0.23199999
15.605 3.993 0.235
15.581 4.0370002 0.234
15.672 4.1110001 0.236
15.686 4.165 0.236
15.795 4.2459998 0.237
15.841 4.3099999 0.23800001
15.85 4.3639998 0.23800001
15.933 4.4400001 0.23899999
15.976 4.5050001 0.23999999
16.033001 4.5739999 0.241
16.061001 4.6360002 0.241
16.132999 4.711 0.242
16.162001 4.7740002 0.243
16.327999 4.8790002 0.245
16.292 4.9239998 0.245
16.348 4.9970002 0.24600001
16.353001 5.0539999 0.24600001
16.459999 5.1440001 0.24699999
16.4 5.1820002 0.24699999
16.452 5.256 0.24699999
16.545 5.3439999 0.249
16.584999 5.415 0.249
16.606001 5.4809999 0.25
16.635 5.5489998 0.25
16.726 5.6389999 0.252
16.719999 5.697 0.252
16.84 5.7989998 0.25299999
16.875 5.8709998 0.25400001
16.893 5.9390001 0.25400001
16.955 6.0219998 0.255
13.108 5.4970002 0.198
12.95 5.4819999 0.19599999
12.814 5.4749999 0.19400001
12.653 5.4559999 0.191
12.562 5.4660001 0.19
12.679 5.5679998 0.192
12.348 5.8720002 0.18799999
12.264 5.8829999 0.18700001
12.272 6.092 0.18700001
12.224 6.119 0.186
12.329 6.3280001 0.18799999
12.175 6.3010001 0.186
12.195 6.3639998 0.186
12.21 6.4239998 0.18700001
12.239 6.4920001 0.18700001
8.151 -5.3649998 0.229
8.1969995 -5.3429999 0.23
8.2539997 -5.329 0.23199999
8.2819996 -5.296 0.23199999
8.3190002 -5.2690001 0.233
8.3319998 -5.2270002 0.233
8.3640003 -5.197 0.234
8.4069996 -5.1739998 0.235
8.4390001 -5.1440001 0.236
8.4700003 -5.1129999 0.237
8.4910002 -5.0770001 0.237
8.5120001 -5.0409999 0.23800001
8.5439997 -5.0110002 0.23800001
8.5670004 -4.9770002 0.23899999
8.5900002 -4.9419999 0.23899999
8.6160002 -4.9089999 0.23999999
8.6339998 -4.8730001 0.23999999
8.6619997 -4.8410001 0.241
8.6999998 -4.8150001 0.242
8.7220001 -4.7810001 0.242
8.7650003 -4.7579999 0.243
8.7950001 -4.7280002 0.244
8.7690001 -4.6680002 0.243
8.8009996 -4.6399999 0.244
8.8280001 -4.6090002 0.245
8.8520002 -4.5760002 0.245
8.8839998 -4.5479999 0.24600001
8.9130001 -4.5180001 0.24699999
8.9329996 -4.4840002 0.24699999
8.9560003 -4.4510002 0.248
8.9809999 -4.4200001 0.248
8.993 -4.382 0.249
9.0430002 -4.3629999 0.25
9.0880003 -4.342 0.25099999
9.1160002 -4.3119998 0.252
9.1420002 -4.2810001 0.252
9.1610003 -4.2470002 0.25299999
9.1590004 -4.204 0.25299999
9.1890001 -4.1750002 0.25299999
9.2200003 -4.1479998 0.25400001
9.2539997 -4.1209998 0.255
9.2779999 -4.0900002 0.255
9.29 -4.0539999 0.25600001
9.3299999 -4.0300002 0.257
9.3559999 -4 0.257
9.3879995 -3.973 0.25799999
9.4219999 -3.9460001 0.259
9.4449997 -3.915 0.25999999
9.4969997 -3.8970001 0.26100001
9.5249996 -3.868 0.26199999
9.54 -3.8340001 0.26199999
9.566 -3.8039999 0.26300001
9.5719995 -3.767 0.26300001
9.6049995 -3.7409999 0.264
9.6549997 -3.721 0.26499999
9.6730003 -3.688 0.26499999
9.691 -3.6559999 0.266
9.7110004 -3.625 0.266
9.7510004 -3.6010001 0.26699999
9.7889996 -3.576 0.26800001
9.8170004 -3.5480001 0.26899999
9.8360004 -3.517 0.26899999
9.8470001 -3.483 0.27000001
9.8830004 -3.457 0.27000001
9.9280005 -3.4360001 0.27200001
9.9370003 -3.401 0.27200001
9.967 -3.3740001 0.273
10.007 -3.3499999 0.27399999
10.01 -3.3139999 0.27399999
10.072 -3.2969999 0.27500001
10.108 -3.2720001 0.27599999
10.17 -3.2550001 0.278
10.198 -3.227 0.27900001
10.212 -3.1949999 0.27900001
10.193 -3.1530001 0.278
10.222 -3.1259999 0.27900001
10.237 -3.0940001 0.27900001
10.276 -3.0699999 0.28
10.283 -3.0369999 0.28099999
10.35 -3.0209999 0.28200001
10.374 -2.9920001 0.28299999
10.379 -2.9590001 0.28299999
10.424 -2.9360001 0.28400001
10.472 -2.914 0.28600001
10.498 -2.8870001 0.28600001
10.529 -2.8599999 0.287
10.556 -2.8329999 0.28799999
10.587 -2.8069999 0.289
10.649 -2.7880001 0.28999999
10.673 -2.76 0.29100001
10.702 -2.733 0.292
10.707 -2.701 0.292
10.76 -2.6800001 0.29300001
10.764 -2.6470001 0.29300001
10.783 -2.618 0.294
10.84 -2.598 0.29499999
10.893 -2.5769999 0.29699999
10.931 -2.553 0.29800001
10.98 -2.5309999 0.29899999
10.99 -2.5 0.29899999
11.009 -2.471 0.30000001
11.058 -2.4489999 0.301
11.079 -2.421 0.30199999
11.112 -2.395 0.30199999
11.144 -2.369 0.303
11.196 -2.348 0.30500001
11.242 -2.325 0.30599999
11.302 -2.3050001 0.308
11.311 -2.2739999 0.308
11.372 -2.2539999 0.30899999
11.419 -2.2309999 0.31099999
11.443 -2.204 0.31099999
11.478 -2.1789999 0.31200001
11.517 -2.154 0.31299999
11.598 -2.1370001 0.315
11.613 -2.108 0.31600001
11.654 -2.0840001 0.317
11.674 -2.056 0.31799999
11.738 -2.036 0.31900001
11.774 -2.0109999 0.31999999
11.813 -1.9859999 0.32100001
11.819 -1.956 0.32100001
11.921 -1.942 0.324
12.072 -1.9349999 0.32800001
12.062 -1.902 0.32800001
11.974 -1.857 0.32600001
12.012 -1.8329999 0.32699999
12.058 -1.809 0.32800001
12.057 -1.779 0.32800001
12.091 -1.753 0.329
12.147 -1.732 0.33000001
12.177 -1.706 0.331
12.184 -1.677 0.331
12.223 -1.652 0.33199999
12.284 -1.631 0.33399999
11.333 -1.477 0.308
11.248 -1.439 0.30599999
11.23 -1.41 0.30500001
11.228 -1.3839999 0.30500001
11.27 -1.362 0.30700001
11.333 -1.344 0.308
11.378 -1.323 0.31
11.401 -1.299 0.31
11.446 -1.278 0.31099999
12.741 -1.365 0.347
12.699 -1.332 0.34599999
12.697 -1.304 0.34599999
12.768 -1.283 0.34799999
12.827 -1.261 0.34900001
12.825 -1.233 0.34900001
13.351 0.17900001 0.25
13.432 0.204 0.25099999
13.41 0.228 0.25
13.419 0.25299999 0.25
13.439 0.278 0.25099999
13.451 0.303 0.25099999
13.465 0.329 0.25099999
13.458 0.35499999 0.25
13.464 0.38100001 0.25
13.445 0.40700001 0.25
13.477 0.43399999 0.25
13.461 0.461 0.25
13.472 0.48800001 0.25
13.459 0.51499999 0.249
13.461 0.54299998 0.249
13.48 0.57200003 0.249
13.479 0.60000002 0.249
13.464 0.62800002 0.249
13.453 0.65600002 0.248
13.469 0.68599999 0.248
13.462 0.71499997 0.248
13.485 0.74599999 0.248
13.51 0.77700001 0.249
13.492 0.80599999 0.248
13.527 0.83899999 0.249
13.51 0.86799997 0.248
13.531 0.89999998 0.248
13.542 0.93199998 0.248
13.549 0.96399999 0.248
13.58 0.99800003 0.249
13.552 1.028 0.248
13.566 1.061 0.248
13.547 1.092 0.248
13.555 1.126 0.248
13.609 1.163 0.249
13.728 1.207 0.25099999
13.756 1.243 0.25099999
13.746 1.276 0.25099999
13.764 1.312 0.25099999
13.775 1.348 0.25099999
13.773 1.383 0.25099999
13.802 1.421 0.25099999
13.864 1.4630001 0.252
13.953 1.508 0.25400001
13.993 1.548 0.25400001
13.98 1.5829999 0.25400001
13.979 1.62 0.25400001
14.001 1.659 0.25400001
14.022 1.699 0.25400001
14.065 1.742 0.255
14.152 1.791 0.257
11.637 1.5039999 0.211
11.394 1.503 0.206
11.298 1.521 0.204
11.245 1.545 0.20299999
11.242 1.575 0.20299999
11.231 1.605 0.20299999
11.253 1.64 0.20299999
11.322 1.681 0.205
14.719 2.1860001 0.266
14.556 2.2030001 0.26300001
14.535 2.24 0.26300001
14.596 2.2909999 0.264
14.65 2.342 0.264
14.664 2.3859999 0.26499999
14.723 2.438 0.266
14.754 2.4860001 0.266
14.764 2.53 0.266
14.79 2.5780001 0.266
14.802 2.6229999 0.26699999
14.857 2.677 0.26800001
14.909 2.73 0.26800001
14.993 2.79 0.27000001
15 2.836 0.27000001
15.074 2.895 0.271
15.103 2.9460001 0.27200001
15.19 3.0090001 0.273
15.183 3.0539999 0.273
15.197 3.1029999 0.273
15.224 3.155 0.27399999
15.305 3.2190001 0.27500001
15.332 3.2709999 0.27500001
15.451 3.345 0.27700001
15.52 3.408 0.27900001
14.851 3.3069999 0.26699999
14.764 3.3340001 0.26499999
14.817 3.392 0.266
14.97 3.474 0.26899999
15.325 3.605 0.27500001
15.264 3.6389999 0.27399999
15.262 3.687 0.27399999
15.285 3.7409999 0.27399999
15.388 3.816 0.27599999
15.974 4.0120001 0.28600001
15.979 4.0650001 0.28600001
15.995 4.1209998 0.287
16.031 4.1820002 0.287
16.08 4.2470002 0.28799999
16.097 4.3039999 0.28799999
16.205 4.3860002 0.28999999
16.204 4.4390001 0.28999999
16.334 4.5279999 0.29300001
16.403999 4.6020002 0.294
16.436001 4.665 0.294
16.528999 4.7459998 0.296
16.627001 4.8299999 0.29800001
16.672001 4.8990002 0.29899999
16.704 4.9640002 0.29899999
16.688 5.0149999 0.29899999
16.782 5.0999999 0.301
16.808001 5.164 0.301
16.833 5.2290001 0.301
16.914 5.3109999 0.303
16.941 5.3769999 0.303
16.950001 5.4380002 0.30399999
17.132 5.5549998 0.30700001
17.063999 5.5910001 0.30599999
17.146 5.677 0.30700001
17.063 5.7080002 0.30599999
17.243 5.8280001 0.30899999
17.247 5.8889999 0.30899999
17.372999 5.9920001 0.31099999
13.037 5.4629998 0.234
12.919 5.46 0.23199999
12.813 5.461 0.23
12.739 5.4759998 0.229
12.623 5.4710002 0.227
12.51 5.4679999 0.22499999
12.499 5.5079999 0.22499999
12.248 5.8870001 0.221
12.238 5.927 0.221
12.216 6.4060001 0.221
12.174 6.4289999 0.22
12.198 6.4860001 0.221
12.283 6.5760002 0.222
8.79 -5.1929998 0.264
8.8000002 -5.1729999 0.264
8.8079996 -5.1529999 0.26499999
8.8219995 -5.1360002 0.26499999
8.8400002 -5.1220002 0.266
8.8570004 -5.1059999 0.266
8.842 -5.072 0.266
8.8520002 -5.053 0.266
8.8789997 -5.0419998 0.26699999
8.8879995 -5.0219998 0.26699999
8.9110003 -5.0089998 0.26800001
8.934 -4.9959998 0.26800001
8.9309998 -4.9689999 0.26800001
8.9440002 -4.9510002 0.26899999
8.9659996 -4.9369998 0.26899999
8.9589996 -4.9070001 0.26899999
8.9770002 -4.8909998 0.27000001
8.9960003 -4.8759999 0.27000001
9.0200005 -4.862 0.271
9.0220003 -4.8379998 0.271
9.0469999 -4.8249998 0.27200001
9.0489998 -4.8000002 0.27200001
9.0530005 -4.776 0.27200001
9.1059999 -4.7779999 0.27399999
9.1400003 -4.7690001 0.27500001
9.2309999 -4.79 0.278
9.2180004 -4.756 0.27700001
9.1730003 -4.7059999 0.27599999
9.158 -4.6719999 0.27500001
9.1599998 -4.6469998 0.27599999
9.1630001 -4.6220002 0.27599999
9.1890001 -4.6079998 0.27599999
9.1969995 -4.585 0.27700001
9.224 -4.572 0.27700001
9.2270002 -4.5469999 0.278
9.25 -4.5310001 0.278
9.2609997 -4.5100002 0.27900001
9.2659998 -4.4850001 0.27900001
9.3140001 -4.4819999 0.28
9.3249998 -4.46 0.28099999
9.3470001 -4.4429998 0.28099999
9.3730001 -4.428 0.28200001
9.3739996 -4.401 0.28200001
9.3780003 -4.3759999 0.28200001
9.3970003 -4.3579998 0.28299999
9.4130001 -4.3379998 0.28299999
9.4390001 -4.322 0.28400001
9.448 -4.2979999 0.28400001
9.4770002 -4.2839999 0.285
9.474 -4.2550001 0.285
9.4860001 -4.2329998 0.285
9.5150003 -4.2179999 0.28600001
9.5019999 -4.1849999 0.28600001
9.5450001 -4.1760001 0.287
9.5459995 -4.1490002 0.287
9.5419998 -4.119 0.287
9.5939999 -4.1129999 0.289
9.5979996 -4.0879998 0.289
9.6140003 -4.066 0.289
9.6490002 -4.053 0.28999999
9.6560001 -4.0279999 0.29100001
9.6879997 -4.013 0.292
9.6929998 -3.987 0.292
9.7019997 -3.9619999 0.292
9.7119999 -3.938 0.292
9.7220001 -3.914 0.29300001
9.7460003 -3.895 0.29300001
9.7559996 -3.8710001 0.294
9.79 -3.8559999 0.29499999
9.8149996 -3.8369999 0.29499999
9.8129997 -3.8080001 0.29499999
9.8400002 -3.789 0.296
9.8620005 -3.7690001 0.29699999
9.8929996 -3.7520001 0.29800001
9.9219999 -3.734 0.29899999
9.9200001 -3.7049999 0.29899999
9.948 -3.6860001 0.29899999
9.9700003 -3.665 0.30000001
9.9790001 -3.6400001 0.30000001
9.9899998 -3.615 0.301
10.005 -3.5910001 0.301
10.035 -3.573 0.30199999
10.053 -3.55 0.30199999
10.085 -3.5320001 0.303
10.104 -3.5090001 0.30399999
10.114 -3.483 0.30399999
10.12 -3.4560001 0.30500001
10.134 -3.431 0.30500001
10.166 -3.4130001 0.30599999
10.203 -3.395 0.30700001
10.213 -3.369 0.30700001
10.24 -3.348 0.308
10.308 -3.3410001 0.31
10.364 -3.329 0.31200001
10.34 -3.2909999 0.31099999
10.353 -3.2650001 0.31099999
10.337 -3.23 0.31099999
10.348 -3.204 0.31099999
10.36 -3.177 0.31200001
10.385 -3.155 0.31200001
10.405 -3.131 0.31299999
10.428 -3.1070001 0.31400001
10.452 -3.0840001 0.31400001
10.483 -3.063 0.315
10.509 -3.04 0.31600001
10.528 -3.016 0.317
10.563 -2.9949999 0.31799999
10.597 -2.974 0.31900001
10.636 -2.954 0.31999999
10.667 -2.9319999 0.32100001
10.678 -2.904 0.32100001
10.692 -2.8770001 0.32100001
10.722 -2.8540001 0.322
10.745 -2.829 0.32300001
10.755 -2.8010001 0.32300001
10.845 -2.793 0.32600001
10.857 -2.7650001 0.32600001
10.894 -2.7420001 0.32699999
10.952 -2.7249999 0.329
10.971 -2.698 0.33000001
11.021 -2.6789999 0.331
11.032 -2.6500001 0.33199999
11.032 -2.618 0.33199999
11.095 -2.6010001 0.333
11.129 -2.5769999 0.33399999
11.151 -2.55 0.33500001
11.186 -2.526 0.336
11.213 -2.5 0.33700001
11.223 -2.47 0.33700001
11.245 -2.4419999 0.338
11.305 -2.4230001 0.34
11.359 -2.402 0.34099999
11.397 -2.3770001 0.34200001
11.413 -2.3469999 0.34299999
11.443 -2.3210001 0.34400001
11.55 -2.309 0.347
11.594 -2.2850001 0.34799999
11.608 -2.2539999 0.34900001
11.638 -2.2260001 0.34900001
11.683 -2.201 0.35100001
11.713 -2.1730001 0.352
11.766 -2.1500001 0.35299999
11.807 -2.1229999 0.354
11.866 -2.0999999 0.35600001
11.907 -2.073 0.35699999
11.966 -2.049 0.359
11.999 -2.02 0.36000001
12.028 -1.99 0.361
12.09 -1.966 0.36300001
12.362 -1.975 0.37099999
12.223 -1.918 0.36700001
12.189 -1.877 0.366
12.21 -1.846 0.366
12.253 -1.817 0.368
12.276 -1.785 0.368
12.316 -1.756 0.36899999
12.342 -1.724 0.37
11.281 -1.511 0.338
11.218 -1.471 0.336
11.218 -1.439 0.336
11.266 -1.413 0.338
11.338 -1.3890001 0.34
11.386 -1.363 0.34099999
11.505 -1.344 0.345
12.994 -1.4809999 0.389
12.848 -1.427 0.38499999
12.919 -1.398 0.38699999
14.018 0.50099999 0.28799999
13.979 0.51999998 0.287
14.014 0.54299998 0.287
14.147 0.56900001 0.28999999
14.054 0.588 0.28799999
14.028 0.60900003 0.287
14.024 0.63099998 0.287
13.969 0.65100002 0.285
13.966 0.67400002 0.285
13.991 0.69800001 0.285
14.021 0.72299999 0.28600001
13.995 0.74599999 0.285
13.979 0.76899999 0.285
14.01 0.79500002 0.285
14.049 0.82300001 0.28600001
14.031 0.847 0.285
14.048 0.87300003 0.28600001
14.017 0.89700001 0.285
14.108 0.92900002 0.28600001
13.674 1.059 0.27700001
13.657 1.085 0.27599999
13.616 1.11 0.27500001
13.719 1.146 0.27700001
14.355 1.229 0.28999999
14.278 1.252 0.289
14.353 1.289 0.28999999
14.315 1.316 0.289
14.369 1.352 0.28999999
14.397 1.386 0.29100001
14.408 1.418 0.29100001
14.427 1.452 0.29100001
14.572 1.499 0.294
14.617 1.536 0.29499999
14.636 1.571 0.29499999
14.585 1.599 0.294
14.603 1.635 0.294
14.61 1.67 0.294
14.628 1.706 0.294
14.615 1.739 0.294
14.67 1.78 0.29499999
11.501 1.423 0.23100001
14.702 1.819 0.296
11.375 1.4349999 0.229
14.793 1.8660001 0.29699999
11.321 1.456 0.227
11.278 1.478 0.227
11.259 1.503 0.226
11.256 1.53 0.226
11.262 1.559 0.226
11.29 1.592 0.227
11.339 1.628 0.228
11.485 1.678 0.23100001
15.172 2.217 0.30500001
15.064 2.24 0.30199999
15.108 2.2850001 0.303
15.105 2.3239999 0.303
15.159 2.3729999 0.30399999
15.153 2.4119999 0.30399999
15.163 2.454 0.30399999
15.186 2.4979999 0.30500001
15.207 2.543 0.30500001
15.254 2.592 0.30599999
15.276 2.6370001 0.30700001
15.333 2.6889999 0.308
15.323 2.73 0.30700001
15.358 2.779 0.308
15.403 2.8299999 0.30899999
15.448 2.882 0.31
15.473 2.931 0.31
15.497 2.9790001 0.31099999
15.527 3.029 0.31200001
15.559 3.0810001 0.31200001
15.593 3.1329999 0.31299999
15.654 3.191 0.31400001
15.711 3.2479999 0.315
15.845 3.323 0.31799999
15.848 3.3699999 0.31799999
15.884 3.425 0.31900001
15.928 3.483 0.31999999
16 3.546 0.32100001
16.176001 3.635 0.32499999
14.861 3.3840001 0.29800001
14.806 3.4170001 0.29699999
14.832 3.4690001 0.29800001
15.072 3.572 0.303
15.33 3.7290001 0.308
15.245 3.756 0.30599999
15.247 3.8039999 0.30700001
15.424 3.8970001 0.31
16.447001 4.2080002 0.331
16.416 4.2529998 0.33000001
16.479 4.322 0.33199999
16.495001 4.3800001 0.33199999
16.540001 4.4460001 0.333
16.636 4.526 0.33500001
16.750999 4.612 0.338
16.747 4.6669998 0.338
16.84 4.7480001 0.34
16.839001 4.8039999 0.34
16.839001 4.8600001 0.34
16.979 4.9580002 0.34299999
16.999001 5.0209999 0.34299999
17.066999 5.099 0.345
17.142 5.1799998 0.34599999
17.186001 5.2519999 0.347
17.323999 5.3540001 0.34999999
17.388 5.434 0.352
17.385 5.493 0.352
17.483999 5.586 0.354
17.448999 5.6360002 0.35299999
17.514 5.7179999 0.35499999
17.535999 5.7870002 0.35499999
17.642 5.8850002 0.35800001
17.712 5.9710002 0.359
17.698999 6.0300002 0.359
17.767 6.1170001 0.361
13.045 5.4200001 0.26800001
12.909 5.4130001 0.26499999
12.804 5.4200001 0.26300001
12.718 5.4330001 0.26100001
12.591 5.4289999 0.259
12.509 5.4429998 0.257
12.6 5.5320001 0.259
12.248 5.8239999 0.25400001
12.26 5.8800001 0.25400001
12.263 6.3990002 0.25600001
12.255 6.447 0.257
12.326 6.5380001 0.25799999
8.4189997 -5.54 0.27599999
8.4499998 -5.507 0.27700001
8.4779997 -5.4720001 0.278
8.5159998 -5.4439998 0.27900001
8.5450001 -5.4109998 0.28
8.5869999 -5.3860002 0.28099999
8.6099997 -5.348 0.28200001
8.6260004 -5.3070002 0.28200001
8.6660004 -5.2810001 0.28299999
8.6780005 -5.2379999 0.28299999
8.7180004 -5.2119999 0.28400001
8.7469997 -5.1789999 0.285
8.7690001 -5.1420002 0.28600001
8.7810001 -5.099 0.28600001
8.8360004 -5.0819998 0.28799999
8.8540001 -5.0430002 0.28799999
8.8719997 -5.0050001 0.28799999
8.8979998 -4.9710002 0.289
8.9399996 -4.947 0.28999999
8.9759998 -4.9190001 0.29100001
9.0290003 -4.9000001 0.29300001
9.0679998 -4.8730001 0.294
9.0609999 -4.822 0.294
9.0620003 -4.776 0.29300001
9.0819998 -4.7399998 0.294
9.1059999 -4.7059999 0.29499999
9.1239996 -4.6700001 0.29499999
9.1660004 -4.645 0.296
9.1870003 -4.6100001 0.29699999
9.2110004 -4.5770001 0.29699999
9.2309999 -4.5419998 0.29800001
9.2600002 -4.5110002 0.29899999
9.3070002 -4.4889998 0.30000001
9.3540001 -4.467 0.301
9.3710003 -4.4310002 0.30199999
9.3859997 -4.3940001 0.30199999
9.4300003 -4.3709998 0.30399999
9.4390001 -4.3309999 0.30399999
9.4619999 -4.2989998 0.30399999
9.4919996 -4.2690001 0.30500001
9.5120001 -4.2350001 0.30599999
9.5299997 -4.1999998 0.30599999
9.5530005 -4.1680002 0.30700001
9.5810003 -4.1370001 0.308
9.5979996 -4.1030002 0.308
9.6269999 -4.073 0.30899999
9.6730003 -4.0510001 0.31
9.6929998 -4.0180001 0.31099999
9.7480001 -3.9990001 0.31200001
9.743 -3.9560001 0.31200001
9.7749996 -3.928 0.31299999
9.7919998 -3.8929999 0.31299999
9.8109999 -3.8610001 0.31400001
9.8529997 -3.836 0.315
9.8850002 -3.809 0.31600001
9.8959999 -3.773 0.31600001
9.9540005 -3.7550001 0.31799999
9.9820004 -3.7249999 0.31900001
10.015 -3.698 0.31999999
10.032 -3.665 0.31999999
10.059 -3.635 0.32100001
10.091 -3.6070001 0.322
10.116 -3.5769999 0.32300001
10.135 -3.5450001 0.32300001
10.176 -3.5209999 0.324
10.194 -3.4879999 0.32499999
10.233 -3.4630001 0.32600001
10.249 -3.4300001 0.32699999
10.262 -3.3970001 0.32699999
10.306 -3.3740001 0.32800001
10.373 -3.358 0.33000001
10.451 -3.345 0.333
10.448 -3.306 0.333
10.436 -3.2650001 0.33199999
10.451 -3.2320001 0.33199999
10.476 -3.2030001 0.333
10.504 -3.175 0.33399999
10.542 -3.1489999 0.33500001
10.57 -3.1210001 0.336
10.651 -3.108 0.338
10.708 -3.0880001 0.34
10.726 -3.0569999 0.34099999
10.759 -3.03 0.34200001
10.819 -3.0109999 0.34400001
10.87 -2.9890001 0.345
10.893 -2.9590001 0.34599999
10.937 -2.9349999 0.347
10.989 -2.9130001 0.34900001
11.03 -2.888 0.34999999
11.073 -2.8629999 0.35100001
11.12 -2.8399999 0.35299999
11.183 -2.8199999 0.35499999
11.231 -2.7969999 0.35600001
11.25 -2.766 0.35699999
11.31 -2.7460001 0.359
11.322 -2.714 0.359
11.368 -2.6900001 0.36000001
11.386 -2.6589999 0.361
11.43 -2.6340001 0.36199999
11.495 -2.615 0.36399999
11.489 -2.579 0.36399999
11.517 -2.55 0.36500001
11.587 -2.5320001 0.36700001
11.639 -2.5090001 0.36899999
11.667 -2.48 0.36899999
11.696 -2.4530001 0.37
11.728 -2.425 0.37099999
11.796 -2.405 0.373
11.837 -2.3800001 0.375
11.882 -2.355 0.37599999
11.883 -2.322 0.37599999
11.942 -2.3 0.37799999
11.989 -2.276 0.37900001
12.015 -2.247 0.38
12.1 -2.23 0.38299999
12.111 -2.1989999 0.38299999
12.126 -2.1689999 0.384
12.157 -2.141 0.38499999
12.213 -2.118 0.38600001
12.224 -2.0880001 0.38699999
12.26 -2.0610001 0.38800001
12.295 -2.0350001 0.389
12.377 -2.016 0.391
12.447 -1.995 0.39399999
12.555 -1.948 0.39700001
12.476 -1.904 0.39500001
12.492 -1.875 0.39500001
12.536 -1.85 0.396
12.552 -1.821 0.39700001
12.583 -1.794 0.398
12.654 -1.773 0.40000001
12.713 -1.75 0.40200001
11.505 -1.556 0.36399999
11.306 -1.501 0.35699999
11.253 -1.467 0.35600001
11.24 -1.439 0.35499999
11.227 -1.41 0.35499999
11.241 -1.386 0.35499999
11.266 -1.362 0.35600001
11.331 -1.344 0.35800001
11.363 -1.321 0.359
11.381 -1.2970001 0.36000001
11.439 -1.278 0.36199999
13.736 0.186 0.32300001
13.763 0.211 0.324
13.764 0.236 0.324
13.789 0.26100001 0.324
13.795 0.287 0.324
13.803 0.31299999 0.324
13.8 0.33899999 0.324
13.823 0.366 0.324
13.846 0.39399999 0.324
13.879 0.42199999 0.32499999
13.878 0.449 0.32499999
13.88 0.477 0.32499999
13.906 0.50599998 0.32499999
13.887 0.53299999 0.324
13.925 0.56300002 0.32499999
13.92 0.59200001 0.32499999
13.922 0.62099999 0.32499999
13.929 0.65100002 0.32499999
13.913 0.68000001 0.324
13.933 0.71100003 0.324
13.956 0.74299997 0.32499999
13.935 0.77200001 0.324
13.962 0.80400002 0.32499999
13.999 0.838 0.32499999
14.014 0.87 0.32600001
14.016 0.90200001 0.32499999
14.078 0.93800002 0.32699999
14.086 0.97100002 0.32699999
13.594 1.097 0.315
13.6 1.131 0.315
13.651 1.168 0.31600001
14.394 1.302 0.333
14.364 1.335 0.33199999
14.391 1.373 0.333
14.406 1.411 0.333
14.48 1.455 0.33399999
14.514 1.495 0.33500001
14.586 1.54 0.33700001
14.733 1.5930001 0.34
14.72 1.63 0.34
14.701 1.666 0.33899999
14.688 1.7029999 0.33899999
14.698 1.743 0.33899999
14.723 1.785 0.33899999
14.767 1.829 0.34
11.512 1.457 0.26499999
14.821 1.876 0.34099999
11.373 1.47 0.26199999
14.94 1.931 0.34400001
11.299 1.4910001 0.25999999
11.275 1.5190001 0.259
11.257 1.5470001 0.259
11.254 1.5779999 0.259
11.286 1.613 0.259
11.347 1.654 0.26100001
11.479 1.705 0.264
15.454 2.296 0.35499999
15.231 2.3050001 0.34999999
15.249 2.3510001 0.35100001
15.284 2.4000001 0.35100001
15.34 2.4519999 0.35299999
15.37 2.5009999 0.35299999
15.381 2.5469999 0.35299999
15.415 2.5969999 0.354
15.447 2.648 0.35499999
15.508 2.7030001 0.35600001
15.559 2.7579999 0.35699999
15.589 2.809 0.35800001
15.622 2.8610001 0.359
15.676 2.918 0.36000001
15.721 2.973 0.361
15.772 3.03 0.36199999
15.84 3.0899999 0.36399999
15.945 3.1589999 0.366
16.014999 3.221 0.368
16.09 3.2850001 0.36899999
16.117001 3.3399999 0.37
16.232 3.414 0.373
16.256001 3.4690001 0.373
16.271 3.5220001 0.37400001
16.372999 3.595 0.37599999
16.466999 3.6670001 0.37799999
14.93 3.3710001 0.34299999
14.832 3.3959999 0.34099999
14.831 3.4419999 0.34099999
16.583 3.901 0.38100001
16.702999 3.9820001 0.384
15.391 3.7179999 0.354
15.243 3.7309999 0.34999999
15.252 3.7820001 0.34999999
16.974001 4.263 0.38999999
16.917 4.3039999 0.389
17.035999 4.3889999 0.39199999
16.99 4.4320002 0.391
17.115 4.52 0.39399999
17.153999 4.5869999 0.39500001
17.125999 4.6350002 0.39399999
17.117001 4.6890001 0.39399999
17.221001 4.7740002 0.396
17.268999 4.8439999 0.39700001
17.544001 4.9790001 0.40400001
17.604 5.0549998 0.405
17.597 5.1110001 0.405
17.584999 5.1659999 0.405
17.646 5.243 0.40599999
17.879999 5.3730001 0.412
17.851 5.4239998 0.41100001
17.968 5.52 0.414
17.999001 5.5910001 0.41499999
18.038 5.664 0.41600001
18.004 5.7140002 0.41499999
18.101 5.8070002 0.41800001
18.122 5.875 0.41800001
18.111 5.934 0.41800001
18.149 6.0079999 0.419
18.198999 6.0869999 0.41999999
18.434 6.23 0.426
18.511 6.3189998 0.428
13.15 5.4629998 0.30599999
12.962 5.4310002 0.30199999
12.854 5.4320002 0.30000001
12.795 5.4530001 0.29800001
12.726 5.4699998 0.29699999
12.653 5.4840002 0.29499999
12.564 5.4910002 0.29300001
12.666 5.5809999 0.296
9.0089998 -5.3260002 0.31299999
9.033 -5.3150001 0.31299999
9.0419998 -5.2940001 0.31400001
9.073 -5.2859998 0.315
9.0640001 -5.2550001 0.315
9.0900002 -5.244 0.315
9.0819998 -5.2129998 0.315
9.1079998 -5.2020001 0.31600001
9.1219997 -5.184 0.317
9.1330004 -5.165 0.317
9.158 -5.152 0.31799999
9.1820002 -5.1389999 0.31900001
9.1660004 -5.1040001 0.31799999
9.1829996 -5.0869999 0.31900001
9.2030001 -5.0710001 0.31900001
9.2139997 -5.0510001 0.31999999
9.2320004 -5.0339999 0.31999999
9.257 -5.0209999 0.32100001
9.2530003 -4.9920001 0.32100001
9.2659998 -4.9720001 0.322
9.283 -4.954 0.322
9.2930002 -4.9330001 0.32300001
9.3070002 -4.9130001 0.32300001
9.3339996 -4.901 0.324
9.3210001 -4.8670001 0.324
9.3459997 -4.8530002 0.324
9.3620005 -4.8340001 0.32499999
9.3690004 -4.8099999 0.32499999
9.3900003 -4.7940001 0.32600001
9.4160004 -4.7800002 0.32699999
9.4329996 -4.7610002 0.32699999
9.4499998 -4.7420001 0.32800001
9.4709997 -4.7249999 0.329
9.4820004 -4.7030001 0.329
9.4879999 -4.6789999 0.329
9.5120001 -4.6630001 0.33000001
9.5209999 -4.6389999 0.33000001
9.5310001 -4.6170001 0.331
9.5450001 -4.5960002 0.331
9.5450001 -4.5679998 0.331
9.5719995 -4.553 0.33199999
9.5939999 -4.5349998 0.333
9.599 -4.5100002 0.333
9.6160002 -4.4899998 0.33399999
9.6280003 -4.467 0.33399999
9.6529999 -4.4510002 0.33500001
9.6560001 -4.4239998 0.33500001
9.6800003 -4.4070001 0.336
9.698 -4.3870001 0.33700001
9.7340002 -4.375 0.338
9.7379999 -4.348 0.338
9.7580004 -4.329 0.33899999
9.7690001 -4.3049998 0.33899999
9.7860003 -4.2839999 0.34
9.802 -4.2620001 0.34
9.8299999 -4.2459998 0.34099999
9.8380003 -4.2210002 0.34099999
9.8219995 -4.1849999 0.34099999
9.8579998 -4.1719999 0.34200001
9.8909998 -4.1570001 0.34299999
9.8959999 -4.1300001 0.34299999
9.8979998 -4.1020002 0.34299999
9.9329996 -4.0879998 0.345
9.9530001 -4.0669999 0.345
9.96 -4.0409999 0.345
9.9989996 -4.027 0.347
10.008 -4.0019999 0.347
10.018 -3.977 0.347
10.057 -3.9630001 0.34900001
10.062 -3.9349999 0.34900001
10.062 -3.9059999 0.34900001
10.098 -3.891 0.34999999
10.107 -3.865 0.34999999
10.158 -3.855 0.352
10.193 -3.8380001 0.35299999
10.191 -3.8080001 0.35299999
10.187 -3.777 0.35299999
10.216 -3.7579999 0.354
10.231 -3.733 0.35499999
10.241 -3.707 0.35499999
10.253 -3.6819999 0.35499999
10.266 -3.6559999 0.35600001
10.298 -3.638 0.35699999
10.326 -3.618 0.35800001
10.327 -3.5880001 0.35800001
10.354 -3.5669999 0.359
10.403 -3.5539999 0.36000001
10.386 -3.5179999 0.36000001
10.404 -3.494 0.36000001
10.419 -3.4690001 0.361
10.461 -3.4519999 0.36199999
10.499 -3.434 0.36399999
10.509 -3.4070001 0.36399999
10.578 -3.3989999 0.366
10.615 -3.3800001 0.368
10.621 -3.3510001 0.368
10.636 -3.325 0.368
10.647 -3.2969999 0.36899999
10.675 -3.2750001 0.37
10.659 -3.2390001 0.36899999
10.725 -3.2279999 0.37099999
10.768 -3.21 0.373
10.753 -3.174 0.37200001
10.857 -3.1730001 0.37599999
10.868 -3.145 0.37599999
10.9 -3.1229999 0.377
10.944 -3.1040001 0.37900001
10.959 -3.076 0.37900001
10.975 -3.049 0.38
11.034 -3.033 0.382
11.12 -3.0250001 0.38499999
11.142 -2.9990001 0.38499999
11.142 -2.9660001 0.38499999
11.16 -2.9389999 0.38600001
11.193 -2.9159999 0.38699999
11.277 -2.905 0.38999999
11.27 -2.8699999 0.38999999
11.287 -2.842 0.38999999
11.331 -2.8199999 0.39199999
11.372 -2.7980001 0.39300001
11.461 -2.7869999 0.396
11.491 -2.7609999 0.39700001
11.493 -2.7279999 0.39700001
11.546 -2.707 0.39899999
11.599 -2.6860001 0.40099999
11.617 -2.6570001 0.40099999
11.612 -2.622 0.40099999
11.669 -2.602 0.403
11.711 -2.5769999 0.405
11.733 -2.5480001 0.405
11.77 -2.523 0.40700001
11.804 -2.4960001 0.40799999
11.827 -2.467 0.40799999
11.866 -2.441 0.41
11.924 -2.418 0.412
11.973 -2.3940001 0.41299999
12.01 -2.3670001 0.41499999
12.011 -2.332 0.41499999
12.083 -2.3110001 0.417
12.131 -2.286 0.419
12.154 -2.2550001 0.419
12.196 -2.2279999 0.421
12.247 -2.2019999 0.42300001
12.309 -2.178 0.42500001
12.353 -2.1500001 0.426
12.324 -2.1099999 0.42500001
12.362 -2.0810001 0.426
12.469 -2.063 0.43000001
12.479 -2.029 0.43000001
12.589 -2.0109999 0.43399999
12.718 -1.9220001 0.43799999
12.739 -1.888 0.43900001
12.785 -1.859 0.44100001
12.803 -1.825 0.44100001
12.886 -1.799 0.44400001
11.496 -1.572 0.396
11.272 -1.51 0.38800001
11.244 -1.474 0.38699999
11.216 -1.438 0.38600001
11.249 -1.41 0.38699999
11.324 -1.387 0.38999999
11.365 -1.359 0.391
11.452 -1.337 0.39399999
14.671 0.78399998 0.37
14.696 0.81099999 0.37
14.851 0.84500003 0.37400001
14.816 0.87 0.373
14.776 0.89399999 0.37200001
14.805 0.92199999 0.37200001
14.851 0.95300001 0.373
14.929 0.98500001 0.375
13.592 1.109 0.34099999
13.597 1.137 0.34099999
15.11 1.327 0.37799999
15.118 1.359 0.37799999
15.049 1.385 0.377
15.082 1.42 0.377
15.118 1.456 0.37799999
15.136 1.4910001 0.37900001
15.177 1.529 0.38
15.285 1.574 0.382
15.295 1.609 0.382
15.295 1.643 0.382
15.231 1.671 0.38100001
15.237 1.707 0.38100001
15.251 1.744 0.38100001
15.322 1.788 0.38299999
15.383 1.831 0.384
11.473 1.393 0.287
15.575 1.891 0.389
11.376 1.408 0.28400001
11.322 1.429 0.28299999
11.292 1.4529999 0.28200001
11.28 1.479 0.28200001
11.262 1.5039999 0.28099999
11.263 1.5319999 0.28099999
11.323 1.569 0.28299999
11.392 1.607 0.28400001
11.455 1.645 0.28600001
11.545 1.687 0.28799999
15.965 2.3329999 0.39899999
15.814 2.352 0.39500001
15.799 2.391 0.39500001
15.825 2.4360001 0.39500001
15.877 2.4860001 0.39700001
15.913 2.533 0.398
15.912 2.576 0.398
15.973 2.628 0.39899999
15.989 2.674 0.40000001
15.994 2.7179999 0.40000001
16.037001 2.7690001 0.40099999
16.093 2.823 0.40200001
16.205 2.888 0.405
16.246 2.9400001 0.40599999
16.292999 2.994 0.40799999
16.360001 3.053 0.40900001
16.408001 3.108 0.41100001
16.458 3.164 0.412
16.59 3.237 0.41499999
16.572001 3.2820001 0.41499999
16.552999 3.326 0.41499999
16.538 3.3710001 0.414
16.615 3.4349999 0.41600001
16.66 3.494 0.417
16.73 3.5580001 0.419
16.784 3.6199999 0.421
16.865 3.688 0.42300001
16.888 3.744 0.42399999
16.902 3.7980001 0.42399999
14.894 3.392 0.37400001
14.808 3.418 0.37200001
14.836 3.47 0.373
17.204 4.0770001 0.43200001
17.221001 4.1350002 0.433
15.411 3.7479999 0.38699999
15.219 3.7490001 0.38299999
15.176 3.7869999 0.382
15.321 3.8710001 0.38600001
17.621 4.5650001 0.44400001
17.660999 4.632 0.44499999
17.677 4.6939998 0.44600001
17.698 4.757 0.44600001
17.809 4.8449998 0.449
17.718 4.8779998 0.447
18.033001 5.0250001 0.456
17.941 5.059 0.45300001
18.047001 5.1490002 0.456
18.052 5.21 0.45699999
18.093 5.283 0.458
18.15 5.3610001 0.46000001
18.181 5.4320002 0.461
18.226999 5.5079999 0.46200001
18.291 5.5900002 0.46399999
18.305 5.6570001 0.465
18.406 5.7519999 0.46700001
18.358999 5.8010001 0.46599999
18.601999 5.9419999 0.47299999
18.511 5.9780002 0.47099999
18.625999 6.0809999 0.47400001
18.645 6.1529999 0.47499999
18.628 6.2129998 0.47499999
18.646999 6.2859998 0.47499999
18.73 6.381 0.47799999
13.046 5.4200001 0.338
12.908 5.4120002 0.33399999
12.872 5.448 0.33399999
12.816 5.474 0.33199999
12.795 5.5159998 0.33199999
12.781 5.5609999 0.33199999
12.517 5.7979999 0.32699999
12.416 5.802 0.32499999
12.411 5.8499999 0.32499999
12.472 5.9299998 0.32699999
8.6359997 -5.6799998 0.324
8.665 -5.645 0.32499999
8.7180004 -5.625 0.32699999
8.757 -5.5970001 0.32800001
8.7819996 -5.559 0.329
8.8109999 -5.5240002 0.33000001
8.8439999 -5.4920001 0.331
8.8649998 -5.4520001 0.331
8.8940001 -5.4180002 0.33199999
8.9239998 -5.3839998 0.333
8.9460001 -5.3460002 0.33399999
8.9799995 -5.3150001 0.33500001
8.9940004 -5.2719998 0.33500001
9.0240002 -5.2389998 0.336
9.0489998 -5.2030001 0.33700001
