# .PCD v0.7 - Point Cloud Data file format
VERSION 0.7
FIELDS x y z
SIZE 4 4 4
TYPE F F F
COUNT 1 1 1
WIDTH 1937
HEIGHT 1
VIEWPOINT 0 0 0 1 0 0 0
POINTS 1937
DATA ascii
6.7129998 3.2739999 0.46900001
6.7259998 3.309 0.47
6.7360001 3.342 0.472
6.7410002 3.3729999 0.47299999
6.7509999 3.4059999 0.47400001
6.777 3.4489999 0.477
6.8990002 3.54 0.486
11.371 -7.4650002 0.85299999
11.425 -7.428 0.85600001
11.471 -7.388 0.85900003
11.526 -7.3520002 0.86199999
11.553 -7.2989998 0.86400002
11.623 -7.2740002 0.86799997
11.666 -7.2309999 0.87099999
11.741 -7.2080002 0.87599999
11.757 -7.1490002 0.87599999
11.801 -7.1069999 0.87900001
11.842 -7.0640001 0.88099998
11.892 -7.026 0.884
11.918 -6.974 0.88499999
11.963 -6.9330001 0.88800001
12.007 -6.8920002 0.89099997
12.049 -6.8499999 0.89300001
12.125 -6.8270001 0.898
12.16 -6.7810001 0.89999998
12.212 -6.744 0.903
12.186 -6.665 0.90100002
12.22 -6.619 0.903
12.277 -6.586 0.90600002
12.265 -6.5159998 0.90499997
12.323 -6.4829998 0.90799999
12.354 -6.4369998 0.91000003
12.43 -6.4130001 0.91500002
12.462 -6.3670001 0.917
12.537 -6.3429999 0.92199999
12.52 -6.2719998 0.92000002
12.622 -6.2620001 0.92699999
12.672 -6.2249999 0.93000001
12.724 -6.1890001 0.93300003
12.797 -6.1630001 0.93800002
12.965 -6.1830001 0.94999999
13.024 -6.1490002 0.954
13.227 -6.1830001 0.96799999
13.99 -5.6139998 1.016
13.906 -5.5229998 1.0089999
13.934 -5.4759998 1.011
13.867 -5.3930001 1.005
13.959 -5.3720002 1.012
13.966 -5.3179998 1.012
13.995 -5.2740002 1.013
14.011 -5.224 1.0140001
13.988 -5.1599998 1.012
14.048 -5.1259999 1.016
14.017 -5.0609999 1.013
14.062 -5.0219998 1.016
14.183 -5.0110002 1.024
14.145 -4.9429998 1.021
14.263 -4.9310002 1.029
6.6929998 -2.2379999 0.48199999
6.671 -2.2060001 0.47999999
6.6059999 -2.1600001 0.47600001
6.559 -2.1210001 0.472
6.5380001 -2.0910001 0.47
6.5110002 -2.059 0.46799999
6.5250001 -2.04 0.46900001
6.5170002 -2.0139999 0.46799999
6.5040002 -1.987 0.46700001
6.4899998 -1.96 0.46599999
6.4819999 -1.9349999 0.465
6.4629998 -1.9069999 0.46399999
6.4720001 -1.888 0.46399999
6.4720001 -1.8660001 0.46399999
6.4770002 -1.845 0.46399999
6.4829998 -1.825 0.465
6.4850001 -1.804 0.465
6.474 -1.779 0.46399999
6.473 -1.758 0.46399999
6.473 -1.7359999 0.463
6.4749999 -1.716 0.463
6.5159998 -1.705 0.46599999
6.6729999 -1.725 0.477
12.992 -0.35499999 0.921
12.951 -0.33199999 0.91799998
12.951 -0.31099999 0.91799998
12.945 -0.289 0.91799998
12.916 -0.26800001 0.91600001
12.913 -0.24699999 0.91600001
12.94 -0.226 0.91799998
13.016 -0.207 0.92299998
13.11 -0.18799999 0.93000001
13.032 -0.16599999 0.92400002
13.024 -0.146 0.92400002
13.256 0.89499998 0.87599999
13.224 0.92299998 0.87400001
13.219 0.95300001 0.87400001
13.205 0.98299998 0.87300003
13.162 1.073 0.87
13.228 1.11 0.875
13.29 1.147 0.87900001
22.478001 2.105 1.487
22.354 2.1489999 1.479
22.309 2.2 1.476
22.385 2.2639999 1.482
22.382 2.3199999 1.482
22.386999 2.378 1.482
22.416 2.438 1.485
22.957001 2.556 1.521
22.962 2.6159999 1.521
22.996 2.6800001 1.524
22.84 2.7219999 1.5140001
22.778999 2.7739999 1.51
22.747999 2.8310001 1.5089999
22.711 2.8870001 1.507
22.558001 2.928 1.497
22.384001 2.9660001 1.4859999
22.33 3.0190001 1.483
22.313999 3.0780001 1.482
22.313999 3.1389999 1.482
22.327 3.2019999 1.484
22.368999 3.27 1.487
22.398001 3.3369999 1.49
22.545 3.4219999 1.5
22.666 3.5039999 1.508
22.790001 3.5880001 1.517
23.009001 4.3579998 1.539
22.948999 4.415 1.536
23.431 4.7189999 1.5700001
23.296 4.7620001 1.562
23.334999 4.8410001 1.566
19.603001 4.6139998 1.322
19.417 4.632 1.3099999
19.478001 4.7080002 1.3150001
7.0469999 3.283 0.50400001
6.9169998 3.2479999 0.495
6.823 3.2290001 0.48899999
6.7709999 3.2290001 0.486
6.7129998 3.2260001 0.48199999
6.6849999 3.2360001 0.48100001
6.664 3.2509999 0.47999999
6.678 3.2820001 0.48100001
6.7140002 3.3239999 0.484
6.7069998 3.345 0.48500001
6.7160001 3.3740001 0.486
6.7410002 3.411 0.48800001
6.7680001 3.45 0.491
6.816 3.5 0.495
13.334 -6.4180002 1.012
13.337 -6.3800001 1.012
13.342 -6.3439999 1.012
13.384 -6.3239999 1.015
13.475 -6.3270001 1.022
13.561 -6.3280001 1.028
13.617 -6.3140001 1.0319999
13.721 -6.322 1.04
14.12 -6.006 1.068
14.096 -5.954 1.066
14.181 -5.823 1.072
14.151 -5.7690001 1.0700001
14.199 -5.7459998 1.073
14.277 -5.7360001 1.079
14.313 -5.7080002 1.081
14.266 -5.6469998 1.077
14.353 -5.6399999 1.084
14.365 -5.6020002 1.084
14.391 -5.5700002 1.086
14.382 -5.4390001 1.085
14.471 -5.4299998 1.092
14.609 -5.1389999 1.1
14.639 -5.1059999 1.102
6.8899999 -2.342 0.51800001
6.7360001 -2.27 0.50700003
6.664 -2.227 0.50099999
6.6399999 -2.1989999 0.49900001
6.5949998 -2.165 0.49599999
6.5599999 -2.1340001 0.493
6.5279999 -2.1040001 0.49000001
6.5110002 -2.0799999 0.48899999
6.526 -2.0650001 0.49000001
6.5219998 -2.0450001 0.49000001
6.5110002 -2.023 0.48899999
6.5040002 -2.0009999 0.48800001
6.5089998 -1.984 0.48899999
6.487 -1.9579999 0.48699999
6.494 -1.941 0.48699999
6.4860001 -1.92 0.486
6.473 -1.897 0.48500001
6.487 -1.882 0.486
6.4770002 -1.8609999 0.486
6.4699998 -1.84 0.48500001
6.4650002 -1.819 0.484
6.487 -1.807 0.486
6.4850001 -1.7869999 0.486
6.4819999 -1.767 0.48500001
6.467 -1.744 0.484
6.4759998 -1.728 0.48500001
6.4840002 -1.711 0.48500001
6.4879999 -1.693 0.48500001
6.4770002 -1.671 0.48500001
6.5180001 -1.663 0.48699999
6.6500001 -1.677 0.49700001
13.082 -0.35299999 0.96100003
13.092 -0.31600001 0.96200001
13.301 0.81999999 0.90100002
13.306 0.84399998 0.90200001
13.218 0.86299998 0.89600003
13.237 0.88800001 0.89700001
13.184 0.90899998 0.89300001
13.165 0.93300003 0.89200002
13.193 0.95999998 0.89399999
13.208 0.986 0.89499998
13.145 1.007 0.89099997
13.11 1.03 0.889
13.083 1.054 0.88700002
13.142 1.085 0.89099997
13.187 1.1160001 0.89399999
13.211 1.145 0.89600003
13.24 1.3150001 0.89899999
13.14 1.334 0.89200002
23.261999 3.4719999 1.59
23.191999 3.5220001 1.586
23.179001 3.5799999 1.586
23.15 3.6359999 1.585
23.181 3.7019999 1.5880001
23.165001 3.7609999 1.5880001
23.15 3.8199999 1.587
23.150999 3.882 1.5880001
23.138 3.9430001 1.5880001
23.148001 4.007 1.59
23.143999 4.0700002 1.59
23.118999 4.1290002 1.589
23.128 4.1950002 1.591
23.166 4.2659998 1.594
23.374001 4.6360002 1.614
23.349001 4.6989999 1.613
23.254999 4.7470002 1.608
23.216 4.8070002 1.6059999
23.261 4.8850002 1.61
19.514 4.6890001 1.3609999
19.573 4.7639999 1.3660001
7.0469999 3.263 0.52600002
6.8839998 3.2160001 0.514
6.816 3.2119999 0.50999999
6.7490001 3.2090001 0.50599998
6.6929998 3.2090001 0.50199997
6.6659999 3.224 0.50099999
6.6739998 3.256 0.50199997
6.7059999 3.299 0.505
6.7129998 3.3310001 0.50700003
6.7220001 3.3640001 0.50800002
6.7490001 3.4059999 0.51099998
6.7880001 3.454 0.514
6.8850002 3.533 0.523
11.853 -7.7789998 0.94400001
11.925 -7.7519999 0.949
11.976 -7.711 0.95200002
12.029 -7.6719999 0.95599997
12.071 -7.625 0.958
12.161 -7.6090002 0.96499997
12.151 -7.5300002 0.963
12.184 -7.4790001 0.96499997
12.209 -7.4229999 0.96600002
12.204 -7.349 0.96499997
12.248 -7.3049998 0.96799999
12.243 -7.2319999 0.96700001
12.262 -7.1739998 0.96700001
12.287 -7.1199999 0.96899998
12.301 -7.0599999 0.96899998
12.322 -7.0040002 0.97000003
12.343 -6.9489999 0.97100002
12.395 -6.9109998 0.97399998
12.431 -6.8649998 0.97600001
12.445 -6.8060002 0.977
12.518 -6.7800002 0.98199999
12.593 -6.7550001 0.98699999
13.087 -6.8179998 1.024
13.069 -6.7420001 1.022
13.105 -6.6950002 1.024
13.221 -6.6880002 1.0319999
13.244 -6.6350002 1.033
13.311 -6.6030002 1.038
13.348 -6.5560002 1.04
13.274 -6.4549999 1.034
13.289 -6.4000001 1.034
13.292 -6.3379998 1.034
13.357 -6.3060002 1.038
13.385 -6.256 1.04
13.484 -6.2399998 1.0470001
13.575 -6.2199998 1.054
13.668 -6.1989999 1.0599999
13.855 -6.2210002 1.074
13.867 -6.164 1.074
13.988 -6.1560001 1.0829999
14.044 -6.118 1.087
14.22 -6.132 1.1
14.138 -6.0349998 1.0930001
14.169 -5.9860001 1.095
14.127 -5.908 1.091
14.155 -5.8590002 1.0930001
14.176 -5.8080001 1.094
14.21 -5.7620001 1.096
14.252 -5.7189999 1.099
14.271 -5.6669998 1.1
14.33 -5.632 1.104
14.374 -5.5320001 1.1059999
14.453 -5.5040002 1.112
14.586 -5.4380002 1.1210001
14.545 -5.3649998 1.117
14.6 -5.3280001 1.1210001
14.709 -5.3099999 1.1289999
14.789 -5.112 1.133
14.876 -5.086 1.1390001
6.8200002 -2.2809999 0.52200001
6.691 -2.2130001 0.51200002
6.645 -2.1730001 0.50800002
6.5689998 -2.1240001 0.50199997
6.5359998 -2.0899999 0.49900001
6.5089998 -2.0580001 0.49700001
6.5229998 -2.039 0.498
6.493 -2.007 0.495
6.5050001 -1.988 0.49599999
6.4879999 -1.96 0.495
6.4860001 -1.936 0.49399999
6.4720001 -1.91 0.493
6.4720001 -1.888 0.493
6.48 -1.868 0.493
6.4759998 -1.845 0.493
6.4809999 -1.824 0.493
6.473 -1.8 0.49200001
6.4510002 -1.773 0.491
6.4650002 -1.755 0.491
6.4910002 -1.7410001 0.493
6.4790001 -1.717 0.49200001
6.4850001 -1.697 0.493
6.5469999 -1.692 0.49700001
13.038 0.19599999 0.926
13.031 0.219 0.92500001
13.049 0.242 0.926
13.063 0.266 0.92699999
13.056 0.28999999 0.926
13.036 0.31400001 0.92400002
13.103 0.34 0.92900002
13.056 0.36300001 0.926
13.079 0.389 0.92699999
13.084 0.414 0.92699999
13.079 0.44 0.92699999
13.078 0.46599999 0.92699999
13.08 0.49200001 0.92699999
13.08 0.51800001 0.92699999
13.13 0.54699999 0.93000001
13.089 0.57200003 0.92699999
13.086 0.59899998 0.92699999
13.112 0.62800002 0.92799997
13.131 0.65700001 0.93000001
13.127 0.68400002 0.92900002
13.17 0.71499997 0.93199998
13.151 0.74299997 0.93099999
13.122 0.76999998 0.92900002
13.137 0.80000001 0.93000001
13.128 0.82800001 0.92900002
13.141 0.85900003 0.93000001
13.135 0.88800001 0.93000001
13.106 0.91600001 0.92799997
13.065 0.94300002 0.92500001
13.072 0.97399998 0.926
13.07 1.005 0.926
13.016 1.031 0.92199999
12.997 1.0599999 0.921
13.021 1.094 0.92199999
13.056 1.128 0.92500001
13.084 1.1619999 0.92699999
13.105 1.196 0.92900002
13.204 1.238 0.93599999
13.153 1.265 0.93199998
13.156 1.298 0.93300003
13.164 1.332 0.93400002
13.094 1.358 0.92900002
13.119 1.3940001 0.93099999
13.285 1.446 0.94300002
23.186001 2.9489999 1.648
23.18 3.01 1.648
23.193001 3.075 1.65
23.169001 3.1340001 1.649
23.156 3.1960001 1.648
23.131001 3.256 1.647
23.143999 3.3210001 1.649
23.211 3.395 1.654
23.264 3.467 1.658
23.108999 3.5090001 1.648
23.086 3.5699999 1.647
23.099001 3.638 1.648
23.075001 3.6989999 1.647
23.080999 3.766 1.648
23.073 3.8310001 1.649
23.066999 3.8959999 1.649
23.082001 3.9660001 1.651
23.073999 4.0310001 1.651
23.098 4.1030002 1.653
23.077 4.1669998 1.652
23.096001 4.2379999 1.655
23.171 4.3210001 1.661
23.305 4.6950002 1.675
23.238001 4.7519999 1.671
23.209 4.816 1.669
23.339001 4.915 1.6799999
7.204 3.3570001 0.55299997
6.941 3.26 0.53399998
6.8400002 3.237 0.52600002
6.7610002 3.224 0.52100003
6.7160001 3.227 0.51800001
6.6820002 3.2349999 0.51599997
6.6589999 3.2490001 0.51499999
6.651 3.2690001 0.51499999
6.6589999 3.2969999 0.51599997
6.6680002 3.326 0.51700002
6.6950002 3.3640001 0.51999998
6.7220001 3.402 0.523
6.7519999 3.4419999 0.52600002
6.79 3.4860001 0.52899998
6.9460001 3.592 0.542
14.19 -6.5409999 1.14
14.168 -6.4899998 1.138
14.14 -6.4349999 1.136
14.161 -6.4029999 1.137
14.261 -6.4060001 1.145
14.287 -6.375 1.147
14.329 -6.3509998 1.15
14.365 -6.3249998 1.153
14.455 -6.322 1.16
14.43 -6.2690001 1.158
14.41 -6.217 1.156
14.501 -6.171 1.163
14.447 -6.105 1.158
14.459 -6.0679998 1.159
14.489 -6.0380001 1.161
14.489 -5.9949999 1.161
14.537 -5.9720001 1.165
14.575 -5.9450002 1.1670001
14.557 -5.8940001 1.166
14.633 -5.882 1.1720001
14.622 -5.8340001 1.17
14.651 -5.803 1.173
14.718 -5.7859998 1.178
14.741 -5.7509999 1.179
14.704 -5.6939998 1.176
14.817 -5.6939998 1.1849999
14.79 -5.6399999 1.183
14.828 -5.5669999 1.1849999
14.866 -5.5370002 1.188
6.7870002 -2.2880001 0.54100001
6.6830001 -2.234 0.53200001
6.6599998 -2.207 0.53100002
6.625 -2.1760001 0.528
6.5780001 -2.141 0.52399999
6.5300002 -2.1059999 0.51999998
6.5149999 -2.082 0.51899999
6.5120001 -2.062 0.51800001
6.5110002 -2.0420001 0.51800001
6.5050001 -2.0209999 0.51700002
6.4879999 -1.997 0.51599997
6.4819999 -1.976 0.51499999
6.4720001 -1.954 0.51499999
6.4699998 -1.9349999 0.514
6.4749999 -1.9170001 0.51499999
6.4679999 -1.896 0.514
6.474 -1.8789999 0.514
6.4699998 -1.859 0.514
6.48 -1.8430001 0.51499999
6.4790001 -1.824 0.514
6.4850001 -1.806 0.51499999
6.4720001 -1.784 0.514
6.4679999 -1.7640001 0.51300001
6.4549999 -1.742 0.51200002
6.4770002 -1.729 0.514
6.5089998 -1.7180001 0.51599997
6.4899998 -1.694 0.514
6.4910002 -1.676 0.514
6.5050001 -1.66 0.51499999
6.6300001 -1.673 0.52499998
13.211 0.32100001 0.96100003
13.197 0.336 0.95999998
13.189 0.352 0.95899999
13.17 0.36899999 0.95700002
13.121 0.384 0.95300001
13.128 0.40200001 0.95300001
13.204 0.42199999 0.95899999
13.165 0.45699999 0.95599997
13.104 0.47299999 0.95099998
13.274 0.498 0.963
13.121 0.51099998 0.95200002
13.108 0.52999997 0.95099998
13.108 0.55000001 0.94999999
13.107 0.56999999 0.94999999
13.118 0.59100002 0.95099998
13.138 0.61199999 0.95200002
13.17 0.63499999 0.95499998
13.111 0.653 0.94999999
13.098 0.67400002 0.949
13.113 0.69700003 0.94999999
13.072 0.71600002 0.94700003
13.043 0.73699999 0.94499999
13.051 0.75999999 0.94599998
13.041 0.78200001 0.94499999
13.048 0.80599999 0.94499999
13.038 0.829 0.94499999
13.022 0.85100001 0.94300002
12.99 0.87300003 0.94099998
12.977 0.89600003 0.94
12.961 0.92000002 0.93900001
12.935 0.94199997 0.93699998
12.909 0.96499997 0.935
12.906 0.99000001 0.935
12.89 1.0140001 0.93400002
12.888 1.04 0.93400002
12.9 1.066 0.935
12.907 1.0930001 0.93599999
12.929 1.122 0.93800002
12.946 1.15 0.93900001
12.954 1.177 0.94
23.118 2.102 1.677
13.008 1.21 0.94400001
23.114 2.1500001 1.677
13.039 1.24 0.94599998
23.104 2.198 1.677
12.991 1.2640001 0.94300002
23.077999 2.2449999 1.676
13.019 1.295 0.94499999
23.228001 2.3099999 1.687
13.037 1.325 0.94700003
13.057 1.3559999 0.94800001
13.131 1.393 0.954
13.192 1.429 0.95899999
23.194 2.5120001 1.686
13.229 1.4630001 0.96200001
23.013 2.5450001 1.673
22.981001 2.5940001 1.671
23.000999 2.6489999 1.673
13.165 1.546 0.958
22.996 2.7019999 1.674
13.087 1.568 0.95300001
23.024 2.7590001 1.676
13.002 1.5880001 0.94700003
23.01 2.8110001 1.676
13.03 1.623 0.949
23.030001 2.868 1.678
13.112 1.664 0.95499998
23.011 2.921 1.677
23.013 2.977 1.678
23.014999 3.033 1.678
23.009001 3.089 1.679
23.018 3.1470001 1.6799999
23.01 3.2030001 1.6799999
23.007 3.26 1.681
23.044001 3.3239999 1.684
23.082001 3.388 1.688
23.024 3.438 1.684
23.02 3.497 1.6849999
23.017 3.556 1.6849999
23.018 3.6170001 1.686
23.017 3.677 1.687
23.028999 3.74 1.688
23.021 3.8 1.689
23.021 3.862 1.6900001
23.028 3.925 1.691
23.017 3.9860001 1.691
23.030001 4.0510001 1.693
23.034 4.1149998 1.694
23.042999 4.1799998 1.696
23.049 4.2459998 1.698
23.124001 4.3239999 1.704
23.354 4.6329999 1.725
23.316999 4.6929998 1.724
23.368999 4.7719998 1.729
23.329 4.8319998 1.727
23.378 4.9099998 1.732
7.085 3.2809999 0.56599998
6.8979998 3.223 0.55199999
6.8049998 3.2079999 0.54500002
6.7410002 3.2049999 0.54100001
6.6810002 3.204 0.537
6.6570001 3.22 0.53600001
6.652 3.2460001 0.53600001
6.6459999 3.27 0.537
6.6859999 3.3180001 0.54100001
6.7129998 3.3599999 0.54400003
6.7350001 3.3989999 0.546
6.7729998 3.447 0.55000001
6.8850002 3.533 0.56
12.613 -8.2770004 1.063
12.684 -8.2440004 1.069
12.732 -8.1969995 1.072
12.815 -8.1719999 1.0779999
12.851 -8.1169996 1.08
12.911 -8.0769997 1.084
12.969 -8.0360003 1.0880001
13.023 -7.993 1.092
13.06 -7.9390001 1.094
13.131 -7.9060001 1.099
13.174 -7.8559999 1.102
13.233 -7.816 1.1059999
13.346 -7.8080001 1.114
13.402 -7.7649999 1.118
13.609 -7.3699999 1.1289999
13.627 -7.3080001 1.13
13.726 -7.29 1.138
13.738 -7.2259998 1.138
13.805 -7.191 1.143
13.801 -7.119 1.142
13.917 -7.1090002 1.15
13.905 -7.0339999 1.149
14.291 -6.4819999 1.173
14.217 -6.3839998 1.166
14.233 -6.3270001 1.1670001
14.314 -6.2989998 1.173
14.38 -6.2639999 1.178
14.519 -6.2600002 1.188
14.534 -6.204 1.189
14.576 -6.158 1.192
14.537 -6.079 1.188
14.551 -6.0229998 1.189
14.567 -5.9679999 1.189
14.596 -5.9180002 1.191
14.656 -5.881 1.1950001
14.641 -5.8140001 1.194
14.758 -5.8000002 1.202
14.784 -5.7490001 1.204
14.788 -5.6900001 1.204
14.857 -5.6570001 1.209
14.905 -5.6149998 1.212
14.964 -5.5780001 1.217
15.031 -5.5440001 1.221
6.711 -2.2190001 0.54299998
6.6810002 -2.1849999 0.54000002
6.6090002 -2.1370001 0.53399998
6.539 -2.0910001 0.528
6.5120001 -2.059 0.52600002
6.5079999 -2.0339999 0.52499998
6.493 -2.007 0.52399999
6.4920001 -1.983 0.52399999
6.474 -1.955 0.52200001
6.4629998 -1.9299999 0.52100003
6.4489999 -1.903 0.51999998
6.4590001 -1.8839999 0.51999998
6.4759998 -1.8660001 0.52200001
6.474 -1.844 0.52100003
6.4790001 -1.824 0.52200001
6.4780002 -1.802 0.52100003
6.4530001 -1.773 0.51899999
6.4689999 -1.756 0.51999998
6.5009999 -1.744 0.523
6.5 -1.722 0.52200001
6.4910002 -1.699 0.52100003
6.5159998 -1.684 0.523
6.6669998 -1.702 0.53500003
12.897 0.19599999 0.97600001
12.916 0.219 0.977
12.92 0.242 0.977
12.936 0.266 0.97799999
12.956 0.28999999 0.98000002
12.963 0.31400001 0.98000002
12.976 0.338 0.98100001
12.985 0.36300001 0.98100001
12.975 0.38800001 0.98100001
13.008 0.414 0.98299998
13.003 0.43900001 0.98199999
13.021 0.465 0.98400003
13.02 0.491 0.98299998
13.043 0.51800001 0.98500001
13.038 0.54500002 0.98500001
13.053 0.57200003 0.986
13.037 0.59799999 0.98400003
13.023 0.625 0.98299998
13.036 0.653 0.98400003
13.045 0.68199998 0.98500001
13.013 0.708 0.98199999
13.015 0.736 0.98299998
13.006 0.764 0.98199999
13.01 0.79299998 0.98199999
13.01 0.82200003 0.98199999
12.992 0.85000002 0.98100001
12.979 0.87900001 0.98000002
12.95 0.90700001 0.97799999
12.933 0.935 0.977
12.905 0.963 0.97500002
12.882 0.991 0.97299999
12.864 1.02 0.972
12.847 1.049 0.97100002
12.854 1.081 0.97100002
12.86 1.112 0.972
12.884 1.146 0.97399998
12.913 1.1799999 0.97600001
12.939 1.214 0.97799999
23.076 2.165 1.745
12.934 1.245 0.97799999
23.069 2.2219999 1.745
13.061 1.29 0.98799998
23.073999 2.28 1.745
12.959 1.313 0.98000002
23.048 2.335 1.744
13.012 1.351 0.98400003
13 1.383 0.98400003
13.057 1.4220001 0.98799998
13.118 1.462 0.99299997
23.219 2.589 1.758
13.168 1.502 0.99699998
22.966 2.6199999 1.739
13.236 1.544 1.003
22.934 2.6760001 1.737
13.213 1.576 1.001
22.945999 2.7379999 1.739
13.067 1.5930001 0.99000001
22.958 2.8 1.74
12.989 1.618 0.98500001
22.971001 2.862 1.742
12.949 1.648 0.98199999
22.989 2.9260001 1.744
13.049 1.6950001 0.99000001
22.985001 2.987 1.744
22.978001 3.0480001 1.744
22.962999 3.108 1.743
22.972 3.1719999 1.745
22.972 3.2349999 1.745
22.973 3.2980001 1.7460001
22.988001 3.3640001 1.748
23.037001 3.4349999 1.752
22.992001 3.493 1.749
22.974001 3.5550001 1.749
22.978001 3.6199999 1.75
23.002001 3.6889999 1.752
22.996 3.7539999 1.752
22.983999 3.8169999 1.752
22.997 3.8859999 1.7539999
23.006001 3.954 1.755
23.003 4.02 1.756
23.016001 4.0900002 1.758
23.030001 4.1599998 1.76
23.030001 4.2270002 1.761
23.048 4.2989998 1.763
23.309 4.4169998 1.784
23.396999 4.7140002 1.794
23.365 4.7789998 1.793
23.330999 4.8429999 1.791
19.808001 4.664 1.529
19.549999 4.665 1.51
19.43 4.698 1.502
19.493999 4.776 1.508
6.9369998 3.2579999 0.56999999
6.816 3.2260001 0.56099999
6.7480001 3.2179999 0.55599999
6.6989999 3.22 0.55199999
6.6630001 3.2260001 0.55000001
6.6430001 3.2409999 0.54900002
6.6199999 3.2539999 0.54799998
6.6209998 3.279 0.54799998
6.6550002 3.3199999 0.55199999
6.6799998 3.3570001 0.55500001
6.6900001 3.3859999 0.55599999
6.71 3.421 0.55900002
6.7649999 3.474 0.56400001
6.9400001 3.589 0.579
14.584 -6.9000001 1.239
14.611 -6.8699999 1.2410001
14.684 -6.8600001 1.247
14.589 -6.7729998 1.238
12.234 -5.5349998 1.038
12.229 -5.4959998 1.0369999
14.718 -6.5710001 1.248
14.717 -6.5279999 1.248
14.813 -6.3509998 1.255
14.812 -6.3070002 1.2539999
14.907 -6.303 1.262
14.879 -6.2480001 1.26
14.939 -6.2280002 1.265
6.823 -2.3010001 0.574
6.7080002 -2.243 0.56400001
6.6859999 -2.2160001 0.56300002
6.6659999 -2.1900001 0.56099999
6.586 -2.1440001 0.55400002
6.5549998 -2.115 0.551
6.5320001 -2.0880001 0.54900002
6.5089998 -2.062 0.54699999
6.4949999 -2.0380001 0.546
6.4850001 -2.016 0.54500002
6.4790001 -1.995 0.54400003
6.4629998 -1.971 0.54299998
6.4650002 -1.9529999 0.54299998
6.461 -1.933 0.542
6.4580002 -1.913 0.542
6.4569998 -1.8940001 0.542
6.4619999 -1.876 0.542
6.461 -1.857 0.542
6.473 -1.841 0.54299998
6.474 -1.823 0.54299998
6.4679999 -1.802 0.542
6.4460001 -1.777 0.54000002
6.4549999 -1.761 0.54100001
6.4699998 -1.7460001 0.542
6.5009999 -1.735 0.54400003
6.5339999 -1.725 0.54699999
6.5040002 -1.698 0.54400003
6.4840002 -1.674 0.54299998
6.513 -1.663 0.54500002
6.6149998 -1.669 0.55299997
13.06 0.21699999 1.0140001
13.127 0.23199999 1.018
13.079 0.259 1.0140001
13.249 0.27700001 1.027
13.086 0.289 1.0140001
13.113 0.30500001 1.015
13.103 0.31999999 1.0140001
13.133 0.33700001 1.016
13.098 0.352 1.013
13.078 0.368 1.012
13.165 0.405 1.018
13.098 0.41999999 1.012
13.16 0.44 1.017
13.121 0.45699999 1.0140001
13.108 0.47499999 1.013
13.191 0.49700001 1.0190001
13.115 0.51300001 1.013
13.08 0.53100002 1.01
13.121 0.55199999 1.013
13.096 0.57099998 1.011
13.104 0.59200001 1.011
13.081 0.611 1.0089999
13.08 0.63200003 1.0089999
13.103 0.65499997 1.011
13.091 0.67500001 1.01
13.107 0.69800001 1.011
13.095 0.71899998 1.01
13.046 0.73900002 1.006
13.017 0.75999999 1.0039999
13.037 0.78399998 1.006
13.026 0.80599999 1.005
13.018 0.829 1.0039999
12.988 0.85100001 1.002
12.98 0.87400001 1.001
12.942 0.89499998 0.99800003
12.913 0.91799998 0.99599999
12.875 0.93900001 0.99299997
12.843 0.96200001 0.991
12.798 0.98299998 0.98799998
12.799 1.008 0.98799998
12.782 1.0319999 0.98699999
12.798 1.059 0.98799998
12.802 1.086 0.98799998
12.816 1.113 0.99000001
12.847 1.142 0.99199998
12.938 1.177 0.99900001
22.990999 2.092 1.777
12.909 1.202 0.99699998
22.98 2.1400001 1.776
12.975 1.2359999 1.003
23.047001 2.1949999 1.7819999
13.013 1.267 1.006
23.194 2.2590001 1.793
13.008 1.295 1.006
13.035 1.326 1.008
13.077 1.359 1.012
13.124 1.393 1.015
13.133 1.423 1.017
23.08 2.5020001 1.7869999
22.951 2.54 1.777
22.924 2.589 1.776
22.917999 2.641 1.776
13.141 1.545 1.018
22.903999 2.6930001 1.775
13.053 1.5650001 1.012
22.933001 2.75 1.778
13.021 1.592 1.01
22.934999 2.8039999 1.779
13.049 1.626 1.012
22.944 2.8599999 1.78
13.256 1.684 1.029
22.945999 2.915 1.781
22.940001 2.9690001 1.781
22.962 3.0280001 1.784
22.948 3.082 1.783
22.945999 3.1389999 1.784
22.955999 3.197 1.785
22.958 3.2550001 1.786
22.971001 3.3150001 1.788
23.032 3.382 1.794
22.974001 3.4319999 1.79
22.976999 3.4920001 1.791
22.976999 3.5510001 1.7920001
22.997 3.615 1.794
22.98 3.6719999 1.794
23.011999 3.7379999 1.7970001
22.996 3.7969999 1.7970001
22.993999 3.858 1.798
22.99 3.9200001 1.799
23.002001 3.984 1.801
23.004999 4.0479999 1.802
23.01 4.112 1.803
23.011999 4.1760001 1.8049999
23.017 4.2410002 1.806
23.042 4.3099999 1.809
23.181999 4.402 1.821
19.827999 4.6430001 1.575
19.65 4.6620002 1.562
19.454 4.6760001 1.5470001
19.358999 4.7129998 1.541
19.391001 4.7820001 1.545
7.1729999 3.322 0.61199999
6.9070001 3.227 0.58999997
6.7979999 3.2049999 0.58099997
6.7249999 3.198 0.57599998
6.6789999 3.2030001 0.57300001
6.6539998 3.2190001 0.57200003
6.6259999 3.233 0.56999999
6.6329999 3.2639999 0.57099998
6.6479998 3.3 0.574
6.691 3.349 0.57800001
6.698 3.381 0.57999998
6.7410002 3.431 0.58399999
6.849 3.5150001 0.59399998
13.241 -8.6879997 1.178
13.31 -8.6499996 1.183
13.396 -8.6230001 1.1900001
13.431 -8.5629997 1.192
13.489 -8.5190001 1.196
13.553 -8.4779997 1.2
13.601 -8.427 1.204
13.638 -8.3690004 1.206
13.68 -8.3149996 1.209
13.741 -8.2720003 1.2130001
13.766 -8.2080002 1.214
13.826 -8.165 1.219
13.952 -8.1610003 1.229
14.038 -7.901 1.233
14.032 -7.822 1.2309999
14.114 -7.7919998 1.238
14.147 -7.7350001 1.24
14.231 -7.7059999 1.2460001
14.287 -7.6609998 1.25
14.233 -7.559 1.244
14.352 -7.5479999 1.2539999
14.362 -7.48 1.2539999
14.38 -7.4169998 1.255
14.319 -7.3140001 1.249
14.38 -7.2729998 1.253
14.397 -7.21 1.2539999
14.5 -7.191 1.262
14.47 -7.1059999 1.2589999
14.475 -7.0380001 1.258
14.513 -6.9879999 1.261
12.003 -5.7220001 1.0420001
12.018 -5.6729999 1.043
14.663 -6.8530002 1.272
14.683 -6.7940001 1.273
14.609 -6.6919999 1.265
14.649 -6.6440001 1.268
14.723 -6.6100001 1.274
14.727 -6.546 1.274
14.732 -6.4819999 1.273
14.845 -6.4660001 1.2819999
14.839 -6.3979998 1.281
14.92 -6.368 1.2869999
14.972 -6.3249998 1.291
14.997 -6.2709999 1.293
14.994 -6.2059999 1.2920001
6.7210002 -2.223 0.57300001
6.6739998 -2.1830001 0.56900001
6.6459999 -2.1489999 0.56699997
6.5650001 -2.099 0.55900002
6.5180001 -2.0610001 0.55500001
6.4899998 -2.029 0.55299997
6.4970002 -2.0079999 0.55299997
6.473 -1.977 0.551
6.4689999 -1.954 0.55000001
6.4640002 -1.9299999 0.55000001
6.447 -1.902 0.54799998
6.4460001 -1.88 0.54799998
6.4629998 -1.863 0.54900002
6.4720001 -1.8430001 0.55000001
6.473 -1.822 0.55000001
6.4450002 -1.793 0.54699999
6.4530001 -1.773 0.54699999
6.4840002 -1.76 0.55000001
6.5339999 -1.753 0.55400002
6.5120001 -1.725 0.55199999
6.4879999 -1.698 0.55000001
6.5079999 -1.682 0.551
6.632 -1.693 0.56199998
12.895 0.198 1.0369999
12.893 0.22 1.036
12.92 0.244 1.038
12.925 0.26699999 1.038
12.931 0.29100001 1.039
12.958 0.315 1.041
12.993 0.34099999 1.043
12.983 0.36500001 1.0420001
13.004 0.38999999 1.044
13.011 0.41600001 1.044
12.999 0.44100001 1.043
13.025 0.46700001 1.045
13.014 0.493 1.044
12.986 0.51800001 1.0420001
13.006 0.54500002 1.043
13.024 0.57200003 1.045
13.016 0.59899998 1.044
13.046 0.62800002 1.046
13.05 0.65600002 1.0470001
13.045 0.68300003 1.046
13.043 0.71100003 1.046
13.019 0.73799998 1.044
13.025 0.76700002 1.045
13.014 0.79500002 1.044
13.016 0.824 1.044
12.981 0.85100001 1.041
12.961 0.87900001 1.04
12.91 0.90499997 1.036
12.875 0.93199998 1.033
12.843 0.95999998 1.03
12.786 0.98500001 1.026
12.759 1.013 1.024
12.76 1.044 1.024
12.781 1.076 1.026
12.799 1.108 1.027
12.827 1.142 1.03
12.857 1.176 1.0319999
12.973 1.2180001 1.0420001
23.160999 2.175 1.8609999
12.928 1.2460001 1.039
23.083 2.2249999 1.855
13.063 1.291 1.05
12.99 1.317 1.044
13.073 1.358 1.051
13.082 1.392 1.052
13.115 1.429 1.0549999
13.132 1.465 1.056
23.072001 2.5739999 1.8559999
22.92 2.6170001 1.845
22.888 2.6730001 1.842
22.884001 2.7320001 1.8430001
13.107 1.599 1.056
22.902 2.7939999 1.845
13.082 1.631 1.054
22.917999 2.8570001 1.846
13.099 1.668 1.0549999
22.913 2.918 1.847
22.917999 2.98 1.848
22.913 3.0409999 1.848
22.916 3.1029999 1.849
22.931 3.168 1.851
22.927999 3.23 1.851
22.931 3.2939999 1.852
22.947001 3.359 1.854
22.979 3.428 1.857
22.962999 3.49 1.857
22.941999 3.5510001 1.8559999
22.950001 3.6170001 1.857
22.987 3.688 1.8609999
22.969999 3.7509999 1.86
22.975 3.8169999 1.862
22.976 3.8840001 1.862
22.979 3.951 1.864
22.98 4.0180001 1.865
22.98 4.085 1.865
23.000999 4.1560001 1.868
23 4.223 1.869
23.000999 4.2909999 1.87
23.058001 4.3699999 1.876
23.289 4.4840002 1.895
19.746 4.651 1.62
19.524 4.6599998 1.603
19.402 4.6919999 1.594
19.452999 4.7659998 1.6
7.0079999 3.2909999 0.61299998
6.8410001 3.2379999 0.59899998
6.7639999 3.2260001 0.59299999
6.711 3.2260001 0.58899999
6.671 3.2309999 0.58600003
6.6490002 3.244 0.58499998
6.6279998 3.2579999 0.58399999
6.6240001 3.2809999 0.58399999
6.6389999 3.312 0.58600003
6.677 3.3559999 0.58999997
6.677 3.3800001 0.59100002
6.7059999 3.4189999 0.59399998
6.7540002 3.4690001 0.59899998
6.9530001 3.596 0.61799997
10.937 7.1900001 1.025
10.902 7.204 1.023
6.882 -2.322 0.61000001
6.6890001 -2.2379999 0.59299999
6.671 -2.2119999 0.59100002
6.658 -2.188 0.58999997
6.6209998 -2.1559999 0.58600003
6.5819998 -2.1240001 0.583
6.5380001 -2.0910001 0.579
6.5159998 -2.0650001 0.57700002
6.4980001 -2.04 0.57499999
6.4780002 -2.0150001 0.57300001
6.4650002 -1.992 0.57200003
6.4660001 -1.973 0.57200003
6.447 -1.948 0.56999999
6.4549999 -1.932 0.57099998
6.4559999 -1.913 0.57099998
6.441 -1.89 0.56900001
6.4510002 -1.874 0.56999999
6.4590001 -1.857 0.56999999
6.4580002 -1.8380001 0.56999999
6.454 -1.818 0.56999999
6.4510002 -1.798 0.56900001
6.4559999 -1.781 0.56999999
6.4749999 -1.767 0.57099998
6.4860001 -1.751 0.57200003
6.5250001 -1.742 0.57499999
6.5580001 -1.732 0.57800001
6.5219998 -1.7029999 0.57499999
6.4920001 -1.677 0.57200003
6.4970002 -1.659 0.57200003
6.5479999 -1.653 0.57700002
6.7210002 -1.677 0.59200001
13.112 -0.34900001 1.133
13.056 -0.31 1.128
13.047 -0.27200001 1.127
13.082 -0.235 1.13
12.969 0.177 1.117
12.917 0.213 1.112
12.998 0.252 1.118
13 0.145 1.073
13.117 0.15800001 1.082
13.158 0.17 1.085
13.089 0.19400001 1.0779999
13.035 0.206 1.073
13.085 0.22 1.077
13.074 0.233 1.076
13.065 0.26100001 1.074
13.026 0.27500001 1.0700001
13.063 0.29100001 1.073
13.093 0.30700001 1.075
13.052 0.32100001 1.072
13.056 0.33700001 1.072
13.044 0.35299999 1.0700001
13.008 0.368 1.067
12.98 0.384 1.0650001
13.013 0.40200001 1.067
13.079 0.42199999 1.072
13.125 0.59500003 1.074
13.082 0.61299998 1.071
13.094 0.63499999 1.072
13.141 0.65799999 1.075
13.133 0.67900002 1.075
13.09 0.699 1.071
13.09 0.72100002 1.071
13.077 0.74199998 1.0700001
13.048 0.76300001 1.068
13.037 0.78500003 1.067
13.031 0.80800003 1.066
13.005 0.82999998 1.064
12.991 0.852 1.063
12.955 0.87400001 1.0599999
12.921 0.89499998 1.057
12.89 0.917 1.0549999
12.864 0.94 1.053
12.815 0.96100003 1.049
12.78 0.98299998 1.046
12.788 1.0089999 1.0470001
12.791 1.034 1.0470001
12.801 1.061 1.048
12.811 1.0880001 1.049
12.827 1.115 1.051
12.879 1.146 1.0549999
12.919 1.177 1.059
23.041 2.099 1.8890001
12.957 1.207 1.062
23.066 2.1500001 1.891
13.033 1.242 1.069
13.005 1.267 1.067
13.056 1.301 1.071
13.029 1.326 1.069
13.06 1.358 1.072
13.089 1.39 1.075
13.145 1.426 1.08
22.962999 2.4909999 1.886
13.265 1.469 1.09
22.882 2.5339999 1.88
22.888 2.5869999 1.881
13.106 1.511 1.077
22.879 2.638 1.881
13.201 1.553 1.086
22.889999 2.6930001 1.883
22.892 2.747 1.883
22.91 2.803 1.886
22.912001 2.8570001 1.886
22.92 2.9130001 1.888
22.906 2.967 1.887
22.917999 3.0239999 1.8890001
22.927999 3.0810001 1.891
22.914 3.1359999 1.89
22.924 3.194 1.892
22.937 3.253 1.8940001
22.941 3.312 1.895
22.986 3.3770001 1.9
22.941999 3.4289999 1.897
22.954 3.49 1.899
22.951 3.549 1.9
22.959999 3.6099999 1.901
22.979 3.674 1.904
22.966 3.7320001 1.904
22.966 3.7939999 1.905
22.973 3.8559999 1.9069999
22.969999 3.918 1.9069999
22.974001 3.9809999 1.909
22.974001 4.0440001 1.91
22.975 4.1069999 1.911
22.98 4.171 1.913
22.98 4.2360001 1.914
22.997 4.303 1.9170001
23.009001 4.3699999 1.919
23.07 4.447 1.925
6.9840002 3.2639999 0.634
6.8249998 3.2179999 0.62
6.7470002 3.2090001 0.61400002
6.6869998 3.2079999 0.60900003
6.6529999 3.2190001 0.60699999
6.6459999 3.243 0.60699999
6.631 3.263 0.60699999
6.632 3.2920001 0.60799998
6.6690001 3.3380001 0.61199999
6.6939998 3.3789999 0.616
6.7329998 3.427 0.62
6.8400002 3.5109999 0.63099998
11.109 6.941 1.069
10.907 6.8649998 1.051
10.909 6.9180002 1.053
27.792 19.764 2.7650001
27.617001 19.775999 2.753
27.441 19.785999 2.7409999
13.961 -8.8149996 1.302
14.016 -8.7659998 1.306
14.042 -8.6990004 1.308
14.052 -8.6219997 1.307
14.114 -8.5780001 1.312
14.178 -8.5349998 1.317
14.222 -8.4790001 1.3200001
14.306 -8.448 1.327
14.422 -8.4350004 1.336
14.469 -8.382 1.34
14.57 -8.1210003 1.345
14.591 -8.0550003 1.346
6.7259998 -2.224 0.60399997
6.6750002 -2.1830001 0.59899998
6.6529999 -2.151 0.597
6.586 -2.1059999 0.58999997
6.5279999 -2.0639999 0.58499998
6.4949999 -2.03 0.58200002
6.4720001 -2 0.579
6.4530001 -1.972 0.57800001
6.4530001 -1.949 0.57700002
6.4510002 -1.926 0.57700002
6.4450002 -1.902 0.57599998
6.4510002 -1.881 0.57700002
6.4569998 -1.8609999 0.57700002
6.4569998 -1.839 0.57700002
6.454 -1.817 0.57599998
6.454 -1.795 0.57599998
6.4720001 -1.778 0.57800001
6.5120001 -1.768 0.58099997
6.5650001 -1.761 0.58499998
6.5159998 -1.726 0.58099997
6.493 -1.699 0.579
6.5089998 -1.683 0.57999998
6.6129999 -1.688 0.58899999
12.977 -0.35299999 1.1440001
12.929 -0.33000001 1.14
12.879 -0.308 1.135
12.812 -0.285 1.1289999
12.778 -0.26300001 1.127
12.77 -0.243 1.126
12.753 -0.222 1.125
12.761 -0.20200001 1.125
12.763 -0.18099999 1.126
12.783 -0.162 1.127
12.814 -0.142 1.13
12.886 -0.123 1.137
13.108 -0.105 1.156
13.024 0.067000002 1.15
13.071 0.085000001 1.154
12.867 0.199 1.095
12.864 0.222 1.094
12.891 0.245 1.096
12.892 0.26800001 1.096
12.872 0.29100001 1.094
12.9 0.31600001 1.096
12.912 0.34 1.097
12.961 0.366 1.101
13.007 0.39199999 1.105
13.072 0.419 1.11
13.128 0.447 1.115
13.122 0.472 1.114
13.124 0.498 1.114
13.059 0.52200001 1.109
13.031 0.54799998 1.1059999
13.034 0.57499999 1.107
13.033 0.60100001 1.1059999
13.037 0.62900001 1.107
13.063 0.65799999 1.109
13.061 0.685 1.109
13.054 0.713 1.108
13.06 0.74199998 1.109
13.029 0.76899999 1.1059999
13.015 0.79699999 1.105
13.011 0.82499999 1.105
12.971 0.852 1.101
12.942 0.87900001 1.099
12.924 0.90700001 1.098
12.886 0.93400002 1.094
12.859 0.96200001 1.092
12.825 0.99000001 1.089
12.781 1.016 1.086
12.779 1.046 1.086
12.787 1.0779999 1.087
12.812 1.1109999 1.089
12.839 1.1440001 1.091
12.886 1.1799999 1.096
12.941 1.216 1.1
12.98 1.252 1.104
13.027 1.289 1.108
13.028 1.322 1.109
13.045 1.3559999 1.11
13.045 1.39 1.1109999
13.068 1.425 1.113
13.12 1.465 1.117
22.973 2.5650001 1.957
13.181 1.506 1.123
22.865 2.612 1.948
13.204 1.543 1.125
22.862 2.671 1.949
13.032 1.557 1.1109999
22.867001 2.7320001 1.95
13.161 1.607 1.122
22.882999 2.7939999 1.952
13.18 1.6440001 1.124
22.867001 2.8529999 1.951
22.868999 2.914 1.952
22.884001 2.977 1.954
22.879999 3.0380001 1.954
22.881001 3.0999999 1.955
22.896 3.164 1.957
22.895 3.227 1.957
22.905001 3.2909999 1.959
22.908001 3.355 1.96
22.959999 3.427 1.965
22.93 3.4860001 1.9630001
22.917999 3.549 1.9630001
22.924999 3.615 1.965
22.948 3.6830001 1.967
22.958 3.75 1.969
22.941999 3.813 1.969
22.958 3.882 1.971
22.959 3.9489999 1.972
22.954 4.0139999 1.973
22.959999 4.0819998 1.974
22.965 4.151 1.975
22.971001 4.2189999 1.977
22.992001 4.2909999 1.98
22.981001 4.3569999 1.98
23.014 4.4320002 1.984
23.079 4.5139999 1.9910001
23.239 4.6149998 2.0050001
7.118 3.3440001 0.66000003
6.8699999 3.2520001 0.63800001
6.7789998 3.234 0.63
6.7160001 3.2279999 0.625
6.671 3.2309999 0.62199998
6.6459999 3.243 0.62
6.6339998 3.2620001 0.62
6.632 3.2850001 0.62
6.6240001 3.3050001 0.62
6.6389999 3.3369999 0.62199998
6.665 3.3740001 0.62599999
6.697 3.415 0.62900001
6.7849998 3.4849999 0.639
11.289 6.7849998 1.098
11.196 6.7690001 1.09
11.211 6.8189998 1.0930001
11.183 6.842 1.092
11.225 6.9070001 1.098
10.852 7.1350002 1.08
10.802 7.1399999 1.076
10.847 7.2069998 1.082
6.756 -2.2609999 0.62900001
6.6799998 -2.2160001 0.62199998
6.658 -2.1889999 0.62
6.6550002 -2.168 0.61900002
6.6300001 -2.141 0.61699998
6.5819998 -2.1059999 0.61199999
6.5300002 -2.0699999 0.60699999
6.4980001 -2.0409999 0.60399997
6.4759998 -2.0150001 0.602
6.4520001 -1.988 0.60000002
6.4580002 -1.971 0.60000002
6.4499998 -1.95 0.59899998
6.4419999 -1.928 0.59799999
6.447 -1.911 0.59899998
6.4460001 -1.892 0.59799999
6.4489999 -1.874 0.59799999
6.4559999 -1.857 0.59899998
6.467 -1.841 0.60000002
6.46 -1.8200001 0.59899998
6.4559999 -1.8 0.59899998
6.4679999 -1.784 0.60000002
6.4640002 -1.7640001 0.59899998
6.4780002 -1.749 0.60000002
6.5300002 -1.744 0.60500002
6.5560002 -1.732 0.60699999
6.5539999 -1.712 0.60699999
6.5050001 -1.6799999 0.602
6.494 -1.658 0.60100001
6.5170002 -1.645 0.60299999
6.5929999 -1.645 0.61000001
12.99 -0.456 1.1799999
12.898 -0.41600001 1.171
12.796 -0.375 1.1619999
12.735 -0.33700001 1.156
12.716 -0.30000001 1.154
12.704 -0.26300001 1.152
12.71 -0.226 1.153
12.717 -0.19 1.153
12.748 -0.154 1.155
12.805 -0.117 1.16
12.977 -0.082000002 1.175
13.082 0.148 1.141
13.097 0.16 1.142
13.049 0.171 1.137
13.097 0.184 1.141
13.129 0.197 1.143
13.063 0.20900001 1.137
13.062 0.222 1.136
13.062 0.236 1.136
13.105 0.25 1.1390001
13.068 0.264 1.136
13.044 0.278 1.133
13.068 0.29300001 1.135
13.065 0.308 1.1339999
13.017 0.322 1.13
12.977 0.33700001 1.126
12.94 0.352 1.122
12.889 0.36700001 1.118
12.853 0.382 1.114
12.857 0.39899999 1.114
12.866 0.417 1.115
12.914 0.43599999 1.119
13.003 0.45699999 1.126
13.237 0.52200001 1.146
13.216 0.54000002 1.1440001
13.135 0.55699998 1.137
13.136 0.57700002 1.137
13.105 0.59600002 1.1339999
13.084 0.61500001 1.132
13.034 0.63300002 1.128
13.048 0.65499997 1.1289999
13.072 0.67799997 1.131
13.104 0.70099998 1.1339999
13.109 0.72299999 1.1339999
13.107 0.74599999 1.1339999
13.084 0.76700002 1.132
13.063 0.78799999 1.13
13.025 0.80900002 1.127
13.018 0.83200002 1.126
12.962 0.852 1.122
12.947 0.875 1.12
12.926 0.89700001 1.119
12.904 0.92000002 1.117
12.905 0.94400001 1.117
12.887 0.96799999 1.1160001
12.892 0.99299997 1.1160001
12.893 1.018 1.1160001
12.905 1.045 1.118
12.908 1.071 1.118
12.914 1.098 1.119
12.935 1.126 1.1210001
12.942 1.153 1.1210001
12.964 1.182 1.124
13.021 1.215 1.1289999
13.009 1.2410001 1.128
12.989 1.267 1.127
13.036 1.3 1.131
13.064 1.331 1.1339999
13.066 1.36 1.1339999
13.088 1.391 1.136
22.986 2.444 1.9960001
13.15 1.427 1.142
22.868999 2.483 1.987
13.187 1.461 1.146
22.846001 2.5320001 1.985
13.206 1.493 1.148
22.856001 2.585 1.987
13.116 1.513 1.14
22.874001 2.6400001 1.989
13.073 1.539 1.137
22.861 2.691 1.988
13.12 1.575 1.141
22.864 2.7449999 1.989
13.279 1.625 1.156
22.864 2.799 1.99
22.865999 2.8529999 1.9910001
22.881001 2.9100001 1.993
22.870001 2.964 1.993
22.889999 3.0220001 1.9960001
22.879999 3.0769999 1.9960001
22.875 3.132 1.9960001
22.893999 3.1919999 1.998
22.899 3.25 2
22.893 3.3069999 2
22.934999 3.3710001 2.0050001
22.945 3.431 2.007
22.914 3.4849999 2.0050001
22.924 3.546 2.007
22.924 3.6059999 2.0079999
22.945999 3.6700001 2.0109999
22.945999 3.7309999 2.0120001
22.945 3.7909999 2.013
22.941 3.852 2.0139999
22.937 3.9130001 2.0150001
22.948999 3.9779999 2.017
22.962 4.0430002 2.0190001
22.966 4.1069999 2.0209999
22.969 4.171 2.0220001
22.958 4.2329998 2.023
22.955999 4.2969999 2.0239999
22.973 4.3649998 2.027
22.969999 4.4289999 2.0280001
22.983999 4.4970002 2.03
23.014999 4.5689998 2.0350001
23.017 4.6360002 2.036
23.045 4.7090001 2.04
23.049999 4.777 2.0420001
23.065001 4.848 2.0450001
23.069 4.9169998 2.0469999
23.187 5.0110002 2.059
7.0310001 3.286 0.676
6.8319998 3.221 0.65700001
6.7509999 3.211 0.65100002
6.6900001 3.21 0.64600003
6.6609998 3.223 0.64399999
6.6389999 3.24 0.64300001
6.6409998 3.2690001 0.64399999
6.6350002 3.2939999 0.64399999
6.6589999 3.3340001 0.648
6.6929998 3.3789999 0.65200001
6.777 3.45 0.66100001
11.338 6.3629999 1.128
11.245 6.3610001 1.12
11.206 6.3889999 1.118
11.186 6.428 1.118
11.163 6.4650002 1.118
11.198 6.5359998 1.123
28.302999 19.577 2.961
28.226999 19.660999 2.9590001
28.004 19.643 2.941
27.945999 19.74 2.9400001
27.768999 19.752001 2.928
27.570999 19.747 2.9119999
27.393 19.756001 2.8989999
6.7989998 -2.2479999 0.63999999
6.6830001 -2.1849999 0.62900001
6.6729999 -2.158 0.62800002
6.6290002 -2.1199999 0.62400001
6.5419998 -2.0680001 0.61500001
6.4829998 -2.026 0.60900003
6.4640002 -1.998 0.60699999
6.4559999 -1.972 0.60600001
6.4499998 -1.948 0.60600001
6.4510002 -1.926 0.60500002
6.4369998 -1.899 0.60399997
6.4489999 -1.881 0.60500002
6.4580002 -1.8609999 0.60500002
6.4520001 -1.8380001 0.60500002
6.4660001 -1.8200001 0.60600001
6.4710002 -1.8 0.60600001
6.4840002 -1.7819999 0.60699999
6.5310001 -1.773 0.611
6.5640001 -1.761 0.61400002
6.5339999 -1.7309999 0.611
6.4759998 -1.6950001 0.60600001
6.5029998 -1.681 0.60799998
6.573 -1.678 0.61400002
12.996 -0.375 1.202
12.888 -0.34999999 1.192
12.833 -0.32699999 1.187
12.757 -0.30399999 1.1799999
12.722 -0.28299999 1.176
12.702 -0.26100001 1.175
12.696 -0.241 1.174
12.688 -0.22 1.174
12.688 -0.2 1.174
12.698 -0.18000001 1.175
12.7 -0.16 1.175
12.715 -0.14 1.176
12.757 -0.121 1.1799999
12.853 -0.102 1.189
13.04 -0.083999999 1.207
12.859 0.20100001 1.154
12.873 0.22400001 1.155
12.857 0.24600001 1.154
12.831 0.26899999 1.151
12.815 0.292 1.149
12.812 0.315 1.149
12.829 0.34 1.15
12.85 0.36500001 1.152
12.926 0.391 1.159
13.042 0.41999999 1.169
13.12 0.44800001 1.176
13.119 0.47400001 1.176
13.103 0.49900001 1.174
13.075 0.52499998 1.1720001
13.051 0.55000001 1.169
13.037 0.57599998 1.168
13.029 0.60299999 1.1670001
12.995 0.62800002 1.164
13.031 0.65799999 1.1670001
13.029 0.685 1.1670001
13.069 0.71600002 1.171
13.077 0.74400002 1.1720001
13.066 0.77200001 1.171
13.053 0.80000001 1.17
13.021 0.82700002 1.1670001
13.013 0.85600001 1.166
12.957 0.88200003 1.161
12.928 0.90899998 1.159
12.907 0.93699998 1.1569999
12.905 0.96700001 1.1569999
12.887 0.99599999 1.155
12.895 1.027 1.156
12.908 1.058 1.158
12.918 1.09 1.159
12.924 1.1210001 1.159
12.941 1.154 1.161
12.944 1.186 1.1619999
12.975 1.221 1.165
13.005 1.256 1.168
13.004 1.288 1.168
12.995 1.3200001 1.1670001
13.061 1.359 1.173
13.056 1.392 1.173
13.091 1.429 1.177
22.971001 2.5079999 2.0650001
13.109 1.465 1.179
22.856001 2.5539999 2.0550001
13.244 1.5140001 1.191
22.823 2.609 2.053
13.222 1.546 1.1900001
22.839001 2.671 2.0550001
13.16 1.573 1.184
22.827 2.7290001 2.0550001
13.143 1.6059999 1.183
22.846001 2.7909999 2.0569999
22.843 2.8510001 2.0569999
22.839001 2.9119999 2.0580001
22.833 2.9719999 2.0580001
22.847 3.0350001 2.0599999
22.849001 3.098 2.0610001
22.857 3.161 2.062
22.877001 3.2260001 2.0650001
22.872 3.2880001 2.0650001
22.868999 3.3510001 2.066
22.891001 3.418 2.0680001
22.917 3.4860001 2.072
22.896999 3.5469999 2.0710001
22.908001 3.6129999 2.073
22.915001 3.6800001 2.0739999
22.914 3.7449999 2.075
22.927 3.812 2.0769999
22.93 3.8789999 2.0780001
22.937 3.9460001 2.0799999
22.938 4.013 2.0810001
22.952 4.0819998 2.0840001
22.961 4.151 2.085
22.955 4.2179999 2.086
22.958 4.2859998 2.0869999
22.973 4.3569999 2.0899999
22.974001 4.4260001 2.0910001
22.973 4.494 2.092
22.987 4.566 2.095
22.99 4.6360002 2.096
23.01 4.71 2.099
23.004 4.7779999 2.0999999
23.016001 4.8509998 2.102
23.059999 4.9310002 2.108
23.274 5.0489998 2.1289999
6.915 3.2739999 0.67900002
6.7950001 3.2420001 0.66799998
6.73 3.2349999 0.662
6.684 3.2379999 0.65799999
6.6669998 3.2539999 0.65700001
6.638 3.2639999 0.65499997
6.631 3.2850001 0.65600002
6.6240001 3.306 0.65600002
6.6409998 3.339 0.65799999
6.671 3.378 0.662
6.7360001 3.4360001 0.66900003
6.908 3.5480001 0.68699998
11.275 6.6560001 1.154
11.105 6.5960002 1.1390001
11.039 6.5960002 1.133
11.003 6.6139998 1.131
10.981 6.6399999 1.131
10.968 6.6719999 1.131
10.972 6.7129998 1.133
10.962 6.7470002 1.133
10.98 6.7969999 1.137
11.098 6.9089999 1.151
6.7319999 -2.234 0.65700001
6.6700001 -2.194 0.65100002
6.6560001 -2.1689999 0.64899999
6.6560001 -2.1500001 0.64899999
6.6209998 -2.119 0.64499998
6.5580001 -2.079 0.639
6.5149999 -2.0469999 0.63499999
6.4860001 -2.0190001 0.63200003
6.4860001 -1.999 0.63200003
6.4689999 -1.975 0.63
6.46 -1.9529999 0.62900001
6.467 -1.937 0.62900001
6.4580002 -1.915 0.62800002
6.4530001 -1.8940001 0.62800002
6.4679999 -1.88 0.62900001
6.473 -1.862 0.62900001
6.4780002 -1.845 0.63
6.4829998 -1.827 0.63
6.4889998 -1.8099999 0.63099998
6.48 -1.788 0.63
6.4759998 -1.768 0.62900001
6.4970002 -1.755 0.63099998
6.5279999 -1.744 0.634
6.5510001 -1.7309999 0.63599998
6.572 -1.717 0.63800001
6.5079999 -1.681 0.63099998
6.4889998 -1.658 0.62900001
6.5100002 -1.6440001 0.63099998
6.5500002 -1.635 0.63499999
6.6989999 -1.652 0.64899999
12.945 -0.45300001 1.232
12.842 -0.412 1.222
12.741 -0.37200001 1.212
12.712 -0.33500001 1.209
12.687 -0.29699999 1.206
12.696 -0.26100001 1.206
12.703 -0.22400001 1.207
12.73 -0.18799999 1.209
12.749 -0.152 1.21
12.833 -0.116 1.2180001
13.082 -0.079999998 1.2410001
13.404 0.67500001 1.223
13.34 0.69300002 1.217
13.237 0.824 1.207
13.183 0.84399998 1.202
13.148 0.866 1.199
13.119 0.88800001 1.197
13.041 0.90700001 1.1900001
13.005 0.92799997 1.187
13.001 0.95300001 1.186
12.979 0.97600001 1.184
12.98 1.001 1.1849999
12.999 1.028 1.187
13.055 1.058 1.192
13.096 1.0880001 1.196
13.115 1.1160001 1.198
13.118 1.143 1.198
13.11 1.169 1.198
13.11 1.197 1.198
13.181 1.2309999 1.205
13.185 1.2589999 1.205
13.271 1.296 1.214
13.222 1.348 1.21
22.936001 2.339 2.099
13.313 1.387 1.2180001
22.886 2.385 2.095
22.839001 2.4300001 2.0910001
22.813 2.4790001 2.0899999
22.819 2.5309999 2.0910001
22.816999 2.5829999 2.0910001
22.839001 2.638 2.0940001
22.846001 2.691 2.095
22.848 2.7449999 2.096
22.851999 2.799 2.098
22.871 2.8559999 2.0999999
22.857 2.908 2.0999999
22.865999 2.9649999 2.1010001
22.865999 3.02 2.102
22.858999 3.075 2.102
22.857 3.131 2.1029999
22.875 3.191 2.1059999
22.882999 3.2490001 2.108
22.900999 3.309 2.1099999
22.927999 3.3710001 2.1140001
22.931999 3.431 2.115
22.907 3.4860001 2.1140001
22.908001 3.5450001 2.115
22.917 3.6059999 2.1170001
22.924 3.668 2.119
22.924 3.7279999 2.1199999
22.934 3.7909999 2.122
22.931 3.852 2.1229999
22.923 3.9130001 2.1240001
22.952 3.98 2.128
22.961 4.0440001 2.1300001
22.945 4.1040001 2.1300001
22.958 4.1700001 2.132
22.969 4.2360001 2.1340001
22.964001 4.2989998 2.135
22.969 4.3649998 2.1370001
22.976999 4.4320002 2.1400001
22.971001 4.4959998 2.1400001
22.983 4.5640001 2.1429999
22.996 4.6329999 2.1459999
22.997 4.6999998 2.1470001
23.007999 4.77 2.1500001
23.017 4.8390002 2.152
23.039 4.9120002 2.1559999
23.045 4.9809999 2.158
23.103001 5.0630002 2.165
23.174999 5.1479998 2.174
31.184999 13.326 3.1199999
31.131001 13.426 3.119
31.128 13.548 3.1229999
31.223 13.713 3.1359999
6.8940001 3.2509999 0.69999999
6.7750001 3.223 0.68900001
6.711 3.22 0.68400002
6.665 3.2249999 0.68000001
6.6490002 3.2460001 0.67900002
6.6370001 3.2679999 0.67900002
6.638 3.296 0.68000001
6.651 3.3299999 0.68300003
6.6950002 3.3800001 0.68800002
6.7919998 3.4590001 0.699
11.388 6.342 1.194
11.241 6.3099999 1.181
11.186 6.329 1.177
11.177 6.3740001 1.178
11.181 6.4260001 1.1799999
11.183 6.4770002 1.183
11.266 6.5760002 1.193
29.134001 19.312 3.1830001
29.040001 19.389 3.1789999
28.330999 19.6 3.131
28.209999 19.653999 3.1229999
28.009001 19.652 3.1070001
27.93 19.733 3.1040001
27.775 19.761 3.0929999
27.6 19.773001 3.0799999
27.438999 19.794001 3.0680001
6.7129998 -2.1949999 0.662
6.6680002 -2.1559999 0.65700001
6.6529999 -2.1270001 0.65499997
6.586 -2.082 0.648
6.5320001 -2.0420001 0.64300001
6.4959998 -2.0079999 0.639
6.4899998 -1.983 0.63800001
6.4889998 -1.96 0.63800001
6.4710002 -1.932 0.63599998
6.467 -1.908 0.63499999
6.4759998 -1.8890001 0.63599998
6.4990001 -1.873 0.63800001
6.5050001 -1.853 0.63800001
6.5050001 -1.831 0.63800001
6.4899998 -1.8049999 0.63599998
6.4889998 -1.783 0.63599998
6.5209999 -1.771 0.639
6.5609999 -1.76 0.64300001
6.5370002 -1.732 0.63999999
6.4809999 -1.696 0.63499999
6.493 -1.678 0.63599998
6.54 -1.67 0.63999999
6.7220001 -1.6950001 0.65799999
22.372999 -3.138 2.171
22.306999 -3.0739999 2.164
22.391001 -3.0309999 2.1719999
22.389 -2.977 2.1719999
22.441 -2.9300001 2.177
13.051 -0.354 1.263
12.936 -0.329 1.252
12.839 -0.30599999 1.243
12.79 -0.28299999 1.238
12.76 -0.26199999 1.235
12.751 -0.241 1.234
12.761 -0.221 1.235
12.776 -0.20100001 1.237
12.812 -0.18099999 1.24
12.854 -0.161 1.245
12.89 -0.142 1.248
12.998 -0.123 1.2589999
13.198 -0.104 1.278
12.909 0.204 1.219
12.955 0.227 1.224
12.954 0.25 1.223
12.975 0.27399999 1.225
12.969 0.29699999 1.224
12.996 0.322 1.227
13.079 0.34799999 1.234
13.117 0.37400001 1.238
13.265 0.90399998 1.251
13.143 0.926 1.24
13.102 0.95300001 1.2359999
13.08 0.98100001 1.234
13.063 1.011 1.233
13.113 1.045 1.238
13.296 1.091 1.255
22.976 2.336 2.1730001
22.858 2.381 2.1619999
22.823 2.4360001 2.1589999
22.804001 2.4920001 2.158
22.798 2.55 2.158
22.809999 2.6099999 2.1600001
22.813999 2.6700001 2.161
22.811001 2.7290001 2.161
22.830999 2.7909999 2.164
22.844 2.8529999 2.1659999
22.84 2.914 2.1659999
22.85 2.9760001 2.168
22.836 3.036 2.1670001
22.849001 3.099 2.1689999
22.855 3.1619999 2.171
22.867001 3.2260001 2.1730001
22.870001 3.29 2.174
22.867001 3.3529999 2.175
22.943001 3.427 2.1830001
22.913 3.487 2.181
22.893 3.5480001 2.1800001
22.896999 3.6129999 2.181
22.896 3.678 2.1819999
22.912001 3.7460001 2.1849999
22.926001 3.8139999 2.187
22.929001 3.8800001 2.188
22.934999 3.948 2.1900001
22.941999 4.0149999 2.1919999
22.940001 4.0819998 2.1930001
22.955 4.152 2.1949999
22.959999 4.2199998 2.197
22.974001 4.2909999 2.1989999
22.969999 4.3579998 2.2
22.973 4.427 2.2019999
