# .PCD v0.7 - Point Cloud Data file format
VERSION 0.7
FIELDS x y z
SIZE 4 4 4
TYPE F F F
COUNT 1 1 1
WIDTH 1658
HEIGHT 1
VIEWPOINT 0 0 0 1 0 0 0
POINTS 1658
DATA ascii
7.947 0.58200002 -0.528
7.9310002 0.597 -0.528
7.9330001 0.61400002 -0.528
7.9289999 0.63 -0.528
7.9120002 0.64499998 -0.52700001
7.928 0.66299999 -0.52899998
7.9120002 0.67900002 -0.528
7.9439998 0.699 -0.52999997
7.9369998 0.71499997 -0.52999997
7.947 0.73400003 -0.53100002
7.9450002 0.75099999 -0.53200001
7.9590001 0.76999998 -0.53299999
7.9530001 0.787 -0.53299999
7.954 0.80500001 -0.53299999
7.9530001 0.824 -0.53399998
7.9499998 0.84200001 -0.53399998
7.9489999 0.86000001 -0.53399998
7.9439998 0.87800002 -0.53399998
7.9450002 0.89700001 -0.53500003
7.961 0.91799998 -0.53600001
7.9549999 0.93599999 -0.53600001
7.9580002 0.95599997 -0.537
7.9689999 0.97600001 -0.53799999
7.954 0.99400002 -0.53799999
7.9660001 1.015 -0.53899997
7.9629998 1.035 -0.53899997
7.9679999 1.0549999 -0.54000002
7.9770002 1.077 -0.54100001
7.967 1.096 -0.54100001
7.9759998 1.117 -0.542
7.9889998 1.14 -0.54299998
7.9860001 1.16 -0.54400003
7.9860001 1.181 -0.54400003
8 1.204 -0.546
8 1.225 -0.546
8.0200005 1.25 -0.54799998
8.0240002 1.272 -0.54900002
8.0249996 1.294 -0.54900002
8.0380001 1.318 -0.551
8.0369997 1.34 -0.551
8.0500002 1.364 -0.55299997
8.0530005 1.387 -0.55400002
8.0749998 1.413 -0.55599999
8.0799999 1.436 -0.55699998
8.0799999 1.459 -0.55699998
8.0780001 1.482 -0.55800003
8.092 1.508 -0.55900002
8.0939999 1.531 -0.56
8.1120005 1.558 -0.56199998
8.1059999 1.58 -0.56199998
8.1099997 1.605 -0.56300002
8.1219997 1.631 -0.56400001
8.1350002 1.658 -0.56599998
8.1420002 1.683 -0.56699997
8.1409998 1.707 -0.56800002
8.1529999 1.734 -0.56900001
8.1739998 1.763 -0.57099998
8.1700001 1.7869999 -0.57200003
8.1820002 1.8150001 -0.57300001
8.1960001 1.8430001 -0.57499999
8.1920004 1.867 -0.57499999
8.2040005 1.895 -0.57700002
8.217 1.924 -0.579
8.2290001 1.9529999 -0.57999998
8.2329998 1.979 -0.58099997
8.2360001 2.006 -0.58200002
8.2399998 2.033 -0.583
8.2550001 2.063 -0.58499998
8.2639999 2.092 -0.58600003
8.2799997 2.1229999 -0.588
8.2910004 2.1530001 -0.58999997
8.3039999 2.1830001 -0.59100002
8.309 2.211 -0.59299999
8.316 2.2409999 -0.59399998
8.3210001 2.2690001 -0.59500003
8.323 2.2969999 -0.59600002
8.3369999 2.329 -0.59799999
8.3610001 2.3640001 -0.60000002
8.3529997 2.3900001 -0.60100001
8.3719997 2.4230001 -0.60299999
8.3900003 2.457 -0.60500002
8.375 2.4809999 -0.60500002
8.3920002 2.5150001 -0.60699999
8.4119997 2.55 -0.60900003
8.4069996 2.5769999 -0.61000001
8.427 2.6129999 -0.61199999
8.4259996 2.642 -0.61299998
8.4359999 2.674 -0.61500001
8.4420004 2.7060001 -0.616
8.4469995 2.737 -0.61699998
8.4499998 2.7679999 -0.61799997
8.4650002 2.803 -0.62
8.4750004 2.8369999 -0.62199998
8.4940004 2.8740001 -0.62400001
8.5179996 2.9130001 -0.62699997
8.526 2.9460001 -0.62900001
8.5360003 2.9809999 -0.63099998
8.552 3.017 -0.63300002
8.5159998 3.036 -0.63099998
8.4399996 3.04 -0.62599999
8.4180002 3.063 -0.62599999
8.3929996 3.085 -0.625
8.3620005 3.105 -0.62400001
8.3450003 3.1300001 -0.62300003
8.3290005 3.155 -0.62300003
8.2860003 3.1700001 -0.62099999
8.2869997 3.2019999 -0.62199998
8.3280001 3.2490001 -0.62599999
8.658 3.411 -0.65200001
8.691 3.457 -0.65600002
8.6990004 3.494 -0.65700001
8.7159996 3.5339999 -0.66000003
8.7320004 3.575 -0.662
8.7329998 3.609 -0.66299999
8.7399998 3.6459999 -0.66500002
8.2189999 3.461 -0.62699997
8.0410004 3.418 -0.61400002
7.9819999 3.424 -0.611
7.934 3.4349999 -0.60799998
7.9580002 3.477 -0.611
8.8570004 3.905 -0.68099999
8.8540001 3.9400001 -0.68199998
8.8830004 3.9879999 -0.68599999
8.9040003 4.0339999 -0.68800002
8.8900003 4.0640001 -0.68900001
8.8769999 4.0939999 -0.68900001
8.8979998 4.1399999 -0.69199997
8.9110003 4.1830001 -0.69400001
8.9090004 4.2179999 -0.69499999
8.9309998 4.2659998 -0.69800001
8.9519997 4.3130002 -0.70099998
8.9619999 4.355 -0.70300001
8.9610004 4.3920002 -0.704
8.9700003 4.434 -0.70700002
8.9650002 4.4689999 -0.70700002
8.9790001 4.5139999 -0.70999998
9.0059996 4.566 -0.713
9.0170002 4.6100001 -0.71600002
9.0249996 4.6529999 -0.71799999
9.0389996 4.698 -0.72000003
9.033 4.7340002 -0.72100002
9.0410004 4.777 -0.72299999
9.0450001 4.8189998 -0.72500002
9.0609999 4.8660002 -0.72799999
9.066 4.9089999 -0.72899997
9.0670004 4.9489999 -0.73100001
9.0889997 5.0009999 -0.73400003
9.1169996 5.0560002 -0.73799998
9.1440001 5.112 -0.74199998
9.1169996 5.1370001 -0.741
9.1129999 5.1750002 -0.74199998
9.1000004 5.2090001 -0.74299997
9.1059999 5.2529998 -0.745
9.0959997 5.2880001 -0.745
9.092 5.3260002 -0.74599999
9.0970001 5.3709998 -0.74800003
9.099 5.4130001 -0.75
9.1269999 5.4720001 -0.75400001
9.1280003 5.5139999 -0.75599998
9.1359997 5.5609999 -0.75800002
9.1350002 5.6020002 -0.759
9.1440001 5.6500001 -0.76200002
9.1549997 5.6989999 -0.764
9.1669998 5.7490001 -0.76700002
9.1459999 5.7779999 -0.76700002
9.1680002 5.835 -0.76999998
9.1560001 5.8699999 -0.77100003
9.158 5.915 -0.773
9.1730003 5.9679999 -0.77600002
9.1619997 6.0040002 -0.77600002
9.1610003 6.0469999 -0.778
9.1440001 6.0799999 -0.778
9.1490002 6.1259999 -0.77999997
9.151 6.1719999 -0.78200001
9.1379995 6.2069998 -0.78299999
9.1400003 6.2519999 -0.78500003
9.1359997 6.2940001 -0.78600001
9.1269999 6.3319998 -0.787
9.1210003 6.3720002 -0.78799999
9.1049995 6.4050002 -0.78899997
9.0939999 6.4419999 -0.79000002
9.073 6.4720001 -0.79000002
9.0450001 6.4959998 -0.78899997
9.0380001 6.5359998 -0.79000002
5.5999999 -3.7149999 -0.28200001
5.632 -3.7 -0.28299999
5.6529999 -3.678 -0.28400001
5.6669998 -3.652 -0.28400001
5.691 -3.632 -0.285
5.7210002 -3.6159999 -0.28600001
5.7340002 -3.5899999 -0.287
5.743 -3.5599999 -0.287
5.7600002 -3.5369999 -0.287
5.7859998 -3.5190001 -0.28799999
5.7880001 -3.4849999 -0.28799999
5.816 -3.4690001 -0.289
5.8249998 -3.4400001 -0.289
5.8340001 -3.4130001 -0.289
5.8600001 -3.395 -0.28999999
5.8730001 -3.369 -0.29100001
5.888 -3.345 -0.29100001
5.902 -3.3210001 -0.29100001
5.915 -3.296 -0.292
5.9310002 -3.2720001 -0.292
5.9429998 -3.247 -0.292
5.9559999 -3.223 -0.29300001
5.9679999 -3.198 -0.29300001
5.9879999 -3.177 -0.294
6.0019999 -3.1530001 -0.294
6.0240002 -3.1329999 -0.29499999
6.046 -3.1140001 -0.296
6.0799999 -3.1010001 -0.29699999
6.0799999 -3.0699999 -0.29699999
6.1079998 -3.0539999 -0.29800001
6.1199999 -3.03 -0.29800001
6.132 -3.0050001 -0.29800001
6.1440001 -2.9809999 -0.29899999
6.171 -2.9649999 -0.30000001
6.1859999 -2.9419999 -0.30000001
6.191 -2.915 -0.30000001
6.2160001 -2.8970001 -0.301
6.224 -2.872 -0.301
6.2290001 -2.846 -0.301
6.2480001 -2.826 -0.30199999
6.2810001 -2.812 -0.303
6.29 -2.7869999 -0.303
6.3130002 -2.7690001 -0.30399999
6.335 -2.75 -0.30500001
6.3530002 -2.73 -0.30599999
6.381 -2.7130001 -0.30700001
6.3930001 -2.691 -0.30700001
6.4159999 -2.6730001 -0.308
6.4180002 -2.6459999 -0.308
6.4419999 -2.628 -0.30899999
6.4569998 -2.6070001 -0.30899999
6.4749999 -2.5869999 -0.31
6.4840002 -2.563 -0.31
6.4980001 -2.5420001 -0.31
6.5359998 -2.53 -0.31200001
6.5609999 -2.5120001 -0.31299999
6.5609999 -2.4860001 -0.31299999
6.5780001 -2.4660001 -0.31299999
6.5900002 -2.4430001 -0.31400001
6.5929999 -2.418 -0.31299999
6.612 -2.3989999 -0.31400001
6.6430001 -2.3840001 -0.315
6.6570001 -2.3629999 -0.31600001
6.6609998 -2.339 -0.31600001
6.6680002 -2.316 -0.31600001
6.7010002 -2.302 -0.317
6.704 -2.277 -0.317
6.7189999 -2.257 -0.31799999
6.7410002 -2.2390001 -0.31900001
6.7540002 -2.2179999 -0.31900001
6.763 -2.1960001 -0.31900001
6.7750001 -2.175 -0.31900001
6.777 -2.151 -0.31900001
6.8000002 -2.1340001 -0.31999999
6.8169999 -2.115 -0.32100001
6.8249998 -2.0929999 -0.32100001
6.8520002 -2.0769999 -0.322
6.862 -2.0550001 -0.322
6.8779998 -2.036 -0.32300001
6.8850002 -2.0139999 -0.32300001
6.8899999 -1.992 -0.32300001
6.9109998 -1.974 -0.324
6.915 -1.952 -0.324
6.9510002 -1.938 -0.32499999
6.9629998 -1.918 -0.32600001
6.9660001 -1.896 -0.32600001
6.9819999 -1.877 -0.32600001
7 -1.859 -0.32699999
7.0139999 -1.839 -0.32699999
7.0339999 -1.822 -0.32800001
7.0450001 -1.802 -0.32800001
7.052 -1.781 -0.32800001
7.0679998 -1.762 -0.329
7.105 -1.749 -0.331
7.1100001 -1.728 -0.331
7.1389999 -1.712 -0.33199999
7.1529999 -1.693 -0.33199999
7.1799998 -1.678 -0.333
7.1919999 -1.658 -0.33399999
7.197 -1.637 -0.33399999
7.2220001 -1.6210001 -0.33500001
7.2259998 -1.6 -0.33500001
7.2360001 -1.581 -0.33500001
7.244 -1.561 -0.33500001
7.2740002 -1.546 -0.33700001
7.29 -1.528 -0.33700001
7.3039999 -1.51 -0.338
7.3080001 -1.489 -0.338
7.3130002 -1.469 -0.338
7.3390002 -1.4529999 -0.33899999
7.3559999 -1.436 -0.33899999
7.3800001 -1.419 -0.34
7.3839998 -1.399 -0.34
7.4109998 -1.3839999 -0.34099999
7.4200001 -1.365 -0.34200001
7.4180002 -1.344 -0.34099999
7.4549999 -1.33 -0.34299999
7.4689999 -1.312 -0.34299999
7.4790001 -1.294 -0.34400001
7.4879999 -1.275 -0.34400001
7.507 -1.258 -0.345
7.5300002 -1.242 -0.34599999
7.5300002 -1.222 -0.34599999
7.5419998 -1.205 -0.34599999
7.546 -1.186 -0.34599999
7.5700002 -1.17 -0.347
7.5869999 -1.153 -0.34799999
7.6160002 -1.138 -0.34900001
7.6220002 -1.119 -0.34900001
7.6389999 -1.103 -0.34999999
7.6399999 -1.084 -0.34900001
7.645 -1.0650001 -0.34999999
7.6570001 -1.048 -0.34999999
7.677 -1.0319999 -0.35100001
7.6859999 -1.0140001 -0.35100001
7.6939998 -0.99699998 -0.35100001
7.7129998 -0.98100001 -0.352
7.7280002 -0.96399999 -0.35299999
7.7309999 -0.94599998 -0.35299999
7.763 -0.93199998 -0.354
7.7610002 -0.91299999 -0.354
7.7670002 -0.89600003 -0.354
7.789 -0.88 -0.35499999
7.7849998 -0.86199999 -0.354
7.809 -0.847 -0.35499999
7.8330002 -0.83099997 -0.35600001
7.8330002 -0.81400001 -0.35600001
7.849 -0.79799998 -0.35699999
7.8509998 -0.77999997 -0.35699999
7.8670001 -0.76499999 -0.35800001
7.8909998 -0.75 -0.359
7.8829999 -0.73199999 -0.35800001
7.9120002 -0.71700001 -0.359
7.9369998 -0.70300001 -0.36000001
7.948 -0.68599999 -0.361
7.9520001 -0.67000002 -0.361
7.9619999 -0.65399998 -0.361
7.9790001 -0.639 -0.36199999
8.007 -0.62400001 -0.36300001
8.0170002 -0.60900003 -0.36300001
8.0819998 -0.597 -0.366
8.0819998 -0.57999998 -0.366
8.0389996 -0.56099999 -0.36399999
8.0710001 -0.54699999 -0.36500001
8.0889997 -0.53200001 -0.366
8.0790005 -0.51599997 -0.366
8.1029997 -0.50099999 -0.36700001
8.132 -0.48699999 -0.368
8.1350002 -0.47099999 -0.368
8.1569996 -0.45699999 -0.36899999
8.151 -0.44100001 -0.368
8.1859999 -0.428 -0.37
8.2040005 -0.41299999 -0.37099999
8.2290001 -0.39899999 -0.37200001
8.2200003 -0.38299999 -0.37099999
8.2720003 -0.37 -0.373
8.2819996 -0.35600001 -0.37400001
8.2819996 -0.34099999 -0.37400001
8.3260002 -0.32800001 -0.37599999
8.3500004 -0.31400001 -0.377
8.3649998 -0.29899999 -0.377
8.4429998 -0.287 -0.38100001
7.9450002 0.086999997 -0.50099999
7.9970002 0.102 -0.505
8.0019999 0.117 -0.505
7.9860001 0.132 -0.50400001
8.0159998 0.148 -0.50599998
7.993 0.163 -0.505
8.0089998 0.178 -0.50599998
7.9920001 0.19400001 -0.505
7.9790001 0.20900001 -0.505
7.987 0.22499999 -0.505
7.9990001 0.242 -0.50599998
7.993 0.25799999 -0.50599998
8.0129995 0.27500001 -0.50800002
8.007 0.292 -0.50700003
8.0050001 0.308 -0.50800002
7.9959998 0.32499999 -0.50700003
7.9959998 0.34200001 -0.50700003
7.9860001 0.359 -0.50700003
7.9910002 0.37599999 -0.50800002
7.987 0.39399999 -0.50800002
7.9990001 0.412 -0.509
8 0.43000001 -0.509
8.0139999 0.449 -0.50999999
8.0109997 0.46700001 -0.50999999
7.9970002 0.484 -0.50999999
8.0100002 0.50400001 -0.51099998
7.994 0.52100003 -0.50999999
8 0.54000002 -0.51099998
8.0139999 0.56 -0.51200002
8.0229998 0.57999998 -0.51300001
8.0279999 0.59899998 -0.51300001
8.0410004 0.62 -0.51499999
8.0559998 0.64099997 -0.51599997
8.0450001 0.65899998 -0.51499999
8.0430002 0.67900002 -0.51599997
8.026 0.69700003 -0.51499999
8.0459995 0.71899998 -0.51700002
8.0500002 0.74000001 -0.51700002
8.0559998 0.76099998 -0.51800001
8.0670004 0.78200001 -0.51899999
8.0489998 0.801 -0.51800001
8.0629997 0.82300001 -0.51899999
8.0629997 0.84399998 -0.51999998
8.0530005 0.86400002 -0.51999998
8.0710001 0.88700002 -0.52100003
8.0539999 0.90700001 -0.51999998
8.059 0.92900002 -0.52100003
8.0699997 0.95200002 -0.52200001
8.073 0.97399998 -0.523
8.0719995 0.995 -0.523
8.0740004 1.017 -0.52399999
8.0939999 1.0420001 -0.52600002
8.1040001 1.066 -0.52700001
8.1009998 1.0880001 -0.52700001
8.1059999 1.1109999 -0.528
8.0950003 1.132 -0.52700001
8.1049995 1.156 -0.52899998
8.1149998 1.1799999 -0.52999997
8.1059999 1.202 -0.52999997
8.1230001 1.227 -0.53100002
8.1160002 1.249 -0.53100002
8.1300001 1.275 -0.53299999
8.1289997 1.298 -0.53299999
8.1470003 1.325 -0.53500003
8.158 1.35 -0.53600001
8.1540003 1.373 -0.53600001
8.1619997 1.399 -0.537
8.1689997 1.424 -0.53799999
8.1619997 1.447 -0.53799999
8.1639996 1.472 -0.53899997
8.165 1.4960001 -0.54000002
8.1969995 1.526 -0.542
8.2060003 1.553 -0.54400003
8.2130003 1.579 -0.54500002
8.2209997 1.6059999 -0.546
8.2270002 1.632 -0.54699999
8.2259998 1.6569999 -0.54699999
8.2320004 1.683 -0.54799998
8.2340002 1.709 -0.54900002
8.257 1.739 -0.551
8.2519999 1.7640001 -0.551
8.2740002 1.794 -0.55299997
8.2709999 1.819 -0.55400002
8.2690001 1.845 -0.55400002
8.283 1.874 -0.55599999
8.2889996 1.902 -0.55699998
8.3059998 1.932 -0.55900002
8.3030005 1.9579999 -0.55900002
8.3210001 1.989 -0.56099999
8.3199997 2.0150001 -0.56199998
8.3319998 2.0450001 -0.56300002
8.3409996 2.0739999 -0.565
8.3459997 2.102 -0.56599998
8.368 2.135 -0.56800002
8.3800001 2.165 -0.56900001
8.3739996 2.191 -0.56999999
8.3789997 2.22 -0.57099998
8.3909998 2.25 -0.57200003
8.4049997 2.2820001 -0.574
8.3970003 2.3069999 -0.574
8.4200001 2.342 -0.57599998
8.4169998 2.369 -0.57700002
8.434 2.402 -0.579
8.46 2.437 -0.58099997
8.4580002 2.4649999 -0.58200002
8.4770002 2.4990001 -0.58399999
8.4840002 2.53 -0.58499998
8.4720001 2.5550001 -0.58499998
8.4790001 2.586 -0.58700001
8.474 2.6129999 -0.58700001
8.4989996 2.6500001 -0.58899999
8.4949999 2.677 -0.58999997
8.5 2.7079999 -0.59100002
8.4980001 2.7360001 -0.59200001
8.5279999 2.7750001 -0.59500003
8.5279999 2.8050001 -0.59600002
8.5430002 2.839 -0.597
8.5480003 2.8699999 -0.59899998
8.5579996 2.9030001 -0.60000002
8.5799999 2.941 -0.60299999
8.5970001 2.9760001 -0.60500002
8.6000004 3.007 -0.60600001
8.6370001 3.05 -0.60900003
8.5939999 3.0650001 -0.60699999
8.5139999 3.066 -0.602
8.4709997 3.0810001 -0.60000002
8.4250002 3.0940001 -0.59799999
8.3900003 3.1110001 -0.59600002
8.3599997 3.1289999 -0.59500003
8.342 3.152 -0.59500003
8.3219995 3.174 -0.59399998
8.3000002 3.1949999 -0.59299999
8.2740002 3.214 -0.59200001
8.3190002 3.2609999 -0.59600002
8.6739998 3.4319999 -0.62300003
8.7449999 3.4909999 -0.62900001
8.7720003 3.533 -0.63200003
8.7810001 3.5680001 -0.634
8.8000002 3.608 -0.63599998
8.809 3.6429999 -0.63800001
8.8389997 3.687 -0.64099997
8.8369999 3.7179999 -0.64200002
8.8520002 3.756 -0.64399999
8.0500002 3.4449999 -0.58600003
7.974 3.441 -0.58200002
7.947 3.4579999 -0.58099997
7.9310002 3.48 -0.57999998
8.0319996 3.5539999 -0.58899999
8.96 3.997 -0.65799999
8.9540005 4.027 -0.65799999
8.9689999 4.066 -0.66100001
8.9849997 4.1059999 -0.66299999
8.9980001 4.145 -0.66500002
9.0039997 4.1799998 -0.667
9.0019999 4.2119999 -0.667
9.0120001 4.25 -0.66900003
9.026 4.29 -0.67199999
9.0559998 4.3369999 -0.67500001
9.0629997 4.3730001 -0.676
9.0710001 4.4109998 -0.67799997
9.1049995 4.46 -0.68199998
9.1020002 4.4920001 -0.68300003
9.1099997 4.5300002 -0.685
9.1309996 4.573 -0.68699998
9.1289997 4.6059999 -0.68800002
9.1370001 4.6430001 -0.69
9.1689997 4.6929998 -0.69400001
9.1709995 4.7280002 -0.69499999
9.1829996 4.7680001 -0.69700003
9.1940002 4.8070002 -0.699
9.2060003 4.8470001 -0.70099998
9.2340002 4.8959999 -0.70499998
9.2419996 4.934 -0.70700002
9.2589998 4.9759998 -0.70899999
9.2580004 5.0100002 -0.70999998
9.2810001 5.0560002 -0.713
9.2980003 5.099 -0.71600002
9.3199997 5.1459999 -0.71899998
9.3660002 5.2049999 -0.72399998
9.3629999 5.237 -0.72500002
9.3640003 5.2719998 -0.72600001
9.3669996 5.3080001 -0.72799999
9.3800001 5.3499999 -0.73000002
9.4060001 5.3979998 -0.73299998
9.3940001 5.4260001 -0.73400003
9.4119997 5.4699998 -0.736
9.4320002 5.5159998 -0.73900002
9.4209995 5.5440001 -0.74000001
9.4659996 5.6040001 -0.745
9.4709997 5.6409998 -0.74599999
9.5 5.6919999 -0.75
9.5 5.7270002 -0.75099999
9.4980001 5.7589998 -0.75300002
9.5380001 5.8169999 -0.75700003
9.5480003 5.8579998 -0.759
9.5459995 5.8899999 -0.76099998
9.5629997 5.9349999 -0.76300001
9.5830002 5.9809999 -0.76599997
9.5930004 6.0209999 -0.76899999
9.6009998 6.0599999 -0.77100003
9.6059999 6.0970001 -0.77200001
9.5979996 6.125 -0.773
9.6160002 6.171 -0.77600002
9.6260004 6.211 -0.778
9.6260004 6.244 -0.77999997
9.6499996 6.2930002 -0.78299999
9.6520004 6.3270001 -0.78500003
9.6709995 6.3730001 -0.78799999
9.6700001 6.4060001 -0.78899997
9.6780005 6.4429998 -0.79100001
9.7150002 6.5019999 -0.796
9.7220001 6.539 -0.79799998
9.71 6.5630002 -0.79799998
9.7189999 6.6020002 -0.801
9.7340002 6.645 -0.80299997
9.7399998 6.6820002 -0.80500001
9.7329998 6.7090001 -0.80599999
9.7690001 6.7659998 -0.81099999
9.7939997 6.8150001 -0.81400001
9.8109999 6.8590002 -0.81699997
9.8009996 6.8839998 -0.81800002
5.9879999 -3.4920001 -0.28099999
5.9790001 -3.471 -0.28099999
5.994 -3.4630001 -0.28099999
6.0079999 -3.454 -0.28200001
6.0180001 -3.4430001 -0.28200001
6.0240002 -3.4289999 -0.28200001
6.0229998 -3.4119999 -0.28200001
6.0250001 -3.3970001 -0.28200001
6.0510001 -3.3940001 -0.28299999
6.0539999 -3.3789999 -0.28299999
6.0469999 -3.358 -0.28299999
6.0349998 -3.3340001 -0.28200001
6.0430002 -3.322 -0.28200001
6.0679998 -3.319 -0.28299999
6.0809999 -3.309 -0.28400001
6.0879998 -3.296 -0.28400001
6.0869999 -3.2780001 -0.28400001
6.1100001 -3.273 -0.285
6.1040001 -3.253 -0.28400001
6.132 -3.2509999 -0.28600001
6.131 -3.233 -0.285
6.138 -3.2190001 -0.28600001
6.158 -3.2119999 -0.28600001
6.165 -3.198 -0.287
6.1669998 -3.1819999 -0.287
6.1659999 -3.164 -0.28600001
6.178 -3.1530001 -0.287
6.1859999 -3.1389999 -0.287
6.2010002 -3.1289999 -0.28799999
6.2049999 -3.1140001 -0.28799999
6.2150002 -3.1010001 -0.28799999
6.2309999 -3.0910001 -0.289
6.2290001 -3.073 -0.28799999
6.2540002 -3.0680001 -0.289
6.256 -3.0510001 -0.289
6.2550001 -3.0320001 -0.289
6.2709999 -3.0220001 -0.28999999
6.2820001 -3.01 -0.28999999
6.296 -2.9979999 -0.29100001
6.2859998 -2.9760001 -0.28999999
6.2979999 -2.964 -0.29100001
6.3210001 -2.957 -0.29100001
6.3369999 -2.9460001 -0.292
6.3299999 -2.925 -0.292
6.3499999 -2.9159999 -0.292
6.3509998 -2.898 -0.292
6.3639998 -2.8859999 -0.29300001
6.3779998 -2.8740001 -0.29300001
6.3779998 -2.8559999 -0.29300001
6.4060001 -2.8499999 -0.294
6.4159999 -2.836 -0.29499999
6.4260001 -2.822 -0.29499999
6.4310002 -2.8069999 -0.29499999
6.4380002 -2.7909999 -0.29499999
6.454 -2.78 -0.296
6.4569998 -2.7620001 -0.296
6.461 -2.7460001 -0.296
6.4770002 -2.734 -0.296
6.4910002 -2.721 -0.29699999
6.5040002 -2.7079999 -0.29699999
6.5100002 -2.6919999 -0.29800001
6.5279999 -2.681 -0.29800001
6.5359998 -2.6659999 -0.29800001
6.5430002 -2.6500001 -0.29899999
6.5500002 -2.6340001 -0.29899999
6.5749998 -2.625 -0.30000001
6.5739999 -2.6059999 -0.30000001
6.5830002 -2.5899999 -0.30000001
6.6009998 -2.579 -0.301
6.6069999 -2.562 -0.301
6.6139998 -2.546 -0.301
6.6360002 -2.536 -0.30199999
6.6399999 -2.5179999 -0.30199999
6.6599998 -2.507 -0.303
6.6500001 -2.484 -0.30199999
6.6589999 -2.4679999 -0.30199999
6.6739998 -2.4549999 -0.303
6.671 -2.4349999 -0.30199999
6.697 -2.425 -0.30399999
6.6950002 -2.405 -0.303
6.717 -2.3940001 -0.30399999
6.7179999 -2.375 -0.30399999
6.7160001 -2.355 -0.30399999
6.7379999 -2.3440001 -0.30500001
6.7449999 -2.3269999 -0.30500001
6.7540002 -2.3099999 -0.30500001
6.7729998 -2.2980001 -0.30599999
6.7729998 -2.2780001 -0.30599999
6.79 -2.2650001 -0.30599999
6.79 -2.2449999 -0.30599999
6.79 -2.2260001 -0.30599999
6.8099999 -2.2130001 -0.30700001
6.816 -2.1949999 -0.30700001
6.8309999 -2.181 -0.30700001
6.8559999 -2.1689999 -0.308
6.8590002 -2.151 -0.308
6.8730001 -2.135 -0.30899999
6.8699999 -2.115 -0.308
6.8790002 -2.098 -0.30899999
6.8990002 -2.0840001 -0.30899999
6.9130001 -2.069 -0.31
6.9120002 -2.049 -0.31
6.9229999 -2.033 -0.31
6.9369998 -2.017 -0.31099999
6.947 -2 -0.31099999
6.954 -1.982 -0.31099999
6.9629998 -1.965 -0.31099999
6.993 -1.9529999 -0.31200001
6.987 -1.932 -0.31200001
7.0089998 -1.918 -0.31299999
7.0209999 -1.901 -0.31299999
7.0229998 -1.882 -0.31299999
7.0380001 -1.8660001 -0.31400001
7.0469999 -1.848 -0.31400001
7.052 -1.829 -0.31400001
7.0879998 -1.819 -0.315
7.0999999 -1.801 -0.31600001
7.1030002 -1.7819999 -0.31600001
7.1350002 -1.77 -0.317
7.1370001 -1.75 -0.317
7.1589999 -1.735 -0.31799999
7.1919999 -1.723 -0.31900001
7.204 -1.705 -0.31900001
7.223 -1.689 -0.31999999
7.244 -1.673 -0.32100001
7.2309999 -1.65 -0.31999999
7.2470002 -1.633 -0.32100001
7.276 -1.619 -0.322
7.2880001 -1.601 -0.322
7.3010001 -1.5829999 -0.32300001
7.3080001 -1.564 -0.32300001
7.3239999 -1.546 -0.32300001
7.3379998 -1.528 -0.324
7.3499999 -1.51 -0.324
7.3449998 -1.488 -0.324
7.3709998 -1.472 -0.32499999
7.388 -1.455 -0.32499999
7.3930001 -1.4349999 -0.32499999
7.4120002 -1.418 -0.32600001
7.4330001 -1.401 -0.32699999
7.4330001 -1.38 -0.32699999
7.4559999 -1.363 -0.32699999
7.4910002 -1.348 -0.329
7.506 -1.329 -0.329
7.5229998 -1.311 -0.33000001
7.5279999 -1.291 -0.33000001
7.553 -1.273 -0.331
7.5650001 -1.2539999 -0.331
7.5799999 -1.235 -0.33199999
7.6100001 -1.219 -0.333
7.6090002 -1.197 -0.333
7.6259999 -1.178 -0.333
7.638 -1.158 -0.33399999
7.6529999 -1.1390001 -0.33399999
7.671 -1.12 -0.33500001
7.6960001 -1.102 -0.336
7.6900001 -1.079 -0.33500001
7.717 -1.061 -0.336
7.73 -1.041 -0.33700001
7.7490001 -1.022 -0.33700001
7.7690001 -1.002 -0.338
7.7740002 -0.98100001 -0.338
7.802 -0.963 -0.33899999
7.8330002 -0.94400001 -0.34
7.8369999 -0.92299998 -0.34
7.8509998 -0.90200001 -0.34099999
7.869 -0.88200003 -0.34099999
7.8920002 -0.86199999 -0.34200001
7.901 -0.84100002 -0.34200001
7.9439998 -0.82300001 -0.34400001
7.9499998 -0.801 -0.34400001
7.9679999 -0.78100002 -0.34400001
8.0109997 -0.76200002 -0.34599999
8.0190001 -0.741 -0.34599999
8.0279999 -0.71899998 -0.347
8.0600004 -0.699 -0.34799999
8.1140003 -0.68099999 -0.34999999
8.1199999 -0.65799999 -0.34999999
8.1210003 -0.63599998 -0.34999999
8.1619997 -0.616 -0.35100001
8.1689997 -0.59299999 -0.352
8.2010002 -0.57200003 -0.35299999
8.2139997 -0.55000001 -0.35299999
8.2340002 -0.528 -0.354
8.2600002 -0.50700003 -0.35499999
8.2770004 -0.484 -0.35499999
8.3079996 -0.463 -0.35600001
8.3360004 -0.44100001 -0.35699999
8.3629999 -0.419 -0.35800001
8.3739996 -0.396 -0.359
8.4259996 -0.37400001 -0.361
8.4540005 -0.352 -0.36199999
8.4840002 -0.329 -0.36300001
8.5089998 -0.30599999 -0.36399999
8.5679998 -0.28400001 -0.366
8.2810001 0.186 -0.49900001
8.2959995 0.198 -0.5
8.2709999 0.20900001 -0.49900001
8.2410002 0.22 -0.49700001
8.2399998 0.23199999 -0.49700001
8.2410002 0.244 -0.49700001
8.2130003 0.255 -0.49599999
8.1890001 0.26699999 -0.495
8.1879997 0.27900001 -0.495
8.1969995 0.292 -0.495
8.1759996 0.30500001 -0.49399999
8.1829996 0.31799999 -0.495
8.1689997 0.331 -0.49399999
8.1680002 0.34400001 -0.49399999
8.1680002 0.35800001 -0.495
8.1789999 0.37200001 -0.495
8.1800003 0.38600001 -0.49599999
8.1809998 0.40000001 -0.49599999
8.1890001 0.41499999 -0.49700001
8.1780005 0.42899999 -0.49599999
8.1780005 0.44400001 -0.49700001
8.177 0.45899999 -0.49700001
8.177 0.47400001 -0.49700001
8.1750002 0.48899999 -0.49700001
8.1809998 0.505 -0.498
8.1879997 0.52100003 -0.498
8.1789999 0.53600001 -0.498
8.184 0.55199999 -0.49900001
8.1940002 0.56900001 -0.5
8.1809998 0.58399999 -0.49900001
8.1890001 0.60100001 -0.5
8.1929998 0.61799997 -0.5
8.198 0.63499999 -0.50099999
8.1990004 0.65200001 -0.50099999
8.21 0.67000002 -0.50199997
8.1999998 0.68699998 -0.50199997
8.2130003 0.70599997 -0.50300002
8.2180004 0.72399998 -0.50400001
8.2130003 0.741 -0.50400001
8.2150002 0.759 -0.50400001
8.2390003 0.77999997 -0.50599998
8.2250004 0.79699999 -0.50599998
8.2189999 0.81400001 -0.50599998
8.2349997 0.83499998 -0.50700003
8.2349997 0.85399997 -0.50700003
8.243 0.87300003 -0.50800002
8.243 0.89200002 -0.509
8.2519999 0.91299999 -0.50999999
8.2440004 0.93099999 -0.50999999
8.2489996 0.95200002 -0.50999999
8.2460003 0.97100002 -0.51099998
8.2519999 0.99199998 -0.51099998
8.2600002 1.013 -0.51200002
8.2709999 1.034 -0.51300001
8.2659998 1.054 -0.514
8.2720003 1.075 -0.514
8.2790003 1.097 -0.51499999
8.2650003 1.1160001 -0.51499999
8.2840004 1.14 -0.51700002
8.2849998 1.161 -0.51700002
8.2880001 1.183 -0.51800001
8.2989998 1.206 -0.51899999
8.3170004 1.23 -0.51999998
8.3109999 1.251 -0.52100003
8.3170004 1.274 -0.52200001
8.3199997 1.2970001 -0.52200001
8.3219995 1.319 -0.523
8.3360004 1.344 -0.52399999
8.3179998 1.364 -0.52399999
8.3260002 1.388 -0.52499998
8.3280001 1.411 -0.52499998
8.3380003 1.436 -0.52700001
8.3339996 1.4579999 -0.52700001
8.3579998 1.4859999 -0.52899998
8.3529997 1.5089999 -0.52899998
8.3599997 1.534 -0.52999997
8.3649998 1.558 -0.53100002
8.3640003 1.582 -0.53200001
8.3769999 1.609 -0.53299999
8.3839998 1.6339999 -0.53399998
8.3730001 1.6569999 -0.53399998
8.3889999 1.6849999 -0.53600001
8.382 1.7079999 -0.53600001
8.3950005 1.735 -0.537
8.401 1.762 -0.53799999
8.4099998 1.789 -0.54000002
8.4239998 1.817 -0.54100001
8.4259996 1.8430001 -0.542
8.4300003 1.869 -0.54299998
8.4399996 1.898 -0.54400003
8.4519997 1.926 -0.546
8.4490004 1.952 -0.546
8.4530001 1.979 -0.54699999
8.4469995 2.0039999 -0.54699999
8.4779997 2.0380001 -0.55000001
8.4680004 2.062 -0.55000001
8.4860001 2.0940001 -0.55199999
8.4969997 2.1229999 -0.55299997
8.4879999 2.148 -0.55400002
8.5240002 2.1849999 -0.55699998
8.5229998 2.2119999 -0.55699998
8.5170002 2.2390001 -0.55800003
8.5299997 2.27 -0.55900002
8.5469999 2.302 -0.56099999
8.5740004 2.3380001 -0.56400001
8.559 2.362 -0.56400001
8.5880003 2.3989999 -0.56599998
8.5959997 2.4289999 -0.56800002
8.6020002 2.46 -0.56900001
8.5970001 2.4879999 -0.56900001
8.6129999 2.5209999 -0.57099998
8.6129999 2.5510001 -0.57200003
8.6079998 2.579 -0.57300001
8.6199999 2.612 -0.574
8.6219997 2.642 -0.57499999
8.6140003 2.6700001 -0.57499999
8.6379995 2.707 -0.57800001
8.6370001 2.737 -0.579
8.6389999 2.7679999 -0.57999998
8.6700001 2.809 -0.583
8.6719999 2.8399999 -0.58399999
8.677 2.8729999 -0.58499998
8.691 2.908 -0.58700001
8.7159996 2.948 -0.58999997
8.7130003 2.9779999 -0.58999997
8.7360001 3.0179999 -0.59299999
8.7440004 3.052 -0.59399998
8.7580004 3.089 -0.59600002
8.7600002 3.122 -0.597
8.6560001 3.1170001 -0.59100002
8.5740004 3.119 -0.58600003
8.4639997 3.1099999 -0.57999998
8.4180002 3.1240001 -0.57800001
8.3830004 3.1429999 -0.57599998
8.349 3.1619999 -0.57499999
8.3140001 3.1789999 -0.57300001
8.3039999 3.207 -0.574
8.3459997 3.2550001 -0.57700002
8.8570004 3.4879999 -0.61400002
8.9040003 3.5409999 -0.61799997
8.8839998 3.5669999 -0.61799997
8.9169998 3.615 -0.62099999
8.9209995 3.651 -0.62300003
8.9469995 3.6960001 -0.625
8.9680004 3.74 -0.62800002
8.974 3.7780001 -0.63
8.2040005 3.4860001 -0.57700002
8.0159998 3.438 -0.56400001
7.9629998 3.447 -0.56199998
7.9759998 3.484 -0.56400001
8.0059996 3.529 -0.56699997
9.085 4.0409999 -0.64399999
9.0799999 4.0749998 -0.64499998
9.1040001 4.1230001 -0.648
9.1160002 4.165 -0.64999998
9.1289997 4.2080002 -0.65200001
9.1389999 4.25 -0.65399998
9.1549997 4.2950001 -0.65600002
9.1540003 4.3330002 -0.65799999
9.1859999 4.3850002 -0.66100001
9.1949997 4.428 -0.66299999
9.2060003 4.4720001 -0.66500002
9.2309999 4.5229998 -0.66799998
9.2329998 4.5619998 -0.67000002
9.2580004 4.6129999 -0.67299998
9.2580004 4.652 -0.67400002
9.2440004 4.6849999 -0.67400002
9.2720003 4.7379999 -0.67799997
9.2819996 4.783 -0.68000001
9.2930002 4.8280001 -0.68199998
9.2980003 4.8709998 -0.68300003
9.3199997 4.9229999 -0.68599999
9.3280001 4.967 -0.68800002
9.3439999 5.0170002 -0.69099998
9.3540001 5.0619998 -0.69300002
9.3660002 5.1100001 -0.69499999
9.3900003 5.164 -0.699
9.4069996 5.2150002 -0.70099998
9.4110003 5.2589998 -0.70300001
9.4370003 5.3150001 -0.70599997
9.4510002 5.3649998 -0.70899999
9.4589996 5.4120002 -0.71100003
9.4589996 5.454 -0.71200001
9.4659996 5.5009999 -0.71399999
9.4580002 5.539 -0.71499997
9.4729996 5.5910001 -0.71799999
9.4879999 5.6420002 -0.72000003
9.4820004 5.6820002 -0.722
9.5010004 5.737 -0.72500002
9.5089998 5.7849998 -0.727
9.5200005 5.836 -0.72899997
9.5240002 5.882 -0.73100001
9.5349998 5.9330001 -0.73299998
9.5410004 5.9809999 -0.73500001
9.5319996 6.02 -0.736
9.5279999 6.0619998 -0.73799998
9.5500002 6.1209998 -0.741
9.5649996 6.1750002 -0.74400002
9.5570002 6.2150002 -0.745
9.5570002 6.2600002 -0.74599999
9.5559998 6.3049998 -0.74800003
9.5469999 6.3449998 -0.74900001
9.5509996 6.3930001 -0.75099999
9.5439997 6.434 -0.75199997
9.5360003 6.4749999 -0.75300002
9.5200005 6.5100002 -0.75300002
9.526 6.5599999 -0.755
9.5270004 6.6069999 -0.75700003
9.5220003 6.6490002 -0.75800002
9.5 6.6799998 -0.75800002
9.5080004 6.7329998 -0.76099998
9.4879999 6.7649999 -0.76099998
9.4779997 6.8039999 -0.76200002
9.4309998 6.8179998 -0.75999999
5.7119999 -3.7869999 -0.25799999
5.7470002 -3.773 -0.25999999
5.7659998 -3.7490001 -0.25999999
5.7849998 -3.7260001 -0.26100001
5.7940001 -3.6960001 -0.26100001
5.8119998 -3.671 -0.26100001
5.8200002 -3.641 -0.26100001
5.8330002 -3.6140001 -0.26199999
5.8460002 -3.5880001 -0.26199999
5.875 -3.5710001 -0.26300001
5.9029999 -3.553 -0.264
5.9070001 -3.5209999 -0.264
5.9260001 -3.4979999 -0.264
5.9530001 -3.48 -0.26499999
5.9829998 -3.464 -0.266
6.0009999 -3.441 -0.26699999
6.0120001 -3.414 -0.26699999
6.0289998 -3.3900001 -0.26699999
6.0370002 -3.362 -0.26699999
6.0479999 -3.335 -0.26800001
6.0710001 -3.3150001 -0.26800001
6.086 -3.2909999 -0.26899999
6.105 -3.2690001 -0.26899999
6.1300001 -3.25 -0.27000001
6.1420002 -3.2249999 -0.27000001
6.1560001 -3.201 -0.271
6.1760001 -3.1789999 -0.271
6.1880002 -3.155 -0.27200001
6.2119999 -3.1359999 -0.27200001
6.2189999 -3.108 -0.27200001
6.2389998 -3.0869999 -0.273
6.2540002 -3.0639999 -0.273
6.2750001 -3.0439999 -0.27399999
6.2870002 -3.0190001 -0.27399999
6.303 -2.997 -0.27500001
6.323 -2.9760001 -0.27500001
6.3340001 -2.951 -0.27599999
6.3590002 -2.9330001 -0.27599999
6.3759999 -2.9119999 -0.27700001
6.3899999 -2.8889999 -0.27700001
6.4060001 -2.8659999 -0.278
6.4169998 -2.842 -0.278
6.4390001 -2.823 -0.27900001
6.4629998 -2.8039999 -0.27900001
6.4650002 -2.777 -0.27900001
6.4899998 -2.7590001 -0.28
6.5050001 -2.737 -0.28099999
6.5170002 -2.714 -0.28099999
6.5479999 -2.698 -0.28200001
6.5650001 -2.677 -0.28200001
6.5799999 -2.655 -0.28299999
6.5869999 -2.6300001 -0.28299999
6.6129999 -2.6129999 -0.28400001
6.6279998 -2.592 -0.28400001
6.6490002 -2.573 -0.285
6.6599998 -2.549 -0.285
6.6690001 -2.526 -0.285
6.6900001 -2.507 -0.28600001
6.7010002 -2.484 -0.28600001
6.724 -2.4660001 -0.287
6.7179999 -2.437 -0.287
6.7389998 -2.418 -0.287
6.7610002 -2.4000001 -0.28799999
6.777 -2.3789999 -0.28799999
6.7750001 -2.352 -0.28799999
6.7989998 -2.335 -0.289
6.8070002 -2.3110001 -0.289
6.816 -2.289 -0.289
6.829 -2.2679999 -0.28999999
6.842 -2.247 -0.28999999
6.8509998 -2.224 -0.28999999
6.8699999 -2.2049999 -0.29100001
6.8930001 -2.187 -0.29100001
6.914 -2.1689999 -0.292
6.9219999 -2.1470001 -0.292
6.928 -2.1240001 -0.292
6.941 -2.1029999 -0.29300001
6.9619999 -2.085 -0.29300001
6.974 -2.0639999 -0.294
6.973 -2.04 -0.294
6.994 -2.0220001 -0.294
7.0149999 -2.0039999 -0.29499999
7.027 -1.983 -0.29499999
7.0479999 -1.965 -0.296
7.053 -1.943 -0.296
7.0679998 -1.923 -0.296
7.0799999 -1.903 -0.29699999
7.1079998 -1.887 -0.29800001
7.1199999 -1.867 -0.29800001
7.151 -1.852 -0.29899999
7.178 -1.836 -0.30000001
7.177 -1.812 -0.30000001
7.191 -1.793 -0.30000001
7.217 -1.776 -0.301
7.2340002 -1.758 -0.30199999
7.2399998 -1.7359999 -0.30199999
7.2729998 -1.722 -0.303
7.2789998 -1.701 -0.303
7.2979999 -1.683 -0.30399999
7.3169999 -1.665 -0.30399999
7.329 -1.645 -0.30500001
7.3390002 -1.625 -0.30500001
7.3590002 -1.608 -0.30599999
7.3709998 -1.5880001 -0.30599999
7.3699999 -1.566 -0.30599999
7.4000001 -1.551 -0.30700001
7.4089999 -1.531 -0.30700001
7.4239998 -1.513 -0.308
7.4400001 -1.495 -0.308
7.4520001 -1.476 -0.308
7.4629998 -1.457 -0.30899999
7.467 -1.436 -0.30899999
7.4770002 -1.4170001 -0.30899999
7.5159998 -1.404 -0.31099999
7.54 -1.387 -0.31099999
7.5380001 -1.3660001 -0.31099999
7.5570002 -1.349 -0.31200001
7.5739999 -1.331 -0.31200001
7.5929999 -1.314 -0.31299999
7.5999999 -1.295 -0.31299999
7.6059999 -1.275 -0.31299999
7.6149998 -1.257 -0.31299999
7.6560001 -1.243 -0.315
7.6500001 -1.222 -0.315
7.6659999 -1.205 -0.315
7.671 -1.186 -0.315
7.6900001 -1.169 -0.31600001
7.704 -1.151 -0.31600001
7.7160001 -1.1339999 -0.317
7.737 -1.117 -0.317
7.7709999 -1.103 -0.31900001
7.7810001 -1.085 -0.31900001
7.7820001 -1.066 -0.31900001
7.7940001 -1.048 -0.31900001
7.7989998 -1.03 -0.31900001
7.8119998 -1.012 -0.31999999
7.8400002 -0.99699998 -0.32100001
7.8509998 -0.98000002 -0.32100001
7.8559999 -0.96200001 -0.32100001
7.8699999 -0.94499999 -0.322
7.8730001 -0.92699999 -0.322
7.881 -0.90899998 -0.322
7.9109998 -0.89499998 -0.32300001
7.9050002 -0.87599999 -0.32300001
7.9200001 -0.85900003 -0.32300001
7.9520001 -0.84500003 -0.324
7.961 -0.82800001 -0.32499999
7.9780002 -0.81199998 -0.32499999
8.0050001 -0.79699999 -0.32600001
8.0080004 -0.77899998 -0.32600001
8.0249996 -0.76300001 -0.32699999
8.0430002 -0.74699998 -0.32699999
8.0579996 -0.73100001 -0.32800001
8.0559998 -0.71399999 -0.32800001
8.0930004 -0.69999999 -0.329
8.1059999 -0.68400002 -0.33000001
8.0930004 -0.66600001 -0.329
8.1219997 -0.65100002 -0.33000001
8.1409998 -0.63599998 -0.331
8.1379995 -0.61900002 -0.331
8.184 -0.60500002 -0.33199999
8.1920004 -0.58899999 -0.333
8.1999998 -0.57300001 -0.333
8.2279997 -0.55900002 -0.33399999
8.2460003 -0.54299998 -0.33399999
8.2469997 -0.52700001 -0.33399999
8.2670002 -0.51200002 -0.33500001
8.2849998 -0.49700001 -0.336
8.2930002 -0.48199999 -0.336
8.3079996 -0.46700001 -0.33700001
8.3439999 -0.45300001 -0.338
8.3540001 -0.43700001 -0.338
8.3669996 -0.42199999 -0.33899999
8.3830004 -0.40700001 -0.33899999
8.4099998 -0.39300001 -0.34
8.441 -0.37900001 -0.34200001
8.4659996 -0.36500001 -0.34200001
8.4779997 -0.34999999 -0.34299999
8.5 -0.336 -0.34400001
8.4969997 -0.31999999 -0.34400001
8.5649996 -0.308 -0.34599999
8.5699997 -0.29300001 -0.34599999
8.5740004 -0.278 -0.34599999
8.1160002 0.090000004 -0.46799999
8.1359997 0.105 -0.46900001
8.1420002 0.121 -0.47
8.1359997 0.13600001 -0.46900001
8.1459999 0.15099999 -0.47
8.1350002 0.167 -0.47
8.1590004 0.183 -0.47099999
8.1470003 0.199 -0.47099999
8.1400003 0.214 -0.47
8.1370001 0.23100001 -0.47
8.1389999 0.24699999 -0.47099999
8.125 0.26300001 -0.47
8.1379995 0.28 -0.47099999
8.1440001 0.29800001 -0.472
8.1470003 0.315 -0.472
8.1490002 0.33199999 -0.472
8.1569996 0.34999999 -0.47299999
8.1529999 0.36700001 -0.47299999
8.1470003 0.38499999 -0.47299999
8.1660004 0.403 -0.47400001
8.1599998 0.421 -0.47400001
8.1619997 0.43900001 -0.47499999
8.1759996 0.45899999 -0.47600001
8.177 0.477 -0.47600001
8.1759996 0.49599999 -0.47600001
8.1599998 0.514 -0.47600001
8.1709995 0.53299999 -0.477
8.1789999 0.55299997 -0.477
8.1969995 0.574 -0.479
8.2019997 0.59299999 -0.479
8.1949997 0.61199999 -0.479
8.2080002 0.63300002 -0.47999999
8.1859999 0.65100002 -0.479
8.2030001 0.67299998 -0.48100001
8.2150002 0.69400001 -0.48199999
8.2200003 0.71499997 -0.48199999
8.2329998 0.73699999 -0.48300001
8.2349997 0.75700003 -0.484
8.2290001 0.778 -0.484
8.2340002 0.79900002 -0.484
8.2449999 0.82099998 -0.48500001
8.2550001 0.84299999 -0.486
8.2510004 0.86400002 -0.48699999
8.2510004 0.88599998 -0.48699999
8.2460003 0.90700001 -0.48699999
8.2740002 0.93199998 -0.48899999
8.2709999 0.95300001 -0.48899999
8.2659998 0.97500002 -0.48899999
8.2869997 1 -0.491
8.2889996 1.022 -0.49200001
8.3009996 1.046 -0.493
8.302 1.069 -0.493
8.29 1.09 -0.493
8.3070002 1.115 -0.49399999
8.3280001 1.141 -0.49599999
8.3409996 1.166 -0.49700001
8.3520002 1.191 -0.498
8.3360004 1.212 -0.498
8.3570004 1.239 -0.5
8.3620005 1.263 -0.5
8.3640003 1.288 -0.50099999
8.3760004 1.313 -0.50199997
8.3830004 1.339 -0.50300002
8.3920002 1.364 -0.50400001
8.3929996 1.3890001 -0.505
8.3839998 1.4119999 -0.505
8.415 1.442 -0.50700003
8.4160004 1.467 -0.50800002
8.427 1.494 -0.509
8.4490004 1.523 -0.51099998
8.4449997 1.5470001 -0.51099998
8.4589996 1.575 -0.51200002
8.4449997 1.598 -0.51200002
8.4700003 1.628 -0.514
8.4709997 1.654 -0.51499999
8.4809999 1.682 -0.51599997
8.4809999 1.7079999 -0.51599997
8.4860001 1.735 -0.51700002
8.4980001 1.763 -0.51899999
8.5050001 1.791 -0.51999998
8.5349998 1.824 -0.52200001
8.533 1.85 -0.523
8.533 1.877 -0.523
8.5559998 1.909 -0.52499998
8.5649996 1.938 -0.52600002
8.5790005 1.9680001 -0.528
8.5869999 1.997 -0.52899998
8.5869999 2.0239999 -0.52999997
8.6129999 2.0580001 -0.53200001
8.6129999 2.085 -0.53200001
8.6269999 2.1159999 -0.53399998
8.6260004 2.1440001 -0.53500003
8.6400003 2.175 -0.53600001
8.6739998 2.2119999 -0.53899997
8.6730003 2.24 -0.53899997
8.6739998 2.2690001 -0.54000002
8.7030001 2.3050001 -0.54299998
8.7089996 2.335 -0.54400003
8.7309999 2.3699999 -0.546
8.7220001 2.3959999 -0.546
8.7290001 2.427 -0.54699999
8.7440004 2.46 -0.54900002
8.7629995 2.494 -0.551
8.7740002 2.527 -0.55199999
8.776 2.5569999 -0.55299997
8.7959995 2.592 -0.55500001
8.8079996 2.625 -0.55699998
8.8179998 2.658 -0.55800003
8.823 2.6889999 -0.55900002
8.8339996 2.723 -0.56099999
8.8459997 2.757 -0.56199998
8.8520002 2.789 -0.56300002
8.8540001 2.8199999 -0.56400001
8.868 2.8540001 -0.56599998
8.8850002 2.8900001 -0.56800002
8.8789997 2.9189999 -0.56800002
8.9049997 2.9579999 -0.57099998
8.9239998 2.9949999 -0.57300001
8.9230003 3.026 -0.57300001
8.9160004 3.0550001 -0.574
8.9289999 3.0899999 -0.57599998
8.9289999 3.1210001 -0.57599998
8.9530001 3.161 -0.579
8.9560003 3.1930001 -0.57999998
8.9610004 3.2260001 -0.58099997
8.9870005 3.267 -0.58399999
8.9809999 3.2969999 -0.58399999
8.9919996 3.332 -0.58600003
8.4709997 3.1689999 -0.55299997
8.3590002 3.1570001 -0.546
8.2880001 3.1589999 -0.542
8.2539997 3.1760001 -0.54100001
8.2299995 3.1960001 -0.54000002
8.2419996 3.23 -0.542
8.3120003 3.2869999 -0.54699999
9.0970001 3.6300001 -0.60000002
9.1099997 3.668 -0.602
9.1370001 3.711 -0.60399997
9.1450005 3.747 -0.60600001
9.1610003 3.7869999 -0.60799998
9.1850004 3.8299999 -0.61000001
9.1949997 3.8670001 -0.61199999
9.217 3.9100001 -0.61500001
8.2799997 3.5420001 -0.55299997
7.9959998 3.4489999 -0.53500003
7.934 3.451 -0.53200001
7.9229999 3.4760001 -0.53200001
7.9359999 3.51 -0.53299999
8.0959997 3.6099999 -0.54500002
9.3240004 4.1919999 -0.62900001
9.3409996 4.2329998 -0.63099998
9.3529997 4.2729998 -0.63300002
9.3730001 4.316 -0.63499999
9.3839998 4.355 -0.63700002
9.3900003 4.3920002 -0.639
9.3990002 4.4310002 -0.63999999
9.401 4.4660001 -0.64099997
9.4040003 4.5019999 -0.64300001
9.4399996 4.553 -0.64600003
9.4390001 4.5869999 -0.64700001
9.4549999 4.6300001 -0.64999998
9.4759998 4.6750002 -0.65200001
9.5019999 4.723 -0.65499997
9.4940004 4.7529998 -0.65600002
9.5059996 4.7940001 -0.65799999
9.5319996 4.842 -0.66100001
9.5319996 4.8769999 -0.662
9.5469999 4.9200001 -0.66399997
9.5670004 4.9650002 -0.667
9.5690002 5.0009999 -0.66799998
9.5880003 5.046 -0.67000002
9.599 5.0869999 -0.67199999
9.6120005 5.1290002 -0.67400002
9.6309996 5.1750002 -0.67699999
9.6389999 5.2140002 -0.67900002
9.6639996 5.263 -0.68199998
9.6700001 5.302 -0.68300003
9.6949997 5.3499999 -0.68599999
9.7069998 5.3920002 -0.68800002
9.7220001 5.4359999 -0.69099998
9.691 5.4549999 -0.69
9.7229996 5.5079999 -0.69300002
9.7309999 5.5479999 -0.69499999
9.7379999 5.5869999 -0.69700003
9.7530003 5.631 -0.699
9.7510004 5.665 -0.69999999
9.7690001 5.711 -0.70300001
9.7840004 5.7550001 -0.70499998
9.79 5.7930002 -0.70700002
9.8179998 5.8449998 -0.70999998
9.8249998 5.8850002 -0.71200001
9.8389997 5.9289999 -0.71499997
9.8579998 5.9759998 -0.71700001
9.8620005 6.013 -0.71899998
9.8710003 6.0539999 -0.72100002
9.8719997 6.0890002 -0.722
9.8549995 6.1139998 -0.722
9.8730001 6.1599998 -0.72500002
9.8859997 6.2030001 -0.727
9.8920002 6.2420001 -0.72899997
9.8900003 6.2750001 -0.73000002
9.9189997 6.3280001 -0.73400003
9.9090004 6.3559999 -0.73400003
9.9449997 6.414 -0.73900002
9.9449997 6.4489999 -0.74000001
9.9639997 6.4949999 -0.74299997
9.9589996 6.526 -0.74400002
9.9630003 6.5630002 -0.745
9.9899998 6.6149998 -0.74900001
10.001 6.6570001 -0.75099999
10.005 6.6929998 -0.75300002
10.01 6.73 -0.755
10.025 6.7740002 -0.75700003
10.028 6.8099999 -0.759
10.02 6.8379998 -0.75999999
10.022 6.8720002 -0.76099998
10.023 6.9070001 -0.76300001
10.055 6.961 -0.76700002
10.068 7.0029998 -0.76899999
10.076 7.0419998 -0.77100003
10.076 7.0749998 -0.773
10.147 7.1570001 -0.77899998
6.0700002 -3.543 -0.255
6.0799999 -3.5320001 -0.255
6.0879998 -3.5190001 -0.255
6.0949998 -3.507 -0.255
6.1040001 -3.4949999 -0.25600001
6.1059999 -3.4790001 -0.25600001
6.1240001 -3.4719999 -0.25600001
6.131 -3.4590001 -0.25600001
6.132 -3.4419999 -0.25600001
6.1459999 -3.4330001 -0.257
6.1360002 -3.4100001 -0.25600001
6.1529999 -3.4030001 -0.257
6.1479998 -3.382 -0.257
6.1570001 -3.3699999 -0.257
6.164 -3.3570001 -0.257
6.1820002 -3.349 -0.25799999
6.197 -3.3399999 -0.25799999
6.1830001 -3.3150001 -0.257
6.1859999 -3.299 -0.257
6.1999998 -3.289 -0.25799999
6.224 -3.2839999 -0.259
6.2529998 -3.2820001 -0.25999999
6.263 -3.2690001 -0.25999999
6.2610002 -3.25 -0.25999999
6.2740002 -3.24 -0.25999999
6.2740002 -3.2219999 -0.25999999
6.2810001 -3.207 -0.25999999
6.2950001 -3.197 -0.26100001
6.2969999 -3.1800001 -0.26100001
6.3099999 -3.168 -0.26100001
6.322 -3.1570001 -0.26199999
6.3369999 -3.1459999 -0.26199999
6.342 -3.131 -0.26199999
6.3530002 -3.118 -0.26300001
6.3520002 -3.099 -0.26199999
6.3699999 -3.0899999 -0.26300001
6.3790002 -3.0769999 -0.26300001
6.3920002 -3.0639999 -0.264
6.3930001 -3.0469999 -0.264
6.401 -3.0320001 -0.264
6.4120002 -3.0190001 -0.264
6.4219999 -3.006 -0.264
6.4419999 -2.997 -0.26499999
6.461 -2.987 -0.266
6.467 -2.9719999 -0.266
6.4829998 -2.96 -0.266
6.4879999 -2.944 -0.266
6.4959998 -2.9289999 -0.26699999
6.5029998 -2.914 -0.26699999
6.5170002 -2.901 -0.26699999
6.5240002 -2.8859999 -0.26699999
6.5359998 -2.872 -0.26800001
6.5479999 -2.859 -0.26800001
6.5619998 -2.8469999 -0.26899999
6.5760002 -2.8340001 -0.26899999
6.5770001 -2.8150001 -0.26899999
6.5840001 -2.799 -0.26899999
6.6069999 -2.79 -0.27000001
6.6110001 -2.773 -0.27000001
6.6220002 -2.7590001 -0.27000001
6.638 -2.7460001 -0.271
6.651 -2.733 -0.271
6.6550002 -2.7149999 -0.271
6.677 -2.7049999 -0.27200001
6.684 -2.6889999 -0.27200001
6.691 -2.6730001 -0.27200001
6.697 -2.6559999 -0.27200001
6.7090001 -2.641 -0.273
6.7160001 -2.625 -0.273
6.723 -2.609 -0.273
6.7410002 -2.596 -0.27399999
6.7360001 -2.575 -0.273
6.7620001 -2.566 -0.27399999
6.7680001 -2.549 -0.27399999
6.7750001 -2.5320001 -0.27399999
6.7919998 -2.5190001 -0.27500001
6.8130002 -2.507 -0.27599999
6.8080001 -2.4860001 -0.27500001
6.8260002 -2.473 -0.27599999
6.8319998 -2.4549999 -0.27599999
6.849 -2.4419999 -0.27700001
6.8520002 -2.4230001 -0.27700001
6.862 -2.4070001 -0.27700001
6.8639998 -2.3889999 -0.27700001
6.8649998 -2.369 -0.27700001
6.882 -2.355 -0.27700001
6.8969998 -2.3410001 -0.278
6.888 -2.3180001 -0.27700001
6.914 -2.3069999 -0.278
6.9200001 -2.289 -0.278
6.9400001 -2.276 -0.27900001
6.9460001 -2.2579999 -0.27900001
6.9499998 -2.24 -0.27900001
6.9720001 -2.227 -0.28
6.9840002 -2.21 -0.28
6.9809999 -2.1900001 -0.28
7.0019999 -2.1760001 -0.28
7.0120001 -2.1589999 -0.28099999
7.013 -2.1400001 -0.28099999
7.0180001 -2.1210001 -0.28099999
7.0409999 -2.108 -0.28099999
7.0500002 -2.0899999 -0.28200001
7.0689998 -2.076 -0.28200001
7.0879998 -2.0610001 -0.28299999
7.0799999 -2.039 -0.28200001
7.0879998 -2.0209999 -0.28299999
7.105 -2.006 -0.28299999
7.119 -1.989 -0.28400001
7.1440001 -1.976 -0.28400001
7.1550002 -1.9579999 -0.285
7.164 -1.9400001 -0.285
7.1789999 -1.924 -0.285
7.1939998 -1.908 -0.28600001
7.2020001 -1.8890001 -0.28600001
7.1950002 -1.867 -0.28600001
7.244 -1.859 -0.287
7.2540002 -1.841 -0.28799999
7.2540002 -1.8200001 -0.287
7.2820001 -1.807 -0.28799999
7.2950001 -1.789 -0.289
7.2969999 -1.7690001 -0.289
7.3189998 -1.753 -0.289
7.335 -1.7359999 -0.28999999
7.349 -1.719 -0.28999999
7.362 -1.701 -0.29100001
7.3699999 -1.682 -0.29100001
7.3909998 -1.666 -0.29100001
7.4050002 -1.648 -0.292
7.4070001 -1.627 -0.292
7.4250002 -1.61 -0.292
7.4349999 -1.591 -0.29300001
7.454 -1.574 -0.29300001
7.4559999 -1.553 -0.29300001
7.4920001 -1.539 -0.294
7.4959998 -1.5190001 -0.294
7.5250001 -1.503 -0.29499999
7.5380001 -1.485 -0.296
7.5469999 -1.465 -0.296
7.539 -1.442 -0.29499999
7.5440001 -1.4220001 -0.29499999
7.5819998 -1.4069999 -0.29699999
7.6009998 -1.3890001 -0.29699999
7.6220002 -1.3710001 -0.29800001
7.6300001 -1.351 -0.29800001
7.6500001 -1.3329999 -0.29899999
7.664 -1.314 -0.29899999
7.6750002 -1.294 -0.29899999
7.6859999 -1.274 -0.30000001
7.7179999 -1.258 -0.301
7.7179999 -1.2359999 -0.301
7.7309999 -1.216 -0.301
7.7579999 -1.198 -0.30199999
7.7639999 -1.177 -0.30199999
7.777 -1.1569999 -0.30199999
7.8070002 -1.1390001 -0.303
7.8280001 -1.12 -0.30399999
7.836 -1.099 -0.30399999
7.8579998 -1.08 -0.30500001
7.8759999 -1.061 -0.30500001
7.8969998 -1.041 -0.30599999
7.8940001 -1.018 -0.30599999
7.908 -0.99800003 -0.30599999
7.9260001 -0.97799999 -0.30700001
7.9549999 -0.95899999 -0.308
7.9530001 -0.93599999 -0.30700001
7.9840002 -0.917 -0.308
8.0129995 -0.898 -0.30899999
8.0220003 -0.87599999 -0.30899999
8.0459995 -0.85600001 -0.31
8.0889997 -0.838 -0.31200001
8.0900002 -0.815 -0.31200001
8.1099997 -0.79400003 -0.31200001
8.1169996 -0.77200001 -0.31200001
8.1370001 -0.75099999 -0.31299999
8.1639996 -0.73000002 -0.31400001
8.1890001 -0.70899999 -0.31400001
8.2069998 -0.68800002 -0.315
8.2110004 -0.66500002 -0.315
8.2519999 -0.64499998 -0.31600001
8.2709999 -0.62300003 -0.317
8.3059998 -0.602 -0.31799999
8.3079996 -0.579 -0.31799999
8.3549995 -0.55900002 -0.31999999
8.3529997 -0.53500003 -0.31900001
8.382 -0.51300001 -0.31999999
8.415 -0.49200001 -0.32100001
8.4289999 -0.46900001 -0.322
8.467 -0.447 -0.32300001
8.4890003 -0.42399999 -0.324
8.5229998 -0.40200001 -0.32499999
8.5539999 -0.37900001 -0.32600001
8.5719995 -0.35600001 -0.32600001
8.6560001 -0.33500001 -0.329
8.7440004 -0.31400001 -0.33199999
8.4499998 0.138 -0.46399999
8.4069996 0.147 -0.461
8.4090004 0.15800001 -0.46200001
8.3669996 0.168 -0.45899999
8.3500004 0.17900001 -0.458
8.3529997 0.19 -0.45899999
8.3520002 0.20100001 -0.45899999
8.3520002 0.213 -0.45899999
8.316 0.22400001 -0.45699999
8.309 0.236 -0.45699999
8.2969999 0.24699999 -0.456
8.2939997 0.25999999 -0.456
8.3039999 0.27200001 -0.45699999
8.2919998 0.285 -0.456
8.3079996 0.29800001 -0.458
8.3149996 0.31099999 -0.458
8.283 0.32300001 -0.456
8.302 0.338 -0.458
8.3129997 0.352 -0.45899999
8.3009996 0.36500001 -0.458
8.3190002 0.38 -0.45899999
8.3079996 0.39399999 -0.45899999
8.3109999 0.40799999 -0.45899999
8.316 0.42300001 -0.46000001
8.316 0.43799999 -0.46000001
8.3149996 0.45300001 -0.46000001
8.3000002 0.46700001 -0.45899999
8.3140001 0.48300001 -0.46000001
8.3100004 0.498 -0.461
8.3290005 0.51499999 -0.46200001
8.3310003 0.53100002 -0.46200001
8.3240004 0.54699999 -0.46200001
8.3290005 0.56300002 -0.463
8.3479996 0.58099997 -0.46399999
8.3450003 0.597 -0.46399999
8.3590002 0.61500001 -0.465
8.3690004 0.63300002 -0.46599999
8.3699999 0.64999998 -0.46599999
8.375 0.66799998 -0.46700001
8.3769999 0.685 -0.46700001
8.3870001 0.704 -0.46799999
8.3859997 0.72100002 -0.46799999
8.3909998 0.74000001 -0.46900001
8.3850002 0.75800002 -0.46900001
8.3870001 0.77600002 -0.46900001
8.3859997 0.79400003 -0.47
8.3889999 0.81300002 -0.47
8.3959999 0.833 -0.47099999
8.4160004 0.85399997 -0.47299999
8.4189997 0.87300003 -0.47299999
8.4180002 0.89300001 -0.47299999
8.4309998 0.91399997 -0.47400001
8.4519997 0.93599999 -0.47600001
8.434 0.954 -0.47499999
8.46 0.977 -0.477
8.4540005 0.99599999 -0.477
8.46 1.017 -0.47799999
8.4619999 1.038 -0.479
8.474 1.0599999 -0.47999999
8.4680004 1.08 -0.47999999
8.4799995 1.103 -0.48100001
8.4860001 1.125 -0.48199999
8.4960003 1.148 -0.48300001
