# .PCD v0.7 - Point Cloud Data file format
VERSION 0.7
FIELDS x y z
SIZE 4 4 4
TYPE F F F
COUNT 1 1 1
WIDTH 1809
HEIGHT 1
VIEWPOINT 0 0 0 1 0 0 0
POINTS 1809
DATA ascii
12.314 3.152 -0.132
12.297 3.187 -0.133
12.317 3.2320001 -0.133
12.324 3.2739999 -0.134
12.353 3.322 -0.134
12.379 3.369 -0.13500001
12.401 3.4159999 -0.13500001
12.417 3.4619999 -0.13600001
12.418 3.503 -0.13600001
12.459 3.556 -0.13699999
12.491 3.6070001 -0.138
12.486 3.648 -0.138
12.501 3.6949999 -0.139
12.506 3.7390001 -0.139
12.518 3.7850001 -0.14
12.54 3.835 -0.14
12.542 3.878 -0.141
12.549 3.924 -0.141
12.574 3.9760001 -0.142
12.594 4.026 -0.14300001
12.601 4.072 -0.14300001
12.641 4.1300001 -0.14399999
12.653 4.1789999 -0.145
12.66 4.2259998 -0.145
12.703 4.2859998 -0.146
12.718 4.336 -0.147
12.753 4.3940001 -0.147
12.752 4.4400001 -0.148
12.767 4.4910002 -0.148
12.785 4.5440001 -0.149
12.811 4.5999999 -0.15000001
12.854 4.6630001 -0.15099999
12.907 4.73 -0.152
12.949 4.7930002 -0.153
12.966 4.848 -0.153
13.031 4.921 -0.155
13.057 4.98 -0.155
13.131 5.0580001 -0.15700001
13.147 5.1139998 -0.15700001
13.212 5.1890001 -0.15899999
13.234 5.2480001 -0.15899999
13.243 5.302 -0.16
13.248 5.355 -0.16
13.259 5.4109998 -0.161
13.273 5.4679999 -0.162
13.337 5.546 -0.163
13.317 5.5900002 -0.163
13.352 5.6570001 -0.164
13.413 5.7350001 -0.16500001
13.447 5.803 -0.16599999
13.471 5.8670001 -0.167
13.515 5.9400001 -0.168
13.613 6.0370002 -0.17
13.631 6.0999999 -0.171
13.623 6.151 -0.171
13.639 6.2129998 -0.17200001
13.623 6.2620001 -0.17200001
13.627 6.3189998 -0.17299999
13.608 6.3660002 -0.17299999
13.641 6.4369998 -0.17399999
13.654 6.4990001 -0.175
13.708 6.5819998 -0.176
13.717 6.6430001 -0.176
12.237 6.131 -0.15899999
12.228 6.178 -0.16
12.22 6.2779999 -0.161
12.251 6.3460002 -0.162
12.233 6.3889999 -0.162
12.067 6.3540001 -0.16
12.033 6.388 -0.16
12.101 6.4770002 -0.162
12.121 6.54 -0.162
12.184 6.6269999 -0.164
12.169 6.6719999 -0.164
12.16 6.7210002 -0.164
10.788 6.25 -0.149
10.576 6.1750002 -0.146
10.434 6.1389999 -0.145
10.366 6.1459999 -0.14399999
10.298 6.152 -0.14399999
10.238 6.1630001 -0.14300001
10.181 6.1750002 -0.14300001
10.118 6.1830001 -0.142
10.045 6.1849999 -0.142
10.002 6.2049999 -0.142
9.9469995 6.217 -0.141
9.8889999 6.2270002 -0.141
9.8599997 6.2540002 -0.141
9.8500004 6.2940001 -0.141
9.9040003 6.375 -0.14300001
10.114 6.5580001 -0.146
9.599 6.8720002 -0.145
9.5150003 6.8579998 -0.14399999
7.0250001 -4.6329999 0.028999999
7.0599999 -4.6110001 0.028999999
7.085 -4.5830002 0.028999999
7.1110001 -4.5560002 0.029999999
7.1370001 -4.5289998 0.029999999
7.1700001 -4.507 0.029999999
7.1999998 -4.4819999 0.029999999
7.2189999 -4.4510002 0.029999999
7.2360001 -4.4190001 0.029999999
7.257 -4.3889999 0.029999999
7.276 -4.3579998 0.030999999
7.2909999 -4.3249998 0.030999999
7.3249998 -4.3039999 0.030999999
7.3410001 -4.2719998 0.030999999
7.348 -4.2350001 0.030999999
7.3940001 -4.2199998 0.030999999
7.4060001 -4.1859999 0.030999999
7.4320002 -4.1599998 0.030999999
7.4559999 -4.1339998 0.032000002
7.46 -4.0960002 0.032000002
7.4629998 -4.0580001 0.032000002
7.4780002 -4.027 0.032000002
7.5159998 -4.007 0.032000002
7.5469999 -3.9849999 0.032000002
7.566 -3.9560001 0.032000002
7.573 -3.921 0.032000002
7.6020002 -3.898 0.033
7.6199999 -3.869 0.033
7.6440001 -3.8429999 0.033
7.6570001 -3.8110001 0.033
7.677 -3.783 0.033
7.697 -3.756 0.033
7.7220001 -3.7309999 0.033
7.7389998 -3.7019999 0.034000002
7.7620001 -3.6760001 0.034000002
7.7979999 -3.6559999 0.034000002
7.8249998 -3.6329999 0.034000002
7.8369999 -3.602 0.034000002
7.8449998 -3.5699999 0.034000002
7.8629999 -3.5420001 0.034000002
7.8899999 -3.5179999 0.034000002
7.9050002 -3.4890001 0.035
7.9229999 -3.4619999 0.035
7.9559999 -3.441 0.035
7.9819999 -3.4170001 0.035
8.0080004 -3.3929999 0.035
8.0380001 -3.3710001 0.035
8.0450001 -3.339 0.035999998
8.0699997 -3.3150001 0.035999998
8.1020002 -3.2939999 0.035999998
8.1219997 -3.267 0.035999998
8.1499996 -3.2449999 0.035999998
8.1639996 -3.217 0.035999998
8.1739998 -3.187 0.035999998
8.2069998 -3.1659999 0.037
8.2530003 -3.1500001 0.037
8.2779999 -3.1259999 0.037
8.2930002 -3.099 0.037
8.3179998 -3.075 0.037
8.3430004 -3.0510001 0.037
8.3509998 -3.0209999 0.037
8.3699999 -2.9960001 0.037999999
8.3859997 -2.9690001 0.037999999
8.4239998 -2.95 0.037999999
8.434 -2.921 0.037999999
8.4580002 -2.8970001 0.037999999
8.5030003 -2.8800001 0.037999999
8.5179996 -2.8540001 0.039000001
8.5419998 -2.8299999 0.039000001
8.5790005 -2.8110001 0.039000001
8.5950003 -2.7839999 0.039000001
8.6239996 -2.7620001 0.039000001
8.6459999 -2.7379999 0.039000001
8.6590004 -2.711 0.039999999
8.7329998 -2.7030001 0.039999999
8.7620001 -2.681 0.039999999
8.7639999 -2.651 0.039999999
8.7849998 -2.6259999 0.039999999
8.802 -2.6010001 0.039999999
8.8439999 -2.5829999 0.041000001
8.8699999 -2.5599999 0.041000001
8.9130001 -2.5420001 0.041000001
8.9630003 -2.526 0.041000001
8.9860001 -2.5020001 0.041999999
8.993 -2.474 0.041999999
9.0089998 -2.4489999 0.041999999
9.0209999 -2.4219999 0.041999999
9.0570002 -2.402 0.041999999
9.073 -2.3770001 0.041999999
9.099 -2.3540001 0.041999999
9.1339998 -2.3340001 0.043000001
9.1639996 -2.312 0.043000001
9.184 -2.2880001 0.043000001
9.2309999 -2.2709999 0.043000001
9.2309999 -2.2420001 0.043000001
9.2440004 -2.2160001 0.043000001
9.2679996 -2.1930001 0.044
9.2939997 -2.171 0.044
9.3509998 -2.155 0.044
9.3739996 -2.132 0.044
9.4060001 -2.1110001 0.044
9.4239998 -2.0869999 0.045000002
9.4569998 -2.066 0.045000002
9.4809999 -2.043 0.045000002
9.5159998 -2.023 0.045000002
9.5450001 -2.0009999 0.045000002
9.5699997 -1.979 0.045000002
9.6160002 -1.961 0.046
9.651 -1.9400001 0.046
9.6689997 -1.916 0.046
9.6859999 -1.892 0.046
9.7229996 -1.872 0.046
9.7550001 -1.851 0.046999998
9.7539997 -1.824 0.046999998
9.8140001 -1.808 0.046999998
9.8190002 -1.7819999 0.046999998
9.8470001 -1.76 0.046999998
9.8590002 -1.735 0.046999998
9.8950005 -1.715 0.048
9.9420004 -1.697 0.048
9.9610004 -1.673 0.048
9.9770002 -1.65 0.048
10.02 -1.631 0.048999999
10.092 -1.6160001 0.048999999
10.14 -1.598 0.048999999
10.118 -1.568 0.048999999
10.107 -1.541 0.048999999
10.144 -1.521 0.048999999
10.174 -1.499 0.050000001
10.195 -1.477 0.050000001
10.252 -1.46 0.050000001
10.279 -1.438 0.050000001
10.289 -1.414 0.050000001
10.32 -1.393 0.050999999
10.368 -1.375 0.050999999
10.386 -1.352 0.050999999
10.412 -1.33 0.050999999
10.463 -1.312 0.052000001
10.483 -1.29 0.052000001
10.526 -1.27 0.052000001
10.532 -1.247 0.052000001
10.573 -1.227 0.052000001
10.615 -1.207 0.052999999
10.659 -1.188 0.052999999
10.674 -1.165 0.052999999
10.709 -1.145 0.052999999
10.745 -1.125 0.052999999
10.738 -1.1 0.052999999
10.778 -1.08 0.054000001
10.795 -1.058 0.054000001
10.806 -1.036 0.054000001
10.849 -1.017 0.054000001
10.863 -0.99400002 0.054000001
10.856 -0.97100002 0.054000001
10.883 -0.94999999 0.055
10.905 -0.92900002 0.055
10.95 -0.91000003 0.055
10.956 -0.88800001 0.055
10.979 -0.86699998 0.055
11 -0.84600002 0.055
11.022 -0.82499999 0.056000002
11.081 -0.80699998 0.056000002
11.129 -0.78799999 0.056000002
11.131 -0.76599997 0.056000002
11.171 -0.74699998 0.057
11.21 -0.727 0.057
11.253 -0.708 0.057
11.257 -0.68699998 0.057
11.307 -0.66799998 0.057999998
11.37 -0.64999998 0.057999998
10.872 0.13699999 -0.063000001
10.871 0.15700001 -0.063000001
10.857 0.177 -0.063000001
10.883 0.197 -0.063000001
10.868 0.21699999 -0.063000001
10.912 0.23800001 -0.064000003
10.923 0.25999999 -0.064000003
10.882 0.27900001 -0.064000003
10.901 0.301 -0.064000003
10.92 0.32300001 -0.064999998
10.934 0.345 -0.064999998
10.921 0.36700001 -0.064999998
10.932 0.38999999 -0.064999998
10.914 0.41100001 -0.064999998
10.906 0.43399999 -0.066
10.917 0.45699999 -0.066
10.931 0.47999999 -0.066
10.915 0.50300002 -0.066
10.926 0.52700001 -0.066
10.951 0.55199999 -0.067000002
10.954 0.57599998 -0.067000002
10.952 0.60000002 -0.067000002
10.956 0.625 -0.067000002
10.973 0.64999998 -0.068000004
10.987 0.676 -0.068000004
10.988 0.70099998 -0.068000004
10.983 0.72600001 -0.068000004
10.976 0.75099999 -0.068999998
10.999 0.778 -0.068999998
11.018 0.80500001 -0.068999998
11.036 0.833 -0.07
11.041 0.86000001 -0.07
11.069 0.88800001 -0.07
11.087 0.917 -0.071000002
11.091 0.94400001 -0.071000002
11.097 0.972 -0.071000002
11.115 1.001 -0.071000002
11.113 1.028 -0.071999997
11.131 1.058 -0.071999997
11.152 1.0880001 -0.071999997
11.185 1.119 -0.072999999
11.206 1.15 -0.072999999
11.206 1.179 -0.072999999
11.231 1.211 -0.074000001
11.246 1.2410001 -0.074000001
11.266 1.273 -0.074000001
11.302 1.307 -0.075000003
11.312 1.3380001 -0.075000003
11.313 1.368 -0.075000003
11.324 1.4 -0.075999998
11.355 1.434 -0.075999998
11.393 1.47 -0.077
11.414 1.5039999 -0.077
11.447 1.539 -0.078000002
11.474 1.574 -0.078000002
11.479 1.607 -0.078000002
11.519 1.6440001 -0.079000004
11.553 1.682 -0.079000004
11.586 1.719 -0.079999998
11.626 1.758 -0.079999998
11.664 1.796 -0.081
11.703 1.836 -0.081
9.6260004 1.5369999 -0.067000002
9.5100002 1.546 -0.066
9.4879999 1.5700001 -0.066
9.5059996 1.601 -0.067000002
9.5620003 1.638 -0.067000002
9.7379999 1.696 -0.068999998
11.915 2.1110001 -0.085000001
11.933 2.1489999 -0.085000001
11.968 2.191 -0.086000003
12.03 2.2379999 -0.086000003
12.035 2.2750001 -0.086999997
12.081 2.3199999 -0.086999997
9.7749996 1.9069999 -0.071000002
9.6709995 1.916 -0.07
9.6359997 1.938 -0.07
9.6429996 1.969 -0.071000002
9.6859999 2.007 -0.071000002
9.934 2.089 -0.072999999
12.266 2.6170001 -0.090999998
12.288 2.6600001 -0.090999998
12.321 2.7060001 -0.092
12.351 2.7509999 -0.092
12.386 2.7969999 -0.093000002
12.39 2.8369999 -0.093000002
12.396 2.878 -0.093999997
12.404 2.9189999 -0.093999997
12.431 2.9649999 -0.094999999
12.436 3.0050001 -0.094999999
12.466 3.052 -0.094999999
12.462 3.0910001 -0.096000001
12.481 3.1359999 -0.096000001
12.522 3.187 -0.097000003
12.549 3.234 -0.097000003
12.571 3.2809999 -0.097999997
12.579 3.3239999 -0.097999997
12.622 3.3770001 -0.098999999
12.625 3.4189999 -0.098999999
12.655 3.4690001 -0.1
12.653 3.51 -0.1
12.671 3.5569999 -0.101
12.701 3.6070001 -0.101
12.728 3.6570001 -0.102
12.702 3.6919999 -0.102
12.702 3.734 -0.102
12.705 3.7780001 -0.103
12.741 3.8310001 -0.103
12.767 3.882 -0.104
12.802 3.9360001 -0.105
12.835 3.99 -0.105
12.842 4.0349998 -0.106
12.876 4.0900002 -0.106
12.877 4.1339998 -0.107
12.933 4.1960001 -0.108
12.934 4.2410002 -0.108
13.011 4.3109999 -0.109
13.045 4.3670001 -0.11
13.09 4.427 -0.11
13.085 4.4710002 -0.111
13.092 4.5180001 -0.111
13.145 4.5819998 -0.112
13.18 4.6399999 -0.113
13.247 4.71 -0.114
13.274 4.7659998 -0.114
13.331 4.8330002 -0.115
13.372 4.895 -0.116
13.418 4.9590001 -0.117
13.431 5.0110002 -0.117
13.503 5.086 -0.118
13.569 5.1589999 -0.119
13.589 5.2140002 -0.12
13.615 5.2719998 -0.121
13.64 5.3309999 -0.121
13.689 5.3979998 -0.122
13.745 5.4689999 -0.123
13.83 5.552 -0.124
13.835 5.6040001 -0.125
13.874 5.6690001 -0.126
13.857 5.7119999 -0.126
13.921 5.7880001 -0.127
13.902 5.8299999 -0.127
13.916 5.8860002 -0.12800001
13.937 5.9450002 -0.12800001
13.98 6.0139999 -0.12899999
14.037 6.0890002 -0.13
14.042 6.1420002 -0.131
14.09 6.2140002 -0.132
14.052 6.2480001 -0.132
13.863 6.2140002 -0.13
13.795 6.2340002 -0.13
12.246 6.1589999 -0.121
12.171 6.1659999 -0.121
12.264 6.257 -0.123
12.191 6.2649999 -0.122
12.125 6.2750001 -0.122
12.118 6.316 -0.122
12.095 6.348 -0.123
12.052 6.369 -0.123
12.038 6.4060001 -0.123
12.107 6.487 -0.124
12.112 6.5339999 -0.124
12.208 6.6300001 -0.126
12.248 6.7410002 -0.127
12.209 6.7639999 -0.127
10.642 6.1659999 -0.114
10.529 6.138 -0.113
10.421 6.1129999 -0.112
10.359 6.1139998 -0.112
10.303 6.118 -0.112
10.254 6.1259999 -0.111
10.197 6.1279998 -0.111
10.149 6.1360002 -0.111
10.103 6.1430001 -0.111
10.066 6.1570001 -0.111
10.014 6.1609998 -0.111
9.9879999 6.1799998 -0.111
9.9610004 6.198 -0.111
9.9799995 6.2449999 -0.111
10.071 6.3379998 -0.113
7.506 -4.4159999 0.048999999
7.5159998 -4.401 0.048999999
7.5139999 -4.3790002 0.048999999
7.5219998 -4.362 0.048999999
7.5380001 -4.3499999 0.048999999
7.5479999 -4.3340001 0.048999999
7.559 -4.3189998 0.048999999
7.572 -4.3049998 0.048999999
7.5890002 -4.2930002 0.050000001
7.6040001 -4.2800002 0.050000001
7.618 -4.2659998 0.050000001
7.6220002 -4.2470002 0.050000001
7.618 -4.223 0.050000001
7.6350002 -4.21 0.050000001
7.6490002 -4.1960001 0.050000001
7.658 -4.1789999 0.050000001
7.658 -4.1570001 0.050999999
7.677 -4.1459999 0.050999999
7.671 -4.1199999 0.050999999
7.7010002 -4.1139998 0.050999999
7.71 -4.0970001 0.050999999
7.7189999 -4.0799999 0.050999999
7.7350001 -4.066 0.050999999
7.756 -4.0549998 0.052000001
7.7719998 -4.0409999 0.052000001
7.8000002 -4.033 0.052000001
7.783 -4.0019999 0.052000001
7.7859998 -3.9809999 0.052000001
7.8010001 -3.9660001 0.052000001
7.8189998 -3.9530001 0.052000001
7.816 -3.9289999 0.052000001
7.8410001 -3.9189999 0.052999999
7.8400002 -3.8959999 0.052999999
7.855 -3.881 0.052999999
7.8829999 -3.872 0.052999999
7.8779998 -3.8469999 0.052999999
7.8899999 -3.8299999 0.052999999
7.9099998 -3.816 0.052999999
7.9289999 -3.803 0.054000001
7.927 -3.779 0.054000001
7.9419999 -3.763 0.054000001
7.9559999 -3.747 0.054000001
7.967 -3.7290001 0.054000001
8.0030003 -3.723 0.054000001
7.9980001 -3.697 0.054000001
8.0120001 -3.681 0.054000001
8.0299997 -3.6659999 0.055
8.0500002 -3.651 0.055
8.0579996 -3.632 0.055
8.073 -3.615 0.055
8.0790005 -3.5940001 0.055
8.0950003 -3.5780001 0.055
8.1120005 -3.562 0.056000002
8.118 -3.5420001 0.056000002
8.151 -3.5320001 0.056000002
8.1459999 -3.506 0.056000002
8.1730003 -3.4949999 0.056000002
8.1829996 -3.4749999 0.056000002
8.2049999 -3.461 0.057
8.2069998 -3.438 0.057
8.2419996 -3.428 0.057
8.2469997 -3.4070001 0.057
8.2709999 -3.3929999 0.057
8.2779999 -3.372 0.057
8.2950001 -3.3540001 0.057
8.3000002 -3.3329999 0.057999998
8.316 -3.3150001 0.057999998
8.3450003 -3.302 0.057999998
8.349 -3.28 0.057999998
8.382 -3.2690001 0.057999998
8.3920002 -3.2479999 0.057999998
8.4110003 -3.2309999 0.059
8.4189997 -3.21 0.059
8.4429998 -3.1949999 0.059
8.4689999 -3.1800001 0.059
8.4709997 -3.1559999 0.059
8.4899998 -3.1389999 0.059999999
8.4860001 -3.1129999 0.059999999
8.5089998 -3.0969999 0.059999999
8.5159998 -3.0739999 0.059999999
8.5469999 -3.0610001 0.059999999
8.5570002 -3.04 0.059999999
8.5600004 -3.016 0.059999999
8.5839996 -3 0.061000001
8.6090002 -2.983 0.061000001
8.6020002 -2.9560001 0.061000001
8.6379995 -2.944 0.061000001
8.6379995 -2.9189999 0.061000001
8.6680002 -2.904 0.061000001
8.7010002 -2.8900001 0.061999999
8.7110004 -2.868 0.061999999
8.7189999 -2.845 0.061999999
8.7370005 -2.826 0.061999999
8.7650003 -2.8099999 0.061999999
8.7860003 -2.7909999 0.063000001
8.7860003 -2.766 0.063000001
8.8319998 -2.7550001 0.063000001
8.8970003 -2.7490001 0.064000003
8.9209995 -2.7309999 0.064000003
8.9180002 -2.7049999 0.064000003
8.9189997 -2.6789999 0.064000003
8.9399996 -2.6600001 0.064000003
8.9449997 -2.635 0.064000003
8.9829998 -2.6210001 0.064000003
9.0019999 -2.5999999 0.064999998
9.0229998 -2.5810001 0.064999998
9.0489998 -2.562 0.064999998
9.0900002 -2.5469999 0.064999998
9.1110001 -2.527 0.066
9.118 -2.503 0.066
9.132 -2.48 0.066
9.1330004 -2.454 0.066
9.1660004 -2.437 0.066
9.1789999 -2.414 0.066
9.2060003 -2.3940001 0.067000002
9.2530003 -2.3800001 0.067000002
9.2580004 -2.355 0.067000002
9.2659998 -2.3299999 0.067000002
9.3009996 -2.312 0.068000004
9.3070002 -2.2869999 0.068000004
9.3369999 -2.2679999 0.068000004
9.3719997 -2.2490001 0.068000004
9.401 -2.2290001 0.068999998
9.4209995 -2.207 0.068999998
9.4429998 -2.1849999 0.068999998
9.4680004 -2.164 0.068999998
9.5089998 -2.1459999 0.07
9.5360003 -2.125 0.07
9.5530005 -2.1010001 0.07
9.5760002 -2.079 0.07
9.632 -2.063 0.071000002
9.6619997 -2.0420001 0.071000002
9.691 -2.02 0.071000002
9.71 -1.9960001 0.071000002
9.7449999 -1.976 0.071999997
9.7749996 -1.954 0.071999997
9.7980003 -1.9299999 0.071999997
9.8319998 -1.909 0.072999999
9.8459997 -1.883 0.072999999
9.8769999 -1.8609999 0.072999999
9.8999996 -1.837 0.072999999
9.9359999 -1.8150001 0.074000001
9.9490004 -1.789 0.074000001
9.9700003 -1.765 0.074000001
10.034 -1.747 0.074000001
10.038 -1.719 0.075000003
10.102 -1.701 0.075000003
10.134 -1.678 0.075000003
10.168 -1.655 0.075999998
10.22 -1.6339999 0.075999998
10.289 -1.6160001 0.077
10.298 -1.587 0.077
10.271 -1.554 0.077
10.317 -1.5319999 0.077
10.349 -1.507 0.077
10.404 -1.485 0.078000002
10.431 -1.459 0.078000002
10.453 -1.433 0.078000002
10.492 -1.408 0.079000004
10.576 -1.3890001 0.079000004
10.614 -1.364 0.079999998
10.67 -1.341 0.079999998
10.695 -1.313 0.079999998
10.707 -1.284 0.081
10.744 -1.258 0.081
10.778 -1.232 0.081
10.823 -1.206 0.082000002
10.845 -1.177 0.082000002
10.876 -1.15 0.082000002
10.894 -1.1210001 0.082000002
10.927 -1.0930001 0.082999997
10.927 -1.062 0.082999997
10.976 -1.036 0.082999997
11.024 -1.0089999 0.083999999
11.079 -0.98199999 0.083999999
11.135 -0.95599997 0.085000001
11.152 -0.92500001 0.085000001
11.253 -0.90200001 0.086000003
11.286 -0.87199998 0.086000003
11.301 -0.84100002 0.086000003
11.378 -0.815 0.086999997
11.46 -0.78799999 0.086999997
11.801 0.34299999 -0.044
11.763 0.35800001 -0.044
11.702 0.373 -0.044
11.683 0.38999999 -0.044
11.659 0.40599999 -0.044
11.724 0.426 -0.044
11.607 0.43900001 -0.044
11.605 0.45699999 -0.044
11.603 0.47499999 -0.044
11.611 0.49399999 -0.045000002
11.595 0.51200002 -0.045000002
11.557 0.52899998 -0.045000002
11.556 0.54799998 -0.045000002
11.553 0.56699997 -0.045000002
11.524 0.58499998 -0.045000002
11.512 0.60500002 -0.045000002
11.525 0.62599999 -0.046
11.548 0.64700001 -0.046
11.529 0.667 -0.046
11.521 0.68699998 -0.046
11.505 0.70700002 -0.046
11.5 0.72799999 -0.046
11.527 0.75099999 -0.046999998
11.522 0.773 -0.046999998
11.527 0.79500002 -0.046999998
11.538 0.81800002 -0.046999998
11.53 0.83999997 -0.046999998
11.547 0.86500001 -0.048
11.563 0.889 -0.048
11.572 0.91299999 -0.048
11.577 0.93699998 -0.048
11.587 0.96100003 -0.048999999
11.592 0.986 -0.048999999
11.592 1.01 -0.048999999
11.607 1.036 -0.048999999
11.614 1.062 -0.050000001
11.627 1.0880001 -0.050000001
11.642 1.115 -0.050000001
11.655 1.142 -0.050000001
11.68 1.17 -0.050999999
11.676 1.196 -0.050999999
11.701 1.225 -0.050999999
11.704 1.251 -0.050999999
11.714 1.279 -0.052000001
11.735 1.309 -0.052000001
11.784 1.342 -0.052000001
11.799 1.3710001 -0.052999999
11.785 1.397 -0.052999999
11.761 1.423 -0.052999999
11.802 1.456 -0.052999999
11.828 1.488 -0.054000001
11.824 1.516 -0.054000001
11.836 1.5470001 -0.054000001
11.894 1.584 -0.055
11.95 1.6210001 -0.055
11.957 1.652 -0.056000002
11.982 1.686 -0.056000002
12.008 1.72 -0.056000002
12.015 1.752 -0.056000002
12.062 1.79 -0.057
12.058 1.821 -0.057
12.059 1.853 -0.057
12.081 1.888 -0.057999998
9.9309998 1.5779999 -0.048
9.6210003 1.5549999 -0.046
9.5389996 1.567 -0.046
9.5010004 1.587 -0.046
9.5170002 1.615 -0.046
9.533 1.6440001 -0.046999998
9.5959997 1.681 -0.046999998
9.7370005 1.733 -0.048
12.331 2.2290001 -0.061000001
12.342 2.266 -0.061999999
12.368 2.306 -0.061999999
12.383 2.3440001 -0.061999999
12.391 2.381 -0.063000001
10.023 1.955 -0.050999999
9.7670002 1.933 -0.050000001
9.6610003 1.9400001 -0.048999999
9.6239996 1.961 -0.048999999
9.6199999 1.988 -0.048999999
9.6420002 2.0209999 -0.050000001
9.717 2.066 -0.050000001
12.555 2.707 -0.066
12.565 2.747 -0.066
12.557 2.783 -0.066
12.566 2.823 -0.066
12.564 2.8610001 -0.067000002
12.579 2.9030001 -0.067000002
12.589 2.944 -0.067000002
12.602 2.9860001 -0.068000004
12.625 3.0309999 -0.068000004
12.649 3.0769999 -0.068999998
12.666 3.1210001 -0.068999998
12.672 3.1619999 -0.068999998
12.696 3.2090001 -0.07
12.708 3.2520001 -0.07
12.717 3.296 -0.07
12.76 3.348 -0.071000002
12.772 3.392 -0.071000002
12.782 3.437 -0.071999997
12.81 3.4860001 -0.071999997
12.828 3.533 -0.072999999
12.86 3.585 -0.072999999
12.887 3.635 -0.074000001
12.905 3.6830001 -0.074000001
12.914 3.7290001 -0.074000001
12.928 3.777 -0.075000003
12.922 3.819 -0.075000003
12.924 3.8629999 -0.075000003
12.978 3.924 -0.075999998
13.019 3.9809999 -0.077
13.076 4.0430002 -0.077
13.095 4.0939999 -0.078000002
13.134 4.152 -0.078000002
13.132 4.197 -0.078000002
13.204 4.2670002 -0.079000004
13.224 4.3200002 -0.079999998
13.266 4.3800001 -0.079999998
13.269 4.428 -0.081
13.308 4.4889998 -0.081
13.371 4.5580001 -0.082000002
13.403 4.6170001 -0.082999997
13.425 4.6729999 -0.082999997
13.481 4.7420001 -0.083999999
13.523 4.8060002 -0.083999999
13.579 4.8759999 -0.085000001
13.593 4.9299998 -0.085000001
13.664 5.007 -0.086000003
13.723 5.079 -0.086999997
13.771 5.1479998 -0.088
13.819 5.2179999 -0.088
13.813 5.2670002 -0.089000002
13.905 5.355 -0.090000004
13.949 5.4239998 -0.090000004
14.012 5.5019999 -0.090999998
14.072 5.579 -0.092
14.14 5.6599998 -0.093000002
14.13 5.711 -0.093000002
14.148 5.7719998 -0.093999997
14.17 5.836 -0.093999997
14.186 5.8979998 -0.094999999
14.221 5.9679999 -0.094999999
14.247 6.0349998 -0.096000001
14.272 6.1020002 -0.096000001
14.33 6.1830001 -0.097000003
14.386 6.2639999 -0.097999997
14.363 6.3109999 -0.097999997
12.264 6.0910001 -0.089000002
12.194 6.1079998 -0.089000002
12.16 6.1939998 -0.089000002
12.108 6.2189999 -0.089000002
12.105 6.2690001 -0.090000004
12.094 6.3150001 -0.090000004
12.077 6.3579998 -0.090000004
12.113 6.4299998 -0.090999998
12.132 6.4920001 -0.090999998
12.236 6.6009998 -0.093000002
10.646 6.1669998 -0.083999999
10.518 6.1399999 -0.082999997
10.404 6.1199999 -0.082000002
10.339 6.1290002 -0.082000002
10.275 6.1370001 -0.082000002
10.219 6.1500001 -0.082000002
10.154 6.158 -0.082000002
10.105 6.1739998 -0.082000002
10.057 6.191 -0.082000002
10.025 6.2179999 -0.082000002
9.9890003 6.2420001 -0.082000002
9.9659996 6.2740002 -0.082000002
10.011 6.349 -0.082999997
10.189 6.5100002 -0.083999999
7.1859999 -4.737 0.064000003
7.2340002 -4.723 0.064999998
7.2470002 -4.6859999 0.064999998
7.2750001 -4.6589999 0.064999998
7.2930002 -4.6269999 0.064999998
7.3179998 -4.598 0.066
7.3590002 -4.579 0.066
7.3769999 -4.5469999 0.066
7.4039998 -4.5190001 0.066
7.4200001 -4.4860001 0.067000002
7.4460001 -4.4590001 0.067000002
7.4679999 -4.4289999 0.067000002
7.4860001 -4.3969998 0.067000002
7.5110002 -4.369 0.067000002
7.5359998 -4.3410001 0.068000004
7.5539999 -4.3099999 0.068000004
7.5700002 -4.2779999 0.068000004
7.5770001 -4.2399998 0.068000004
7.612 -4.2189999 0.068000004
7.6240001 -4.184 0.068999998
7.652 -4.1589999 0.068999998
7.6950002 -4.1420002 0.068999998
7.6919999 -4.0999999 0.068999998
7.7150002 -4.072 0.068999998
7.7340002 -4.0430002 0.07
7.7610002 -4.0170002 0.07
7.777 -3.9860001 0.07
7.7979999 -3.9579999 0.07
7.8330002 -3.937 0.071000002
7.849 -3.9059999 0.071000002
7.8660002 -3.8759999 0.071000002
7.8930001 -3.8510001 0.071000002
7.908 -3.8199999 0.071000002
7.928 -3.7909999 0.071999997
7.9580002 -3.7679999 0.071999997
7.9640002 -3.734 0.071999997
8.0109997 -3.7179999 0.071999997
8.0290003 -3.6889999 0.072999999
8.0459995 -3.6600001 0.072999999
8.0810003 -3.6389999 0.072999999
8.0830002 -3.6029999 0.072999999
8.1140003 -3.5799999 0.072999999
8.1459999 -3.5580001 0.074000001
8.1660004 -3.53 0.074000001
8.1789999 -3.5 0.074000001
8.2049999 -3.4760001 0.074000001
8.2250004 -3.448 0.074000001
8.2440004 -3.421 0.075000003
8.2620001 -3.3929999 0.075000003
8.3100004 -3.3770001 0.075000003
8.3249998 -3.348 0.075999998
8.3660002 -3.3299999 0.075999998
8.375 -3.299 0.075999998
8.4029999 -3.2750001 0.075999998
8.4280005 -3.25 0.077
8.4519997 -3.2249999 0.077
8.4849997 -3.204 0.077
8.4980001 -3.175 0.077
8.526 -3.151 0.078000002
8.5380001 -3.122 0.078000002
8.5819998 -3.1040001 0.078000002
8.6070004 -3.0799999 0.078000002
8.6289997 -3.0539999 0.079000004
8.6400003 -3.0250001 0.079000004
8.6780005 -3.0050001 0.079000004
8.6940002 -2.9779999 0.079000004
8.7299995 -2.957 0.079999998
8.7620001 -2.9349999 0.079999998
8.7919998 -2.9119999 0.079999998
8.8100004 -2.8859999 0.079999998
8.8310003 -2.8599999 0.081
8.8830004 -2.845 0.081
8.8999996 -2.8180001 0.081
8.9280005 -2.7950001 0.082000002
9 -2.7850001 0.082000002
9.007 -2.756 0.082000002
9.0190001 -2.727 0.082999997
9.0609999 -2.7079999 0.082999997
9.0950003 -2.687 0.082999997
9.1210003 -2.6630001 0.083999999
9.1470003 -2.6389999 0.083999999
9.1789999 -2.6170001 0.083999999
9.1960001 -2.5910001 0.083999999
9.2259998 -2.569 0.085000001
9.276 -2.5510001 0.085000001
9.2889996 -2.5239999 0.085000001
9.2969999 -2.4960001 0.085000001
9.3310003 -2.474 0.086000003
9.3889999 -2.4590001 0.086000003
9.4139996 -2.4349999 0.086999997
9.4390001 -2.411 0.086999997
9.4530001 -2.385 0.086999997
9.5229998 -2.372 0.088
9.5570002 -2.3510001 0.088
9.5860004 -2.3280001 0.088
9.6260004 -2.3080001 0.089000002
9.6590004 -2.286 0.089000002
9.7010002 -2.266 0.090000004
9.7510004 -2.2479999 0.090000004
9.7799997 -2.2249999 0.090000004
9.7919998 -2.198 0.090999998
9.8109999 -2.1730001 0.090999998
9.8310003 -2.148 0.090999998
9.8809996 -2.1300001 0.092
9.915 -2.108 0.092
9.9329996 -2.0829999 0.092
9.9469995 -2.0569999 0.092
9.9879999 -2.036 0.093000002
10.008 -2.0120001 0.093000002
10.047 -1.9910001 0.093000002
10.081 -1.969 0.093999997
10.077 -1.9400001 0.093999997
10.135 -1.923 0.093999997
10.14 -1.896 0.093999997
10.193 -1.878 0.094999999
10.227 -1.8559999 0.094999999
10.253 -1.8329999 0.096000001
10.264 -1.807 0.096000001
10.304 -1.786 0.096000001
10.324 -1.762 0.096000001
10.342 -1.738 0.097000003
10.394 -1.719 0.097000003
10.417 -1.696 0.097000003
10.468 -1.677 0.097999997
10.479 -1.651 0.097999997
10.485 -1.625 0.097999997
10.489 -1.599 0.097999997
10.54 -1.58 0.098999999
10.574 -1.559 0.098999999
10.584 -1.534 0.098999999
10.624 -1.513 0.1
10.669 -1.493 0.1
10.693 -1.47 0.1
10.712 -1.447 0.101
10.723 -1.4220001 0.101
10.769 -1.402 0.101
10.791 -1.3789999 0.102
10.803 -1.355 0.102
10.82 -1.332 0.102
10.859 -1.311 0.102
10.869 -1.2869999 0.102
10.914 -1.267 0.103
10.907 -1.2410001 0.103
10.973 -1.224 0.104
10.961 -1.197 0.103
10.996 -1.176 0.104
11.026 -1.155 0.104
11.031 -1.131 0.104
11.062 -1.11 0.105
11.086 -1.0880001 0.105
11.101 -1.0650001 0.105
11.123 -1.043 0.105
11.135 -1.02 0.106
11.158 -0.99800003 0.106
11.189 -0.977 0.106
11.24 -0.958 0.107
11.283 -0.93800002 0.107
11.307 -0.917 0.107
11.339 -0.89600003 0.108
11.469 -0.88300002 0.109
11.459 -0.85799998 0.109
11.437 -0.83399999 0.109
11.461 -0.81199998 0.109
11.549 -0.796 0.11
11.609 -0.77700001 0.111
11.614 -0.75400001 0.111
11.657 -0.73400003 0.111
11.713 -0.71499997 0.112
11.505 0.147 -0.0089999996
11.553 0.169 -0.0099999998
11.596 0.19 -0.0099999998
11.613 0.212 -0.0099999998
11.613 0.234 -0.0099999998
11.655 0.25600001 -0.0099999998
11.645 0.278 -0.011
11.66 0.301 -0.011
11.664 0.324 -0.011
11.651 0.34599999 -0.011
11.685 0.37099999 -0.011
11.644 0.39300001 -0.011
11.683 0.41800001 -0.012
11.717 0.44299999 -0.012
11.686 0.46599999 -0.012
11.685 0.49000001 -0.012
11.679 0.51499999 -0.012
11.684 0.54000002 -0.013
11.644 0.56300002 -0.013
11.675 0.58999997 -0.013
11.647 0.61400002 -0.013
11.679 0.64099997 -0.013
11.67 0.667 -0.014
11.697 0.69400001 -0.014
11.668 0.71899998 -0.014
11.675 0.74599999 -0.014
11.677 0.773 -0.014
11.701 0.801 -0.015
11.714 0.82999998 -0.015
11.733 0.85900003 -0.015
11.735 0.88700002 -0.015
11.736 0.91500002 -0.016000001
11.733 0.94199997 -0.016000001
11.733 0.97100002 -0.016000001
11.732 0.99900001 -0.016000001
11.735 1.028 -0.016000001
11.732 1.057 -0.017000001
11.742 1.087 -0.017000001
11.733 1.1160001 -0.017000001
11.743 1.146 -0.017000001
11.754 1.177 -0.017000001
11.772 1.209 -0.017999999
11.781 1.24 -0.017999999
11.846 1.277 -0.017999999
11.903 1.3150001 -0.017999999
11.925 1.348 -0.018999999
11.971 1.385 -0.018999999
12.003 1.42 -0.018999999
12.026 1.455 -0.02
12.01 1.485 -0.02
12.032 1.52 -0.02
12.073 1.558 -0.02
12.096 1.594 -0.021
12.1 1.628 -0.021
12.144 1.6670001 -0.021
12.169 1.704 -0.021
12.18 1.739 -0.022
12.217 1.778 -0.022
12.22 1.813 -0.022
12.251 1.852 -0.022
12.251 1.887 -0.023
12.282 1.927 -0.023
12.311 1.967 -0.023
9.8559999 1.603 -0.018999999
9.6099997 1.59 -0.017999999
9.54 1.6059999 -0.018999999
9.5209999 1.631 -0.018999999
9.5430002 1.663 -0.018999999
9.5719995 1.696 -0.018999999
9.7209997 1.751 -0.02
12.532 2.2939999 -0.026000001
12.577 2.3399999 -0.026000001
12.582 2.378 -0.026000001
12.603 2.4200001 -0.027000001
12.611 2.46 -0.027000001
9.7360001 1.928 -0.021
9.6429996 1.939 -0.021
9.6070004 1.961 -0.021
9.6199999 1.993 -0.021
9.6630001 2.0320001 -0.021
9.842 2.0999999 -0.022
12.698 2.7490001 -0.028999999
12.703 2.789 -0.028999999
12.709 2.8299999 -0.028999999
12.731 2.875 -0.029999999
12.763 2.9219999 -0.029999999
12.762 2.9619999 -0.029999999
12.783 3.0079999 -0.030999999
12.809 3.0539999 -0.030999999
12.822 3.098 -0.030999999
12.862 3.1489999 -0.032000002
12.867 3.1919999 -0.032000002
12.879 3.2360001 -0.032000002
12.913 3.286 -0.033
12.916 3.329 -0.033
12.926 3.3729999 -0.033
12.99 3.4319999 -0.034000002
12.996 3.4760001 -0.034000002
13.023 3.526 -0.034000002
13.058 3.5780001 -0.035
13.102 3.6340001 -0.035
13.105 3.678 -0.035
13.12 3.7249999 -0.035999998
13.16 3.7809999 -0.035999998
13.233 3.846 -0.037
13.242 3.892 -0.037
13.301 3.954 -0.037
13.361 4.0170002 -0.037999999
13.386 4.0700002 -0.037999999
13.427 4.1279998 -0.039000001
13.429 4.1729999 -0.039000001
13.465 4.23 -0.039000001
13.487 4.283 -0.039999999
13.528 4.342 -0.039999999
13.556 4.3979998 -0.041000001
13.582 4.4530001 -0.041000001
13.595 4.5029998 -0.041000001
13.629 4.5619998 -0.041999999
13.693 4.6300001 -0.041999999
13.731 4.691 -0.043000001
13.765 4.75 -0.043000001
13.793 4.8080001 -0.044
13.798 4.8569999 -0.044
13.865 4.9289999 -0.044
13.908 4.993 -0.045000002
13.944 5.0549998 -0.045000002
14.018 5.131 -0.046
14.059 5.1950002 -0.046
14.11 5.2639999 -0.046999998
14.152 5.329 -0.046999998
14.166 5.3850002 -0.048
14.274 5.4759998 -0.048999999
14.321 5.5450001 -0.048999999
14.353 5.6079998 -0.050000001
14.391 5.6739998 -0.050000001
14.482 5.7620001 -0.050999999
14.528 5.8309999 -0.050999999
14.566 5.8990002 -0.052000001
14.575 5.9549999 -0.052000001
14.616 6.0240002 -0.052999999
14.593 6.0669999 -0.052999999
14.601 6.1220002 -0.052999999
14.584 6.1680002 -0.054000001
14.574 6.2160001 -0.054000001
14.649 6.3010001 -0.055
12.274 6.0370002 -0.050999999
12.207 6.0489998 -0.050999999
12.24 6.1100001 -0.052000001
12.169 6.119 -0.052000001
12.188 6.1729999 -0.052000001
12.265 6.257 -0.052999999
12.101 6.2179999 -0.052000001
12.1 6.2610002 -0.052999999
12.13 6.3210001 -0.052999999
12.108 6.3540001 -0.052999999
12.046 6.3649998 -0.052999999
12.067 6.4200001 -0.054000001
12.124 6.4949999 -0.054000001
12.105 6.5289998 -0.055
12.172 6.6090002 -0.055
12.255 6.6989999 -0.056000002
10.736 6.2189999 -0.052000001
10.547 6.1479998 -0.050999999
10.448 6.1279998 -0.050999999
10.396 6.1350002 -0.050999999
10.369 6.1560001 -0.050999999
10.337 6.1739998 -0.050999999
10.349 6.2179999 -0.052000001
10.341 6.25 -0.052000001
10.385 6.3140001 -0.052000001
10.508 6.4260001 -0.052999999
10.097 6.6680002 -0.055
9.9139996 6.5819998 -0.055
9.849 6.572 -0.055
9.8389997 6.598 -0.055
9.8870001 6.664 -0.055
7.6880002 -4.527 0.086000003
7.6999998 -4.5120001 0.086000003
7.7069998 -4.4949999 0.086999997
7.7270002 -4.4840002 0.086999997
7.7350001 -4.467 0.086999997
7.7340002 -4.4439998 0.086999997
7.7540002 -4.434 0.086999997
7.7810001 -4.427 0.088
7.7800002 -4.4039998 0.088
7.7849998 -4.3850002 0.088
7.809 -4.3759999 0.088
7.8140001 -4.3569999 0.088
7.8210001 -4.3379998 0.088
7.8270001 -4.3189998 0.088
7.8429999 -4.3060002 0.089000002
7.8470001 -4.2849998 0.089000002
7.869 -4.2750001 0.089000002
7.868 -4.2519999 0.089000002
7.8860002 -4.2389998 0.089000002
7.8899999 -4.2179999 0.089000002
7.9050002 -4.204 0.090000004
7.914 -4.1859999 0.090000004
7.934 -4.1739998 0.090000004
7.9590001 -4.164 0.090000004
7.9499998 -4.1360002 0.090000004
7.9749999 -4.1269999 0.090999998
7.9629998 -4.0970001 0.090999998
7.9780002 -4.0819998 0.090999998
8.0059996 -4.073 0.090999998
8.0100002 -4.052 0.090999998
8.0159998 -4.0320001 0.090999998
8.0279999 -4.0149999 0.092
8.0419998 -3.9990001 0.092
8.0649996 -3.987 0.092
8.0780001 -3.97 0.092
8.0950003 -3.9549999 0.093000002
8.099 -3.934 0.093000002
8.1190004 -3.9200001 0.093000002
8.1359997 -3.905 0.093000002
8.1470003 -3.8859999 0.093000002
8.1709995 -3.8740001 0.093999997
8.177 -3.8540001 0.093999997
8.1759996 -3.829 0.093999997
8.2030001 -3.8180001 0.093999997
8.2119999 -3.7980001 0.093999997
8.2410002 -3.7880001 0.094999999
8.2349997 -3.7620001 0.094999999
8.2639999 -3.7509999 0.094999999
8.2790003 -3.734 0.094999999
8.2950001 -3.717 0.096000001
8.3009996 -3.6960001 0.096000001
8.3269997 -3.6830001 0.096000001
8.3269997 -3.6589999 0.096000001
8.3509998 -3.645 0.096000001
8.3599997 -3.625 0.096000001
8.3800001 -3.609 0.097000003
8.4020004 -3.595 0.097000003
8.3940001 -3.566 0.097000003
8.4139996 -3.5510001 0.097000003
8.4390001 -3.5369999 0.097999997
8.448 -3.516 0.097999997
8.467 -3.5 0.097999997
8.4820004 -3.4809999 0.097999997
8.4980001 -3.4630001 0.097999997
8.5190001 -3.447 0.098999999
8.5270004 -3.4260001 0.098999999
8.5290003 -3.402 0.098999999
8.566 -3.391 0.098999999
8.5600004 -3.365 0.098999999
8.5670004 -3.342 0.1
8.5860004 -3.325 0.1
8.6120005 -3.3099999 0.1
8.6280003 -3.2909999 0.1
8.6549997 -3.276 0.101
8.6780005 -3.26 0.101
8.684 -3.237 0.101
8.7060003 -3.22 0.101
8.7290001 -3.2030001 0.102
8.7370005 -3.181 0.102
8.7410002 -3.1570001 0.102
8.7749996 -3.1440001 0.102
8.7810001 -3.1210001 0.103
8.809 -3.105 0.103
8.8170004 -3.082 0.103
8.8319998 -3.062 0.103
8.8549995 -3.0450001 0.104
8.882 -3.0280001 0.104
8.9029999 -3.0090001 0.104
8.9160004 -2.9879999 0.104
8.9329996 -2.9679999 0.105
8.9569998 -2.95 0.105
8.9870005 -2.934 0.105
9.0010004 -2.9130001 0.106
9.0310001 -2.8959999 0.106
9.0679998 -2.882 0.107
9.0670004 -2.855 0.107
9.0830002 -2.8340001 0.107
9.1420002 -2.826 0.108
9.1639996 -2.806 0.108
9.1730003 -2.783 0.108
9.2030001 -2.7650001 0.108
9.2110004 -2.7409999 0.109
9.2670002 -2.7309999 0.109
9.2690001 -2.7049999 0.109
9.29 -2.684 0.11
9.3170004 -2.665 0.11
9.3179998 -2.6389999 0.11
9.3400002 -2.618 0.11
9.3870001 -2.6040001 0.111
9.4069996 -2.5829999 0.111
9.4239998 -2.5599999 0.111
9.4610004 -2.543 0.112
9.4709997 -2.5179999 0.112
9.4969997 -2.4979999 0.112
9.533 -2.48 0.113
9.6000004 -2.47 0.114
9.5950003 -2.441 0.114
9.6070004 -2.4170001 0.114
9.6210003 -2.392 0.114
9.6389999 -2.369 0.114
9.7030001 -2.3570001 0.115
9.7410002 -2.3380001 0.116
9.7860003 -2.3210001 0.116
9.8059998 -2.2980001 0.117
9.842 -2.2780001 0.117
9.8459997 -2.25 0.117
9.875 -2.2290001 0.117
9.9119997 -2.2079999 0.118
9.9200001 -2.1819999 0.118
9.9469995 -2.1589999 0.118
9.967 -2.135 0.119
9.9750004 -2.108 0.119
10.028 -2.0910001 0.12
10.061 -2.069 0.12
10.089 -2.046 0.12
10.136 -2.026 0.121
10.148 -1.999 0.121
10.177 -1.976 0.122
10.188 -1.949 0.122
10.235 -1.929 0.122
10.237 -1.9 0.122
10.279 -1.878 0.123
10.304 -1.853 0.123
10.348 -1.831 0.124
10.397 -1.8099999 0.124
10.422 -1.785 0.125
10.424 -1.756 0.125
10.48 -1.735 0.126
10.52 -1.712 0.126
10.569 -1.689 0.127
10.589 -1.6619999 0.127
10.596 -1.633 0.127
10.637 -1.609 0.12800001
10.664 -1.5829999 0.12800001
10.726 -1.561 0.12899999
10.749 -1.534 0.12899999
10.797 -1.51 0.13
10.807 -1.4809999 0.13
10.833 -1.4529999 0.13
10.869 -1.427 0.131
10.882 -1.398 0.131
10.958 -1.376 0.132
10.975 -1.347 0.132
11.003 -1.319 0.133
11.048 -1.293 0.133
11.07 -1.2640001 0.133
11.116 -1.238 0.134
11.164 -1.211 0.13500001
11.176 -1.181 0.13500001
11.221 -1.154 0.13500001
11.251 -1.125 0.13600001
11.291 -1.096 0.13600001
11.352 -1.0700001 0.13699999
11.443 -1.046 0.138
11.518 -1.02 0.139
11.566 -0.99199998 0.14
11.62 -0.963 0.141
11.652 -0.93300003 0.141
11.691 -0.90200001 0.141
11.843 -0.88099998 0.14300001
11.854 -0.84799999 0.14399999
12.337 0.34400001 0.014
12.367 0.36199999 0.014
12.23 0.375 0.014
12.226 0.39199999 0.013
12.199 0.40900001 0.013
12.199 0.42699999 0.013
12.2 0.44499999 0.013
12.2 0.46399999 0.013
12.137 0.47999999 0.012
12.187 0.50099999 0.012
12.153 0.51899999 0.012
12.155 0.53899997 0.012
12.169 0.55900002 0.012
12.153 0.57800001 0.012
12.168 0.60000002 0.011
12.187 0.62099999 0.011
12.184 0.64200002 0.011
12.196 0.66399997 0.011
12.181 0.68400002 0.011
12.197 0.70700002 0.011
12.2 0.72899997 0.0099999998
12.183 0.75099999 0.0099999998
12.211 0.77499998 0.0099999998
12.215 0.79799998 0.0099999998
12.217 0.82099998 0.0099999998
12.182 0.84200001 0.0089999996
12.167 0.86500001 0.0089999996
12.107 0.884 0.0089999996
12.065 0.90499997 0.0089999996
12.035 0.92699999 0.0089999996
11.952 0.94400001 0.0080000004
11.849 0.95999998 0.0080000004
11.779 0.97899997 0.0080000004
11.756 1.001 0.0080000004
11.735 1.024 0.0070000002
11.725 1.048 0.0070000002
11.719 1.073 0.0070000002
11.699 1.096 0.0070000002
11.697 1.1210001 0.0070000002
11.715 1.149 0.0070000002
11.733 1.176 0.0060000001
11.791 1.2079999 0.0060000001
12.29 1.2869999 0.0060000001
12.37 1.324 0.0060000001
12.406 1.3559999 0.0060000001
12.438 1.388 0.0060000001
12.463 1.42 0.0060000001
12.464 1.449 0.0049999999
12.456 1.478 0.0049999999
12.472 1.51 0.0049999999
12.482 1.541 0.0049999999
12.505 1.574 0.0049999999
12.507 1.605 0.0040000002
12.545 1.64 0.0040000002
12.534 1.67 0.0040000002
12.578 1.707 0.0040000002
12.589 1.74 0.0040000002
12.608 1.775 0.003
12.598 1.806 0.003
12.628 1.842 0.003
12.632 1.875 0.003
12.633 1.908 0.003
12.659 1.946 0.0020000001
12.691 1.984 0.0020000001
12.729 2.0239999 0.0020000001
9.6949997 1.567 0.001
12.815 2.072 0.0020000001
9.5939999 1.577 0.001
9.533 1.592 0.001
9.5380001 1.619 0.001
9.5530005 1.648 0.001
9.5819998 1.679 0.001
9.6660004 1.721 -0
12.834 2.2850001 0.001
12.837 2.3210001 -0
12.839 2.358 -0
12.83 2.392 -0
12.846 2.4319999 -0
12.87 2.473 -0
9.7959995 1.91 -0
12.912 2.5179999 -0
9.6639996 1.913 -0
9.6169996 1.931 -0
9.5970001 1.955 -0
9.6199999 1.988 -0
9.6479998 2.0220001 -0
13.316 2.7920001 -0.001
9.809 2.085 -0.001
12.974 2.7590001 -0.001
12.96 2.7939999 -0.001
12.993 2.8399999 -0.001
12.982 2.8770001 -0.0020000001
12.994 2.9189999 -0.0020000001
12.998 2.96 -0.0020000001
13.018 3.0039999 -0.0020000001
13.036 3.049 -0.003
13.059 3.095 -0.003
13.09 3.1429999 -0.003
13.138 3.1960001 -0.003
13.165 3.243 -0.003
13.16 3.2839999 -0.0040000002
13.145 3.322 -0.0040000002
13.227 3.385 -0.0040000002
13.269 3.438 -0.0040000002
13.294 3.4879999 -0.0049999999
13.285 3.5280001 -0.0049999999
13.343 3.5869999 -0.0049999999
13.37 3.638 -0.0049999999
13.385 3.6860001 -0.0060000001
13.413 3.7390001 -0.0060000001
13.422 3.7850001 -0.0060000001
13.469 3.8440001 -0.0060000001
13.519 3.9030001 -0.0070000002
13.611 3.9760001 -0.0070000002
13.651 4.0339999 -0.0070000002
13.68 4.0890002 -0.0080000004
13.673 4.1329999 -0.0080000004
13.686 4.184 -0.0080000004
13.733 4.2459998 -0.0080000004
13.758 4.3010001 -0.0089999996
13.836 4.3730001 -0.0089999996
13.83 4.4200001 -0.0089999996
13.854 4.4759998 -0.0089999996
13.87 4.5300002 -0.0099999998
13.91 4.592 -0.0099999998
13.938 4.651 -0.0099999998
13.985 4.717 -0.011
14.018 4.7779999 -0.011
14.086 4.8520002 -0.011
14.123 4.9159999 -0.011
14.124 4.967 -0.012
14.205 5.0479999 -0.012
14.3 5.1339998 -0.012
14.356 5.2069998 -0.013
14.412 5.2800002 -0.013
14.468 5.3540001 -0.013
14.557 5.441 -0.014
14.641 5.527 -0.014
14.619 5.5739999 -0.014
14.642 5.638 -0.015
14.674 5.7049999 -0.015
14.712 5.776 -0.015
14.715 5.8330002 -0.016000001
14.761 5.908 -0.016000001
14.768 5.9679999 -0.016000001
14.823 6.0469999 -0.017000001
14.879 6.1269999 -0.017000001
14.822 6.1609998 -0.017000001
14.761 6.1929998 -0.017000001
14.736 6.2410002 -0.017999999
12.316 5.9619999 -0.017999999
12.248 5.98 -0.018999999
12.165 5.9899998 -0.018999999
12.154 6.0359998 -0.018999999
12.208 6.1139998 -0.018999999
12.187 6.1550002 -0.02
12.264 6.2449999 -0.02
12.114 6.2210002 -0.02
12.159 6.296 -0.02
12.248 6.3940001 -0.021
12.109 6.3740001 -0.021
12.047 6.3930001 -0.021
12.098 6.4720001 -0.021
12.129 6.5419998 -0.022
12.131 6.5960002 -0.022
12.134 6.651 -0.022
10.71 6.2989998 -0.022
10.492 6.2179999 -0.021
10.413 6.2189999 -0.021
10.391 6.2529998 -0.022
10.38 6.2940001 -0.022
10.419 6.3649998 -0.022
10.477 6.4489999 -0.022
9.8579998 6.7659998 -0.025
9.7469997 6.737 -0.024
9.6730003 6.7329998 -0.024
9.651 6.7639999 -0.025
9.6560001 6.8150001 -0.025
9.6829996 6.882 -0.025
9.7329998 6.9650002 -0.026000001
9.7390003 7.0180001 -0.026000001
7.3569999 -4.848 0.101
7.3860002 -4.8200002 0.102
7.4169998 -4.7940001 0.102
7.448 -4.7680001 0.102
7.4699998 -4.737 0.103
7.4980001 -4.7090001 0.103
7.526 -4.6810002 0.103
7.5500002 -4.651 0.104
7.5770001 -4.6240001 0.104
7.5949998 -4.5900002 0.104
7.6009998 -4.5500002 0.104
7.6440001 -4.5320001 0.105
7.6529999 -4.493 0.105
7.677 -4.4640002 0.105
7.7030001 -4.4359999 0.106
7.7090001 -4.3969998 0.106
7.7449999 -4.375 0.106
7.7649999 -4.3439999 0.107
7.776 -4.3080001 0.107
7.7989998 -4.2789998 0.107
7.8270001 -4.2529998 0.107
7.8590002 -4.2290001 0.108
7.8579998 -4.1869998 0.108
7.8639998 -4.1500001 0.108
7.9099998 -4.1329999 0.108
7.9419999 -4.1100001 0.109
7.9619999 -4.0799999 0.109
7.9720001 -4.0450001 0.109
7.994 -4.0159998 0.11
8.0229998 -3.9909999 0.11
8.0469999 -3.9630001 0.11
8.0810003 -3.941 0.111
8.1020002 -3.9119999 0.111
8.1149998 -3.8800001 0.111
8.1569996 -3.8610001 0.112
8.1709995 -3.829 0.112
8.2049999 -3.8069999 0.112
8.2200003 -3.776 0.113
8.2419996 -3.7479999 0.113
8.2690001 -3.723 0.113
8.29 -3.694 0.113
8.309 -3.665 0.114
8.3439999 -3.6440001 0.114
8.368 -3.6170001 0.115
8.3830004 -3.586 0.115
8.3990002 -3.5569999 0.115
8.4359999 -3.536 0.115
8.4429998 -3.5020001 0.116
8.4820004 -3.4820001 0.116
8.5270004 -3.4649999 0.117
8.5430002 -3.4349999 0.117
8.5719995 -3.411 0.117
8.5970001 -3.385 0.118
8.6199999 -3.359 0.118
8.6269999 -3.3269999 0.118
8.6610003 -3.3039999 0.119
8.6870003 -3.279 0.119
8.7229996 -3.2579999 0.119
8.7550001 -3.2349999 0.12
8.7860003 -3.2119999 0.12
8.8070002 -3.1849999 0.121
8.8219995 -3.1559999 0.121
8.8459997 -3.1300001 0.121
8.8920002 -3.112 0.122
8.9219999 -3.089 0.122
8.9549999 -3.066 0.123
8.9799995 -3.0409999 0.123
9.0129995 -3.0179999 0.123
9.0719995 -3.0050001 0.124
9.1009998 -2.9809999 0.125
9.1429996 -2.961 0.125
9.1689997 -2.9360001 0.126
9.2200003 -2.9189999 0.126
9.3800001 -2.9360001 0.12899999
9.3870001 -2.905 0.12899999
9.3540001 -2.8610001 0.12800001
9.3620005 -2.8310001 0.12800001
9.4169998 -2.8150001 0.12899999
9.4320002 -2.786 0.12899999
9.4820004 -2.7679999 0.13
9.5129995 -2.7449999 0.131
9.5609999 -2.7260001 0.131
9.5819998 -2.7 0.132
9.6020002 -2.6730001 0.132
9.6619997 -2.6570001 0.133
9.6879997 -2.6329999 0.133
9.7399998 -2.6140001 0.134
9.783 -2.5940001 0.134
9.8120003 -2.5699999 0.13500001
9.8450003 -2.5469999 0.13500001
9.882 -2.5239999 0.13600001
9.9090004 -2.5 0.13600001
9.9250002 -2.4719999 0.13600001
9.9420004 -2.4449999 0.13699999
9.9890003 -2.4260001 0.13699999
10.024 -2.4030001 0.138
10.028 -2.3729999 0.138
10.072 -2.352 0.139
10.05 -2.316 0.138
10.099 -2.2969999 0.139
10.132 -2.2739999 0.139
10.157 -2.2490001 0.14
10.204 -2.2290001 0.141
10.213 -2.201 0.141
10.257 -2.181 0.141
10.284 -2.1559999 0.142
10.305 -2.131 0.142
10.34 -2.108 0.14300001
10.379 -2.086 0.14300001
10.428 -2.0669999 0.14399999
10.433 -2.0380001 0.14399999
10.436 -2.0090001 0.14399999
10.482 -1.989 0.145
10.492 -1.962 0.145
10.538 -1.941 0.145
10.543 -1.913 0.146
10.59 -1.893 0.146
10.597 -1.8660001 0.146
10.657 -1.848 0.147
10.662 -1.8200001 0.147
10.695 -1.7970001 0.148
10.73 -1.775 0.148
10.769 -1.753 0.149
10.794 -1.729 0.149
10.804 -1.7029999 0.149
10.832 -1.679 0.15000001
10.876 -1.659 0.15099999
10.879 -1.631 0.15099999
10.939 -1.613 0.15099999
10.967 -1.59 0.152
10.963 -1.562 0.152
10.986 -1.538 0.152
10.994 -1.512 0.152
11.003 -1.4859999 0.153
11.028 -1.4630001 0.153
11.069 -1.442 0.154
11.091 -1.418 0.154
11.109 -1.3940001 0.154
11.145 -1.372 0.155
11.165 -1.349 0.155
11.202 -1.327 0.156
11.243 -1.306 0.156
11.268 -1.283 0.15700001
11.306 -1.261 0.15700001
11.336 -1.239 0.15800001
11.382 -1.2180001 0.15800001
11.392 -1.194 0.15899999
11.409 -1.17 0.15899999
11.438 -1.148 0.15899999
11.471 -1.126 0.16
11.509 -1.105 0.16
11.539 -1.082 0.161
11.56 -1.0599999 0.161
11.604 -1.039 0.162
11.645 -1.018 0.162
11.683 -0.99699998 0.163
11.849 -0.986 0.16500001
11.899 -0.96499997 0.16599999
11.912 -0.94199997 0.16599999
11.947 0.155 0.048
12.001 0.177 0.048
12.034 0.199 0.048
12.042 0.221 0.048
12.063 0.244 0.048
12.068 0.26699999 0.048
12.073 0.28999999 0.048
12.054 0.31299999 0.046999998
12.079 0.33700001 0.046999998
12.086 0.361 0.046999998
12.092 0.38499999 0.046999998
12.099 0.41 0.046999998
12.09 0.43399999 0.046999998
12.098 0.45899999 0.046999998
12.097 0.484 0.046
12.115 0.50999999 0.046
12.116 0.53500003 0.046
12.156 0.56300002 0.046
12.143 0.588 0.046
12.163 0.616 0.046
12.171 0.64300001 0.045000002
12.176 0.67000002 0.045000002
12.183 0.69700003 0.045000002
12.193 0.72500002 0.045000002
12.198 0.75300002 0.045000002
12.195 0.77999997 0.045000002
12.219 0.81 0.045000002
12.213 0.838 0.044
12.154 0.86199999 0.044
12.087 0.88499999 0.043000001
12.037 0.91000003 0.043000001
11.986 0.935 0.043000001
11.904 0.95700002 0.041999999
11.812 0.97799999 0.041999999
11.758 1.002 0.041000001
11.74 1.03 0.041000001
11.706 1.056 0.041000001
11.706 1.085 0.041000001
11.692 1.112 0.039999999
11.691 1.142 0.039999999
11.713 1.174 0.039999999
11.746 1.207 0.039999999
11.841 1.247 0.039999999
12.419 1.34 0.041999999
12.456 1.376 0.041999999
12.511 1.415 0.041999999
12.547 1.452 0.041999999
12.543 1.485 0.041999999
12.553 1.5190001 0.041000001
12.565 1.554 0.041000001
12.584 1.59 0.041000001
12.58 1.624 0.041000001
12.622 1.664 0.041000001
12.644 1.701 0.041000001
12.685 1.7410001 0.041000001
12.71 1.78 0.041000001
12.734 1.819 0.039999999
12.711 1.851 0.039999999
12.737 1.89 0.039999999
12.738 1.926 0.039999999
12.78 1.969 0.039999999
12.801 2.0079999 0.039999999
12.827 2.049 0.039000001
9.8380003 1.6 0.029999999
12.89 2.096 0.039000001
9.6230001 1.5930001 0.028999999
13.287 2.1989999 0.039999999
9.552 1.608 0.028999999
9.5340004 1.633 0.028999999
9.5749998 1.668 0.028999999
9.6059999 1.702 0.028000001
9.7040005 1.748 0.028999999
12.989 2.3399999 0.037999999
12.98 2.3759999 0.037999999
12.996 2.418 0.037999999
13.019 2.461 0.037999999
13.044 2.5050001 0.037999999
9.8109999 1.914 0.028000001
13.095 2.5539999 0.037999999
9.6630001 1.914 0.028000001
9.6110001 1.933 0.027000001
9.5950003 1.959 0.027000001
9.6070004 1.9910001 0.027000001
9.6639996 2.0320001 0.027000001
13.451 2.829 0.037999999
9.9200001 2.1170001 0.028000001
13.231 2.823 0.037
13.224 2.8629999 0.037
13.26 2.9119999 0.037
13.261 2.9530001 0.035999998
13.284 3 0.035999998
13.278 3.04 0.035999998
13.359 3.1010001 0.035999998
13.386 3.1489999 0.035999998
13.426 3.201 0.035999998
13.453 3.2509999 0.035
13.479 3.3 0.035
13.49 3.346 0.035
13.509 3.3940001 0.035
13.568 3.4519999 0.035
13.616 3.5090001 0.035
13.692 3.573 0.035
13.713 3.6229999 0.035
13.727 3.671 0.034000002
13.757 3.724 0.034000002
13.76 3.77 0.034000002
13.809 3.829 0.034000002
13.875 3.8929999 0.034000002
13.892 3.944 0.034000002
13.959 4.0100002 0.034000002
13.974 4.0609999 0.033
13.969 4.105 0.033
14.005 4.1630001 0.033
14.021 4.2150002 0.033
14.081 4.2800002 0.033
14.138 4.3449998 0.033
14.19 4.4089999 0.032000002
14.233 4.4710002 0.032000002
14.285 4.5359998 0.032000002
14.297 4.5879998 0.032000002
14.328 4.6469998 0.032000002
14.345 4.7020001 0.032000002
14.381 4.763 0.030999999
14.445 4.8340001 0.030999999
14.475 4.8940001 0.030999999
14.474 4.9439998 0.030999999
14.606 5.039 0.030999999
14.718 5.1290002 0.030999999
14.739 5.1880002 0.030999999
14.737 5.2379999 0.029999999
14.825 5.3210001 0.029999999
14.845 5.381 0.029999999
14.837 5.4299998 0.029999999
14.97 5.5310001 0.029999999
15.077 5.6230001 0.029999999
15.104 5.6869998 0.029999999
15.218 5.783 0.029999999
15.304 5.8699999 0.028999999
15.24 5.9000001 0.028999999
15.282 5.9699998 0.028999999
15.244 6.0089998 0.028999999
15.288 6.0809999 0.028000001
15.326 6.151 0.028000001
15.407 6.2379999 0.028000001
15.386 6.2849998 0.028000001
15.469 6.3740001 0.028000001
15.59 6.48 0.028000001
