# .PCD v0.7 - Point Cloud Data file format
VERSION 0.7
FIELDS x y z
SIZE 4 4 4
TYPE F F F
COUNT 1 1 1
WIDTH 1857
HEIGHT 1
VIEWPOINT 0 0 0 1 0 0 0
POINTS 1857
DATA ascii
11.537 1.568 0.175
14.057 1.946 0.213
14.066 1.983 0.213
14.123 2.027 0.214
11.224 1.6390001 0.17
11.127 1.654 0.169
11.09 1.677 0.168
11.093 1.706 0.168
11.109 1.738 0.168
11.234 1.7869999 0.17
14.414 2.2939999 0.21799999
14.327 2.3180001 0.21699999
14.377 2.3640001 0.21699999
14.427 2.4119999 0.21799999
14.482 2.46 0.219
14.464 2.497 0.219
14.442 2.533 0.21799999
14.309 2.549 0.21600001
14.131 2.5569999 0.213
14.078 2.586 0.212
14.101 2.6300001 0.213
14.211 2.691 0.214
14.779 2.8410001 0.223
14.824 2.892 0.223
14.871 2.944 0.22400001
13.894 2.7909999 0.20900001
13.801 2.813 0.208
13.761 2.845 0.207
13.756 2.8840001 0.207
13.807 2.9360001 0.208
15.067 3.2490001 0.227
15.075 3.296 0.227
15.203 3.3699999 0.229
15.202 3.415 0.229
15.218 3.4660001 0.229
15.241 3.5179999 0.229
15.263 3.5699999 0.23
15.287 3.6229999 0.23
15.421 3.7019999 0.23199999
15.45 3.7579999 0.23199999
15.508 3.8199999 0.233
15.465 3.859 0.23199999
15.515 3.9200001 0.233
15.585 3.9879999 0.234
15.624 4.0479999 0.235
15.658 4.1069999 0.235
15.707 4.171 0.236
15.83 4.2550001 0.23800001
15.817 4.303 0.23800001
15.835 4.3600001 0.23800001
15.888 4.427 0.23899999
15.964 4.5019999 0.23999999
16.058001 4.5819998 0.241
16.075001 4.6399999 0.242
16.136 4.7119999 0.243
16.179001 4.7789998 0.243
16.4 4.9000001 0.24699999
16.326 4.934 0.245
16.355 4.9990001 0.24600001
16.351999 5.0539999 0.24600001
16.431999 5.1350002 0.24699999
16.427 5.191 0.24699999
16.478001 5.2649999 0.248
16.478001 5.322 0.248
16.559 5.4070001 0.249
16.625 5.487 0.25
16.656 5.5560002 0.25099999
16.687 5.6259999 0.25099999
16.747 5.7059999 0.252
16.815001 5.79 0.25299999
16.878 5.8720002 0.25400001
16.913 5.9460001 0.255
16.924999 6.0120001 0.255
10.002 3.925 0.15099999
9.8500004 3.9030001 0.149
9.8070002 3.9230001 0.148
9.8009996 3.9590001 0.148
9.7969999 3.9949999 0.148
9.7089996 3.9960001 0.147
9.6400003 4.006 0.146
9.6210003 4.0349998 0.145
9.6269999 4.0749998 0.145
9.7089996 4.1479998 0.147
12.853 5.4910002 0.19400001
12.675 5.4650002 0.192
12.558 5.4640002 0.19
12.653 5.5560002 0.192
12.386 5.8899999 0.18799999
12.25 5.8769999 0.186
12.279 6.0949998 0.18700001
12.179 6.0970001 0.186
12.18 6.3039999 0.186
12.164 6.348 0.186
12.185 6.4109998 0.186
12.213 6.4780002 0.18700001
8.1660004 -5.375 0.229
8.2130003 -5.3540001 0.23100001
8.2530003 -5.329 0.23199999
8.2740002 -5.2919998 0.23199999
8.3219995 -5.2719998 0.233
8.3369999 -5.23 0.233
8.3769999 -5.2049999 0.234
8.4020004 -5.171 0.235
8.448 -5.1490002 0.236
8.4639997 -5.1100001 0.236
8.4940004 -5.079 0.237
8.507 -5.0380001 0.237
8.5340004 -5.0050001 0.23800001
8.573 -4.98 0.23899999
8.5950003 -4.9450002 0.23899999
8.6160002 -4.9089999 0.23999999
8.6339998 -4.8720002 0.23999999
8.6619997 -4.8410001 0.241
8.6999998 -4.8150001 0.242
8.7200003 -4.7800002 0.242
8.7860003 -4.7690001 0.244
8.7950001 -4.7280002 0.244
8.7959995 -4.6830001 0.244
8.809 -4.6440001 0.244
8.8219995 -4.6059999 0.245
8.849 -4.5749998 0.245
8.875 -4.5430002 0.24600001
8.9020004 -4.513 0.24600001
8.9460001 -4.4899998 0.248
8.9639997 -4.4549999 0.248
8.9809999 -4.4200001 0.248
9.0030003 -4.3870001 0.249
9.04 -4.362 0.25
9.092 -4.3429999 0.25099999
9.1129999 -4.3099999 0.252
9.1330004 -4.277 0.252
9.1540003 -4.244 0.25299999
9.1739998 -4.211 0.25299999
9.1929998 -4.177 0.25299999
9.2259998 -4.1500001 0.25400001
9.2340002 -4.112 0.25400001
9.2810001 -4.0910001 0.25600001
9.3179998 -4.066 0.25600001
9.3330002 -4.0310001 0.257
9.3610001 -4.0019999 0.25799999
9.3950005 -3.9760001 0.25799999
9.4329996 -3.951 0.259
9.4639997 -3.9230001 0.25999999
9.4860001 -3.892 0.26100001
9.5249996 -3.868 0.26199999
9.54 -3.8340001 0.26199999
9.5629997 -3.803 0.26300001
9.5799999 -3.77 0.26300001
9.6099997 -3.7420001 0.264
9.6470003 -3.717 0.26499999
9.6739998 -3.688 0.26499999
9.7060003 -3.6619999 0.266
9.7189999 -3.628 0.266
9.7539997 -3.602 0.26699999
9.7779999 -3.572 0.26800001
9.8009996 -3.543 0.26800001
9.835 -3.517 0.26899999
9.8409996 -3.4809999 0.26899999
9.8739996 -3.454 0.27000001
9.9329996 -3.437 0.27200001
9.9359999 -3.401 0.27200001
9.9840002 -3.3800001 0.273
9.9980001 -3.3469999 0.273
10.03 -3.3210001 0.27399999
10.063 -3.2939999 0.27500001
10.109 -3.273 0.27599999
10.185 -3.26 0.278
10.201 -3.2279999 0.27900001
10.224 -3.1989999 0.27900001
10.197 -3.154 0.278
10.216 -3.1240001 0.27900001
10.26 -3.1010001 0.28
10.282 -3.072 0.28099999
10.308 -3.0439999 0.28099999
10.335 -3.017 0.28200001
10.376 -2.993 0.28299999
10.385 -2.96 0.28299999
10.418 -2.934 0.28400001
10.469 -2.914 0.285
10.506 -2.8889999 0.28600001
10.536 -2.862 0.287
10.553 -2.832 0.28799999
10.596 -2.809 0.289
10.64 -2.786 0.28999999
10.688 -2.7639999 0.29100001
10.687 -2.73 0.29100001
10.708 -2.701 0.292
10.768 -2.6819999 0.29300001
10.793 -2.654 0.294
10.798 -2.622 0.294
10.853 -2.6010001 0.296
10.889 -2.576 0.296
10.912 -2.5480001 0.29699999
10.981 -2.5309999 0.29899999
10.99 -2.5 0.29899999
10.998 -2.4679999 0.29899999
11.051 -2.447 0.301
11.078 -2.4200001 0.30199999
11.126 -2.398 0.303
11.148 -2.3699999 0.303
11.193 -2.3469999 0.30500001
11.228 -2.322 0.30599999
11.29 -2.302 0.30700001
11.32 -2.276 0.308
11.369 -2.253 0.30899999
11.41 -2.2290001 0.31
11.433 -2.2019999 0.31099999
11.504 -2.1830001 0.31299999
11.53 -2.1559999 0.31400001
11.631 -2.1429999 0.31600001
11.607 -2.1070001 0.31600001
11.628 -2.079 0.31600001
11.689 -2.059 0.31799999
11.748 -2.0380001 0.31999999
11.737 -2.0039999 0.31900001
11.807 -1.985 0.32100001
11.854 -1.962 0.322
11.937 -1.944 0.32499999
12.025 -1.927 0.32699999
12.009 -1.8940001 0.32699999
11.983 -1.859 0.32600001
12.009 -1.832 0.32699999
12.043 -1.807 0.32800001
12.058 -1.779 0.32800001
12.129 -1.7589999 0.33000001
12.123 -1.728 0.33000001
12.165 -1.704 0.331
12.196 -1.678 0.33199999
12.215 -1.651 0.33199999
12.234 -1.624 0.333
12.266 -1.599 0.33399999
12.294 -1.573 0.33399999
12.316 -1.5470001 0.33500001
12.363 -1.524 0.336
12.391 -1.498 0.33700001
12.457 -1.477 0.33899999
12.43 -1.4450001 0.338
12.458 -1.42 0.33899999
12.529 -1.399 0.34099999
12.571 -1.375 0.34200001
12.67 -1.358 0.345
12.682 -1.331 0.345
12.754 -1.3099999 0.347
12.782 -1.284 0.34799999
12.864 -1.2640001 0.34999999
12.965 -1.2460001 0.35299999
13.36 0.17900001 0.25
13.44 0.204 0.25099999
13.452 0.229 0.25099999
13.442 0.25299999 0.25099999
13.454 0.278 0.25099999
13.451 0.303 0.25099999
13.452 0.329 0.25
13.443 0.354 0.25
13.449 0.38 0.25
13.445 0.40700001 0.25
13.441 0.433 0.249
13.463 0.461 0.25
13.45 0.48699999 0.249
13.468 0.51599997 0.249
13.467 0.54299998 0.249
13.484 0.57200003 0.249
13.47 0.60000002 0.249
13.47 0.62800002 0.249
13.452 0.65600002 0.248
13.463 0.68599999 0.248
13.462 0.71499997 0.248
13.479 0.745 0.248
13.515 0.77700001 0.249
13.498 0.80599999 0.248
13.503 0.83700001 0.248
13.522 0.86900002 0.248
13.52 0.89999998 0.248
13.533 0.93199998 0.248
13.554 0.96499997 0.249
13.552 0.99599999 0.248
13.543 1.028 0.248
13.56 1.061 0.248
13.545 1.092 0.248
13.571 1.127 0.248
13.617 1.164 0.249
13.714 1.206 0.25
13.752 1.243 0.25099999
13.776 1.279 0.25099999
13.764 1.312 0.25099999
13.767 1.347 0.25099999
13.764 1.382 0.25099999
13.807 1.421 0.25099999
13.855 1.462 0.252
13.976 1.51 0.25400001
14.009 1.55 0.255
13.965 1.582 0.25400001
13.989 1.6210001 0.25400001
13.998 1.659 0.25400001
14.01 1.698 0.25400001
14.097 1.7460001 0.25600001
11.553 1.462 0.20900001
11.392 1.472 0.206
11.328 1.494 0.205
11.33 1.526 0.205
11.373 1.563 0.206
14.51 1.994 0.26300001
14.324 2.0079999 0.259
14.313 2.046 0.259
14.374 2.0940001 0.25999999
11.245 1.67 0.20299999
14.553 2.161 0.26300001
11.108 1.681 0.20100001
11.1 1.711 0.2
11.086 1.74 0.2
11.147 1.7819999 0.20100001
14.988 2.3959999 0.27000001
14.708 2.3929999 0.26499999
14.714 2.4360001 0.26499999
14.719 2.48 0.26499999
14.758 2.529 0.266
14.805 2.5799999 0.26699999
14.8 2.6229999 0.26699999
14.288 2.5739999 0.257
14.122 2.586 0.25400001
14.086 2.6210001 0.25299999
14.108 2.668 0.25400001
15.072 2.895 0.271
15.131 2.9519999 0.27200001
15.172 3.006 0.273
13.888 2.793 0.25
13.798 2.8169999 0.248
13.748 2.849 0.24699999
13.769 2.8959999 0.24699999
13.89 2.964 0.249
15.433 3.3410001 0.27700001
15.476 3.398 0.278
15.548 3.4619999 0.27900001
15.552 3.5120001 0.27900001
15.586 3.5680001 0.28
15.671 3.6370001 0.28099999
15.702 3.694 0.28200001
15.801 3.767 0.28299999
15.836 3.826 0.28400001
15.874 3.8859999 0.285
15.901 3.9430001 0.285
15.92 3.9990001 0.285
15.978 4.0650001 0.28600001
16.013 4.1259999 0.287
16.066 4.191 0.28799999
16.087 4.2490001 0.28799999
16.096001 4.3039999 0.28799999
16.211 4.388 0.28999999
16.239 4.448 0.29100001
16.364 4.5359998 0.29300001
16.405001 4.6020002 0.294
16.452999 4.6700001 0.29499999
16.516001 4.743 0.296
16.507 4.7950001 0.296
16.524 4.855 0.296
16.712 4.9660001 0.29899999
16.613001 4.9920001 0.29699999
16.718 5.0799999 0.29899999
16.738001 5.1430001 0.30000001
16.884001 5.2449999 0.30199999
16.879999 5.3010001 0.30199999
16.9 5.3639998 0.303
16.92 5.428 0.303
17.254999 5.5949998 0.30899999
17.052999 5.5869999 0.30500001
17.086 5.6570001 0.30599999
17.17 5.744 0.30700001
17.200001 5.8130002 0.308
17.259001 5.8920002 0.30899999
17.421 6.0079999 0.31200001
9.9540005 3.9219999 0.178
9.8330002 3.9100001 0.176
9.802 3.9319999 0.176
9.79 3.9619999 0.175
9.7840004 3.9949999 0.175
9.7650003 4.0219998 0.175
9.6719999 4.0180001 0.17299999
9.6269999 4.0339999 0.17299999
9.6090002 4.0609999 0.17200001
9.6160002 4.099 0.17299999
9.658 4.152 0.17299999
12.774 5.4910002 0.229
9.9359999 4.3070002 0.178
12.642 5.48 0.227
12.532 5.4770002 0.22499999
12.501 5.5089998 0.22499999
12.697 5.6409998 0.228
12.278 5.901 0.221
12.216 5.9159999 0.22
12.216 6.4060001 0.221
12.182 6.4330001 0.22
12.195 6.4850001 0.221
12.248 6.5570002 0.222
8.7849998 -5.1900001 0.264
8.7930002 -5.1690001 0.264
8.8120003 -5.1550002 0.26499999
8.8249998 -5.138 0.26499999
8.8260002 -5.1129999 0.26499999
8.8520002 -5.1030002 0.266
8.8360004 -5.0689998 0.26499999
8.8599997 -5.0570002 0.266
8.8690004 -5.0370002 0.266
8.8870001 -5.0209999 0.26699999
8.9099998 -5.0079999 0.26800001
8.927 -4.993 0.26800001
8.934 -4.9710002 0.26800001
8.9399996 -4.948 0.26899999
8.9610004 -4.934 0.26899999
8.9549999 -4.9050002 0.26899999
8.9770002 -4.8909998 0.27000001
8.9940004 -4.875 0.27000001
8.9969997 -4.8499999 0.27000001
9.0229998 -4.8379998 0.271
9.0450001 -4.8239999 0.27200001
9.0439997 -4.7969999 0.27200001
9.0550003 -4.777 0.27200001
9.0979996 -4.7729998 0.27399999
9.132 -4.7649999 0.27500001
9.2130003 -4.7800002 0.27700001
9.1969995 -4.7449999 0.27700001
9.1590004 -4.6989999 0.27500001
9.1569996 -4.6719999 0.27500001
9.1680002 -4.651 0.27599999
9.1739998 -4.6269999 0.27599999
9.1780005 -4.6030002 0.27599999
9.1999998 -4.5869999 0.27700001
9.2130003 -4.5669999 0.27700001
9.2159996 -4.5419998 0.27700001
9.243 -4.5279999 0.278
9.2539997 -4.506 0.278
9.2659998 -4.4850001 0.27900001
9.302 -4.4759998 0.28
9.3149996 -4.4549999 0.28
9.3629999 -4.4510002 0.28200001
9.3699999 -4.427 0.28200001
9.3710003 -4.4000001 0.28200001
9.3920002 -4.3829999 0.28299999
9.3970003 -4.3579998 0.28299999
9.4099998 -4.336 0.28299999
9.434 -4.3200002 0.28400001
9.4490004 -4.2989998 0.28400001
9.4630003 -4.2779999 0.285
9.4729996 -4.2550001 0.285
9.4940004 -4.237 0.28600001
9.5019999 -4.2119999 0.28600001
9.5139999 -4.1900001 0.28600001
9.5310001 -4.1700001 0.287
9.5629997 -4.1560001 0.28799999
9.5559998 -4.125 0.28799999
9.5939999 -4.1129999 0.289
9.5900002 -4.0840001 0.289
9.6120005 -4.0650001 0.289
9.6459999 -4.052 0.28999999
9.6590004 -4.0289998 0.29100001
9.6879997 -4.013 0.292
9.6920004 -3.987 0.292
9.7019997 -3.9619999 0.292
9.7150002 -3.9389999 0.292
9.7309999 -3.918 0.29300001
9.7440004 -3.8940001 0.29300001
9.7620001 -3.8729999 0.294
9.7939997 -3.8570001 0.29499999
9.8260002 -3.8410001 0.296
9.8190002 -3.8099999 0.29499999
9.8500004 -3.793 0.296
9.8629999 -3.77 0.29699999
9.8730001 -3.7449999 0.29699999
9.9239998 -3.7349999 0.29899999
9.9250002 -3.7060001 0.29899999
9.941 -3.684 0.29899999
9.9499998 -3.658 0.29899999
9.9779997 -3.6389999 0.30000001
10 -3.618 0.301
10.009 -3.592 0.301
10.031 -3.5710001 0.30199999
10.058 -3.552 0.303
10.081 -3.53 0.303
10.104 -3.5090001 0.30399999
10.105 -3.48 0.30399999
10.131 -3.46 0.30500001
10.143 -3.434 0.30500001
10.163 -3.411 0.30599999
10.181 -3.388 0.30599999
10.21 -3.368 0.30700001
10.233 -3.346 0.308
10.29 -3.335 0.31
10.359 -3.3269999 0.31200001
10.342 -3.2920001 0.31099999
10.327 -3.257 0.31099999
10.35 -3.234 0.31099999
10.341 -3.201 0.31099999
10.371 -3.181 0.31200001
10.382 -3.154 0.31200001
10.394 -3.1270001 0.31299999
10.412 -3.1029999 0.31299999
10.444 -3.082 0.31400001
10.484 -3.0639999 0.315
10.51 -3.0409999 0.31600001
10.524 -3.0139999 0.31600001
10.565 -2.9960001 0.31799999
10.594 -2.973 0.31900001
10.611 -2.947 0.31900001
10.664 -2.931 0.32100001
10.673 -2.9030001 0.32100001
10.697 -2.878 0.322
10.717 -2.8529999 0.322
10.75 -2.8299999 0.32300001
10.767 -2.8039999 0.324
10.827 -2.7880001 0.32600001
10.867 -2.767 0.32699999
10.886 -2.74 0.32699999
10.94 -2.723 0.329
10.981 -2.701 0.33000001
11.003 -2.675 0.331
11.032 -2.6500001 0.33199999
11.047 -2.622 0.33199999
11.096 -2.6010001 0.333
11.134 -2.5780001 0.33500001
11.153 -2.55 0.33500001
11.186 -2.526 0.336
11.222 -2.5020001 0.33700001
11.241 -2.473 0.338
11.272 -2.448 0.33899999
11.311 -2.424 0.34
11.364 -2.4030001 0.34099999
11.381 -2.3729999 0.34200001
11.449 -2.355 0.34400001
11.445 -2.3210001 0.34400001
11.54 -2.3069999 0.347
11.59 -2.2839999 0.34799999
11.617 -2.256 0.34900001
11.641 -2.227 0.34999999
11.719 -2.2079999 0.352
11.743 -2.1789999 0.35299999
11.746 -2.1459999 0.35299999
11.808 -2.1229999 0.35499999
11.837 -2.095 0.35499999
11.935 -2.0780001 0.35800001
11.949 -2.046 0.359
11.986 -2.0179999 0.36000001
12.013 -1.988 0.361
12.096 -1.967 0.36300001
12.285 -1.962 0.36899999
12.203 -1.914 0.366
12.181 -1.876 0.36500001
12.218 -1.847 0.36700001
12.257 -1.817 0.368
12.268 -1.784 0.368
12.297 -1.753 0.36899999
12.342 -1.724 0.37
12.389 -1.6950001 0.37200001
12.432 -1.665 0.373
12.469 -1.635 0.37400001
12.489 -1.602 0.37400001
12.542 -1.573 0.37599999
12.641 -1.549 0.37900001
12.701 -1.52 0.38100001
12.742 -1.488 0.382
12.826 -1.462 0.384
12.936 -1.437 0.38800001
12.952 -1.402 0.38800001
13.998 0.47999999 0.287
14.088 0.50300002 0.289
14.024 0.52200001 0.28799999
14.013 0.54299998 0.287
14.057 0.56599998 0.28799999
14.014 0.58600003 0.287
13.975 0.60600001 0.28600001
14.004 0.63 0.28600001
13.97 0.65100002 0.285
14.01 0.676 0.28600001
13.977 0.69700003 0.285
13.982 0.72100002 0.285
14.01 0.74699998 0.28600001
13.946 0.76700002 0.28400001
14.011 0.796 0.285
14.016 0.82099998 0.285
14.029 0.847 0.285
14.007 0.87099999 0.285
14.068 0.89999998 0.28600001
14.09 0.92799997 0.28600001
13.718 1.035 0.278
13.713 1.062 0.278
13.644 1.084 0.27599999
13.635 1.1109999 0.27599999
14.322 1.226 0.28999999
14.312 1.255 0.289
14.332 1.2869999 0.28999999
14.362 1.3200001 0.28999999
14.374 1.352 0.28999999
14.394 1.385 0.28999999
14.423 1.42 0.29100001
14.432 1.452 0.29100001
14.602 1.502 0.294
14.599 1.534 0.294
14.586 1.566 0.294
14.624 1.603 0.29499999
14.596 1.6339999 0.294
14.602 1.669 0.294
14.627 1.706 0.294
14.653 1.743 0.29499999
14.712 1.785 0.296
11.569 1.431 0.233
14.738 1.824 0.296
11.386 1.436 0.229
11.335 1.457 0.228
11.316 1.483 0.227
11.319 1.511 0.227
11.358 1.544 0.228
11.506 1.5930001 0.23100001
14.948 2.0699999 0.30000001
14.918 2.1040001 0.30000001
14.97 2.1489999 0.301
11.373 1.6619999 0.228
15.058 2.2 0.30199999
11.188 1.663 0.22499999
11.122 1.682 0.223
11.106 1.709 0.223
11.102 1.738 0.223
11.136 1.772 0.223
11.265 1.823 0.226
15.238 2.4660001 0.30599999
15.169 2.4949999 0.30399999
15.225 2.546 0.30599999
15.232 2.5880001 0.30599999
15.244 2.632 0.30599999
15.316 2.6860001 0.30700001
15.341 2.733 0.308
15.396 2.786 0.30899999
14.234 2.615 0.28600001
14.072 2.625 0.28200001
14.02 2.655 0.28099999
14.029 2.697 0.28099999
14.106 2.7520001 0.28299999
15.569 3.0829999 0.31200001
15.605 3.135 0.31299999
13.933 2.8399999 0.28
13.805 2.8540001 0.27700001
13.753 2.8840001 0.27599999
13.747 2.9230001 0.27599999
13.77 2.9690001 0.27599999
13.891 3.0369999 0.27900001
15.944 3.5339999 0.31999999
16.045 3.605 0.322
16.038 3.652 0.322
16.111 3.7179999 0.324
16.141001 3.7750001 0.324
16.157 3.829 0.32499999
16.158001 3.8789999 0.32499999
16.237 3.9489999 0.32600001
16.313999 4.0190001 0.32800001
16.327 4.0739999 0.32800001
16.358 4.1329999 0.329
16.4 4.1960001 0.33000001
16.438999 4.2589998 0.331
16.438999 4.3119998 0.331
16.466 4.3720002 0.33199999
16.511 4.4380002 0.333
16.618999 4.5209999 0.33500001
16.743999 4.6100001 0.33700001
16.739 4.664 0.33700001
16.854 4.7519999 0.34
16.858999 4.8099999 0.34
16.879 4.8720002 0.34099999
16.993999 4.9619999 0.34299999
17.028 5.0300002 0.34400001
17.061001 5.0970001 0.345
17.153999 5.184 0.347
17.284 5.2820001 0.34900001
17.278999 5.3400002 0.34900001
17.261999 5.3940001 0.34900001
17.389999 5.4949999 0.352
17.408001 5.5609999 0.352
17.472 5.6430001 0.354
17.414 5.6849999 0.35299999
17.518999 5.7810001 0.35499999
17.583 5.8649998 0.35600001
17.667 5.9559999 0.35800001
17.792999 6.0619998 0.361
17.684 6.0890002 0.359
9.9560003 3.9070001 0.20299999
9.8299999 3.895 0.20100001
9.8059998 3.9219999 0.2
9.7930002 3.9549999 0.2
9.7849998 3.9890001 0.2
9.7130003 3.9979999 0.199
9.6479998 4.0079999 0.198
9.6199999 4.0339999 0.197
9.6370001 4.079 0.198
9.7119999 4.1490002 0.199
12.736 5.441 0.26199999
12.593 5.4289999 0.259
12.518 5.447 0.25799999
12.608 5.5359998 0.25999999
12.256 5.8280001 0.25400001
12.287 5.8930001 0.255
12.267 6.4000001 0.257
12.244 6.441 0.25600001
12.342 6.546 0.259
8.4189997 -5.54 0.27599999
8.4499998 -5.507 0.27700001
8.4790001 -5.473 0.278
8.5220003 -5.448 0.27900001
8.5439997 -5.4099998 0.28
8.5769997 -5.3790002 0.28099999
8.6099997 -5.349 0.28200001
8.6409998 -5.316 0.28200001
8.6689997 -5.2820001 0.28299999
8.6879997 -5.243 0.28400001
8.7119999 -5.2080002 0.28400001
8.7419996 -5.1760001 0.285
8.7600002 -5.1360002 0.285
8.802 -5.1110001 0.287
8.8299999 -5.079 0.287
8.849 -5.0409999 0.28799999
8.8669996 -5.0019999 0.28799999
8.9090004 -4.9780002 0.289
8.9449997 -4.9499998 0.28999999
8.9650002 -4.9130001 0.29100001
9.04 -4.9060001 0.29300001
9.092 -4.8860002 0.29499999
9.0559998 -4.8200002 0.29300001
9.0620003 -4.776 0.29300001
9.0749998 -4.737 0.294
9.1110001 -4.7090001 0.29499999
9.1289997 -4.6719999 0.29499999
9.1660004 -4.645 0.296
9.1820002 -4.6079998 0.29699999
9.2030001 -4.573 0.29699999
9.2449999 -4.5489998 0.29800001
9.2659998 -4.5139999 0.29899999
9.302 -4.487 0.30000001
9.3330002 -4.4569998 0.301
9.3789997 -4.4349999 0.30199999
9.3809996 -4.3920002 0.30199999
9.4160004 -4.3639998 0.303
9.4169998 -4.3210001 0.303
9.4650002 -4.3000002 0.30399999
9.4809999 -4.2639999 0.30500001
9.5050001 -4.2319999 0.30500001
9.5349998 -4.2020001 0.30599999
9.5509996 -4.1669998 0.30700001
9.5810003 -4.1370001 0.308
9.5889997 -4.099 0.308
9.6269999 -4.073 0.30899999
9.665 -4.0469999 0.31
9.6929998 -4.0180001 0.31099999
9.7489996 -3.9990001 0.31200001
9.7539997 -3.96 0.31200001
9.7690001 -3.925 0.31299999
9.7919998 -3.8929999 0.31299999
9.8050003 -3.858 0.31400001
9.8520002 -3.836 0.315
9.8909998 -3.8110001 0.31600001
9.9130001 -3.779 0.317
9.9399996 -3.7490001 0.31799999
9.9779997 -3.724 0.31900001
10.014 -3.697 0.31999999
10.03 -3.664 0.31999999
10.051 -3.632 0.32100001
10.091 -3.6070001 0.322
10.112 -3.576 0.32300001
10.136 -3.546 0.32300001
10.177 -3.5209999 0.324
10.187 -3.4860001 0.32499999
10.21 -3.4560001 0.32499999
10.266 -3.4360001 0.32699999
10.276 -3.402 0.32699999
10.315 -3.3759999 0.329
10.356 -3.352 0.33000001
10.459 -3.3469999 0.333
10.433 -3.302 0.33199999
10.453 -3.27 0.333
10.451 -3.2320001 0.33199999
10.473 -3.2019999 0.333
10.494 -3.1719999 0.33399999
10.549 -3.151 0.33500001
10.573 -3.122 0.336
10.642 -3.1059999 0.338
10.695 -3.085 0.34
10.708 -3.052 0.34
10.775 -3.0350001 0.34200001
10.814 -3.0090001 0.34299999
10.858 -2.9860001 0.345
10.876 -2.954 0.345
10.928 -2.9330001 0.347
11.003 -2.9170001 0.34900001
11.024 -2.8870001 0.34999999
11.049 -2.8570001 0.35100001
11.119 -2.8399999 0.35299999
11.178 -2.819 0.35499999
11.224 -2.7950001 0.35600001
11.261 -2.7690001 0.35699999
11.313 -2.747 0.359
11.35 -2.72 0.36000001
11.37 -2.6900001 0.36000001
11.361 -2.6530001 0.36000001
11.426 -2.6329999 0.36199999
11.457 -2.6059999 0.36300001
11.5 -2.5810001 0.36399999
11.504 -2.5480001 0.36399999
11.582 -2.53 0.36700001
11.616 -2.5039999 0.368
11.669 -2.4809999 0.37
11.7 -2.4530001 0.37
11.718 -2.4230001 0.37099999
11.784 -2.4030001 0.373
11.826 -2.378 0.37400001
11.887 -2.3559999 0.37599999
11.945 -2.3340001 0.37799999
11.969 -2.3050001 0.37900001
11.997 -2.277 0.38
12.031 -2.25 0.38100001
12.088 -2.2279999 0.382
12.122 -2.201 0.384
12.141 -2.171 0.384
12.157 -2.141 0.38499999
12.205 -2.1170001 0.38600001
12.258 -2.0940001 0.38800001
12.262 -2.062 0.38800001
12.28 -2.033 0.38800001
12.345 -2.0109999 0.38999999
12.464 -1.998 0.39399999
12.617 -1.99 0.39899999
12.579 -1.952 0.398
12.492 -1.906 0.39500001
12.492 -1.875 0.39500001
12.53 -1.849 0.396
12.564 -1.822 0.39700001
12.593 -1.795 0.398
12.617 -1.768 0.39899999
12.666 -1.743 0.40099999
12.697 -1.717 0.40099999
12.751 -1.693 0.403
12.785 -1.6670001 0.40400001
12.802 -1.6390001 0.405
12.844 -1.614 0.40599999
12.931 -1.594 0.40900001
13.018 -1.574 0.412
13.724 0.186 0.32300001
13.757 0.211 0.324
13.781 0.236 0.324
13.784 0.26100001 0.324
13.811 0.287 0.324
13.81 0.31299999 0.324
13.804 0.33899999 0.324
13.838 0.36700001 0.324
13.864 0.39399999 0.32499999
13.864 0.421 0.32499999
13.856 0.44800001 0.324
13.866 0.47600001 0.324
13.883 0.505 0.324
13.919 0.53399998 0.32499999
13.927 0.56300002 0.32499999
13.933 0.59299999 0.32499999
13.931 0.62199998 0.32499999
13.914 0.64999998 0.324
13.929 0.68099999 0.32499999
13.913 0.70999998 0.324
13.938 0.74199998 0.324
13.953 0.773 0.32499999
13.952 0.80400002 0.324
13.993 0.83700001 0.32499999
14.014 0.87 0.32600001
14.036 0.903 0.32600001
14.063 0.93699998 0.32600001
14.085 0.97100002 0.32699999
13.603 1.098 0.315
13.619 1.132 0.315
13.597 1.163 0.315
13.625 1.199 0.315
14.457 1.308 0.33399999
14.366 1.335 0.33199999
14.368 1.3710001 0.33199999
14.403 1.411 0.333
14.47 1.454 0.33399999
14.49 1.492 0.33500001
14.571 1.538 0.336
14.7 1.589 0.33899999
14.72 1.63 0.34
14.707 1.6670001 0.33899999
14.706 1.705 0.33899999
14.715 1.745 0.33899999
14.712 1.783 0.33899999
14.789 1.832 0.34099999
14.82 1.876 0.34099999
11.455 1.4809999 0.264
15.015 1.941 0.34599999
11.353 1.498 0.26100001
11.308 1.523 0.25999999
11.306 1.554 0.25999999
11.35 1.591 0.26100001
11.518 1.647 0.26499999
15.158 2.1670001 0.34900001
15.134 2.2060001 0.34799999
15.205 2.2590001 0.34999999
11.223 1.698 0.25799999
15.443 2.3369999 0.35499999
11.125 1.715 0.25600001
11.1 1.743 0.255
11.102 1.775 0.255
11.17 1.817 0.257
15.45 2.559 0.35499999
15.43 2.5999999 0.35499999
15.465 2.651 0.35499999
15.496 2.701 0.35600001
15.57 2.76 0.35800001
15.6 2.8110001 0.35800001
15.625 2.862 0.359
14.113 2.6270001 0.324
14.01 2.6489999 0.322
13.984 2.6860001 0.32100001
14.047 2.74 0.32300001
15.997 3.1689999 0.36700001
16.049999 3.2279999 0.36899999
13.884 2.835 0.31900001
13.791 2.858 0.317
13.762 2.8940001 0.31600001
13.774 2.9389999 0.31600001
13.83 2.994 0.31799999
16.306 3.5799999 0.37400001
16.362 3.6440001 0.37599999
16.421 3.7079999 0.377
16.462999 3.7690001 0.37799999
16.474001 3.823 0.37799999
16.556999 3.895 0.38
16.598 3.957 0.38100001
16.649 4.0219998 0.38299999
16.750999 4.0999999 0.38499999
16.847 4.177 0.38699999
16.832001 4.2280002 0.38699999
16.921 4.3049998 0.389
16.938999 4.3639998 0.389
16.973 4.428 0.38999999
17.021999 4.4959998 0.391
17.044001 4.5570002 0.39199999
17.146 4.6409998 0.39399999
17.139999 4.6950002 0.39399999
17.177999 4.7620001 0.39500001
17.370001 4.8730001 0.40000001
17.767 5.0430002 0.40900001
17.538 5.0359998 0.40400001
17.58 5.1059999 0.405
17.679001 5.1939998 0.40700001
17.718 5.2649999 0.40799999
17.801001 5.349 0.41
17.879999 5.4330001 0.412
17.898001 5.4990001 0.41299999
18.063999 5.6110001 0.41600001
17.981001 5.6459999 0.41499999
18.048 5.7280002 0.41600001
18.139999 5.8189998 0.419
18.112 5.8720002 0.41800001
18.129999 5.9400001 0.419
18.114 5.9970002 0.41800001
18.257 6.1069999 0.42199999
18.315001 6.1890001 0.42300001
18.732 6.395 0.433
9.9940004 3.902 0.23199999
9.8649998 3.8870001 0.229
9.8100004 3.9000001 0.228
9.7919998 3.928 0.228
9.7810001 3.9579999 0.227
9.7849998 3.9949999 0.228
9.7349997 4.0089998 0.226
9.6829996 4.0219998 0.22499999
9.6409998 4.04 0.22400001
9.6230001 4.0669999 0.22400001
9.6450005 4.1110001 0.22499999
12.99 5.5359998 0.303
9.7220001 4.178 0.227
12.744 5.4770002 0.29699999
12.644 5.48 0.29499999
9.7729998 4.2709999 0.228
12.581 5.4980001 0.294
9.7489996 4.296 0.228
12.779 5.631 0.29899999
9.0109997 -5.3280001 0.31299999
9.0319996 -5.3140001 0.31299999
9.0419998 -5.2940001 0.31400001
9.0500002 -5.2729998 0.31400001
9.0629997 -5.2550001 0.315
9.0950003 -5.2470002 0.31600001
9.0959997 -5.2220001 0.31600001
9.1000004 -5.198 0.31600001
9.1239996 -5.1849999 0.317
9.1230001 -5.1589999 0.317
9.158 -5.152 0.31799999
9.1759996 -5.1360002 0.31799999
9.1800003 -5.112 0.31900001
9.1929998 -5.092 0.31900001
9.1920004 -5.0650001 0.31900001
9.2139997 -5.0510001 0.31999999
9.2270002 -5.0310001 0.31999999
9.2419996 -5.013 0.32100001
9.2609997 -4.9959998 0.32100001
9.2679996 -4.973 0.322
9.2930002 -4.96 0.32300001
9.3009996 -4.9369998 0.32300001
9.302 -4.9109998 0.32300001
9.3299999 -4.8979998 0.324
9.3030005 -4.8569999 0.32300001
9.368 -4.8639998 0.32499999
9.3699999 -4.8379998 0.32499999
9.3760004 -4.8140001 0.32499999
9.3920002 -4.7950001 0.32600001
9.4160004 -4.7800002 0.32699999
9.4309998 -4.7600002 0.32699999
9.4490004 -4.7420001 0.32800001
9.4820004 -4.7309999 0.329
9.4770002 -4.7010002 0.329
9.4860001 -4.677 0.329
9.4989996 -4.6560001 0.33000001
9.5240002 -4.6409998 0.331
9.5340004 -4.618 0.331
9.559 -4.6020002 0.33199999
9.5579996 -4.5739999 0.33199999
9.5780001 -4.5560002 0.33199999
9.5900002 -4.5339999 0.333
9.585 -4.5029998 0.333
9.6070004 -4.4850001 0.333
9.6230001 -4.4650002 0.33399999
9.6370001 -4.4429998 0.33399999
9.6599998 -4.4260001 0.33500001
9.6850004 -4.4089999 0.336
9.7040005 -4.3899999 0.33700001
9.7279997 -4.3720002 0.338
9.7360001 -4.3470001 0.338
9.7489996 -4.3249998 0.338
9.7819996 -4.3109999 0.33899999
9.809 -4.2940001 0.34
9.8079996 -4.2649999 0.34
9.8190002 -4.2410002 0.34099999
9.842 -4.223 0.34099999
9.8430004 -4.1939998 0.34099999
9.8610001 -4.1729999 0.34200001
9.8850002 -4.1539998 0.34299999
9.8979998 -4.131 0.34299999
9.9139996 -4.1090002 0.34400001
9.9239998 -4.0840001 0.34400001
9.9390001 -4.0609999 0.345
9.967 -4.0430002 0.34599999
9.9849997 -4.0219998 0.34599999
10.004 -4 0.347
10.025 -3.9790001 0.34799999
10.043 -3.957 0.34799999
10.052 -3.9319999 0.34900001
10.069 -3.9089999 0.34900001
10.101 -3.892 0.34999999
10.119 -3.869 0.35100001
10.165 -3.8570001 0.352
10.168 -3.829 0.35299999
10.202 -3.812 0.354
10.2 -3.7820001 0.354
10.219 -3.7590001 0.354
10.22 -3.7290001 0.354
10.246 -3.7090001 0.35499999
10.254 -3.6819999 0.35499999
10.279 -3.661 0.35600001
10.288 -3.635 0.35699999
10.309 -3.612 0.35699999
10.33 -3.589 0.35800001
10.367 -3.572 0.359
10.395 -3.5510001 0.36000001
10.384 -3.517 0.36000001
10.436 -3.5050001 0.36199999
10.447 -3.4779999 0.36199999
10.487 -3.461 0.36300001
10.496 -3.4330001 0.36399999
10.511 -3.408 0.36399999
10.569 -3.3959999 0.366
10.624 -3.3829999 0.368
10.65 -3.3599999 0.36899999
10.653 -3.3299999 0.36899999
10.659 -3.3010001 0.36899999
10.669 -3.273 0.36899999
10.672 -3.243 0.36899999
10.704 -3.2219999 0.37099999
10.741 -3.2019999 0.37200001
10.753 -3.174 0.37200001
10.876 -3.1789999 0.37599999
10.908 -3.1570001 0.37799999
10.911 -3.1259999 0.37799999
10.927 -3.099 0.37799999
10.97 -3.079 0.38
10.994 -3.0539999 0.38
11.05 -3.0380001 0.382
11.102 -3.02 0.384
11.116 -2.9920001 0.38499999
11.132 -2.964 0.38499999
11.179 -2.944 0.38699999
11.204 -2.918 0.38800001
11.254 -2.8989999 0.389
11.267 -2.8699999 0.38999999
11.291 -2.8429999 0.38999999
11.349 -2.825 0.39199999
11.38 -2.8 0.39300001
11.432 -2.779 0.39500001
11.485 -2.7590001 0.39700001
11.51 -2.7320001 0.398
11.568 -2.7119999 0.40000001
11.584 -2.6830001 0.40000001
11.609 -2.655 0.40099999
11.615 -2.6229999 0.40099999
11.67 -2.602 0.403
11.715 -2.5780001 0.405
11.711 -2.543 0.405
11.77 -2.523 0.40700001
11.812 -2.4979999 0.40799999
11.816 -2.464 0.40799999
11.884 -2.444 0.41
11.938 -2.421 0.412
11.973 -2.3940001 0.41299999
12.002 -2.365 0.414
12.045 -2.339 0.41600001
12.1 -2.3150001 0.41800001
12.125 -2.2850001 0.41800001
12.149 -2.2539999 0.419
12.222 -2.233 0.42199999
12.24 -2.201 0.42199999
12.321 -2.1800001 0.42500001
12.321 -2.145 0.42500001
12.329 -2.1110001 0.42500001
12.392 -2.086 0.42699999
12.497 -2.0680001 0.43099999
12.491 -2.0309999 0.43099999
12.584 -2.01 0.43399999
12.668 -1.914 0.43700001
12.702 -1.883 0.43799999
12.758 -1.855 0.44
12.81 -1.826 0.44100001
12.817 -1.79 0.442
12.931 -1.7690001 0.44499999
14.771 0.71499997 0.373
14.74 0.73799998 0.37200001
14.757 0.764 0.37200001
14.722 0.787 0.37099999
14.72 0.81199998 0.37099999
14.713 0.838 0.37
14.765 0.86699998 0.37200001
14.746 0.89200002 0.37099999
14.777 0.921 0.37200001
14.811 0.94999999 0.37200001
14.811 0.977 0.37200001
15.054 1.353 0.377
15.037 1.3839999 0.37599999
15.048 1.4170001 0.377
15.113 1.456 0.37799999
15.115 1.489 0.37799999
15.183 1.529 0.38
15.263 1.571 0.382
15.358 1.6160001 0.384
15.289 1.643 0.382
15.241 1.6720001 0.38100001
15.231 1.706 0.38100001
15.256 1.745 0.38100001
15.298 1.785 0.382
15.362 1.829 0.384
15.45 1.876 0.38600001
11.624 1.439 0.28999999
15.605 1.932 0.38999999
11.395 1.438 0.285
11.326 1.457 0.28299999
11.294 1.4809999 0.28200001
11.285 1.507 0.28200001
11.321 1.54 0.28299999
11.412 1.581 0.285
15.731 2.1800001 0.39300001
15.64 2.2060001 0.391
15.697 2.2539999 0.39199999
11.345 1.658 0.28299999
15.774 2.306 0.39399999
11.176 1.6619999 0.27900001
11.129 1.684 0.278
11.095 1.7079999 0.27700001
11.104 1.738 0.27700001
11.156 1.776 0.27900001
11.378 1.842 0.28400001
15.956 2.5829999 0.39899999
15.949 2.6240001 0.39899999
15.99 2.674 0.40000001
16.031 2.7249999 0.40099999
16.037001 2.7690001 0.40099999
16.136 2.8310001 0.403
16.25 2.8959999 0.40599999
16.275 2.9449999 0.40700001
14.114 2.5940001 0.35299999
13.995 2.6110001 0.34999999
13.967 2.6459999 0.34900001
13.986 2.6889999 0.34999999
14.058 2.743 0.352
16.620001 3.2909999 0.41600001
16.608999 3.3369999 0.41600001
13.87 2.8269999 0.347
13.79 2.8510001 0.345
13.757 2.885 0.345
13.768 2.928 0.345
13.798 2.9760001 0.34599999
13.956 3.052 0.34999999
16.929001 3.7019999 0.42500001
16.841 3.733 0.42199999
16.886 3.7939999 0.42399999
16.879 3.8440001 0.42399999
16.98 3.9189999 0.426
17.018 3.98 0.42699999
17.091 4.0500002 0.42899999
17.183001 4.125 0.43200001
17.205999 4.1849999 0.433
17.452 4.3000002 0.43900001
17.407 4.3429999 0.43799999
17.386999 4.3930001 0.43799999
17.639 4.513 0.44400001
17.615 4.5640001 0.44400001
17.642 4.6279998 0.44499999
17.639999 4.684 0.44499999
17.715 4.7620001 0.447
17.811001 4.8460002 0.449
17.843 4.9130001 0.44999999
17.931 4.9959998 0.45300001
17.927999 5.0549998 0.45300001
18.089001 5.1609998 0.45699999
18.025999 5.2030001 0.456
18.077 5.2779999 0.458
18.177 5.369 0.46000001
18.228001 5.4460001 0.46200001
18.275999 5.5219998 0.463
18.240999 5.5739999 0.463
18.384001 5.6810002 0.46700001
18.395 5.7480001 0.46700001
18.363001 5.802 0.46599999
18.513 5.914 0.47099999
18.497 5.973 0.47
18.500999 6.04 0.47099999
18.719 6.177 0.477
18.615 6.2090001 0.47400001
18.636 6.2820001 0.47499999
18.677999 6.3629999 0.477
10.017 3.892 0.25799999
9.8690004 3.872 0.25400001
9.8070002 3.885 0.25299999
9.7939997 3.9170001 0.252
9.7840004 3.951 0.252
9.7869997 3.99 0.25299999
9.7150002 3.9979999 0.25099999
9.6660004 4.0159998 0.25
9.6440001 4.0440001 0.25
9.6450005 4.0819998 0.25
9.7229996 4.1529999 0.252
12.879 5.5009999 0.33399999
9.9029999 4.2690001 0.257
12.791 5.5139999 0.33199999
9.7510004 4.2420001 0.25299999
12.942 5.6300001 0.336
9.7379999 4.2750001 0.25299999
12.511 5.7950001 0.32699999
12.426 5.8060002 0.32499999
12.415 5.8520002 0.32499999
12.49 5.9390001 0.32800001
8.6219997 -5.671 0.324
8.6700001 -5.6490002 0.32499999
8.7040005 -5.6170001 0.32600001
8.7419996 -5.5869999 0.32800001
8.7679996 -5.5500002 0.32800001
8.8199997 -5.5300002 0.33000001
8.8409996 -5.4899998 0.331
8.8590002 -5.4489999 0.331
8.8900003 -5.4159999 0.33199999
8.908 -5.375 0.333
8.9540005 -5.3509998 0.33399999
8.967 -5.3070002 0.33399999
9.0039997 -5.2779999 0.33500001
9.0159998 -5.2340002 0.336
9.0459995 -5.2010002 0.33700001
9.0880003 -5.1760001 0.338
9.0889997 -5.1259999 0.338
9.1309996 -5.0999999 0.33899999
9.1560001 -5.0650001 0.34
9.1780005 -5.0279999 0.34
9.2110004 -4.9980001 0.34200001
9.2180004 -4.9520001 0.34200001
9.2200003 -4.9060001 0.34099999
9.2729998 -4.8860002 0.34299999
9.309 -4.8569999 0.34400001
9.3470001 -4.829 0.34599999
9.3710003 -4.7950001 0.34599999
9.3929996 -4.7589998 0.347
9.4230003 -4.7280002 0.34799999
9.4460001 -4.6929998 0.34900001
9.4809999 -4.664 0.34999999
9.4829998 -4.619 0.34999999
9.5170002 -4.5890002 0.35100001
9.559 -4.5640001 0.352
9.5640001 -4.5209999 0.352
9.5939999 -4.4910002 0.35299999
9.6309996 -4.4629998 0.354
9.6490002 -4.427 0.35499999
9.6850004 -4.3990002 0.35600001
9.6990004 -4.3610001 0.35600001
9.7290001 -4.3309999 0.35699999
9.7629995 -4.302 0.35800001
9.79 -4.27 0.359
9.816 -4.2379999 0.36000001
9.8479996 -4.2090001 0.361
9.8739996 -4.177 0.36199999
9.9029999 -4.1459999 0.36300001
9.9189997 -4.1110001 0.36300001
9.9530001 -4.0819998 0.36399999
9.9949999 -4.0570002 0.366
10.011 -4.0209999 0.366
10.044 -3.993 0.36700001
10.072 -3.9619999 0.368
10.106 -3.934 0.36899999
10.132 -3.9030001 0.37
10.174 -3.878 0.37099999
10.192 -3.8440001 0.37200001
10.248 -3.8239999 0.37400001
10.272 -3.7920001 0.375
10.3 -3.7620001 0.37599999
10.312 -3.7260001 0.37599999
10.34 -3.6960001 0.377
10.386 -3.6719999 0.37799999
10.402 -3.638 0.37900001
10.43 -3.608 0.38
10.489 -3.589 0.382
10.524 -3.5610001 0.38299999
10.555 -3.533 0.384
10.607 -3.5109999 0.38600001
10.666 -3.4909999 0.38800001
10.656 -3.4489999 0.38699999
10.801 -3.4560001 0.39199999
10.831 -3.427 0.39300001
10.846 -3.3929999 0.39399999
10.88 -3.365 0.39500001
10.897 -3.3310001 0.39500001
10.941 -3.306 0.39700001
10.994 -3.2839999 0.39899999
11.068 -3.2679999 0.40099999
11.131 -3.2479999 0.40400001
11.157 -3.2179999 0.40400001
11.203 -3.1930001 0.40599999
11.205 -3.1559999 0.40599999
11.293 -3.1429999 0.40900001
11.352 -3.1210001 0.41100001
11.346 -3.082 0.41100001
11.408 -3.0610001 0.41299999
11.427 -3.029 0.414
11.487 -3.0079999 0.41600001
11.517 -2.9779999 0.417
11.545 -2.9489999 0.41800001
11.604 -2.927 0.41999999
11.642 -2.8989999 0.421
11.703 -2.878 0.42300001
11.728 -2.8469999 0.42399999
11.748 -2.816 0.42500001
11.804 -2.793 0.42699999
11.861 -2.77 0.42899999
11.922 -2.7479999 0.43099999
11.955 -2.7190001 0.43200001
11.97 -2.687 0.43200001
12.027 -2.664 0.43399999
12.053 -2.6340001 0.435
12.081 -2.6040001 0.43599999
12.12 -2.5769999 0.43799999
12.171 -2.552 0.43900001
12.234 -2.53 0.442
12.258 -2.5 0.442
12.28 -2.4690001 0.44299999
12.351 -2.448 0.44600001
12.405 -2.424 0.44800001
12.429 -2.3940001 0.44800001
12.489 -2.3710001 0.45100001
12.554 -2.348 0.45300001
12.635 -2.329 0.456
12.626 -2.2920001 0.45500001
12.694 -2.27 0.458
12.719 -2.2409999 0.45899999
12.738 -2.21 0.45899999
12.799 -2.1860001 0.461
12.804 -2.1530001 0.46200001
12.862 -2.1289999 0.46399999
13.689 -1.851 0.493
13.744 -1.826 0.495
13.782 -1.603 0.49700001
13.906 -1.586 0.50099999
13.984 -1.563 0.50400001
14.085 -1.355 0.50700003
14.09 -1.325 0.50800002
14.055 -1.291 0.50599998
14.383 0.197 0.40799999
14.47 0.22400001 0.41
14.508 0.25099999 0.41100001
14.55 0.278 0.412
14.525 0.30399999 0.41100001
14.604 0.333 0.41299999
14.606 0.361 0.41299999
14.577 0.38800001 0.412
14.587 0.41600001 0.412
14.649 0.447 0.414
14.675 0.477 0.414
14.634 0.50400001 0.41299999
14.681 0.53600001 0.414
14.725 0.56699997 0.41499999
14.68 0.59600002 0.41299999
14.717 0.62800002 0.414
14.694 0.65700001 0.414
14.797 0.69300002 0.41600001
14.811 0.72600001 0.417
14.834 0.759 0.417
14.772 0.78799999 0.41499999
14.84 0.824 0.417
14.898 0.86000001 0.41800001
14.92 0.89399999 0.419
14.942 0.92900002 0.419
15.002 0.96700001 0.421
15.171 1.012 0.42500001
13.607 1.067 0.38100001
13.53 1.0930001 0.37900001
13.536 1.126 0.37900001
13.569 1.1619999 0.38
15.238 1.38 0.426
15.241 1.4170001 0.426
15.238 1.455 0.426
15.258 1.495 0.42699999
15.314 1.54 0.428
15.391 1.586 0.43000001
15.488 1.636 0.433
15.499 1.677 0.433
15.504 1.717 0.433
15.471 1.7539999 0.43200001
15.569 1.806 0.435
15.561 1.846 0.43399999
15.648 1.898 0.43700001
15.703 1.946 0.43799999
11.461 1.451 0.31999999
15.9 2.013 0.44400001
11.336 1.466 0.31600001
11.283 1.49 0.315
11.268 1.518 0.31400001
11.297 1.553 0.315
11.376 1.595 0.317
16.177999 2.2690001 0.45100001
15.982 2.2850001 0.44600001
16.025999 2.336 0.447
11.287 1.677 0.315
16.351999 2.4300001 0.456
11.15 1.688 0.31099999
11.109 1.7130001 0.31
11.104 1.744 0.31
11.145 1.7819999 0.31099999
11.304 1.84 0.315
16.263 2.6470001 0.454
16.243999 2.691 0.45300001
16.334 2.753 0.456
16.396 2.8110001 0.45699999
16.434 2.865 0.45899999
16.476999 2.921 0.46000001
16.551001 2.983 0.46200001
14.292 2.618 0.39899999
14.003 2.6059999 0.391
13.954 2.6389999 0.389
13.961 2.6819999 0.38999999
14.015 2.734 0.391
14.223 2.8180001 0.39700001
14.185 2.8529999 0.396
13.861 2.8299999 0.38699999
13.786 2.8570001 0.38499999
13.756 2.8929999 0.384
13.775 2.9389999 0.38499999
13.813 2.99 0.38600001
17.239 3.7850001 0.48199999
17.257 3.8429999 0.48199999
17.344999 3.9170001 0.48500001
17.417 3.9879999 0.48699999
17.441 4.0479999 0.48800001
17.472 4.1100001 0.48899999
17.577999 4.191 0.49200001
17.868 4.316 0.5
17.927 4.388 0.50199997
18.132 4.6129999 0.50800002
18.041 4.6479998 0.50599998
17.955999 4.684 0.50300002
18.143 4.7919998 0.509
18.129999 4.8470001 0.509
18.205999 4.927 0.51099998
18.243999 4.9970002 0.51200002
18.316 5.0770001 0.514
18.297001 5.132 0.514
18.395 5.2210002 0.51700002
18.483 5.3070002 0.51999998
18.462 5.362 0.51899999
18.735001 5.5040002 0.52700001
18.613001 5.5300002 0.52399999
18.645 5.6020002 0.52499998
18.818001 5.9720001 0.53100002
18.884001 6.0580001 0.53299999
15.732 5.4790001 0.44499999
15.533 5.4640002 0.44
15.333 5.447 0.435
15.226 5.4619999 0.43200001
15.2 5.506 0.43099999
10.12 3.8789999 0.28799999
9.9940004 3.8659999 0.28400001
10.059 3.927 0.28600001
9.8990002 3.9000001 0.28200001
9.8170004 3.9030001 0.28
9.7810001 3.9230001 0.27900001
9.7720003 3.954 0.27900001
9.776 3.9909999 0.27900001
9.7629995 4.02 0.27900001
9.7229996 4.039 0.278
9.658 4.046 0.27599999
9.6289997 4.0689998 0.27599999
9.6260004 4.1020002 0.27599999
9.632 4.1389999 0.27599999
9.7049999 4.2059999 0.278
9.8699999 4.3130002 0.28299999
9.7209997 4.283 0.27900001
9.6809998 4.3000002 0.278
9.783 4.381 0.28099999
12.395 5.6409998 0.35699999
12.351 5.6659999 0.35600001
12.446 5.7540002 0.359
12.42 5.7880001 0.35800001
12.332 5.7919998 0.35600001
12.291 5.8169999 0.35499999
12.258 5.8460002 0.35499999
12.286 5.9039998 0.35600001
12.339 5.9749999 0.35699999
12.164 6.822 0.35800001
11.955 6.7480001 0.352
11.891 6.7550001 0.35100001
11.936 6.8239999 0.352
9.2639999 -5.4819999 0.36500001
9.2880001 -5.4689999 0.366
9.2889996 -5.4429998 0.366
9.2959995 -5.421 0.366
9.3079996 -5.401 0.366
9.3240004 -5.3839998 0.36700001
9.3299999 -5.3600001 0.36700001
9.3579998 -5.349 0.368
9.3690004 -5.329 0.36899999
9.3929996 -5.316 0.37
9.4020004 -5.2940001 0.37
9.4189997 -5.276 0.37099999
9.4280005 -5.2540002 0.37099999
9.4589996 -5.243 0.37200001
9.46 -5.217 0.37200001
9.4809999 -5.2010002 0.373
9.4980001 -5.1830001 0.37400001
9.5050001 -5.1589999 0.37400001
9.5159998 -5.1370001 0.37400001
9.5389996 -5.1230001 0.375
9.5290003 -5.0890002 0.375
9.5430002 -5.0689998 0.375
9.5690002 -5.0560002 0.37599999
9.6090002 -5.0489998 0.37799999
9.6169996 -5.0250001 0.37799999
9.6160002 -4.9970002 0.37799999
9.6210003 -4.9710002 0.37799999
9.6309996 -4.948 0.37900001
9.6450005 -4.927 0.37900001
9.6610003 -4.9070001 0.38
9.6920004 -4.895 0.38100001
9.6949997 -4.868 0.38100001
9.7139997 -4.8499999 0.382
9.7299995 -4.829 0.38299999
9.7419996 -4.8070002 0.38299999
9.7530003 -4.7839999 0.384
9.7530003 -4.756 0.384
9.7889996 -4.7449999 0.38499999
9.7980003 -4.7199998 0.38499999
9.8120003 -4.698 0.38600001
9.8240004 -4.6760001 0.38600001
9.8310003 -4.6500001 0.38600001
9.8579998 -4.6350002 0.38800001
9.8669996 -4.6100001 0.38800001
9.8800001 -4.5869999 0.38800001
9.901 -4.5679998 0.389
9.9300003 -4.552 0.38999999
9.9510002 -4.533 0.391
9.9589996 -4.507 0.391
9.9870005 -4.4910002 0.39199999
10.011 -4.4720001 0.39300001
10.038 -4.4549999 0.39399999
10.079 -4.4439998 0.396
10.069 -4.4099998 0.396
10.041 -4.369 0.39399999
10.064 -4.3499999 0.39500001
10.092 -4.3319998 0.396
10.119 -4.3140001 0.39700001
10.15 -4.2979999 0.39899999
10.147 -4.2670002 0.39899999
10.176 -4.25 0.40000001
10.205 -4.2319999 0.40099999
10.224 -4.21 0.40099999
10.229 -4.1820002 0.40200001
10.245 -4.1589999 0.40200001
10.262 -4.1350002 0.403
10.284 -4.1139998 0.40400001
10.316 -4.0970001 0.405
10.352 -4.0809999 0.40599999
10.33 -4.0419998 0.405
10.369 -4.027 0.40700001
10.39 -4.0050001 0.40799999
10.401 -3.9790001 0.40799999
10.444 -3.9649999 0.41
10.482 -3.9489999 0.41100001
10.5 -3.925 0.412
10.514 -3.9000001 0.412
10.531 -3.875 0.41299999
10.567 -3.858 0.414
10.605 -3.8410001 0.41600001
10.621 -3.816 0.417
10.661 -3.799 0.41800001
10.662 -3.7679999 0.41800001
10.714 -3.756 0.41999999
10.721 -3.727 0.41999999
10.779 -3.7149999 0.42300001
10.787 -3.687 0.42300001
10.818 -3.6659999 0.42399999
10.848 -3.6440001 0.42500001
10.878 -3.6229999 0.426
10.927 -3.608 0.428
10.944 -3.5810001 0.42899999
10.96 -3.5550001 0.42899999
11.036 -3.5469999 0.43200001
11.116 -3.5409999 0.435
11.181 -3.529 0.43799999
11.173 -3.494 0.43799999
11.164 -3.4590001 0.43700001
11.133 -3.4170001 0.43599999
11.188 -3.401 0.43799999
11.226 -3.3800001 0.44
11.235 -3.3499999 0.44
11.305 -3.3380001 0.442
11.301 -3.3039999 0.442
11.33 -3.28 0.44299999
11.377 -3.2609999 0.44499999
11.412 -3.237 0.447
11.425 -3.2079999 0.447
11.455 -3.1830001 0.44800001
11.468 -3.154 0.449
11.534 -3.1389999 0.45100001
11.557 -3.1110001 0.45199999
11.56 -3.079 0.45199999
11.588 -3.053 0.45300001
11.601 -3.0220001 0.454
11.663 -3.0050001 0.456
11.681 -2.9760001 0.45699999
11.714 -2.95 0.458
11.78 -2.9330001 0.46000001
11.803 -2.904 0.461
11.851 -2.882 0.463
11.863 -2.8510001 0.463
11.914 -2.829 0.465
11.948 -2.802 0.46700001
11.992 -2.7780001 0.46799999
12.058 -2.7579999 0.47099999
12.088 -2.73 0.472
12.111 -2.701 0.47299999
12.151 -2.674 0.47400001
12.166 -2.6429999 0.47499999
12.188 -2.612 0.47600001
12.231 -2.586 0.477
12.293 -2.5639999 0.47999999
12.307 -2.5309999 0.47999999
12.369 -2.5090001 0.48300001
12.409 -2.4809999 0.484
12.433 -2.45 0.48500001
12.469 -2.421 0.486
12.56 -2.4030001 0.49000001
12.643 -2.382 0.493
12.657 -2.348 0.493
12.76 -2.3310001 0.49700001
13.726 -1.956 0.53399998
13.739 -1.918 0.53399998
13.745 -1.88 0.53500003
13.837 -1.852 0.53799999
13.897 -1.781 0.54000002
13.854 -1.7359999 0.53899997
13.907 -1.702 0.54100001
14.117 -1.526 0.54799998
14.116 -1.4859999 0.54799998
14.21 -1.455 0.55199999
16.141001 1.419 0.48199999
16.032 1.443 0.479
16.028 1.477 0.47799999
16.054001 1.5140001 0.479
16.061001 1.549 0.479
16.139999 1.592 0.48199999
16.146 1.628 0.48199999
16.167 1.666 0.48199999
16.174 1.7029999 0.48300001
16.186001 1.7410001 0.48300001
16.226999 1.7819999 0.484
16.254 1.822 0.48500001
16.313 1.867 0.48699999
16.295 1.903 0.486
16.337999 1.946 0.48699999
11.677 1.419 0.34799999
16.462999 2 0.491
11.389 1.411 0.34
11.319 1.429 0.338
11.282 1.452 0.336
11.275 1.479 0.336
11.287 1.508 0.33700001
11.334 1.543 0.338
11.586 1.6059999 0.34599999
16.731001 2.319 0.49900001
16.621 2.346 0.49599999
11.373 1.6339999 0.33899999
16.954 2.4360001 0.50599998
11.216 1.64 0.33500001
11.136 1.6569999 0.33199999
11.117 1.683 0.33199999
11.116 1.712 0.33199999
11.158 1.747 0.333
11.31 1.801 0.338
17.139 2.7290001 0.51200002
17.033001 2.7579999 0.509
17.058001 2.8080001 0.50999999
17.042 2.8510001 0.50999999
17.083 2.904 0.51099998
17.152 2.9630001 0.51300001
17.152 3.01 0.51300001
17.191 3.0639999 0.514
17.23 3.119 0.51599997
14.013 2.576 0.419
13.928 2.599 0.417
13.903 2.6340001 0.41600001
13.924 2.678 0.417
13.964 2.7249999 0.41800001
14.089 2.79 0.42199999
14.176 2.849 0.42500001
13.88 2.829 0.41600001
13.784 2.8499999 0.414
13.752 2.8840001 0.41299999
13.75 2.925 0.41299999
13.759 2.967 0.41299999
13.868 3.0320001 0.417
18.037001 3.9990001 0.542
18.047001 4.0560002 0.54299998
18.153 4.1350002 0.546
18.216999 4.2049999 0.54900002
18.412001 4.3070002 0.55500001
18.429001 4.3670001 0.55500001
18.559999 4.4559999 0.56
18.695 4.8439999 0.565
18.790001 4.9289999 0.56900001
18.767 4.9829998 0.56800002
18.655001 5.0139999 0.565
18.750999 5.1009998 0.56800002
18.813999 5.1799998 0.57099998
18.927 5.2740002 0.574
18.915001 5.3330002 0.574
19.105 5.4499998 0.57999998
19.073 5.5689998 0.57999998
19.26 5.6890001 0.58600003
19.441999 5.8080001 0.59200001
19.329 5.8400002 0.58899999
19.396999 5.927 0.59100002
15.553 5.4099998 0.47799999
15.342 5.3920002 0.472
15.211 5.402 0.46799999
15.083 5.4109998 0.465
15.06 5.4580002 0.465
10.068 3.836 0.31200001
9.9359999 3.823 0.308
9.974 3.875 0.30899999
9.9189997 3.891 0.308
9.8219995 3.891 0.30500001
9.7749996 3.9089999 0.30399999
9.7770004 3.948 0.30399999
9.7709999 3.983 0.30399999
9.7390003 4.007 0.30399999
9.6809998 4.0209999 0.30199999
9.6409998 4.0419998 0.301
9.6239996 4.073 0.301
9.6359997 4.1160002 0.30199999
9.6960001 4.1799998 0.30399999
9.7889996 4.2579999 0.30700001
9.6850004 4.2519999 0.30399999
9.6859999 4.2909999 0.30399999
12.438 5.6100001 0.39199999
12.344 5.6170001 0.389
12.407 5.6960001 0.39199999
12.42 5.7529998 0.39199999
12.336 5.7639999 0.38999999
12.296 5.796 0.389
12.263 5.8309999 0.389
12.298 5.8979998 0.38999999
12.43 6.0120001 0.39500001
11.984 6.7750001 0.389
11.866 6.7610002 0.38600001
11.869 6.816 0.38699999
8.875 -5.836 0.375
8.9060001 -5.8000002 0.37599999
8.9390001 -5.7659998 0.377
8.9759998 -5.7350001 0.37900001
9.007 -5.6999998 0.38
9.0360003 -5.664 0.38100001
9.0719995 -5.632 0.382
9.0939999 -5.592 0.382
9.1210003 -5.5549998 0.38299999
9.1569996 -5.5240002 0.38499999
9.1700001 -5.4780002 0.38499999
9.2080002 -5.448 0.38600001
9.2340002 -5.4120002 0.38699999
9.2729998 -5.382 0.38800001
9.2950001 -5.3429999 0.389
9.3339996 -5.3140001 0.38999999
9.3520002 -5.2729998 0.391
9.3870001 -5.2420001 0.39199999
9.3940001 -5.1950002 0.39199999
9.415 -5.1570001 0.39300001
9.4499998 -5.125 0.39399999
9.4899998 -5.0970001 0.396
9.5290003 -5.0689998 0.39700001
9.5489998 -5.0300002 0.398
9.5509996 -4.9819999 0.39700001
9.6009998 -4.96 0.39899999
9.6140003 -4.9180002 0.40000001
9.625 -4.8759999 0.40000001
9.6599998 -4.8449998 0.40099999
9.6920004 -4.8140001 0.40200001
9.7209997 -4.7810001 0.403
9.7410002 -4.744 0.40400001
9.7460003 -4.6989999 0.40400001
9.7910004 -4.6739998 0.405
9.823 -4.6430001 0.40700001
9.8389997 -4.6040001 0.40700001
9.8830004 -4.579 0.40900001
9.9060001 -4.5440001 0.40900001
9.9429998 -4.5149999 0.41100001
9.9589996 -4.4770002 0.41100001
9.9980001 -4.4489999 0.41299999
10.02 -4.414 0.41299999
10.061 -4.388 0.41499999
10.111 -4.3649998 0.417
10.107 -4.3189998 0.41600001
10.136 -4.2870002 0.417
10.167 -4.256 0.419
10.204 -4.2280002 0.41999999
10.23 -4.1950002 0.421
10.271 -4.1680002 0.42199999
10.301 -4.138 0.42300001
10.327 -4.105 0.42399999
10.376 -4.0809999 0.426
10.404 -4.0500002 0.42699999
10.446 -4.0229998 0.42899999
10.498 -4.0009999 0.43099999
10.527 -3.97 0.43200001
10.567 -3.9419999 0.433
10.622 -3.921 0.435
10.661 -3.8929999 0.43700001
10.707 -3.868 0.43799999
10.793 -3.8570001 0.442
