# .PCD v0.7 - Point Cloud Data file format
VERSION 0.7
FIELDS x y z
SIZE 4 4 4
TYPE F F F
COUNT 1 1 1
WIDTH 1783
HEIGHT 1
VIEWPOINT 0 0 0 1 0 0 0
POINTS 1783
DATA ascii
11.336 1.942 -0.138
11.37 1.9809999 -0.139
11.398 2.0190001 -0.14
11.401 2.053 -0.14
11.439 2.0940001 -0.141
11.483 2.1370001 -0.142
11.51 2.1760001 -0.142
11.542 2.217 -0.14300001
11.579 2.2590001 -0.14399999
11.592 2.296 -0.14399999
11.634 2.3399999 -0.145
11.635 2.3759999 -0.145
11.708 2.4260001 -0.147
11.738 2.4690001 -0.147
11.752 2.5079999 -0.148
11.785 2.552 -0.149
11.815 2.595 -0.149
11.854 2.6400001 -0.15000001
11.872 2.6819999 -0.15099999
11.927 2.7309999 -0.152
11.955 2.776 -0.153
11.957 2.8139999 -0.153
11.986 2.859 -0.154
12.016 2.904 -0.154
12.016 2.9430001 -0.155
12.022 2.983 -0.155
12.054 3.029 -0.156
12.11 3.0829999 -0.15700001
12.136 3.128 -0.15800001
9.4259996 2.46 -0.123
9.2010002 2.4319999 -0.12
9.1440001 2.4460001 -0.12
9.1079998 2.467 -0.12
9.1099997 2.497 -0.12
9.151 2.539 -0.121
12.357 3.428 -0.163
9.368 2.6300001 -0.124
12.255 3.4400001 -0.162
12.258 3.4820001 -0.163
12.287 3.5309999 -0.163
12.289 3.572 -0.164
12.315 3.6210001 -0.16500001
12.349 3.6719999 -0.16599999
12.373 3.721 -0.16599999
12.409 3.7739999 -0.167
9.2489996 2.8440001 -0.125
12.416 3.8180001 -0.168
9.0369997 2.809 -0.122
12.682 3.9430001 -0.17200001
8.9700003 2.819 -0.122
8.9429998 2.8410001 -0.122
8.948 2.8729999 -0.122
9.0229998 2.928 -0.123
12.589 4.085 -0.17200001
12.497 4.098 -0.171
12.504 4.1430001 -0.17200001
12.536 4.197 -0.17299999
12.557 4.2480001 -0.17399999
12.559 4.2919998 -0.17399999
12.557 4.335 -0.17399999
12.574 4.3839998 -0.175
12.583 4.4310002 -0.176
12.607 4.4829998 -0.177
12.593 4.5219998 -0.177
12.654 4.5890002 -0.178
12.673 4.6399999 -0.17900001
12.727 4.7049999 -0.18000001
12.744 4.756 -0.18099999
12.753 4.8039999 -0.18099999
12.821 4.875 -0.183
12.848 4.9310002 -0.184
12.895 4.994 -0.185
12.92 5.0500002 -0.186
12.956 5.1100001 -0.18700001
12.978 5.165 -0.18799999
12.97 5.2080002 -0.18799999
13.011 5.2709999 -0.189
12.999 5.3130002 -0.189
13.016 5.3660002 -0.19
13.064 5.4330001 -0.191
13.073 5.4840002 -0.192
13.074 5.5310001 -0.193
13.113 5.5949998 -0.19400001
13.149 5.658 -0.19499999
13.2 5.7270002 -0.19599999
13.246 5.7950001 -0.197
13.267 5.8520002 -0.198
13.302 5.9159999 -0.199
13.299 5.9629998 -0.2
13.315 6.0180001 -0.2
13.367 6.0900002 -0.20200001
13.365 6.138 -0.20200001
13.363 6.1859999 -0.20299999
13.37 6.237 -0.20299999
13.411 6.3049998 -0.205
13.449 6.3720002 -0.206
13.453 6.4229999 -0.206
13.488 6.4889998 -0.208
13.491 6.54 -0.208
13.566 6.6259999 -0.20999999
12.352 6.1680002 -0.193
12.199 6.1360002 -0.191
12.206 6.184 -0.191
12.213 6.277 -0.193
12.274 6.3540001 -0.19400001
12.229 6.375 -0.19400001
12.059 6.3309999 -0.192
12.039 6.3639998 -0.192
12.091 6.4349999 -0.193
12.151 6.5120001 -0.19499999
12.138 6.5489998 -0.19499999
12.195 6.6240001 -0.197
12.172 6.6560001 -0.197
10.631 6.1220002 -0.176
10.494 6.0809999 -0.17399999
10.426 6.079 -0.17299999
10.368 6.0830002 -0.17299999
10.313 6.0879998 -0.17200001
10.253 6.0890002 -0.17200001
10.196 6.092 -0.171
10.139 6.0939999 -0.171
10.074 6.0910001 -0.17
10.037 6.105 -0.17
9.9969997 6.1160002 -0.17
9.9530001 6.1240001 -0.17
9.9209995 6.1399999 -0.17
9.9280005 6.1789999 -0.17
9.9960003 6.257 -0.17200001
5.7849998 3.822 -0.102
5.6880002 3.777 -0.101
5.6290002 3.757 -0.1
5.5910001 3.7509999 -0.098999999
5.5770001 3.76 -0.1
5.5409999 3.7539999 -0.098999999
5.52 3.7579999 -0.098999999
5.494 3.7590001 -0.098999999
5.4689999 3.76 -0.098999999
5.4320002 3.753 -0.097999997
5.4099998 3.7550001 -0.097999997
5.3720002 3.7460001 -0.097999997
5.335 3.737 -0.097000003
5.316 3.7409999 -0.097000003
5.296 3.744 -0.097000003
5.2800002 3.75 -0.097000003
5.2600002 3.7520001 -0.097000003
5.243 3.756 -0.097000003
5.244 3.7739999 -0.097000003
5.224 3.776 -0.097000003
5.2119999 3.783 -0.097000003
5.21 3.7969999 -0.097000003
7.3390002 -4.3150001 0.013
7.3559999 -4.3039999 0.013
7.3470001 -4.2779999 0.013
7.3639998 -4.2670002 0.013
7.381 -4.256 0.013
7.3850002 -4.237 0.013
7.3889999 -4.2189999 0.013
7.4029999 -4.2059999 0.013
7.4190001 -4.1939998 0.013
7.4260001 -4.177 0.013
7.4429998 -4.165 0.013
7.4369998 -4.1399999 0.013
7.448 -4.125 0.014
7.473 -4.118 0.014
7.4790001 -4.0999999 0.014
7.487 -4.0830002 0.014
7.4840002 -4.0599999 0.014
7.5 -4.0469999 0.014
7.5300002 -4.0419998 0.014
7.5320001 -4.0209999 0.014
7.527 -3.997 0.014
7.5450001 -3.9849999 0.014
7.5500002 -3.9660001 0.014
7.552 -3.9449999 0.014
7.5409999 -3.918 0.014
7.5700002 -3.911 0.015
7.5840001 -3.8970001 0.015
7.6079998 -3.8870001 0.015
7.6149998 -3.869 0.015
7.625 -3.852 0.015
7.6339998 -3.835 0.015
7.6430001 -3.8169999 0.015
7.645 -3.796 0.015
7.6669998 -3.7850001 0.015
7.6810002 -3.77 0.015
7.6919999 -3.753 0.015
7.7059999 -3.7379999 0.016000001
7.7140002 -3.72 0.016000001
7.723 -3.7019999 0.016000001
7.7340002 -3.6849999 0.016000001
7.7470002 -3.668 0.016000001
7.7649999 -3.655 0.016000001
7.7779999 -3.638 0.016000001
7.783 -3.618 0.016000001
7.7909999 -3.599 0.016000001
7.809 -3.585 0.016000001
7.822 -3.5680001 0.016000001
7.8280001 -3.5480001 0.017000001
7.8520002 -3.5369999 0.017000001
7.8540001 -3.5150001 0.017000001
7.8720002 -3.5 0.017000001
7.8779998 -3.48 0.017000001
7.9089999 -3.471 0.017000001
7.9229999 -3.454 0.017000001
7.9250002 -3.4319999 0.017000001
7.9450002 -3.418 0.017000001
7.9619999 -3.402 0.017000001
7.9819999 -3.388 0.017000001
8.0010004 -3.3729999 0.017999999
8.007 -3.352 0.017999999
8.0120001 -3.3310001 0.017999999
8.0290003 -3.3150001 0.017999999
8.0369997 -3.2950001 0.017999999
8.0550003 -3.279 0.017999999
8.0670004 -3.2609999 0.017999999
8.0950003 -3.2490001 0.017999999
8.1059999 -3.2290001 0.017999999
8.1169996 -3.21 0.017999999
8.1440001 -3.198 0.018999999
8.151 -3.177 0.018999999
8.1540003 -3.155 0.018999999
8.1929998 -3.1459999 0.018999999
8.2040005 -3.1259999 0.018999999
8.2290001 -3.112 0.018999999
8.2589998 -3.0999999 0.018999999
8.2550001 -3.0739999 0.018999999
8.2679996 -3.0550001 0.018999999
8.2819996 -3.036 0.018999999
8.283 -3.013 0.02
8.309 -2.9979999 0.02
8.3269997 -2.9809999 0.02
8.3400002 -2.961 0.02
8.3559999 -2.9430001 0.02
8.3760004 -2.9260001 0.02
8.3830004 -2.904 0.02
8.4049997 -2.8870001 0.02
8.4300003 -2.8710001 0.02
8.4189997 -2.8440001 0.02
8.4610004 -2.8329999 0.021
8.4820004 -2.816 0.021
8.4820004 -2.7909999 0.021
8.5 -2.773 0.021
8.5380001 -2.7609999 0.021
8.5480003 -2.7390001 0.021
8.5670004 -2.721 0.021
8.5740004 -2.698 0.021
8.592 -2.6789999 0.021
8.6280003 -2.665 0.022
8.6669998 -2.652 0.022
8.6660004 -2.6270001 0.022
8.6759996 -2.605 0.022
8.6969995 -2.5869999 0.022
8.7040005 -2.563 0.022
8.7209997 -2.543 0.022
8.7419996 -2.5239999 0.022
8.7659998 -2.506 0.023
8.7930002 -2.4890001 0.023
8.8199997 -2.471 0.023
8.8520002 -2.454 0.023
8.8710003 -2.434 0.023
8.8809996 -2.411 0.023
8.8859997 -2.3870001 0.023
8.9139996 -2.369 0.023
8.9259996 -2.3469999 0.023
8.9370003 -2.3239999 0.024
8.9969997 -2.3139999 0.024
8.9989996 -2.2880001 0.024
9.0139999 -2.266 0.024
9.04 -2.247 0.024
9.0469999 -2.223 0.024
9.0819998 -2.2049999 0.024
9.099 -2.1830001 0.024
9.1020002 -2.158 0.025
9.125 -2.1370001 0.025
9.1470003 -2.1159999 0.025
9.1890001 -2.099 0.025
9.2119999 -2.0780001 0.025
9.2340002 -2.0569999 0.025
9.2510004 -2.0339999 0.025
9.2799997 -2.0139999 0.025
9.3059998 -1.993 0.026000001
9.323 -1.97 0.026000001
9.3450003 -1.948 0.026000001
9.3789997 -1.928 0.026000001
9.375 -1.9 0.026000001
9.4390001 -1.886 0.026000001
9.4540005 -1.862 0.026000001
9.4840002 -1.841 0.027000001
9.5249996 -1.822 0.027000001
9.5530005 -1.8 0.027000001
9.5760002 -1.777 0.027000001
9.6020002 -1.755 0.027000001
9.6359997 -1.733 0.027000001
9.6549997 -1.709 0.027000001
9.6759996 -1.6849999 0.028000001
9.7060003 -1.663 0.028000001
9.7379999 -1.64 0.028000001
9.743 -1.613 0.028000001
9.8050003 -1.596 0.028000001
9.8520002 -1.575 0.028000001
9.9250002 -1.559 0.028999999
9.8719997 -1.522 0.028999999
9.9069996 -1.499 0.028999999
9.9390001 -1.476 0.028999999
9.9680004 -1.452 0.028999999
10.041 -1.434 0.028999999
10.062 -1.408 0.029999999
10.111 -1.386 0.029999999
10.124 -1.359 0.029999999
10.172 -1.337 0.029999999
10.18 -1.309 0.029999999
10.198 -1.2819999 0.029999999
10.272 -1.262 0.030999999
10.315 -1.238 0.030999999
10.345 -1.212 0.030999999
10.425 -1.192 0.030999999
10.42 -1.1619999 0.030999999
10.466 -1.137 0.032000002
10.522 -1.113 0.032000002
10.645 -1.096 0.032000002
10.654 -1.067 0.032000002
10.684 -1.039 0.033
10.738 -1.0140001 0.033
10.746 -0.98400003 0.033
10.773 -0.95599997 0.033
10.839 -0.93099999 0.033
10.899 -0.90499997 0.034000002
10.937 -0.87699997 0.034000002
10.976 -0.84899998 0.034000002
10.999 -0.81999999 0.034000002
11.063 -0.79299998 0.034000002
11.096 -0.764 0.035
11.155 -0.736 0.035
11.121 0.30599999 -0.096000001
11.152 0.322 -0.097000003
11.134 0.33700001 -0.097000003
11.076 0.35100001 -0.096000001
11.088 0.368 -0.097000003
11.058 0.38299999 -0.097000003
11.025 0.398 -0.096000001
11.045 0.41600001 -0.097000003
11.032 0.43200001 -0.097000003
10.95 0.44600001 -0.096000001
10.982 0.465 -0.097000003
10.957 0.48199999 -0.097000003
10.991 0.50099999 -0.097000003
10.944 0.51700002 -0.097000003
10.986 0.53799999 -0.097000003
10.969 0.55599999 -0.097000003
10.969 0.574 -0.097999997
10.961 0.59299999 -0.097999997
10.969 0.61299998 -0.097999997
10.96 0.63200003 -0.097999997
10.983 0.653 -0.098999999
10.989 0.67400002 -0.098999999
10.977 0.69300002 -0.098999999
10.976 0.71399999 -0.098999999
10.974 0.73500001 -0.098999999
10.978 0.75599998 -0.098999999
10.989 0.778 -0.1
10.997 0.80000001 -0.1
11.019 0.824 -0.1
11.035 0.847 -0.101
11.043 0.87 -0.101
11.049 0.89300001 -0.101
11.084 0.91799998 -0.102
8.4750004 0.72000003 -0.078000002
8.3179998 0.72399998 -0.077
8.243 0.73500001 -0.075999998
8.198 0.74800003 -0.075999998
8.1800003 0.764 -0.075999998
8.1610003 0.77999997 -0.075999998
8.1719999 0.80000001 -0.075999998
8.191 0.81999999 -0.075999998
8.224 0.84100002 -0.077
8.3190002 0.87 -0.078000002
8.3590002 0.89300001 -0.079000004
8.2910004 0.90499997 -0.078000002
8.2340002 0.91799998 -0.078000002
8.2209997 0.935 -0.078000002
8.1940002 0.95099998 -0.078000002
8.1800003 0.96899998 -0.078000002
8.1920004 0.99000001 -0.078000002
8.2119999 1.012 -0.078000002
8.283 1.041 -0.079000004
11.316 1.45 -0.109
11.332 1.48 -0.109
11.357 1.512 -0.11
11.366 1.541 -0.11
11.382 1.572 -0.11
11.387 1.602 -0.111
11.419 1.635 -0.111
11.437 1.6670001 -0.112
11.485 1.704 -0.112
11.508 1.737 -0.113
11.524 1.77 -0.113
11.544 1.804 -0.114
11.569 1.8380001 -0.114
11.593 1.873 -0.115
11.638 1.9119999 -0.116
11.654 1.946 -0.116
11.67 1.98 -0.116
11.693 2.016 -0.117
11.703 2.05 -0.117
11.713 2.085 -0.118
11.756 2.125 -0.118
11.78 2.1630001 -0.119
11.806 2.201 -0.12
11.81 2.2349999 -0.12
11.868 2.28 -0.121
11.891 2.319 -0.121
11.905 2.3559999 -0.122
11.934 2.3959999 -0.122
11.963 2.437 -0.123
11.986 2.477 -0.123
12.023 2.52 -0.124
12.021 2.556 -0.124
12.059 2.5999999 -0.125
12.074 2.6389999 -0.126
12.126 2.687 -0.127
12.153 2.73 -0.127
12.174 2.7720001 -0.12800001
12.18 2.8110001 -0.12800001
12.187 2.8499999 -0.12899999
12.207 2.8929999 -0.12899999
12.237 2.938 -0.13
12.248 2.9790001 -0.13
12.269 3.023 -0.131
12.297 3.069 -0.131
12.303 3.1099999 -0.132
12.325 3.155 -0.132
12.316 3.1919999 -0.133
9.3070002 2.4419999 -0.1
12.379 3.2479999 -0.134
9.1669998 2.4349999 -0.098999999
9.1280003 2.454 -0.098999999
9.1110001 2.48 -0.098999999
9.1149998 2.5109999 -0.098999999
9.1639996 2.5550001 -0.1
12.539 3.4949999 -0.13699999
12.434 3.5079999 -0.13699999
12.461 3.5569999 -0.13699999
12.495 3.609 -0.138
12.497 3.651 -0.138
12.49 3.691 -0.139
12.512 3.7409999 -0.139
12.523 3.786 -0.14
12.539 3.835 -0.14
9.1149998 2.819 -0.102
12.617 3.902 -0.142
8.9809999 2.8080001 -0.101
8.9510002 2.8299999 -0.101
8.9329996 2.855 -0.101
8.974 2.9000001 -0.102
9.1969995 3.0050001 -0.105
12.664 4.1370001 -0.14399999
12.651 4.178 -0.145
12.686 4.2350001 -0.145
12.734 4.296 -0.146
12.726 4.3390002 -0.147
12.757 4.3959999 -0.147
12.75 4.4390001 -0.148
12.761 4.4889998 -0.148
12.791 4.5469999 -0.149
12.807 4.599 -0.15000001
12.863 4.6669998 -0.15099999
12.925 4.737 -0.152
12.974 4.803 -0.153
12.992 4.8579998 -0.154
13.049 4.928 -0.155
13.057 4.98 -0.155
13.133 5.0580001 -0.15700001
13.169 5.1220002 -0.15800001
13.204 5.1859999 -0.15800001
13.206 5.237 -0.15899999
13.249 5.3049998 -0.16
13.268 5.3629999 -0.161
13.273 5.4159999 -0.161
13.301 5.4790001 -0.162
13.333 5.5450001 -0.163
13.348 5.6030002 -0.164
13.404 5.6789999 -0.16500001
13.421 5.7389998 -0.16500001
13.443 5.8010001 -0.16599999
13.498 5.8790002 -0.167
13.528 5.9460001 -0.168
13.587 6.026 -0.17
13.619 6.0939999 -0.17
13.645 6.1609998 -0.171
13.641 6.2140002 -0.17200001
13.634 6.2670002 -0.17200001
13.621 6.316 -0.17299999
13.638 6.3800001 -0.17299999
13.651 6.4419999 -0.17399999
13.663 6.5029998 -0.175
13.711 6.5830002 -0.176
13.746 6.6570001 -0.177
12.258 6.1409998 -0.16
12.189 6.158 -0.15899999
12.192 6.263 -0.16
12.236 6.3379998 -0.161
12.222 6.3829999 -0.162
12.062 6.3520002 -0.16
12.033 6.388 -0.16
12.072 6.461 -0.161
12.093 6.5250001 -0.162
12.182 6.6259999 -0.164
12.201 6.6900001 -0.164
12.145 6.7119999 -0.164
10.569 6.171 -0.146
10.444 6.145 -0.145
10.362 6.1440001 -0.14399999
10.297 6.152 -0.14399999
10.241 6.165 -0.14300001
10.182 6.1760001 -0.14300001
10.119 6.184 -0.142
10.05 6.1880002 -0.142
9.9989996 6.2030001 -0.142
9.9499998 6.2189999 -0.141
9.901 6.2340002 -0.141
9.8549995 6.2509999 -0.141
9.8450003 6.2909999 -0.141
9.8850002 6.3629999 -0.142
10.075 6.533 -0.146
10.188 6.6539998 -0.148
5.6750002 3.924 -0.083999999
5.5809999 3.8859999 -0.082999997
5.5219998 3.872 -0.082000002
5.4770002 3.8670001 -0.082000002
5.4450002 3.8710001 -0.082000002
5.3969998 3.8629999 -0.081
5.3499999 3.8559999 -0.081
7.0300002 -4.6360002 0.028999999
7.053 -4.6069999 0.028999999
7.0819998 -4.5819998 0.028999999
7.1100001 -4.5560002 0.029999999
7.132 -4.526 0.029999999
7.165 -4.5040002 0.029999999
7.1859999 -4.474 0.029999999
7.2160001 -4.4489999 0.029999999
7.243 -4.4229999 0.029999999
7.2550001 -4.388 0.029999999
7.2729998 -4.3569999 0.030999999
7.3039999 -4.3330002 0.030999999
7.3179998 -4.3000002 0.030999999
7.335 -4.2680001 0.030999999
7.3590002 -4.2410002 0.030999999
7.388 -4.217 0.030999999
7.4060001 -4.1859999 0.030999999
7.4310002 -4.1599998 0.030999999
7.4460001 -4.1279998 0.032000002
7.46 -4.0960002 0.032000002
7.48 -4.0669999 0.032000002
7.4720001 -4.0229998 0.032000002
7.5040002 -4.0009999 0.032000002
7.5419998 -3.983 0.032000002
7.5689998 -3.9579999 0.032000002
7.5929999 -3.931 0.033
7.5929999 -3.8929999 0.033
7.6160002 -3.8670001 0.033
7.6339998 -3.8380001 0.033
7.6539998 -3.8099999 0.033
7.6750002 -3.783 0.033
7.697 -3.756 0.033
7.7150002 -3.7279999 0.033
7.7389998 -3.7019999 0.034000002
7.7670002 -3.6789999 0.034000002
7.7930002 -3.654 0.034000002
7.8039999 -3.6229999 0.034000002
7.8280001 -3.598 0.034000002
7.8340001 -3.5650001 0.034000002
7.8670001 -3.543 0.034000002
7.8940001 -3.52 0.035
7.9050002 -3.4890001 0.035
7.928 -3.464 0.035
7.9520001 -3.4389999 0.035
7.9840002 -3.418 0.035
8.0050001 -3.392 0.035
8.0340004 -3.369 0.035
8.0480003 -3.3399999 0.035999998
8.0679998 -3.3139999 0.035999998
8.1070004 -3.296 0.035999998
8.1239996 -3.2690001 0.035999998
8.1499996 -3.2449999 0.035999998
8.1569996 -3.214 0.035999998
8.1730003 -3.1860001 0.035999998
8.2110004 -3.1670001 0.037
8.2360001 -3.1429999 0.037
8.2799997 -3.1270001 0.037
8.2939997 -3.099 0.037
8.316 -3.0739999 0.037
8.3470001 -3.052 0.037
8.349 -3.02 0.037
8.3649998 -2.994 0.037999999
8.3979998 -2.973 0.037999999
8.4209995 -2.9489999 0.037999999
8.4490004 -2.9260001 0.037999999
8.467 -2.9000001 0.037999999
8.5129995 -2.8840001 0.039000001
8.5369997 -2.8599999 0.039000001
8.5450001 -2.8310001 0.039000001
8.5640001 -2.806 0.039000001
8.5909996 -2.783 0.039000001
8.632 -2.7650001 0.039000001
8.6499996 -2.7390001 0.039000001
8.6809998 -2.7179999 0.039999999
8.7189999 -2.6989999 0.039999999
8.7790003 -2.6860001 0.039999999
8.7609997 -2.6500001 0.039999999
8.79 -2.628 0.039999999
8.7980003 -2.5999999 0.039999999
8.8389997 -2.5810001 0.041000001
8.8839998 -2.5639999 0.041000001
8.9230003 -2.5450001 0.041000001
8.9720001 -2.5280001 0.041000001
8.9770002 -2.4990001 0.041000001
9.0050001 -2.477 0.041999999
9.007 -2.448 0.041999999
9.0229998 -2.4219999 0.041999999
9.0530005 -2.401 0.041999999
9.0830002 -2.3789999 0.041999999
9.1190004 -2.359 0.041999999
9.1370001 -2.3340001 0.043000001
9.165 -2.312 0.043000001
9.1920004 -2.29 0.043000001
9.2279997 -2.27 0.043000001
9.2379999 -2.243 0.043000001
9.2489996 -2.217 0.043000001
9.2819996 -2.1960001 0.044
9.2969999 -2.171 0.044
9.3450003 -2.154 0.044
9.3719997 -2.132 0.044
9.4060001 -2.1110001 0.044
9.4399996 -2.0899999 0.045000002
9.4510002 -2.0650001 0.045000002
9.4840002 -2.0439999 0.045000002
9.5290003 -2.026 0.045000002
9.5469999 -2.0020001 0.045000002
9.5769997 -1.98 0.046
9.6000004 -1.957 0.046
9.6379995 -1.937 0.046
9.6599998 -1.914 0.046
9.6940002 -1.8940001 0.046
9.717 -1.8710001 0.046
9.7449999 -1.849 0.046999998
9.7650003 -1.826 0.046999998
9.8149996 -1.808 0.046999998
9.8170004 -1.781 0.046999998
9.8479996 -1.76 0.046999998
9.8789997 -1.739 0.048
9.9049997 -1.717 0.048
9.9350004 -1.6950001 0.048
9.96 -1.673 0.048
9.9960003 -1.653 0.048
10.028 -1.632 0.048999999
10.098 -1.617 0.048999999
10.168 -1.602 0.048999999
10.142 -1.572 0.048999999
10.105 -1.54 0.048999999
10.158 -1.523 0.048999999
10.165 -1.498 0.050000001
10.186 -1.476 0.050000001
10.259 -1.461 0.050000001
10.274 -1.437 0.050000001
10.303 -1.416 0.050000001
10.331 -1.395 0.050999999
10.343 -1.3710001 0.050999999
10.377 -1.351 0.050999999
10.397 -1.3279999 0.050999999
10.454 -1.311 0.050999999
10.471 -1.288 0.052000001
10.508 -1.268 0.052000001
10.528 -1.2460001 0.052000001
10.579 -1.228 0.052000001
10.611 -1.207 0.052999999
10.632 -1.1849999 0.052999999
10.661 -1.164 0.052999999
10.676 -1.142 0.052999999
10.726 -1.123 0.052999999
10.737 -1.1 0.052999999
10.752 -1.0779999 0.054000001
10.794 -1.058 0.054000001
10.802 -1.036 0.054000001
10.85 -1.017 0.054000001
10.849 -0.99299997 0.054000001
10.875 -0.972 0.054000001
10.874 -0.949 0.055
10.882 -0.92699999 0.055
10.944 -0.90899998 0.055
10.944 -0.88700002 0.055
10.962 -0.86500001 0.055
11.015 -0.847 0.056000002
11.034 -0.82599998 0.056000002
11.081 -0.80699998 0.056000002
11.109 -0.787 0.056000002
11.122 -0.76499999 0.056000002
11.169 -0.74699998 0.057
11.201 -0.727 0.057
11.234 -0.70700002 0.057
11.232 -0.685 0.057
11.273 -0.66600001 0.057
11.376 -0.64999998 0.057999998
11.435 -0.63200003 0.057999998
10.862 0.13699999 -0.063000001
10.89 0.15700001 -0.063000001
10.901 0.177 -0.063000001
10.91 0.197 -0.064000003
10.909 0.21799999 -0.064000003
10.922 0.23899999 -0.064000003
10.929 0.25999999 -0.064000003
10.923 0.28099999 -0.064000003
10.899 0.301 -0.064000003
10.91 0.32300001 -0.064999998
10.903 0.34400001 -0.064999998
10.918 0.36700001 -0.064999998
10.935 0.38999999 -0.064999998
10.91 0.41100001 -0.064999998
10.922 0.43399999 -0.066
10.924 0.45699999 -0.066
10.949 0.48100001 -0.066
10.91 0.50300002 -0.066
10.939 0.528 -0.067000002
10.951 0.55199999 -0.067000002
10.971 0.57700002 -0.067000002
10.955 0.60000002 -0.067000002
10.945 0.62400001 -0.067000002
10.973 0.64999998 -0.068000004
10.999 0.67699999 -0.068000004
10.988 0.70099998 -0.068000004
10.975 0.72500002 -0.068000004
10.976 0.75099999 -0.068999998
10.999 0.778 -0.068999998
11.015 0.80500001 -0.068999998
11.048 0.83399999 -0.07
11.034 0.85900003 -0.07
11.077 0.889 -0.07
11.083 0.91600001 -0.07
11.114 0.94599998 -0.071000002
11.152 0.97600001 -0.071000002
8.349 0.75199997 -0.052999999
8.2469997 0.76300001 -0.052999999
8.2069998 0.77999997 -0.052999999
8.1689997 0.79699999 -0.052999999
8.165 0.81699997 -0.052999999
8.1549997 0.83700001 -0.052999999
8.165 0.85900003 -0.052999999
8.2469997 0.889 -0.054000001
8.3730001 0.92400002 -0.055
11.3 1.247 -0.074000001
8.2790003 0.935 -0.055
11.523 1.302 -0.075999998
8.2309999 0.95200002 -0.054000001
8.2019997 0.97000003 -0.054000001
8.1929998 0.991 -0.054000001
8.1899996 1.012 -0.055
8.1960001 1.035 -0.055
8.2530003 1.0650001 -0.055
11.484 1.482 -0.077
8.5010004 1.12 -0.057
11.42 1.5039999 -0.077
11.448 1.539 -0.078000002
11.477 1.575 -0.078000002
11.487 1.608 -0.078000002
11.507 1.643 -0.079000004
11.539 1.679 -0.079000004
11.589 1.719 -0.079999998
11.623 1.757 -0.079999998
11.667 1.7970001 -0.081
11.67 1.831 -0.081
11.68 1.8660001 -0.081
11.758 1.9119999 -0.082000002
11.782 1.95 -0.082999997
11.808 1.988 -0.082999997
11.836 2.027 -0.083999999
11.856 2.0650001 -0.083999999
11.891 2.1070001 -0.085000001
11.924 2.148 -0.085000001
11.968 2.191 -0.086000003
11.981 2.2290001 -0.086000003
12.026 2.273 -0.086999997
12.048 2.3139999 -0.086999997
12.111 2.362 -0.088
12.118 2.4000001 -0.088
12.161 2.4460001 -0.089000002
12.177 2.4860001 -0.089000002
12.225 2.5339999 -0.090000004
12.233 2.573 -0.090000004
12.266 2.6170001 -0.090999998
12.29 2.661 -0.090999998
12.286 2.698 -0.092
12.339 2.7479999 -0.092
12.355 2.79 -0.093000002
12.37 2.8329999 -0.093000002
12.387 2.875 -0.093999997
12.391 2.9159999 -0.093999997
12.423 2.9630001 -0.093999997
12.413 3 -0.094999999
12.433 3.0439999 -0.094999999
12.448 3.0880001 -0.096000001
12.493 3.1389999 -0.096000001
12.516 3.1849999 -0.097000003
12.524 3.2279999 -0.097000003
9.2580004 2.4159999 -0.071999997
12.68 3.309 -0.098999999
9.158 2.4200001 -0.071000002
9.125 2.441 -0.071000002
9.1110001 2.467 -0.071999997
9.1210003 2.5 -0.071999997
9.1829996 2.5469999 -0.072999999
12.755 3.5380001 -0.101
12.677 3.5580001 -0.101
12.684 3.602 -0.101
12.693 3.6470001 -0.102
12.702 3.6919999 -0.102
12.684 3.7290001 -0.102
12.699 3.776 -0.103
12.733 3.829 -0.103
12.767 3.882 -0.104
9.0489998 2.7820001 -0.074000001
12.933 3.9760001 -0.106
8.9619999 2.786 -0.072999999
8.9329996 2.8069999 -0.072999999
8.9239998 2.8340001 -0.074000001
8.9540005 2.8740001 -0.074000001
9.1389999 2.9649999 -0.075999998
12.965 4.2059999 -0.108
12.911 4.2329998 -0.108
13.007 4.309 -0.109
13.02 4.3590002 -0.109
13.068 4.4200001 -0.11
13.085 4.4710002 -0.111
13.103 4.5219998 -0.111
13.114 4.572 -0.112
13.152 4.6300001 -0.113
13.207 4.6960001 -0.113
13.281 4.7690001 -0.114
13.327 4.8319998 -0.115
13.346 4.8850002 -0.116
13.399 4.9520001 -0.117
13.425 5.0089998 -0.117
13.441 5.0619998 -0.118
13.535 5.145 -0.119
13.556 5.2020001 -0.12
13.613 5.2709999 -0.121
13.624 5.3239999 -0.121
13.681 5.395 -0.122
13.706 5.454 -0.123
13.813 5.546 -0.124
13.807 5.5929999 -0.125
13.829 5.651 -0.125
13.871 5.7179999 -0.126
13.895 5.777 -0.127
13.891 5.8260002 -0.127
13.909 5.8829999 -0.12800001
13.923 5.9390001 -0.12800001
13.962 6.006 -0.12899999
13.986 6.0669999 -0.13
14.045 6.1430001 -0.131
14.071 6.2059999 -0.132
14.049 6.2470002 -0.132
13.877 6.2210002 -0.131
13.813 6.2420001 -0.13
12.256 6.164 -0.122
12.196 6.178 -0.121
12.262 6.256 -0.123
12.224 6.2820001 -0.123
12.115 6.27 -0.122
12.108 6.3109999 -0.122
12.105 6.3530002 -0.123
12.056 6.3709998 -0.123
12.035 6.4039998 -0.123
12.084 6.4749999 -0.124
12.102 6.5279999 -0.124
12.192 6.6209998 -0.126
12.228 6.73 -0.127
12.227 6.7740002 -0.127
10.662 6.178 -0.114
10.539 6.1440001 -0.113
10.427 6.1170001 -0.112
10.364 6.1170001 -0.112
10.311 6.1230001 -0.112
10.262 6.1300001 -0.111
10.199 6.1290002 -0.111
10.144 6.132 -0.111
10.109 6.1469998 -0.111
10.067 6.158 -0.111
10.025 6.1669998 -0.111
9.9870005 6.1789999 -0.111
9.9709997 6.2049999 -0.111
9.9750004 6.243 -0.111
10.092 6.3509998 -0.113
5.698 3.8599999 -0.067000002
5.5479999 3.777 -0.064999998
5.487 3.7539999 -0.064999998
5.4520001 3.7479999 -0.064999998
5.4289999 3.75 -0.064999998
5.408 3.753 -0.064000003
5.3889999 3.7579999 -0.064000003
5.3660002 3.7590001 -0.064000003
5.3270001 3.7490001 -0.064000003
5.3070002 3.7509999 -0.064000003
5.29 3.756 -0.064000003
5.27 3.7590001 -0.064000003
5.263 3.77 -0.064000003
5.2319999 3.7650001 -0.064000003
5.2290001 3.779 -0.064000003
5.2119999 3.783 -0.064000003
5.2049999 3.7939999 -0.064000003
7.4990001 -4.4120002 0.048999999
7.5079999 -4.3959999 0.048999999
7.5180001 -4.381 0.048999999
7.526 -4.3639998 0.048999999
7.5489998 -4.3559999 0.048999999
7.5450001 -4.3319998 0.048999999
7.5549998 -4.3169999 0.048999999
7.579 -4.309 0.048999999
7.592 -4.2950001 0.050000001
7.5999999 -4.2779999 0.050000001
7.6149998 -4.2649999 0.050000001
7.625 -4.2480001 0.050000001
7.6199999 -4.224 0.050000001
7.638 -4.2119999 0.050000001
7.6409998 -4.1919999 0.050000001
7.6620002 -4.1810002 0.050000001
7.665 -4.1609998 0.050999999
7.6750002 -4.1440001 0.050999999
7.691 -4.131 0.050999999
7.698 -4.1129999 0.050999999
7.6989999 -4.0910001 0.050999999
7.7179999 -4.0799999 0.050999999
7.7389998 -4.0679998 0.050999999
7.7480001 -4.0510001 0.050999999
7.757 -4.033 0.052000001
7.79 -4.0279999 0.052000001
7.7620001 -3.9909999 0.052000001
7.776 -3.9760001 0.052000001
7.7940001 -3.9630001 0.052000001
7.803 -3.9449999 0.052000001
7.809 -3.925 0.052000001
7.8210001 -3.9089999 0.052000001
7.842 -3.8970001 0.052999999
7.8649998 -3.885 0.052999999
7.868 -3.865 0.052999999
7.8829999 -3.849 0.052999999
7.8979998 -3.8340001 0.052999999
7.9099998 -3.816 0.052999999
7.9289999 -3.803 0.054000001
7.9239998 -3.777 0.054000001
7.9530001 -3.7679999 0.054000001
7.9559999 -3.747 0.054000001
7.9640002 -3.7279999 0.054000001
7.993 -3.7179999 0.054000001
7.9920001 -3.6949999 0.054000001
8.0270004 -3.687 0.055
8.026 -3.664 0.055
8.0389996 -3.6459999 0.055
8.0500002 -3.628 0.055
8.066 -3.612 0.055
8.0799999 -3.595 0.055
8.0950003 -3.5780001 0.055
8.1099997 -3.5610001 0.056000002
8.132 -3.5480001 0.056000002
8.1409998 -3.5280001 0.056000002
8.1630001 -3.5139999 0.056000002
8.158 -3.4879999 0.056000002
8.1759996 -3.4719999 0.056000002
8.1890001 -3.454 0.056000002
8.2080002 -3.438 0.057
8.224 -3.421 0.057
8.2410002 -3.404 0.057
8.2559996 -3.3859999 0.057
8.2770004 -3.3710001 0.057
8.2939997 -3.3540001 0.057
8.3129997 -3.3380001 0.057999998
8.3210001 -3.3169999 0.057999998
8.3280001 -3.296 0.057999998
8.3660002 -3.286 0.057999998
8.3549995 -3.2579999 0.057999998
8.368 -3.2390001 0.057999998
8.4040003 -3.2290001 0.059
8.408 -3.2060001 0.059
8.4329996 -3.191 0.059
8.4540005 -3.174 0.059
8.4659996 -3.154 0.059
8.4759998 -3.1340001 0.059
8.4899998 -3.1140001 0.059999999
8.5120001 -3.098 0.059999999
8.5109997 -3.072 0.059999999
8.5389996 -3.0580001 0.059999999
8.5500002 -3.0369999 0.059999999
8.5719995 -3.02 0.059999999
8.585 -3 0.061000001
8.5970001 -2.98 0.061000001
8.5979996 -2.9549999 0.061000001
8.6280003 -2.9400001 0.061000001
8.6429996 -2.9200001 0.061000001
8.6709995 -2.905 0.061000001
8.6870003 -2.885 0.061999999
8.6969995 -2.8629999 0.061999999
8.7209997 -2.846 0.061999999
8.7290001 -2.823 0.061999999
8.7489996 -2.8050001 0.061999999
8.7659998 -2.7850001 0.061999999
8.7950001 -2.7690001 0.063000001
8.8120003 -2.7490001 0.063000001
8.8879995 -2.747 0.063000001
8.908 -2.727 0.064000003
8.9060001 -2.701 0.064000003
8.9250002 -2.681 0.064000003
8.9370003 -2.6589999 0.064000003
8.9499998 -2.6370001 0.064000003
8.9720001 -2.618 0.064000003
8.9840002 -2.595 0.064999998
9.0120001 -2.5769999 0.064999998
9.0419998 -2.5599999 0.064999998
9.0889997 -2.5469999 0.064999998
9.1029997 -2.5250001 0.066
9.1199999 -2.503 0.066
9.1149998 -2.4760001 0.066
9.1429996 -2.457 0.066
9.1409998 -2.4300001 0.066
9.1560001 -2.408 0.066
9.1960001 -2.392 0.067000002
9.2299995 -2.3740001 0.067000002
9.2379999 -2.3499999 0.067000002
9.2659998 -2.3299999 0.067000002
9.2919998 -2.3099999 0.068000004
9.3120003 -2.2880001 0.068000004
9.3500004 -2.2709999 0.068000004
9.3660002 -2.2479999 0.068000004
9.3950005 -2.2279999 0.068999998
9.3990002 -2.2019999 0.068999998
9.4300003 -2.1819999 0.068999998
9.4510002 -2.1600001 0.068999998
9.4940004 -2.142 0.068999998
9.507 -2.118 0.07
9.5539999 -2.1010001 0.07
9.5860004 -2.0810001 0.07
9.6269999 -2.062 0.071000002
9.6429996 -2.0380001 0.071000002
9.6750002 -2.017 0.071000002
9.7309999 -2.0009999 0.071999997
9.7270002 -1.972 0.071999997
9.7510004 -1.949 0.071999997
9.7799997 -1.927 0.071999997
9.8170004 -1.906 0.071999997
9.8540001 -1.885 0.072999999
9.8719997 -1.86 0.072999999
9.8940001 -1.836 0.072999999
9.9060001 -1.8099999 0.072999999
9.9549999 -1.791 0.074000001
9.9790001 -1.766 0.074000001
10.01 -1.743 0.074000001
10.03 -1.7180001 0.074000001
10.063 -1.6950001 0.075000003
10.122 -1.676 0.075000003
10.165 -1.654 0.075999998
10.21 -1.632 0.075999998
10.271 -1.613 0.077
10.299 -1.5880001 0.077
10.274 -1.5549999 0.077
10.308 -1.53 0.077
10.361 -1.5089999 0.077
10.389 -1.483 0.078000002
10.42 -1.4579999 0.078000002
10.453 -1.433 0.078000002
10.505 -1.41 0.079000004
10.529 -1.383 0.079000004
10.599 -1.362 0.079999998
10.652 -1.339 0.079999998
10.689 -1.313 0.079999998
10.702 -1.284 0.081
10.738 -1.257 0.081
10.779 -1.232 0.081
10.818 -1.205 0.082000002
10.851 -1.178 0.082000002
10.863 -1.148 0.082000002
10.893 -1.1210001 0.082000002
10.942 -1.095 0.082999997
10.942 -1.063 0.082999997
10.985 -1.036 0.082999997
11.024 -1.0089999 0.083999999
11.073 -0.98199999 0.083999999
11.125 -0.95499998 0.083999999
11.177 -0.92699999 0.085000001
11.244 -0.90100002 0.085000001
11.262 -0.87 0.086000003
11.307 -0.84200001 0.086000003
11.387 -0.815 0.086999997
11.505 -0.79100001 0.088
11.693 0.35600001 -0.044
11.717 0.37400001 -0.044
11.74 0.391 -0.044
11.659 0.40599999 -0.044
11.689 0.42399999 -0.044
11.645 0.44100001 -0.044
11.62 0.458 -0.044
11.6 0.47499999 -0.044
11.589 0.493 -0.045000002
11.573 0.51099998 -0.045000002
11.563 0.52899998 -0.045000002
11.55 0.54799998 -0.045000002
11.541 0.56699997 -0.045000002
11.531 0.58600003 -0.045000002
11.508 0.60399997 -0.045000002
11.513 0.625 -0.046
11.527 0.64600003 -0.046
11.525 0.66600001 -0.046
11.498 0.68599999 -0.046
11.491 0.70599997 -0.046
11.488 0.727 -0.046
11.5 0.75 -0.046999998
11.495 0.77100003 -0.046999998
11.531 0.796 -0.046999998
11.521 0.81699997 -0.046999998
11.523 0.83999997 -0.046999998
11.544 0.86400002 -0.048
11.566 0.889 -0.048
11.563 0.912 -0.048
11.577 0.93699998 -0.048
11.594 0.96200001 -0.048999999
11.605 0.98699999 -0.048999999
11.69 1.0190001 -0.050000001
8.3149996 0.74199998 -0.035
11.892 1.062 -0.050999999
8.2189999 0.75099999 -0.035
8.1700001 0.764 -0.035
8.125 0.778 -0.035
8.1120005 0.79400003 -0.035
8.0959997 0.81099999 -0.035
8.1029997 0.82999998 -0.035
8.0939999 0.847 -0.035
8.1260004 0.86900002 -0.035999998
11.82 1.2640001 -0.052000001
8.198 0.89499998 -0.035999998
11.908 1.301 -0.052999999
8.2349997 0.91799998 -0.035999998
8.2200003 0.93599999 -0.035999998
8.2040005 0.95300001 -0.037
8.1780005 0.97000003 -0.037
8.1809998 0.98900002 -0.037
8.184 1.01 -0.037
8.2119999 1.033 -0.037
8.2670002 1.0599999 -0.037999999
11.923 1.529 -0.054000001
8.5200005 1.113 -0.039000001
11.859 1.55 -0.054000001
11.903 1.585 -0.055
11.92 1.617 -0.055
11.936 1.649 -0.055
11.962 1.683 -0.056000002
11.984 1.717 -0.056000002
12.034 1.755 -0.057
12.046 1.788 -0.057
12.033 1.817 -0.057
12.073 1.855 -0.057
12.087 1.8890001 -0.057999998
12.113 1.925 -0.057999998
12.137 1.961 -0.059
12.164 1.999 -0.059
12.188 2.036 -0.059
12.212 2.073 -0.059999999
12.253 2.1129999 -0.059999999
12.265 2.1489999 -0.059999999
12.277 2.1849999 -0.061000001
12.313 2.2260001 -0.061000001
12.345 2.267 -0.061999999
12.363 2.3050001 -0.061999999
12.375 2.342 -0.061999999
12.394 2.381 -0.063000001
12.402 2.418 -0.063000001
12.405 2.4549999 -0.063000001
12.467 2.5039999 -0.064000003
12.464 2.539 -0.064000003
12.494 2.582 -0.064000003
12.502 2.6210001 -0.064999998
12.533 2.665 -0.064999998
12.539 2.7030001 -0.064999998
12.558 2.7449999 -0.066
12.544 2.78 -0.066
12.551 2.8199999 -0.066
12.567 2.862 -0.067000002
12.582 2.904 -0.067000002
12.584 2.9430001 -0.067000002
12.599 2.9860001 -0.068000004
12.602 3.026 -0.068000004
12.637 3.0739999 -0.068999998
12.652 3.1170001 -0.068999998
12.68 3.164 -0.068999998
12.67 3.2019999 -0.07
12.707 3.2520001 -0.07
12.718 3.296 -0.07
12.748 3.345 -0.071000002
9.3109999 2.473 -0.052000001
12.828 3.4070001 -0.071999997
9.165 2.464 -0.050999999
9.1079998 2.4790001 -0.050999999
9.0959997 2.5050001 -0.050999999
9.0880003 2.533 -0.050999999
9.1149998 2.5710001 -0.052000001
13.169 3.7149999 -0.075000003
9.3100004 2.6570001 -0.052999999
12.915 3.6860001 -0.074000001
12.913 3.7290001 -0.074000001
12.93 3.777 -0.075000003
12.904 3.813 -0.075000003
12.926 3.8640001 -0.075000003
12.949 3.915 -0.075999998
13.008 3.977 -0.075999998
9.1700001 2.835 -0.054000001
13.116 4.0560002 -0.077
8.9759998 2.806 -0.052999999
8.9189997 2.8199999 -0.052999999
8.9069996 2.8469999 -0.052999999
8.9300003 2.885 -0.052999999
9.0270004 2.9489999 -0.054000001
13.341 4.3579998 -0.079999998
13.256 4.3769999 -0.079999998
13.274 4.4299998 -0.081
13.297 4.4850001 -0.081
13.339 4.5469999 -0.082000002
13.381 4.6100001 -0.082000002
13.415 4.6700001 -0.082999997
13.459 4.7340002 -0.083999999
13.511 4.802 -0.083999999
13.555 4.8670001 -0.085000001
13.556 4.9169998 -0.085000001
13.631 4.9949999 -0.086000003
13.69 5.0669999 -0.086999997
13.73 5.1329999 -0.086999997
13.797 5.21 -0.088
13.817 5.2690001 -0.089000002
13.896 5.3509998 -0.090000004
13.933 5.4180002 -0.090000004
13.99 5.494 -0.090999998
14.077 5.5809999 -0.092
14.093 5.6409998 -0.092
14.121 5.7069998 -0.093000002
14.139 5.7690001 -0.093999997
14.142 5.8249998 -0.093999997
14.139 5.8779998 -0.093999997
14.197 5.9580002 -0.094999999
14.2 6.0149999 -0.096000001
14.245 6.0900002 -0.096000001
14.303 6.171 -0.097000003
14.375 6.2589998 -0.097999997
14.357 6.309 -0.097999997
13.877 6.1529999 -0.094999999
12.269 6.0939999 -0.089000002
12.196 6.1090002 -0.089000002
12.18 6.204 -0.089000002
12.119 6.2249999 -0.089000002
12.109 6.2709999 -0.090000004
12.089 6.3130002 -0.090000004
12.068 6.3530002 -0.090000004
12.111 6.428 -0.090999998
12.126 6.4889998 -0.090999998
12.247 6.6069999 -0.093000002
10.638 6.1620002 -0.083999999
10.507 6.1329999 -0.082999997
10.396 6.1149998 -0.082000002
10.332 6.125 -0.082000002
10.277 6.1389999 -0.082000002
10.203 6.1409998 -0.082000002
10.156 6.1589999 -0.082000002
10.1 6.171 -0.082000002
10.051 6.1880002 -0.082000002
10.008 6.2080002 -0.082000002
9.9750004 6.2329998 -0.082000002
9.9589996 6.2690001 -0.082000002
10.004 6.3439999 -0.082999997
10.21 6.5229998 -0.085000001
5.4959998 3.8529999 -0.048
5.415 3.822 -0.046999998
5.3709998 3.8169999 -0.046999998
5.3379998 3.8199999 -0.046999998
5.302 3.8210001 -0.046999998
7.1789999 -4.7319999 0.064000003
7.224 -4.7160001 0.064999998
7.2449999 -4.6849999 0.064999998
7.2659998 -4.6529999 0.064999998
7.2930002 -4.6259999 0.064999998
7.323 -4.6009998 0.066
7.3540001 -4.5760002 0.066
7.3709998 -4.5430002 0.066
7.4000001 -4.5170002 0.066
7.4200001 -4.4860001 0.067000002
7.4460001 -4.4590001 0.067000002
7.461 -4.4250002 0.067000002
7.4889998 -4.3990002 0.067000002
7.5029998 -4.3639998 0.067000002
7.526 -4.336 0.068000004
7.5510001 -4.3080001 0.068000004
7.5599999 -4.2719998 0.068000004
7.5799999 -4.2420001 0.068000004
7.6030002 -4.2129998 0.068000004
7.6269999 -4.1859999 0.068999998
7.6399999 -4.152 0.068999998
7.677 -4.132 0.068999998
7.6890001 -4.098 0.068999998
7.7080002 -4.0689998 0.068999998
7.724 -4.0370002 0.07
7.75 -4.0120001 0.07
7.7690001 -3.9820001 0.07
7.796 -3.957 0.07
7.8140001 -3.927 0.07
7.835 -3.8989999 0.071000002
7.869 -3.8770001 0.071000002
7.881 -3.845 0.071000002
7.9000001 -3.816 0.071000002
7.9229999 -3.789 0.071000002
7.9419999 -3.76 0.071999997
7.967 -3.7349999 0.071999997
7.9949999 -3.71 0.071999997
8.0150003 -3.6830001 0.071999997
8.0349998 -3.655 0.072999999
8.0620003 -3.6300001 0.072999999
8.0860004 -3.6040001 0.072999999
8.0979996 -3.573 0.072999999
8.1300001 -3.5510001 0.074000001
8.1619997 -3.529 0.074000001
8.1829996 -3.5020001 0.074000001
8.21 -3.4779999 0.074000001
8.2139997 -3.444 0.074000001
8.2349997 -3.4170001 0.075000003
8.2620001 -3.3929999 0.075000003
8.3000002 -3.3729999 0.075000003
8.3339996 -3.352 0.075999998
8.3509998 -3.3239999 0.075999998
8.3690004 -3.296 0.075999998
8.3839998 -3.2679999 0.075999998
8.4119997 -3.244 0.075999998
8.4379997 -3.22 0.077
8.4700003 -3.198 0.077
8.4989996 -3.175 0.077
8.5240002 -3.1500001 0.078000002
8.5489998 -3.1259999 0.078000002
8.573 -3.1010001 0.078000002
8.5930004 -3.075 0.078000002
8.6239996 -3.052 0.079000004
8.6479998 -3.0280001 0.079000004
8.6750002 -3.0039999 0.079000004
8.6789999 -2.9719999 0.079000004
8.71 -2.95 0.079000004
8.7510004 -2.931 0.079999998
8.7810001 -2.9089999 0.079999998
8.8009996 -2.8829999 0.079999998
8.8280001 -2.8599999 0.081
8.8660002 -2.8399999 0.081
8.8990002 -2.8180001 0.081
8.9300003 -2.7950001 0.082000002
8.9829998 -2.78 0.082000002
8.9870005 -2.7490001 0.082000002
9.0270004 -2.73 0.082999997
9.0579996 -2.7079999 0.082999997
9.0880003 -2.6849999 0.082999997
9.1219997 -2.664 0.083999999
9.1350002 -2.6359999 0.083999999
9.1809998 -2.618 0.083999999
9.1809998 -2.5869999 0.083999999
9.2209997 -2.5669999 0.085000001
9.2729998 -2.5510001 0.085000001
9.2779999 -2.5209999 0.085000001
9.3100004 -2.4990001 0.086000003
9.3479996 -2.4790001 0.086000003
9.375 -2.4549999 0.086000003
9.4020004 -2.4319999 0.086999997
9.4390001 -2.411 0.086999997
9.4790001 -2.391 0.086999997
9.5319996 -2.3740001 0.088
9.566 -2.3529999 0.088
9.5979996 -2.3310001 0.089000002
9.625 -2.3069999 0.089000002
9.6520004 -2.2839999 0.089000002
9.7299995 -2.2720001 0.090000004
9.7329998 -2.243 0.090000004
9.7709999 -2.223 0.090000004
9.7889996 -2.197 0.090999998
9.8319998 -2.177 0.090999998
9.8310003 -2.148 0.090999998
9.8640003 -2.1259999 0.090999998
9.8850002 -2.1010001 0.092
9.9169998 -2.079 0.092
9.9519997 -2.0580001 0.092
9.9790001 -2.0339999 0.093000002
9.993 -2.0090001 0.093000002
10.032 -1.988 0.093000002
10.073 -1.9680001 0.093999997
10.078 -1.9400001 0.093999997
10.115 -1.919 0.093999997
10.141 -1.896 0.093999997
10.199 -1.8789999 0.094999999
10.224 -1.855 0.094999999
10.223 -1.827 0.094999999
10.275 -1.809 0.096000001
10.29 -1.784 0.096000001
10.323 -1.762 0.096000001
10.348 -1.739 0.097000003
10.374 -1.716 0.097000003
10.396 -1.692 0.097000003
10.463 -1.676 0.097999997
10.492 -1.654 0.097999997
10.491 -1.626 0.097999997
10.472 -1.597 0.097999997
10.519 -1.577 0.098999999
10.569 -1.558 0.098999999
10.583 -1.534 0.098999999
10.62 -1.512 0.1
10.647 -1.49 0.1
10.673 -1.467 0.1
10.69 -1.444 0.1
10.743 -1.425 0.101
10.743 -1.399 0.101
10.778 -1.378 0.101
10.817 -1.357 0.102
10.815 -1.331 0.102
10.859 -1.311 0.102
10.871 -1.2869999 0.102
10.907 -1.266 0.103
10.919 -1.243 0.103
10.993 -1.226 0.104
10.955 -1.197 0.103
10.992 -1.176 0.104
11.035 -1.156 0.104
11.042 -1.132 0.104
11.063 -1.11 0.105
11.053 -1.084 0.105
11.116 -1.066 0.105
11.133 -1.044 0.105
11.152 -1.022 0.106
11.155 -0.99800003 0.106
11.177 -0.97600001 0.106
11.224 -0.95700002 0.107
11.257 -0.93599999 0.107
11.351 -0.92000002 0.108
11.357 -0.89700001 0.108
11.397 -0.87699997 0.108
11.408 -0.85500002 0.109
11.445 -0.83399999 0.109
11.474 -0.81300002 0.109
11.523 -0.79400003 0.11
11.555 -0.773 0.11
11.65 -0.75700003 0.111
11.478 0.147 -0.0089999996
11.517 0.168 -0.0089999996
11.557 0.19 -0.0099999998
11.575 0.211 -0.0099999998
11.595 0.233 -0.0099999998
11.61 0.255 -0.0099999998
11.626 0.278 -0.011
11.635 0.30000001 -0.011
11.62 0.32300001 -0.011
11.618 0.345 -0.011
11.634 0.36899999 -0.011
11.626 0.39199999 -0.011
11.653 0.417 -0.012
11.66 0.44100001 -0.012
11.672 0.465 -0.012
11.65 0.48899999 -0.012
11.642 0.51300001 -0.012
11.653 0.53799999 -0.013
11.637 0.56199998 -0.013
11.646 0.588 -0.013
11.617 0.61199999 -0.013
11.649 0.639 -0.013
11.636 0.66500002 -0.014
11.664 0.69199997 -0.014
11.644 0.71700001 -0.014
11.658 0.745 -0.014
11.653 0.77100003 -0.014
11.668 0.79900002 -0.015
11.664 0.82599998 -0.015
11.701 0.85600001 -0.015
11.737 0.88700002 -0.015
11.712 0.91299999 -0.015
11.712 0.94099998 -0.016000001
11.746 0.972 -0.016000001
11.746 1.001 -0.016000001
11.771 1.0319999 -0.016000001
11.786 1.062 -0.017000001
11.835 1.096 -0.017000001
8.2969999 0.78899997 -0.012
12.136 1.154 -0.017999999
8.1929998 0.80000001 -0.012
8.1379995 0.815 -0.012
8.1049995 0.83200002 -0.012
8.0790005 0.85000002 -0.012
8.0629997 0.86900002 -0.012
8.0600004 0.88999999 -0.012
8.085 0.91399997 -0.013
8.1470003 0.94199997 -0.013
8.2159996 0.972 -0.013
8.1940002 0.991 -0.013
8.1820002 1.012 -0.013
8.1750002 1.033 -0.013
8.1829996 1.056 -0.014
8.2150002 1.082 -0.014
12.323 1.624 -0.021
8.3479996 1.123 -0.014
12.129 1.631 -0.021
12.119 1.663 -0.021
12.136 1.699 -0.021
12.182 1.739 -0.022
12.207 1.777 -0.022
12.205 1.811 -0.022
12.242 1.851 -0.022
12.258 1.888 -0.023
12.272 1.925 -0.023
12.297 1.964 -0.023
12.341 2.007 -0.024
12.368 2.0469999 -0.024
12.365 2.082 -0.024
12.424 2.128 -0.024
12.434 2.1659999 -0.025
12.456 2.207 -0.025
12.5 2.2520001 -0.025
12.529 2.2939999 -0.026000001
12.559 2.3369999 -0.026000001
12.57 2.3759999 -0.026000001
12.589 2.418 -0.027000001
12.596 2.457 -0.027000001
12.618 2.4990001 -0.027000001
12.62 2.5380001 -0.027000001
12.654 2.5840001 -0.028000001
12.637 2.619 -0.028000001
12.676 2.6659999 -0.028000001
12.698 2.7090001 -0.028999999
12.682 2.7449999 -0.028999999
12.701 2.789 -0.028999999
12.712 2.8310001 -0.028999999
12.731 2.875 -0.029999999
12.742 2.9170001 -0.029999999
12.766 2.9630001 -0.029999999
12.777 3.006 -0.030999999
12.806 3.0539999 -0.030999999
12.812 3.096 -0.030999999
12.866 3.1500001 -0.032000002
12.857 3.1889999 -0.032000002
12.882 3.237 -0.032000002
12.927 3.29 -0.033
12.932 3.3329999 -0.033
12.964 3.3829999 -0.033
9.21 2.4330001 -0.024
13.197 3.487 -0.034000002
9.1370001 2.444 -0.024
9.0939999 2.4619999 -0.024
9.0889997 2.4909999 -0.024
9.0900002 2.5209999 -0.024
9.184 2.5769999 -0.025
13.187 3.701 -0.035999998
13.134 3.7290001 -0.035999998
13.152 3.7780001 -0.035999998
13.21 3.839 -0.037
13.248 3.8940001 -0.037
13.313 3.9579999 -0.037
13.361 4.0170002 -0.037999999
13.429 4.0830002 -0.037999999
9.0120001 2.77 -0.026000001
8.9280005 2.7750001 -0.026000001
8.9049997 2.7980001 -0.026000001
8.9180002 2.832 -0.026000001
8.96 2.8759999 -0.026000001
9.125 2.96 -0.027000001
13.65 4.428 -0.041000001
13.576 4.4510002 -0.041000001
13.588 4.5009999 -0.041000001
13.628 4.5609999 -0.041999999
13.703 4.6339998 -0.041999999
13.724 4.6880002 -0.043000001
13.735 4.7389998 -0.043000001
13.785 4.8049998 -0.044
13.835 4.8699999 -0.044
13.848 4.9229999 -0.044
13.88 4.9829998 -0.045000002
13.961 5.0609999 -0.045000002
14.016 5.1300001 -0.046
14.03 5.184 -0.046
14.087 5.2550001 -0.046999998
14.119 5.3169999 -0.046999998
14.207 5.4000001 -0.048
14.272 5.4749999 -0.048999999
14.274 5.526 -0.048999999
14.358 5.6100001 -0.050000001
14.412 5.6820002 -0.050000001
14.463 5.7540002 -0.050999999
14.534 5.8340001 -0.050999999
14.549 5.8920002 -0.052000001
14.59 5.961 -0.052000001
14.645 6.0359998 -0.052999999
14.599 6.0689998 -0.052999999
14.581 6.1139998 -0.052999999
14.592 6.171 -0.054000001
14.581 6.2189999 -0.054000001
14.621 6.289 -0.054000001
12.255 6.0279999 -0.050999999
12.183 6.0370002 -0.050999999
12.203 6.092 -0.050999999
12.202 6.1350002 -0.052000001
12.208 6.1830001 -0.052000001
12.236 6.2420001 -0.052999999
12.105 6.2189999 -0.052000001
12.094 6.2579999 -0.052999999
12.117 6.3140001 -0.052999999
12.106 6.3520002 -0.052999999
12.056 6.3699999 -0.052999999
12.057 6.415 -0.054000001
12.113 6.4889998 -0.054000001
12.126 6.54 -0.055
12.164 6.605 -0.055
12.257 6.6999998 -0.056000002
10.726 6.2140002 -0.052000001
10.534 6.1399999 -0.050999999
10.441 6.1240001 -0.050999999
10.386 6.1290002 -0.050999999
10.358 6.1500001 -0.050999999
10.332 6.171 -0.050999999
10.32 6.2010002 -0.050999999
10.33 6.244 -0.052000001
10.371 6.3049998 -0.052000001
10.434 6.381 -0.052999999
9.9289999 6.5910001 -0.055
9.8459997 6.5689998 -0.055
9.8500004 6.6059999 -0.055
5.6170001 3.786 -0.030999999
9.9020004 6.6739998 -0.055
5.5050001 3.7290001 -0.030999999
5.4460001 3.707 -0.030999999
5.4109998 3.701 -0.030999999
5.3979998 3.71 -0.030999999
5.3720002 3.71 -0.030999999
5.3569999 3.717 -0.030999999
5.3379998 3.721 -0.030999999
5.336 3.737 -0.030999999
5.329 3.75 -0.030999999
5.3200002 3.76 -0.030999999
5.3010001 3.7639999 -0.030999999
5.2859998 3.77 -0.030999999
5.2750001 3.7780001 -0.030999999
5.257 3.7820001 -0.030999999
5.2309999 3.779 -0.030999999
5.2280002 3.7939999 -0.032000002
5.217 3.802 -0.032000002
7.6830001 -4.5240002 0.086000003
7.6919999 -4.5079999 0.086000003
7.7020001 -4.4920001 0.086999997
7.7150002 -4.4770002 0.086999997
7.743 -4.4710002 0.086999997
7.7420001 -4.4489999 0.086999997
7.7509999 -4.4320002 0.086999997
7.7610002 -4.4159999 0.086999997
7.7690001 -4.3979998 0.088
7.7839999 -4.3850002 0.088
7.7969999 -4.3699999 0.088
7.7950001 -4.3460002 0.088
7.816 -4.336 0.088
7.8189998 -4.3150001 0.088
7.8260002 -4.296 0.088
7.836 -4.2800002 0.089000002
7.8590002 -4.27 0.089000002
7.868 -4.2519999 0.089000002
7.8850002 -4.2379999 0.089000002
7.8930001 -4.2199998 0.089000002
7.8909998 -4.1960001 0.090000004
7.9050002 -4.1810002 0.090000004
7.928 -4.1700001 0.090000004
7.9349999 -4.151 0.090000004
7.9439998 -4.1329999 0.090000004
7.9619999 -4.1199999 0.090999998
7.9489999 -4.0900002 0.090000004
7.9559999 -4.0710001 0.090999998
7.987 -4.0630002 0.090999998
7.993 -4.0440001 0.090999998
8.0159998 -4.0320001 0.090999998
8.0179996 -4.0100002 0.090999998
8.0340004 -3.9949999 0.092
8.0629997 -3.9860001 0.092
8.0860004 -3.974 0.092
8.0869999 -3.951 0.092
8.0799999 -3.925 0.092
8.1129999 -3.9170001 0.093000002
8.1420002 -3.9070001 0.093000002
8.1540003 -3.8900001 0.093000002
8.1660004 -3.872 0.093999997
8.1689997 -3.8499999 0.093999997
8.177 -3.8299999 0.093999997
8.2080002 -3.8210001 0.093999997
8.2049999 -3.7950001 0.093999997
8.2320004 -3.7839999 0.094999999
8.2309999 -3.76 0.094999999
8.2670002 -3.7520001 0.094999999
8.2709999 -3.73 0.094999999
8.2810001 -3.711 0.094999999
8.2959995 -3.6930001 0.096000001
8.3210001 -3.6800001 0.096000001
8.3330002 -3.661 0.096000001
8.3529997 -3.6459999 0.096000001
8.3509998 -3.6210001 0.096000001
8.3520002 -3.5969999 0.096000001
8.3789997 -3.585 0.097000003
8.3909998 -3.5650001 0.097000003
8.4110003 -3.55 0.097000003
8.4280005 -3.5320001 0.097000003
8.4420004 -3.5139999 0.097999997
8.4490004 -3.4920001 0.097999997
8.4790001 -3.48 0.097999997
8.4949999 -3.4619999 0.097999997
8.507 -3.4419999 0.098999999
8.5190001 -3.4219999 0.098999999
8.5299997 -3.402 0.098999999
8.5500002 -3.385 0.098999999
8.5559998 -3.3629999 0.098999999
8.5699997 -3.3429999 0.1
8.5950003 -3.3280001 0.1
8.6079998 -3.3080001 0.1
8.625 -3.29 0.1
8.6479998 -3.2739999 0.101
8.6520004 -3.25 0.101
8.6920004 -3.24 0.101
8.7049999 -3.22 0.101
8.7259998 -3.2019999 0.102
8.7220001 -3.175 0.102
8.7390003 -3.1559999 0.102
8.7639999 -3.1400001 0.102
8.7810001 -3.1210001 0.103
8.8079996 -3.105 0.103
8.8079996 -3.079 0.103
8.816 -3.0569999 0.103
8.8439999 -3.0409999 0.103
8.8699999 -3.0239999 0.104
8.9020004 -3.0090001 0.104
8.9099998 -2.9860001 0.104
8.9060001 -2.9590001 0.104
8.9460001 -2.9460001 0.105
8.9820004 -2.9319999 0.105
9 -2.9119999 0.106
9.0229998 -2.8940001 0.106
9.0480003 -2.875 0.106
9.0769997 -2.859 0.107
9.0690002 -2.8299999 0.107
9.1409998 -2.826 0.108
9.1669998 -2.8069999 0.108
9.1599998 -2.779 0.108
9.2060003 -2.766 0.108
9.2110004 -2.7409999 0.109
9.2670002 -2.7309999 0.109
9.2600002 -2.7030001 0.109
9.2790003 -2.681 0.109
9.3149996 -2.665 0.11
9.3190002 -2.6389999 0.11
9.3439999 -2.619 0.11
9.3710003 -2.5999999 0.111
9.3690004 -2.572 0.111
9.4139996 -2.5569999 0.111
9.4289999 -2.5339999 0.112
9.4680004 -2.5179999 0.112
9.4969997 -2.4979999 0.112
9.5129995 -2.4749999 0.113
9.5629997 -2.46 0.113
9.5819998 -2.438 0.114
9.6059999 -2.4159999 0.114
9.5799999 -2.382 0.114
9.6350002 -2.368 0.114
9.6789999 -2.3510001 0.115
9.7349997 -2.3369999 0.116
9.7629995 -2.3150001 0.116
9.8030005 -2.2969999 0.116
9.8280001 -2.2739999 0.117
9.8360004 -2.2479999 0.117
9.8669996 -2.227 0.117
9.9189997 -2.21 0.118
9.9519997 -2.1889999 0.118
9.9379997 -2.1570001 0.118
9.941 -2.1289999 0.118
9.9610004 -2.105 0.119
10.032 -2.0910001 0.12
10.055 -2.0669999 0.12
10.072 -2.0420001 0.12
10.121 -2.023 0.121
10.125 -1.995 0.121
10.174 -1.975 0.121
10.197 -1.951 0.122
10.209 -1.924 0.122
10.269 -1.906 0.123
