# .PCD v0.7 - Point Cloud Data file format
VERSION 0.7
FIELDS x y z
SIZE 4 4 4
TYPE F F F
COUNT 1 1 1
WIDTH 1828
HEIGHT 1
VIEWPOINT 0 0 0 1 0 0 0
POINTS 1828
DATA ascii
7.7610002 4.3530002 0.141
7.7740002 4.3889999 0.141
7.7810001 4.421 0.141
7.8179998 4.4699998 0.142
7.9229999 4.559 0.14399999
8.7790003 -5.1859999 0.264
8.7799997 -5.1620002 0.264
8.8059998 -5.152 0.264
8.8269997 -5.1389999 0.26499999
8.8339996 -5.118 0.26499999
8.8590002 -5.1069999 0.266
8.842 -5.072 0.266
8.8470001 -5.0500002 0.266
8.882 -5.0440001 0.26699999
8.8669996 -5.0100002 0.266
8.9090004 -5.0079999 0.26800001
8.9329996 -4.9959998 0.26800001
8.9180002 -4.9619999 0.26800001
8.9370003 -4.947 0.26899999
8.948 -4.927 0.26899999
8.9610004 -4.908 0.26899999
8.967 -4.8860002 0.27000001
8.9849997 -4.8699999 0.27000001
9.0039997 -4.8540001 0.271
9.007 -4.8299999 0.271
9.0340004 -4.8179998 0.27200001
9.0229998 -4.7859998 0.271
9.0710001 -4.7849998 0.273
9.1079998 -4.7789998 0.27399999
9.132 -4.7649999 0.27500001
9.1999998 -4.7740002 0.27700001
9.21 -4.7519999 0.27700001
9.1379995 -4.6890001 0.27500001
9.1440001 -4.665 0.27500001
9.151 -4.6420002 0.27500001
9.1569996 -4.619 0.27500001
9.158 -4.592 0.27500001
9.1999998 -4.5869999 0.27700001
9.21 -4.5650001 0.27700001
9.2130003 -4.54 0.27700001
9.2229996 -4.5180001 0.27700001
9.2309999 -4.4949999 0.278
9.2629995 -4.4840002 0.27900001
9.3070002 -4.4780002 0.28
9.3219995 -4.4580002 0.28
9.3459997 -4.4429998 0.28099999
9.3649998 -4.4239998 0.28200001
9.3710003 -4.4000001 0.28200001
9.3730001 -4.3740001 0.28200001
9.3879995 -4.3530002 0.28200001
9.3909998 -4.3280001 0.28299999
9.4250002 -4.316 0.28400001
9.4490004 -4.2989998 0.28400001
9.4569998 -4.2750001 0.285
9.4650002 -4.2509999 0.285
9.4809999 -4.2309999 0.285
9.493 -4.2090001 0.28600001
9.5100002 -4.1880002 0.28600001
9.5150003 -4.1630001 0.28600001
9.5360003 -4.1440001 0.287
9.5389996 -4.118 0.287
9.5839996 -4.1090002 0.28799999
9.5939999 -4.086 0.289
9.6059999 -4.0630002 0.289
9.6499996 -4.053 0.28999999
9.6619997 -4.0300002 0.29100001
9.6750002 -4.0079999 0.29100001
9.6700001 -3.977 0.29100001
9.6940002 -3.9590001 0.292
9.7019997 -3.934 0.292
9.7150002 -3.911 0.292
9.7299995 -3.8889999 0.29300001
9.7449999 -3.8659999 0.29300001
9.7770004 -3.8510001 0.294
9.8120003 -3.836 0.29499999
9.8079996 -3.806 0.29499999
9.8369999 -3.7880001 0.296
9.8610001 -3.7690001 0.29699999
9.8719997 -3.744 0.29699999
9.9069996 -3.7290001 0.29800001
9.9160004 -3.7030001 0.29800001
9.9379997 -3.6830001 0.29899999
9.9469995 -3.6570001 0.29899999
9.9720001 -3.6370001 0.30000001
9.9940004 -3.6159999 0.301
10.002 -3.5899999 0.301
10.026 -3.569 0.30199999
10.043 -3.546 0.30199999
10.081 -3.53 0.303
10.079 -3.5009999 0.303
10.096 -3.477 0.30399999
10.117 -3.4549999 0.30399999
10.134 -3.431 0.30500001
10.171 -3.414 0.30599999
10.18 -3.388 0.30599999
10.213 -3.369 0.30700001
10.223 -3.3429999 0.308
10.287 -3.3340001 0.30899999
10.345 -3.323 0.31099999
10.346 -3.293 0.31099999
10.34 -3.2609999 0.31099999
10.336 -3.23 0.31099999
10.35 -3.204 0.31099999
10.354 -3.175 0.31099999
10.384 -3.155 0.31200001
10.391 -3.1259999 0.31299999
10.432 -3.109 0.31400001
10.455 -3.085 0.31400001
10.492 -3.066 0.31600001
10.501 -3.0380001 0.31600001
10.526 -3.0150001 0.317
10.562 -2.9949999 0.31799999
10.606 -2.9760001 0.31900001
10.601 -2.944 0.31900001
10.636 -2.9230001 0.31999999
10.669 -2.902 0.32100001
10.678 -2.8729999 0.32100001
10.719 -2.8529999 0.322
10.748 -2.8299999 0.32300001
10.749 -2.799 0.32300001
10.847 -2.793 0.32600001
10.841 -2.76 0.32600001
10.889 -2.7409999 0.32699999
10.933 -2.721 0.329
10.917 -2.6849999 0.32800001
10.857 -2.6389999 0.32600001
10.771 -2.5869999 0.324
10.75 -2.5510001 0.32300001
10.718 -2.513 0.322
10.729 -2.484 0.322
10.708 -2.4489999 0.322
10.716 -2.4200001 0.322
10.725 -2.391 0.322
10.716 -2.358 0.322
10.776 -2.3399999 0.324
11.26 -2.4130001 0.338
11.35 -2.3989999 0.34099999
11.385 -2.3740001 0.34200001
11.451 -2.355 0.34400001
11.455 -2.323 0.34400001
11.531 -2.3050001 0.34599999
11.605 -2.2869999 0.34900001
11.621 -2.256 0.34900001
11.665 -2.2309999 0.34999999
11.671 -2.1989999 0.34999999
11.787 -2.187 0.354
10.75 -1.964 0.32300001
10.671 -1.919 0.31999999
10.664 -1.887 0.31999999
10.667 -1.857 0.31999999
10.688 -1.83 0.32100001
10.868 -1.829 0.32600001
12.039 -1.992 0.361
12.089 -1.966 0.36300001
12.244 -1.956 0.36700001
12.19 -1.9119999 0.366
12.189 -1.877 0.366
12.194 -1.8430001 0.366
12.25 -1.816 0.368
12.289 -1.7869999 0.36899999
12.319 -1.756 0.37
12.336 -1.723 0.37
12.378 -1.694 0.37099999
12.451 -1.668 0.373
12.469 -1.635 0.37400001
12.509 -1.604 0.375
12.539 -1.572 0.37599999
12.617 -1.546 0.37799999
12.672 -1.516 0.38
12.717 -1.485 0.38100001
12.749 -1.4529999 0.382
12.855 -1.428 0.38499999
14.045 0.50199997 0.28799999
14.05 0.523 0.28799999
13.989 0.542 0.287
14.022 0.56400001 0.287
14.032 0.58700001 0.287
13.99 0.60699999 0.28600001
13.991 0.62900001 0.28600001
13.975 0.65100002 0.28600001
13.972 0.67400002 0.285
13.971 0.69700003 0.285
13.969 0.72100002 0.285
13.986 0.745 0.285
14.012 0.77100003 0.285
13.992 0.79400003 0.285
14.03 0.82099998 0.285
14.043 0.847 0.28600001
13.991 0.87 0.28400001
14.058 0.89999998 0.28600001
14.069 0.92699999 0.28600001
13.737 1.0369999 0.278
13.64 1.057 0.27599999
13.621 1.082 0.27599999
13.627 1.1109999 0.27599999
14.344 1.228 0.28999999
14.278 1.252 0.289
14.342 1.288 0.28999999
14.351 1.319 0.28999999
14.326 1.348 0.289
14.365 1.383 0.28999999
14.375 1.415 0.28999999
14.476 1.457 0.292
14.561 1.498 0.294
14.622 1.5369999 0.29499999
14.615 1.569 0.294
14.592 1.6 0.294
14.582 1.632 0.294
14.611 1.67 0.294
14.589 1.701 0.294
14.635 1.7410001 0.294
14.668 1.78 0.29499999
14.685 1.817 0.29499999
14.701 1.854 0.296
14.735 1.895 0.296
14.741 1.932 0.296
14.781 1.973 0.29699999
14.828 2.016 0.29800001
14.902 2.0639999 0.29899999
14.9 2.1010001 0.29899999
14.946 2.1459999 0.30000001
14.99 2.1900001 0.301
15.043 2.237 0.30199999
15.058 2.2780001 0.30199999
15.099 2.323 0.303
15.116 2.3659999 0.303
15.143 2.4100001 0.30399999
15.148 2.451 0.30399999
15.158 2.493 0.30399999
15.197 2.5409999 0.30500001
15.23 2.5880001 0.30599999
15.261 2.635 0.30599999
15.292 2.6819999 0.30700001
15.338 2.733 0.308
15.378 2.783 0.30899999
15.376 2.825 0.308
15.421 2.8770001 0.30899999
15.45 2.9260001 0.31
15.495 2.9790001 0.31099999
15.498 3.0239999 0.31099999
15.54 3.0769999 0.31200001
15.582 3.1300001 0.31299999
15.62 3.184 0.31299999
15.69 3.244 0.315
15.771 3.3069999 0.317
15.838 3.368 0.31799999
15.881 3.425 0.31900001
15.905 3.477 0.31900001
15.947 3.5350001 0.31999999
16.059 3.608 0.322
12.904 2.9389999 0.259
12.808 2.9560001 0.257
12.796 2.993 0.257
12.787 3.03 0.257
12.795 3.072 0.257
12.898 3.1370001 0.259
16.473 4.006 0.331
12.83 3.161 0.25799999
16.403 4.0409999 0.33000001
12.639 3.154 0.25400001
12.575 3.177 0.25299999
12.565 3.2149999 0.25299999
12.569 3.256 0.25299999
12.664 3.322 0.255
16.802999 4.4070001 0.338
16.481001 4.3759999 0.33199999
16.525999 4.4419999 0.333
16.628 4.5240002 0.33500001
16.747999 4.612 0.33700001
16.75 4.6669998 0.338
16.76 4.7259998 0.338
16.917 4.8260002 0.34099999
16.915001 4.882 0.34099999
16.959999 4.9520001 0.34200001
16.999001 5.0209999 0.34299999
17.017 5.0840001 0.34400001
17.113001 5.171 0.34599999
17.215 5.2610002 0.34799999
17.239 5.3280001 0.34799999
17.363001 5.4260001 0.35100001
17.424999 5.506 0.35299999
17.313 5.5310001 0.34999999
17.438 5.632 0.35299999
17.437 5.6929998 0.35299999
17.541 5.789 0.35499999
17.667999 5.8930001 0.35800001
17.709 5.9699998 0.359
17.684999 6.0250001 0.359
17.753 6.112 0.36000001
13.042 5.4180002 0.26699999
12.911 5.414 0.26499999
12.81 5.4219999 0.26300001
12.731 5.4390001 0.26199999
12.6 5.4320002 0.259
12.506 5.4419999 0.257
12.604 5.5339999 0.25999999
12.249 5.8249998 0.25400001
12.26 5.881 0.25400001
7.8540001 4.0640001 0.164
7.7600002 4.0489998 0.162
7.7470002 4.0760002 0.162
7.7459998 4.1079998 0.162
7.7290001 4.1329999 0.162
7.7179999 4.1599998 0.162
7.7069998 4.1880002 0.162
7.7030001 4.2189999 0.162
7.7119999 4.2579999 0.162
7.7480001 4.3119998 0.163
7.7709999 4.3590002 0.164
7.7820001 4.4000001 0.164
7.8140001 4.4530001 0.16500001
7.8940001 4.5339999 0.167
8.4139996 -5.5359998 0.27599999
8.4540005 -5.5089998 0.27700001
8.4849997 -5.4770002 0.278
8.5190001 -5.4460001 0.27900001
8.5430002 -5.4089999 0.28
8.585 -5.3839998 0.28099999
8.6070004 -5.3460002 0.28099999
8.6260004 -5.3070002 0.28200001
8.6599998 -5.277 0.28299999
8.677 -5.237 0.28299999
8.7159996 -5.21 0.28400001
8.7460003 -5.178 0.285
8.7740002 -5.145 0.28600001
8.7939997 -5.1069999 0.28600001
8.8269997 -5.0770001 0.287
8.8540001 -5.0440001 0.28799999
8.8690004 -5.0040002 0.28799999
8.9110003 -4.9790001 0.289
8.9350004 -4.9439998 0.28999999
8.9680004 -4.914 0.29100001
9.0299997 -4.9000001 0.29300001
9.0710001 -4.875 0.294
9.0539999 -4.8189998 0.29300001
9.0719995 -4.7810001 0.294
9.1049995 -4.7519999 0.29499999
9.1079998 -4.7080002 0.29499999
9.1350002 -4.6750002 0.29499999
9.1549997 -4.6399999 0.296
9.184 -4.6090002 0.29699999
9.2030001 -4.573 0.29699999
9.2399998 -4.546 0.29800001
9.2709999 -4.5170002 0.29899999
9.2969999 -4.4850001 0.30000001
9.3430004 -4.4619999 0.301
9.3599997 -4.4260001 0.30199999
9.3850002 -4.3940001 0.30199999
9.4139996 -4.3629999 0.303
9.4130001 -4.3189998 0.303
9.4519997 -4.2940001 0.30399999
9.4820004 -4.2639999 0.30500001
9.5059996 -4.2319999 0.30500001
9.5319996 -4.2010002 0.30599999
9.559 -4.1700001 0.30700001
9.5860004 -4.1399999 0.308
9.5959997 -4.1020002 0.308
9.632 -4.0749998 0.30899999
9.6689997 -4.0489998 0.31
9.6929998 -4.0180001 0.31099999
9.7379999 -3.9949999 0.31200001
9.757 -3.961 0.31299999
9.7469997 -3.9159999 0.31200001
9.783 -3.8900001 0.31299999
9.8240004 -3.8659999 0.31400001
9.8500004 -3.835 0.315
9.8809996 -3.8069999 0.31600001
9.9020004 -3.7750001 0.317
9.9469995 -3.7520001 0.31799999
9.9729996 -3.7219999 0.31900001
10.005 -3.694 0.31999999
10.022 -3.661 0.31999999
10.049 -3.631 0.32100001
10.085 -3.605 0.322
10.116 -3.5769999 0.32300001
10.139 -3.5469999 0.32300001
10.174 -3.52 0.324
10.19 -3.487 0.32499999
10.223 -3.46 0.32600001
10.256 -3.4330001 0.32699999
10.263 -3.3970001 0.32699999
10.308 -3.3740001 0.32800001
10.362 -3.3540001 0.33000001
10.423 -3.336 0.33199999
10.421 -3.2980001 0.33199999
10.433 -3.2639999 0.33199999
10.446 -3.2309999 0.33199999
10.471 -3.2019999 0.333
10.495 -3.1719999 0.33399999
10.527 -3.145 0.33500001
10.581 -3.1240001 0.336
10.634 -3.1029999 0.338
10.692 -3.0840001 0.34
10.702 -3.05 0.34
10.735 -3.023 0.34099999
10.808 -3.0079999 0.34299999
10.835 -2.9790001 0.34400001
10.876 -2.954 0.345
10.905 -2.9260001 0.34599999
10.96 -2.905 0.34799999
11.001 -2.8800001 0.34900001
11.038 -2.8540001 0.34999999
11.105 -2.836 0.352
11.18 -2.8199999 0.35499999
11.245 -2.8010001 0.35699999
10.85 -2.668 0.34400001
10.782 -2.618 0.34200001
10.766 -2.5799999 0.34099999
10.737 -2.54 0.34
10.72 -2.503 0.34
10.718 -2.47 0.34
10.708 -2.4349999 0.33899999
10.735 -2.4089999 0.34
10.866 -2.4059999 0.34400001
11.585 -2.5309999 0.36700001
11.604 -2.5009999 0.36700001
11.686 -2.4849999 0.37
11.677 -2.448 0.37
11.725 -2.425 0.37099999
11.787 -2.404 0.373
11.816 -2.3759999 0.37400001
11.868 -2.352 0.37599999
11.88 -2.3210001 0.37599999
11.933 -2.2980001 0.37799999
11.992 -2.276 0.38
12.12 -2.267 0.384
10.727 -1.977 0.33899999
10.661 -1.9349999 0.33700001
10.66 -1.906 0.33700001
10.68 -1.881 0.338
10.719 -1.859 0.33899999
10.97 -1.874 0.347
12.307 -2.069 0.389
12.291 -2.0339999 0.389
12.312 -2.006 0.389
12.438 -1.994 0.39300001
12.567 -1.95 0.39700001
12.461 -1.902 0.39399999
12.461 -1.87 0.39399999
12.509 -1.846 0.396
12.532 -1.818 0.396
12.595 -1.796 0.398
12.629 -1.7690001 0.39899999
12.649 -1.7410001 0.40000001
12.688 -1.716 0.40099999
12.722 -1.6900001 0.40200001
12.699 -1.656 0.40200001
12.802 -1.6390001 0.405
12.84 -1.613 0.40599999
12.894 -1.59 0.40799999
12.962 -1.567 0.41
12.956 -1.5369999 0.41
12.767 -1.369 0.40400001
12.704 -1.3329999 0.40200001
13.737 0.186 0.32300001
13.749 0.211 0.324
13.772 0.236 0.324
13.792 0.26199999 0.324
13.771 0.287 0.32300001
13.809 0.31299999 0.324
13.795 0.33899999 0.324
13.818 0.366 0.324
13.841 0.39300001 0.324
13.84 0.41999999 0.324
13.86 0.44800001 0.324
13.869 0.47600001 0.324
13.876 0.505 0.324
13.893 0.53299999 0.32499999
13.931 0.56400001 0.32499999
13.92 0.59200001 0.32499999
13.878 0.61900002 0.324
13.923 0.65100002 0.32499999
13.925 0.68099999 0.324
13.937 0.71100003 0.32499999
13.916 0.74000001 0.324
13.938 0.77200001 0.324
13.97 0.80500001 0.32499999
13.968 0.83600003 0.32499999
14.012 0.87 0.32600001
14.021 0.90200001 0.32600001
14.052 0.93599999 0.32600001
14.061 0.96899998 0.32600001
13.58 1.096 0.31400001
13.568 1.128 0.31400001
13.616 1.165 0.315
13.694 1.205 0.317
14.354 1.298 0.33199999
14.372 1.336 0.33199999
14.36 1.37 0.33199999
14.411 1.411 0.333
14.44 1.451 0.333
14.481 1.492 0.33399999
14.594 1.541 0.33700001
14.689 1.5880001 0.33899999
14.696 1.627 0.33899999
14.681 1.664 0.33899999
14.688 1.7029999 0.33899999
14.715 1.745 0.33899999
14.702 1.7819999 0.33899999
14.77 1.83 0.34
14.794 1.872 0.34099999
14.848 1.919 0.34200001
14.918 1.969 0.34299999
14.919 2.01 0.34299999
14.97 2.0569999 0.34400001
15.016 2.105 0.345
15.078 2.1559999 0.347
15.141 2.207 0.34799999
15.154 2.2509999 0.34799999
15.207 2.302 0.34999999
15.248 2.3510001 0.35100001
15.287 2.4000001 0.35100001
15.315 2.448 0.352
15.358 2.4990001 0.35299999
15.364 2.5439999 0.35299999
15.428 2.5999999 0.354
15.444 2.6470001 0.35499999
15.483 2.6989999 0.35600001
15.535 2.7539999 0.35699999
15.577 2.8069999 0.35800001
15.641 2.865 0.359
15.642 2.911 0.359
15.703 2.9690001 0.361
15.786 3.0320001 0.36300001
15.869 3.096 0.36399999
15.916 3.1530001 0.36500001
16.025999 3.224 0.368
16.052999 3.2780001 0.36899999
16.142 3.345 0.37099999
16.177 3.402 0.37099999
16.238001 3.4649999 0.373
16.226 3.513 0.373
16.274 3.573 0.37400001
16.405001 3.6530001 0.377
12.879 2.908 0.296
12.803 2.931 0.294
12.779 2.9660001 0.29300001
12.792 3.0090001 0.294
12.829 3.0580001 0.29499999
12.959 3.131 0.29800001
12.732 3.1159999 0.292
12.614 3.128 0.28999999
12.593 3.1630001 0.289
12.575 3.1989999 0.289
12.614 3.25 0.28999999
12.884 3.3610001 0.296
17.065001 4.4520001 0.39199999
17.051001 4.5040002 0.39199999
17.046 4.5580001 0.39199999
17.163 4.645 0.39500001
17.118999 4.6890001 0.39399999
17.186001 4.7639999 0.39500001
17.327 4.8600001 0.39899999
17.622 5.0009999 0.40599999
17.580999 5.0479999 0.405
17.562 5.1009998 0.40400001
17.627001 5.1789999 0.40599999
17.795 5.2880001 0.41
17.745001 5.3319998 0.40900001
17.860001 5.427 0.412
17.917999 5.5050001 0.41299999
18.007999 5.5929999 0.41499999
17.971001 5.6430001 0.414
18.035999 5.7249999 0.41600001
18.037001 5.7859998 0.41600001
18.135 5.8790002 0.419
18.091999 5.928 0.41800001
18.195 6.0240002 0.41999999
18.190001 6.085 0.41999999
18.392 6.2150002 0.42500001
18.402 6.2820001 0.42500001
13.131 5.4549999 0.30599999
12.942 5.4229999 0.301
12.865 5.4369998 0.30000001
12.793 5.4520001 0.29800001
12.729 5.4710002 0.29699999
12.649 5.4819999 0.29499999
12.571 5.494 0.294
12.734 5.6110001 0.29699999
7.9130001 4.092 0.18700001
7.7690001 4.046 0.184
7.7220001 4.0489998 0.183
7.7189999 4.0760002 0.183
7.7360001 4.1129999 0.183
7.7350001 4.1409998 0.183
7.7210002 4.1620002 0.183
7.724 4.1919999 0.183
7.711 4.2119999 0.183
7.6989999 4.2340002 0.183
7.7129998 4.2690001 0.183
7.7529998 4.3200002 0.184
7.7779999 4.362 0.185
7.7839999 4.3940001 0.185
7.8189998 4.4419999 0.186
7.8959999 4.5139999 0.18799999
9.0159998 -5.3299999 0.31299999
9.0170002 -5.3049998 0.31299999
9.0369997 -5.2909999 0.31400001
9.0430002 -5.2690001 0.31400001
9.0530005 -5.2490001 0.31400001
9.0690002 -5.2319999 0.315
9.0830002 -5.2140002 0.315
9.0930004 -5.1939998 0.31600001
9.1140003 -5.1799998 0.31600001
9.1199999 -5.1570001 0.317
9.1490002 -5.1469998 0.31799999
9.1660004 -5.1300001 0.31799999
9.1669998 -5.1040001 0.31799999
9.1780005 -5.0840001 0.31900001
9.1969995 -5.0679998 0.31900001
9.2049999 -5.046 0.31999999
9.2159996 -5.0250001 0.31999999
9.2299995 -5.006 0.31999999
9.2390003 -4.9840002 0.32100001
9.2580004 -4.9679999 0.32100001
9.2740002 -4.9499998 0.322
9.2849998 -4.9289999 0.322
9.2969999 -4.908 0.32300001
9.3129997 -4.8899999 0.32300001
9.3009996 -4.8559999 0.32300001
9.3310003 -4.8449998 0.324
9.3660002 -4.836 0.32499999
9.3660002 -4.809 0.32499999
9.3769999 -4.7870002 0.32499999
9.4139996 -4.7789998 0.32699999
9.4180002 -4.7529998 0.32699999
9.4469995 -4.7410002 0.32800001
9.4519997 -4.7160001 0.32800001
9.4680004 -4.6960001 0.329
9.4879999 -4.6789999 0.329
9.5129995 -4.6630001 0.33000001
9.5170002 -4.638 0.33000001
9.526 -4.6139998 0.331
9.5480003 -4.5970001 0.331
9.5500002 -4.5700002 0.331
9.5749998 -4.5539999 0.33199999
9.5780001 -4.5279999 0.33199999
9.5939999 -4.507 0.333
9.5900002 -4.4780002 0.333
9.6280003 -4.467 0.33399999
9.6420002 -4.4460001 0.33500001
9.6499996 -4.421 0.33500001
9.6739998 -4.4039998 0.336
9.6949997 -4.3860002 0.336
9.7139997 -4.3660002 0.33700001
9.7279997 -4.3439999 0.338
9.7600002 -4.329 0.33899999
9.7580004 -4.3000002 0.33899999
9.7860003 -4.2839999 0.34
9.8000002 -4.2620001 0.34
9.8219995 -4.2420001 0.34099999
9.8240004 -4.2150002 0.34099999
9.8319998 -4.1890001 0.34099999
9.8549995 -4.1700001 0.34200001
9.8909998 -4.1570001 0.34299999
9.8929996 -4.1290002 0.34299999
9.9029999 -4.1040001 0.34400001
9.9189997 -4.0819998 0.34400001
9.9370003 -4.0599999 0.345
9.9689999 -4.0440001 0.34599999
9.9899998 -4.0240002 0.34599999
9.9980001 -3.9979999 0.347
10.038 -3.984 0.34799999
10.037 -3.9549999 0.34799999
10.044 -3.928 0.34799999
10.057 -3.904 0.34900001
10.089 -3.8870001 0.34999999
10.119 -3.869 0.35100001
10.171 -3.8599999 0.35299999
10.187 -3.836 0.35299999
10.182 -3.8039999 0.35299999
10.193 -3.779 0.35299999
10.2 -3.7520001 0.354
10.219 -3.7290001 0.354
10.236 -3.7049999 0.35499999
10.251 -3.681 0.35499999
10.273 -3.6589999 0.35600001
10.303 -3.6400001 0.35699999
10.312 -3.6129999 0.35699999
10.324 -3.5869999 0.35800001
10.345 -3.5639999 0.35800001
10.388 -3.549 0.36000001
10.394 -3.5209999 0.36000001
10.406 -3.4949999 0.361
10.438 -3.4749999 0.36199999
10.484 -3.46 0.36300001
10.494 -3.4330001 0.36399999
10.531 -3.414 0.36500001
10.581 -3.4000001 0.366
10.618 -3.381 0.368
10.638 -3.3559999 0.368
10.641 -3.326 0.368
10.652 -3.299 0.36899999
10.685 -3.2780001 0.37
10.649 -3.2360001 0.36899999
10.696 -3.2190001 0.37
10.755 -3.2060001 0.37200001
10.774 -3.1800001 0.373
10.862 -3.175 0.37599999
10.877 -3.148 0.37599999
10.902 -3.1240001 0.377
10.905 -3.0929999 0.377
10.936 -3.0699999 0.37799999
10.976 -3.049 0.38
11.028 -3.0320001 0.382
11.088 -3.016 0.384
11.139 -2.9979999 0.38499999
11.129 -2.9630001 0.38499999
11.168 -2.941 0.38600001
11.207 -2.9189999 0.38800001
11.27 -2.9030001 0.38999999
11.275 -2.872 0.38999999
11.303 -2.846 0.391
11.343 -2.823 0.39199999
11.391 -2.802 0.39399999
11.454 -2.7850001 0.396
11.505 -2.7639999 0.398
11.543 -2.74 0.39899999
11.614 -2.723 0.40099999
10.891 -2.5220001 0.37599999
10.812 -2.473 0.37400001
10.752 -2.428 0.37099999
10.735 -2.3929999 0.37099999
10.726 -2.3610001 0.37099999
10.742 -2.3329999 0.37099999
10.939 -2.3440001 0.37799999
11.841 -2.5039999 0.40900001
11.818 -2.4649999 0.40799999
11.881 -2.444 0.41
11.911 -2.4159999 0.41100001
11.965 -2.392 0.41299999
12.007 -2.3659999 0.414
12.023 -2.3340001 0.41499999
12.083 -2.3110001 0.417
12.119 -2.283 0.41800001
12.164 -2.257 0.41999999
12.235 -2.2349999 0.42199999
10.71 -1.926 0.36899999
10.68 -1.89 0.368
10.683 -1.859 0.368
10.728 -1.836 0.37
12.513 -2.1059999 0.43200001
12.475 -2.0639999 0.43000001
12.46 -2.026 0.43000001
12.575 -2.0079999 0.43399999
12.684 -1.989 0.43700001
12.673 -1.915 0.43700001
12.672 -1.8789999 0.43700001
12.728 -1.85 0.43900001
12.764 -1.819 0.44
12.819 -1.79 0.442
12.863 -1.7589999 0.44299999
12.904 -1.728 0.44400001
12.903 -1.691 0.44400001
12.941 -1.659 0.44600001
12.975 -1.626 0.447
12.962 -1.587 0.44600001
12.621 -1.437 0.43399999
12.558 -1.3940001 0.43200001
12.564 -1.359 0.43200001
12.585 -1.325 0.433
14.943 0.74800003 0.377
14.783 0.76499999 0.373
14.72 0.787 0.37099999
14.733 0.81300002 0.37099999
14.764 0.83999997 0.37200001
14.778 0.86699998 0.37200001
14.755 0.89200002 0.37099999
14.805 0.92199999 0.37200001
14.875 0.954 0.37400001
14.897 0.98299998 0.37400001
13.62 1.1109999 0.34099999
13.599 1.138 0.34099999
15.282 1.342 0.38299999
15.046 1.353 0.377
15.046 1.385 0.377
15.067 1.419 0.377
15.116 1.456 0.37799999
15.119 1.49 0.37799999
15.166 1.528 0.37900001
15.272 1.572 0.382
15.304 1.61 0.38299999
15.28 1.642 0.382
15.22 1.67 0.38
15.236 1.707 0.38100001
15.266 1.7460001 0.382
15.328 1.789 0.38299999
15.343 1.826 0.38299999
15.416 1.872 0.38499999
15.484 1.9170001 0.38699999
15.483 1.954 0.38699999
15.532 1.998 0.38800001
15.526 2.0350001 0.38800001
15.554 2.0769999 0.389
15.584 2.1199999 0.389
15.611 2.1630001 0.38999999
15.624 2.204 0.38999999
15.651 2.2479999 0.391
15.711 2.296 0.39199999
15.762 2.3440001 0.39399999
15.784 2.3889999 0.39399999
15.843 2.4389999 0.396
15.851 2.4820001 0.396
15.904 2.5320001 0.39700001
15.901 2.5739999 0.39700001
15.97 2.628 0.39899999
15.998 2.6760001 0.40000001
16.021999 2.723 0.40000001
16.034 2.7690001 0.40099999
16.077999 2.8210001 0.40200001
16.208 2.888 0.405
16.239 2.9389999 0.40599999
16.281 2.9920001 0.40700001
16.365 3.0539999 0.40900001
16.413 3.109 0.41100001
16.500999 3.1730001 0.41299999
16.517 3.223 0.41299999
16.596001 3.286 0.41499999
16.548 3.325 0.414
16.589001 3.381 0.41600001
16.606001 3.434 0.41600001
16.666 3.4949999 0.41800001
16.691999 3.55 0.41800001
16.846001 3.6329999 0.42199999
16.862 3.687 0.42300001
16.903 3.747 0.42399999
12.978 2.9159999 0.32600001
17.099001 3.842 0.42899999
12.82 2.9200001 0.322
12.782 2.95 0.32100001
12.774 2.9879999 0.32100001
12.783 3.029 0.32100001
12.868 3.089 0.32300001
12.885 3.1340001 0.324
12.692 3.1270001 0.31900001
12.603 3.145 0.317
12.573 3.177 0.31600001
12.564 3.2149999 0.31600001
12.628 3.2709999 0.31799999
17.829 4.677 0.449
17.643999 4.6849999 0.44499999
17.672001 4.75 0.44600001
17.712999 4.8189998 0.447
17.811001 4.9039998 0.44999999
17.896 4.987 0.45199999
17.937 5.0570002 0.45300001
18.135 5.1739998 0.45899999
18.105 5.2259998 0.458
18.059 5.2729998 0.45699999
18.157 5.3629999 0.46000001
18.264999 5.4569998 0.463
18.301001 5.5300002 0.46399999
18.264999 5.5819998 0.463
18.33 5.665 0.465
18.396999 5.7490001 0.46700001
18.379999 5.8070002 0.46700001
18.393 5.8759999 0.46799999
18.499001 5.974 0.47099999
18.635 6.0830002 0.47400001
18.607 6.1399999 0.47400001
18.563999 6.1919999 0.47299999
18.658001 6.29 0.47600001
18.716999 6.3759999 0.47799999
13.027 5.4120002 0.33700001
12.915 5.415 0.33399999
12.867 5.4460001 0.33399999
12.819 5.4759998 0.333
12.792 5.5149999 0.33199999
12.767 5.5549998 0.33199999
12.522 5.8000002 0.32699999
12.41 5.7989998 0.32499999
12.396 5.8429999 0.32499999
12.415 5.9029999 0.32600001
7.8140001 4.0430002 0.207
7.7249999 4.0300002 0.205
7.7220001 4.0619998 0.205
7.7449999 4.1069999 0.206
7.7399998 4.138 0.206
7.7210002 4.1609998 0.205
7.7150002 4.1919999 0.206
7.698 4.2160001 0.205
7.7049999 4.2540002 0.206
7.7080002 4.289 0.206
7.7459998 4.3449998 0.207
7.763 4.3889999 0.208
7.7789998 4.4320002 0.20900001
7.8439999 4.5050001 0.211
8.6300001 -5.6760001 0.324
8.665 -5.645 0.32499999
8.6929998 -5.6090002 0.32600001
8.7489996 -5.592 0.32800001
8.7559996 -5.5430002 0.32800001
8.8079996 -5.5219998 0.33000001
8.8339996 -5.4860001 0.33000001
8.8549995 -5.4460001 0.331
8.8850002 -5.4130001 0.33199999
8.9110003 -5.3759999 0.333
8.9370003 -5.3410001 0.333
8.967 -5.3070002 0.33399999
8.9940004 -5.2719998 0.33500001
9.0159998 -5.2340002 0.336
9.0480003 -5.2020001 0.33700001
9.085 -5.1739998 0.338
9.1009998 -5.1329999 0.338
9.1219997 -5.0949998 0.33899999
9.1599998 -5.0669999 0.34
9.1669998 -5.0219998 0.34
9.2080002 -4.9959998 0.34099999
9.2119999 -4.9499998 0.34099999
9.1960001 -4.8930001 0.34099999
9.2629995 -4.881 0.34299999
9.2939997 -4.849 0.34400001
9.3369999 -4.8239999 0.345
9.3719997 -4.7950001 0.34599999
9.3900003 -4.7579999 0.347
9.4020004 -4.717 0.347
9.4460001 -4.6929998 0.34900001
9.4709997 -4.6589999 0.34900001
9.5019999 -4.6279998 0.34999999
9.5190001 -4.5910001 0.35100001
9.5450001 -4.5580001 0.352
9.5690002 -4.5240002 0.352
9.5939999 -4.4910002 0.35299999
9.6219997 -4.4590001 0.354
9.6389999 -4.4219999 0.354
9.6820002 -4.3979998 0.35600001
9.7040005 -4.3639998 0.35600001
9.7270002 -4.3299999 0.35699999
9.7650003 -4.303 0.35800001
9.7790003 -4.2649999 0.359
9.8240004 -4.2410002 0.36000001
9.8380003 -4.204 0.361
9.8719997 -4.1760001 0.36199999
9.8889999 -4.1409998 0.36199999
9.9099998 -4.1069999 0.36300001
9.9390001 -4.0760002 0.36399999
9.9849997 -4.053 0.36500001
10.011 -4.0209999 0.366
10.044 -3.993 0.36700001
10.069 -3.961 0.368
10.09 -3.928 0.36899999
10.132 -3.9030001 0.37
10.156 -3.8710001 0.37099999
10.199 -3.846 0.37200001
10.232 -3.8180001 0.373
10.272 -3.7920001 0.375
10.3 -3.7620001 0.37599999
10.304 -3.723 0.37599999
10.331 -3.6930001 0.37599999
10.381 -3.671 0.37799999
10.404 -3.6389999 0.37900001
10.427 -3.6070001 0.38
10.472 -3.5829999 0.38100001
10.514 -3.5580001 0.382
10.566 -3.536 0.384
10.598 -3.5079999 0.38499999
10.657 -3.4879999 0.38699999
10.656 -3.4489999 0.38699999
10.797 -3.4549999 0.39199999
10.827 -3.4260001 0.39300001
10.846 -3.3929999 0.39399999
10.863 -3.359 0.39399999
10.904 -3.3340001 0.396
10.967 -3.3139999 0.398
11.018 -3.2909999 0.40000001
11.057 -3.2650001 0.40099999
11.108 -3.2420001 0.403
11.16 -3.2179999 0.405
11.215 -3.1960001 0.40599999
11.24 -3.165 0.40700001
11.293 -3.1429999 0.40900001
11.346 -3.119 0.41100001
11.361 -3.086 0.41100001
11.4 -3.059 0.41299999
11.441 -3.033 0.414
11.487 -3.0079999 0.41600001
11.5 -2.974 0.41600001
11.575 -2.9560001 0.419
11.613 -2.9289999 0.41999999
11.647 -2.901 0.421
11.683 -2.8729999 0.42300001
11.741 -2.8499999 0.42500001
11.81 -2.8310001 0.42699999
11.97 -2.832 0.433
10.797 -2.5209999 0.38999999
10.705 -2.467 0.38699999
10.681 -2.4289999 0.38600001
10.734 -2.4089999 0.38800001
10.966 -2.428 0.396
12.064 -2.6359999 0.43599999
12.074 -2.602 0.43599999
12.123 -2.5769999 0.43799999
12.159 -2.55 0.43900001
12.214 -2.526 0.44100001
12.265 -2.5009999 0.44299999
12.257 -2.4649999 0.442
12.335 -2.4449999 0.44499999
12.426 -2.428 0.44800001
12.417 -2.392 0.44800001
12.515 -2.3759999 0.45100001
10.734 -2.0079999 0.38699999
10.677 -1.9680001 0.38499999
10.659 -1.9349999 0.384
10.702 -1.914 0.38600001
10.81 -1.904 0.38999999
12.842 -2.2279999 0.463
12.761 -2.1800001 0.46000001
12.796 -2.152 0.461
12.786 -2.1170001 0.461
12.96 -1.784 0.46700001
12.895 -1.744 0.465
12.875 -1.71 0.46399999
12.86 -1.677 0.463
12.837 -1.6440001 0.46200001
12.815 -1.61 0.46200001
12.8 -1.5779999 0.461
12.816 -1.55 0.46200001
12.87 -1.527 0.46399999
12.57 -1.376 0.45300001
12.532 -1.344 0.45100001
12.518 -1.314 0.45100001
12.511 -1.286 0.45100001
12.511 -1.258 0.45100001
12.526 -1.232 0.45100001
12.57 -1.209 0.45300001
12.67 -1.191 0.456
14.413 0.197 0.40900001
14.446 0.22400001 0.41
14.493 0.25 0.41100001
14.55 0.278 0.412
14.55 0.30500001 0.412
14.532 0.33199999 0.41100001
14.57 0.36000001 0.412
14.61 0.389 0.41299999
14.61 0.417 0.41299999
14.645 0.447 0.41299999
14.648 0.47600001 0.41299999
14.614 0.50400001 0.412
14.66 0.53500003 0.41299999
14.678 0.565 0.414
14.698 0.59600002 0.414
14.665 0.625 0.41299999
14.745 0.66000003 0.41499999
14.779 0.69300002 0.41600001
14.811 0.72600001 0.417
14.776 0.75599998 0.41499999
14.793 0.78899997 0.41600001
14.927 0.82800001 0.419
14.921 0.861 0.419
14.908 0.89399999 0.41800001
14.918 0.92799997 0.419
14.957 0.96399999 0.41999999
15.123 1.0089999 0.42399999
13.621 1.068 0.38100001
13.529 1.0930001 0.37900001
13.52 1.125 0.37799999
13.539 1.159 0.37900001
15.256 1.381 0.42699999
15.247 1.418 0.426
15.279 1.459 0.42699999
15.267 1.4960001 0.42699999
15.316 1.54 0.428
15.385 1.586 0.43000001
15.457 1.633 0.43200001
15.507 1.678 0.433
15.474 1.714 0.43200001
15.486 1.756 0.43200001
15.506 1.799 0.433
15.569 1.847 0.435
15.64 1.897 0.43700001
15.673 1.943 0.43799999
15.727 1.9910001 0.43900001
15.758 2.0380001 0.44
15.744 2.079 0.43900001
15.806 2.1300001 0.44100001
15.816 2.174 0.44100001
15.87 2.2260001 0.44299999
15.904 2.2739999 0.44400001
15.985 2.3299999 0.44600001
15.999 2.3770001 0.44600001
16.075001 2.434 0.44800001
16.08 2.48 0.449
16.121 2.5320001 0.44999999
16.17 2.585 0.45100001
16.214001 2.6389999 0.45199999
16.274 2.6960001 0.454
16.32 2.75 0.45500001
16.395 2.8110001 0.45699999
16.458 2.869 0.45899999
16.511999 2.927 0.461
16.542 2.9809999 0.46200001
16.614 3.043 0.46399999
16.673 3.1029999 0.465
16.750999 3.168 0.46799999
16.816 3.2309999 0.46900001
16.874001 3.2920001 0.47099999
16.864 3.3410001 0.47099999
16.919001 3.4030001 0.47299999
16.975 3.4660001 0.47400001
16.986 3.52 0.47499999
17.091999 3.595 0.47799999
17.111 3.651 0.47799999
17.191 3.721 0.47999999
17.229 3.783 0.48199999
17.323999 3.858 0.484
12.855 2.9030001 0.359
12.779 2.9260001 0.35699999
12.766 2.9630001 0.35699999
12.772 3.0039999 0.35699999
12.872 3.069 0.36000001
13.001 3.141 0.36399999
12.716 3.112 0.35600001
12.621 3.1300001 0.35299999
12.583 3.1600001 0.352
12.567 3.197 0.352
12.619 3.2509999 0.354
18.197001 4.7470002 0.50999999
18.141001 4.7909999 0.509
18.191 4.8639998 0.50999999
18.179001 4.9200001 0.50999999
18.188 4.9819999 0.51099998
18.316 5.0770001 0.514
18.393 5.1589999 0.51700002
18.355 5.2090001 0.51599997
18.433001 5.2919998 0.51800001
18.767 5.6389999 0.528
18.768999 5.7030001 0.52899998
18.907 5.8080001 0.53299999
18.968 5.8909998 0.53500003
15.682 5.4619999 0.44400001
15.51 5.4559999 0.43900001
15.313 5.4400001 0.43399999
15.194 5.4499998 0.43099999
15.225 5.5149999 0.43200001
13.16 5.5139999 0.377
13.002 5.494 0.37200001
12.985 5.533 0.37200001
13.138 5.6459999 0.377
12.393 5.6399999 0.35699999
12.357 5.6680002 0.35600001
12.451 5.757 0.359
12.408 5.7820001 0.35800001
12.33 5.79 0.35600001
12.284 5.8130002 0.35499999
12.269 5.8509998 0.35499999
12.276 5.8990002 0.35499999
12.336 5.973 0.35699999
7.9899998 4.131 0.233
7.7870002 4.0549998 0.227
7.7129998 4.0450001 0.22499999
7.704 4.0679998 0.22499999
7.7350001 4.112 0.226
7.7319999 4.1389999 0.226
7.7280002 4.165 0.226
7.7249999 4.191 0.226
7.7119999 4.2129998 0.226
7.7059999 4.2379999 0.226
7.7010002 4.263 0.226
7.711 4.296 0.227
7.757 4.3499999 0.228
7.7709999 4.3860002 0.229
7.8000002 4.4310002 0.23
7.8889999 4.5100002 0.233
9.2609997 -5.48 0.36399999
9.2749996 -5.461 0.36500001
9.2779999 -5.4369998 0.36500001
9.2930002 -5.4190001 0.366
9.302 -5.3969998 0.366
9.3269997 -5.3850002 0.36700001
9.3219995 -5.3559999 0.36700001
9.3500004 -5.3449998 0.368
9.375 -5.3319998 0.36899999
9.3929996 -5.316 0.37
9.3970003 -5.2909999 0.37
9.4069996 -5.2690001 0.37
9.415 -5.2459998 0.37
9.4399996 -5.2329998 0.37099999
9.4490004 -5.211 0.37200001
9.4659996 -5.1929998 0.37200001
9.493 -5.1799998 0.37400001
9.5019999 -5.158 0.37400001
9.5089998 -5.1339998 0.37400001
9.5120001 -5.1079998 0.37400001
9.5240002 -5.0869999 0.375
9.5369997 -5.066 0.375
9.573 -5.0570002 0.377
9.6040001 -5.046 0.37799999
9.618 -5.0250001 0.37799999
9.6269999 -5.0019999 0.37900001
9.6120005 -4.967 0.37799999
9.6160002 -4.9400001 0.37799999
9.6490002 -4.9299998 0.38
9.6669998 -4.9109998 0.38
9.6800003 -4.8889999 0.38100001
9.6870003 -4.8639998 0.38100001
9.6999998 -4.8429999 0.38100001
9.7250004 -4.8270001 0.382
9.7419996 -4.8070002 0.38299999
9.717 -4.7670002 0.382
9.7419996 -4.75 0.38299999
9.7959995 -4.7480001 0.38499999
9.8000002 -4.7220001 0.38499999
9.809 -4.697 0.38600001
9.8310003 -4.6789999 0.38699999
9.8269997 -4.6490002 0.38600001
9.8479996 -4.6290002 0.38699999
9.8690004 -4.6110001 0.38800001
9.8710003 -4.5830002 0.38800001
9.8959999 -4.566 0.389
9.915 -4.546 0.38999999
9.9510002 -4.533 0.391
9.9560003 -4.506 0.391
9.9709997 -4.4840002 0.39199999
10.003 -4.4689999 0.39300001
10.027 -4.4499998 0.39399999
10.085 -4.447 0.396
10.022 -4.3899999 0.39399999
10.037 -4.3670001 0.39399999
10.089 -4.3600001 0.396
10.067 -4.3210001 0.39500001
10.127 -4.3179998 0.398
10.141 -4.2940001 0.398
10.151 -4.2690001 0.39899999
10.17 -4.2470002 0.39899999
10.183 -4.223 0.40000001
10.209 -4.2030001 0.40099999
10.221 -4.1789999 0.40099999
10.229 -4.152 0.40200001
10.268 -4.138 0.403
10.284 -4.1139998 0.40400001
10.325 -4.0999999 0.405
10.332 -4.073 0.40599999
10.334 -4.0440001 0.40599999
10.372 -4.0279999 0.40700001
10.395 -4.007 0.40799999
10.391 -3.9749999 0.40799999
10.463 -3.9719999 0.41100001
10.493 -3.9530001 0.412
10.484 -3.9189999 0.41100001
10.521 -3.902 0.41299999
10.524 -3.8729999 0.41299999
10.568 -3.858 0.414
10.597 -3.8380001 0.41600001
10.614 -3.813 0.41600001
10.662 -3.799 0.41800001
10.665 -3.7690001 0.41800001
10.706 -3.753 0.41999999
10.739 -3.733 0.421
10.745 -3.704 0.421
10.784 -3.6860001 0.42300001
10.828 -3.6689999 0.42399999
10.874 -3.6530001 0.426
10.868 -3.6199999 0.426
10.926 -3.6070001 0.428
10.959 -3.586 0.42899999
10.938 -3.5469999 0.42899999
10.99 -3.5320001 0.43099999
11.134 -3.546 0.43599999
11.155 -3.5209999 0.43700001
11.15 -3.487 0.43700001
11.161 -3.4579999 0.43700001
11.144 -3.4200001 0.43599999
11.199 -3.404 0.43799999
11.202 -3.3729999 0.43900001
11.195 -3.3380001 0.43799999
11.279 -3.3299999 0.44100001
11.299 -3.3039999 0.442
11.292 -3.2690001 0.442
11.347 -3.2520001 0.44400001
11.406 -3.2360001 0.44600001
11.411 -3.204 0.44600001
11.454 -3.1830001 0.44800001
11.472 -3.155 0.449
11.497 -3.128 0.44999999
11.526 -3.1029999 0.45100001
11.56 -3.079 0.45199999
11.571 -3.0480001 0.45199999
11.583 -3.0179999 0.45300001
11.645 -3 0.45500001
11.649 -2.967 0.45500001
11.737 -2.9560001 0.45899999
11.757 -2.927 0.45899999
11.785 -2.9000001 0.461
11.825 -2.8759999 0.46200001
11.875 -2.8529999 0.46399999
11.91 -2.8280001 0.465
11.919 -2.7950001 0.46599999
11.954 -2.7690001 0.46700001
12.046 -2.756 0.47
12.238 -2.7639999 0.47799999
10.74 -2.395 0.419
10.711 -2.3570001 0.41800001
10.705 -2.325 0.41800001
10.74 -2.302 0.419
12.287 -2.598 0.479
12.293 -2.5639999 0.47999999
12.315 -2.533 0.47999999
12.377 -2.51 0.48300001
12.391 -2.477 0.48300001
12.436 -2.451 0.48500001
12.483 -2.424 0.48699999
12.517 -2.3940001 0.48800001
12.585 -2.3710001 0.491
12.695 -2.3559999 0.495
10.888 -1.989 0.42399999
10.696 -1.923 0.417
10.681 -1.89 0.41600001
10.696 -1.8609999 0.417
10.875 -1.8609999 0.42399999
12.825 -1.7539999 0.49900001
12.794 -1.7130001 0.498
12.775 -1.674 0.49700001
12.779 -1.638 0.49700001
12.802 -1.604 0.498
12.977 -1.589 0.50400001
12.63 -1.474 0.491
12.504 -1.423 0.486
12.481 -1.385 0.48500001
12.49 -1.35 0.48500001
12.57 -1.323 0.48800001
16.077999 1.413 0.47999999
15.945 1.4349999 0.47600001
16.004999 1.475 0.47799999
16.039 1.512 0.479
16.052 1.548 0.479
16.115999 1.589 0.48100001
16.163 1.63 0.48199999
16.167 1.666 0.48199999
16.166 1.702 0.48199999
16.188 1.7410001 0.48300001
16.221001 1.781 0.484
16.254999 1.822 0.48500001
16.285999 1.864 0.486
16.288 1.902 0.486
16.295 1.941 0.486
16.368 1.989 0.48800001
16.43 2.0350001 0.49000001
16.466 2.0799999 0.491
16.488001 2.122 0.49200001
16.49 2.1630001 0.49200001
16.537001 2.21 0.493
16.573 2.256 0.495
16.67 2.3110001 0.498
16.613001 2.345 0.49599999
16.681 2.3959999 0.498
16.74 2.448 0.5
16.771999 2.4960001 0.50099999
16.808001 2.5439999 0.50199997
16.849001 2.595 0.50300002
16.872 2.642 0.50400001
16.909 2.6930001 0.505
16.982 2.75 0.50700003
16.993 2.7969999 0.50800002
17.024 2.848 0.509
17.079 2.9030001 0.51099998
17.139 2.96 0.51300001
17.173 3.0139999 0.514
17.18 3.062 0.514
17.18 3.1099999 0.514
17.215 3.164 0.51499999
17.26 3.221 0.51700002
17.378 3.2920001 0.52100003
17.521999 3.3699999 0.52499998
17.521999 3.4200001 0.52499998
17.535 3.473 0.52600002
17.561001 3.529 0.52700001
17.643 3.5969999 0.52899998
17.726999 3.6659999 0.53200001
17.761 3.7249999 0.53299999
17.785999 3.783 0.53399998
17.771999 3.8329999 0.53399998
17.833 3.9000001 0.53600001
17.945999 3.9779999 0.54000002
13.024 2.927 0.39199999
12.808 2.9170001 0.38499999
12.751 2.9430001 0.384
12.75 2.9820001 0.384
12.776 3.0280001 0.38499999
12.877 3.092 0.38800001
12.967 3.154 0.391
12.722 3.1340001 0.384
12.608 3.1459999 0.38100001
12.565 3.175 0.37900001
12.562 3.214 0.38
12.6 3.2639999 0.38100001
12.819 3.362 0.38800001
19.105 5.0110002 0.57800001
18.693001 4.9640002 0.56599998
18.667 5.0170002 0.565
18.893 5.1399999 0.57300001
18.912001 5.2069998 0.574
18.861 5.2550001 0.57200003
18.867001 5.3200002 0.57300001
18.955999 5.408 0.57599998
19.172001 5.5339999 0.583
19.223 5.6129999 0.58499998
19.097 5.6409998 0.58099997
19.268999 5.757 0.58700001
19.65 5.9380002 0.59899998
19.429001 5.9369998 0.59200001
19.43 6.0040002 0.59299999
15.54 5.4060001 0.47799999
15.344 5.3930001 0.472
15.197 5.3969998 0.46799999
15.089 5.4130001 0.465
15.066 5.46 0.465
14.62 5.7919998 0.454
14.705 5.881 0.45699999
12.411 5.5970001 0.391
12.348 5.619 0.389
12.422 5.7030001 0.39199999
12.398 5.7420001 0.39199999
12.314 5.7540002 0.38999999
12.284 5.79 0.389
12.27 5.8340001 0.389
12.292 5.895 0.38999999
7.8369999 4.0549998 0.25099999
7.7350001 4.0349998 0.248
7.7160001 4.0580001 0.248
7.7360001 4.1020002 0.249
7.7470002 4.1420002 0.249
7.7319999 4.1669998 0.249
7.7189999 4.1939998 0.249
7.7179999 4.2270002 0.249
7.7030001 4.2529998 0.249
7.6950002 4.2820001 0.249
7.7319999 4.3369999 0.25099999
7.7540002 4.3829999 0.252
7.7810001 4.434 0.25299999
7.8559999 4.5120001 0.25600001
8.8620005 -5.8270001 0.375
8.8979998 -5.7950001 0.37599999
8.9309998 -5.7610002 0.377
8.9659996 -5.7280002 0.37799999
8.9910002 -5.6900001 0.37900001
9.0290003 -5.6589999 0.38
9.0600004 -5.6240001 0.38100001
9.0900002 -5.5890002 0.382
9.1110001 -5.5489998 0.38299999
9.1499996 -5.5190001 0.384
9.1829996 -5.4860001 0.38499999
9.2119999 -5.4499998 0.38600001
9.2309999 -5.4099998 0.38699999
9.2620001 -5.3759999 0.38800001
9.3000002 -5.3460002 0.389
9.3219995 -5.3070002 0.38999999
9.3549995 -5.2750001 0.391
9.3660002 -5.23 0.391
9.3889999 -5.1919999 0.39199999
9.415 -5.1570001 0.39300001
9.448 -5.1240001 0.39399999
9.4989996 -5.1030002 0.396
9.5209999 -5.0650001 0.39700001
9.5270004 -5.0190001 0.39700001
9.566 -4.9899998 0.398
9.5810003 -4.9489999 0.398
9.6110001 -4.9169998 0.39899999
9.625 -4.8759999 0.40000001
9.6610003 -4.8460002 0.40099999
9.6850004 -4.8099999 0.40200001
9.7089996 -4.7750001 0.403
9.7329998 -4.7399998 0.403
9.7399998 -4.6960001 0.40400001
9.7950001 -4.6760001 0.40599999
9.8199997 -4.6420002 0.40599999
9.8439999 -4.6069999 0.40700001
9.8769999 -4.5760002 0.40799999
9.9049997 -4.5430002 0.40900001
9.9280005 -4.5079999 0.41
9.9569998 -4.4759998 0.41100001
9.9890003 -4.4450002 0.412
10.014 -4.4120002 0.41299999
10.061 -4.388 0.41499999
10.11 -4.3639998 0.417
10.118 -4.3239999 0.417
10.132 -4.2849998 0.417
10.163 -4.2540002 0.41800001
10.2 -4.2259998 0.41999999
10.219 -4.1900001 0.41999999
10.268 -4.1669998 0.42199999
10.296 -4.1350002 0.42300001
10.316 -4.1009998 0.42399999
10.382 -4.0840001 0.426
10.395 -4.046 0.42699999
10.436 -4.0190001 0.428
10.488 -3.997 0.43000001
10.53 -3.971 0.43200001
10.559 -3.9400001 0.433
10.606 -3.915 0.435
10.656 -3.891 0.43700001
10.698 -3.865 0.43799999
10.753 -3.8429999 0.44
10.788 -3.8139999 0.442
10.825 -3.786 0.44299999
10.872 -3.7609999 0.44499999
10.913 -3.733 0.44600001
10.968 -3.711 0.44800001
11.014 -3.6860001 0.44999999
11.052 -3.658 0.45199999
11.119 -3.6389999 0.454
11.13 -3.602 0.454
11.265 -3.6040001 0.46000001
11.354 -3.592 0.463
11.34 -3.5469999 0.463
11.36 -3.513 0.463
11.366 -3.4749999 0.463
11.408 -3.447 0.465
11.417 -3.4100001 0.465
11.481 -3.3900001 0.46799999
11.504 -3.3570001 0.46900001
11.544 -3.329 0.47
11.594 -3.3039999 0.472
11.621 -3.273 0.47299999
11.657 -3.244 0.47400001
11.709 -3.2190001 0.47600001
11.724 -3.184 0.477
11.736 -3.1489999 0.477
11.807 -3.1300001 0.47999999
11.843 -3.1010001 0.48100001
11.908 -3.079 0.484
11.972 -3.0569999 0.486
12.01 -3.029 0.48800001
12.027 -2.9949999 0.48899999
12.06 -2.9660001 0.49000001
12.132 -2.9449999 0.493
12.221 -2.9289999 0.49599999
12.247 -2.8970001 0.49700001
10.836 -2.53 0.44
10.715 -2.4690001 0.435
10.667 -2.4260001 0.433
10.68 -2.3970001 0.433
10.783 -2.388 0.43700001
10.763 -2.043 0.43599999
10.671 -1.9960001 0.43200001
10.666 -1.966 0.43200001
10.677 -1.939 0.43200001
10.827 -1.936 0.43799999
13.645 -2.3670001 0.55199999
13.647 -2.3310001 0.55199999
13.838 -2.148 0.56
13.835 -2.112 0.56
13.932 -2.0910001 0.56300002
13.845 -2.0439999 0.56
13.98 -2.029 0.565
13.996 -1.9960001 0.56599998
12.823 -1.766 0.51800001
12.77 -1.727 0.51599997
12.738 -1.692 0.51499999
12.743 -1.6619999 0.51499999
12.746 -1.632 0.51499999
12.815 -1.6109999 0.51800001
12.936 -1.595 0.523
14.305 -1.698 0.57800001
14.255 -1.659 0.57599998
12.551 -1.403 0.50700003
12.482 -1.367 0.50400001
12.509 -1.342 0.505
12.514 -1.314 0.50599998
12.518 -1.2869999 0.50599998
12.593 -1.267 0.509
15.116 0.20900001 0.50099999
15.173 0.237 0.50300002
15.227 0.26499999 0.50400001
15.229 0.29300001 0.50400001
15.304 0.32300001 0.50700003
15.27 0.35100001 0.505
15.326 0.38100001 0.50700003
13.211 0.405 0.43599999
13.231 0.43099999 0.43700001
13.233 0.458 0.43700001
15.433 0.565 0.509
15.422 0.59600002 0.509
15.515 0.72899997 0.51099998
15.507 0.76099998 0.51099998
15.512 0.79500002 0.51099998
16.157 1.5039999 0.52999997
16.093 1.538 0.528
16.069 1.576 0.52700001
16.1 1.62 0.528
16.149 1.666 0.52899998
16.238001 1.716 0.53200001
16.249001 1.7589999 0.53299999
16.34 1.811 0.53600001
16.351999 1.855 0.53600001
16.365999 1.899 0.53600001
16.434 1.951 0.53899997
16.421 1.993 0.53799999
16.455 2.04 0.53899997
16.489 2.089 0.54000002
16.580999 2.145 0.54299998
16.639999 2.198 0.54500002
16.658001 2.2449999 0.546
16.702999 2.2969999 0.54699999
16.761999 2.352 0.54900002
16.82 2.4059999 0.551
16.871 2.46 0.55299997
16.947001 2.5190001 0.55599999
16.993999 2.573 0.55699998
17.025 2.6259999 0.55800003
17.104 2.687 0.56099999
17.118 2.7379999 0.56099999
17.177999 2.7969999 0.56300002
17.228001 2.8540001 0.565
17.285 2.914 0.56699997
17.337 2.973 0.56900001
17.375999 3.03 0.56999999
17.461 3.096 0.57300001
17.49 3.152 0.574
17.499001 3.2060001 0.574
17.660999 3.2880001 0.57999998
17.823999 3.3710001 0.58499998
18.069 3.4719999 0.59399998
18.224001 3.556 0.59899998
18.077999 3.582 0.59399998
18.1 3.641 0.59500003
18.061001 3.688 0.59399998
18.108999 3.753 0.59600002
18.289 3.8469999 0.602
18.271 3.8989999 0.60100001
18.471001 3.9990001 0.60799998
18.500999 4.0630002 0.60900003
13.005 2.8959999 0.428
12.786 2.8870001 0.421
12.744 2.918 0.41999999
12.759 2.961 0.41999999
12.823 3.016 0.42300001
12.902 3.076 0.42500001
12.869 3.109 0.42399999
12.659 3.098 0.41800001
12.592 3.122 0.41600001
12.571 3.1570001 0.41499999
12.592 3.2030001 0.41600001
12.733 3.28 0.421
19.284 4.9679999 0.63700002
19.069 4.974 0.63
19.073999 5.0380001 0.63099998
19.198 5.1329999 0.63499999
19.195999 5.1950002 0.63499999
19.264 5.276 0.63800001
19.732 5.4699998 0.65399998
19.775999 5.744 0.65600002
19.764 5.8060002 0.65600002
19.662001 5.842 0.653
15.726 5.368 0.52600002
15.451 5.3280001 0.51700002
15.287 5.3239999 0.51200002
15.181 5.3400002 0.509
15.073 5.3540001 0.505
15.017 5.3870001 0.50400001
15.09 5.4660001 0.50599998
12.594 5.7309999 0.43000001
12.49 5.7290001 0.42699999
12.489 5.7740002 0.42699999
12.389 5.7729998 0.42399999
12.324 5.7870002 0.42199999
12.306 5.8239999 0.42199999
12.288 5.8600001 0.42199999
12.319 5.9200001 0.42300001
12.295 5.9530001 0.42300001
12.359 6.0289998 0.42500001
7.9549999 4.1129999 0.27599999
7.7800002 4.0510001 0.27000001
7.7199998 4.0479999 0.26800001
7.7069998 4.0689998 0.26800001
7.7319999 4.1100001 0.26899999
7.744 4.145 0.26899999
7.7270002 4.164 0.26899999
7.723 4.1900001 0.26899999
7.7140002 4.2129998 0.26899999
7.7150002 4.2420001 0.26899999
7.711 4.2680001 0.27000001
7.6960001 4.2880001 0.26899999
7.7220001 4.3299999 0.27000001
7.7800002 4.3909998 0.273
7.8140001 4.4390001 0.27399999
7.8990002 4.5159998 0.278
9.5310001 -5.6440001 0.419
9.5469999 -5.6259999 0.41999999
9.566 -5.6100001 0.421
9.585 -5.5939999 0.42199999
9.5970001 -5.573 0.42199999
9.5950003 -5.5440001 0.42199999
9.6199999 -5.5310001 0.42300001
9.6540003 -5.5229998 0.42500001
9.6560001 -5.4970002 0.42500001
9.6809998 -5.4829998 0.426
9.6739998 -5.4510002 0.426
9.6739998 -5.4229999 0.42500001
9.6990004 -5.4089999 0.42699999
9.7209997 -5.3930001 0.428
9.7360001 -5.3730001 0.428
9.7489996 -5.3520002 0.42899999
9.7650003 -5.3319998 0.42899999
9.7639999 -5.3039999 0.42899999
9.7910004 -5.29 0.43099999
9.7889996 -5.2610002 0.43000001
9.7980003 -5.237 0.43099999
9.816 -5.2179999 0.43200001
9.8649998 -5.2160001 0.43399999
9.8599997 -5.184 0.433
9.8979998 -5.1760001 0.435
9.9099998 -5.1529999 0.43599999
9.8859997 -5.1110001 0.43399999
9.9069996 -5.0939999 0.435
9.9460001 -5.085 0.43700001
9.9449997 -5.0549998 0.43700001
9.9540005 -5.0310001 0.43700001
9.9910002 -5.0209999 0.43900001
9.9960003 -4.994 0.43900001
10.002 -4.9679999 0.43900001
10.029 -4.9520001 0.44100001
10.035 -4.9260001 0.44100001
10.069 -4.9130001 0.442
10.104 -4.9000001 0.44400001
10.105 -4.8709998 0.44400001
10.112 -4.8449998 0.44400001
10.131 -4.8249998 0.44499999
10.144 -4.802 0.44499999
10.157 -4.7779999 0.44600001
10.192 -4.7649999 0.447
10.22 -4.7480001 0.449
10.217 -4.717 0.449
10.254 -4.704 0.44999999
10.27 -4.6810002 0.45100001
10.284 -4.6570001 0.45100001
10.323 -4.645 0.45300001
10.334 -4.6199999 0.45300001
10.351 -4.5970001 0.454
10.403 -4.5900002 0.456
10.398 -4.5570002 0.456
10.404 -4.5289998 0.456
10.422 -4.507 0.45699999
10.44 -4.4840002 0.458
10.469 -4.4660001 0.45899999
10.494 -4.4460001 0.46000001
10.506 -4.4200001 0.461
10.542 -4.4050002 0.46200001
10.569 -4.3850002 0.463
10.58 -4.3590002 0.46399999
10.594 -4.3330002 0.46399999
10.626 -4.3150001 0.46599999
10.649 -4.2940001 0.46700001
10.692 -4.2800002 0.46900001
10.735 -4.2659998 0.47
10.807 -4.263 0.47400001
10.893 -4.2649999 0.477
10.915 -4.2420001 0.47799999
10.912 -4.2090001 0.47799999
10.914 -4.178 0.47799999
10.882 -4.1329999 0.477
10.907 -4.1110001 0.47799999
10.911 -4.0809999 0.47799999
10.947 -4.0619998 0.479
10.975 -4.0409999 0.47999999
11 -4.0180001 0.48100001
11.018 -3.9920001 0.48199999
11.033 -3.9660001 0.48300001
11.059 -3.9419999 0.484
11.103 -3.9260001 0.486
11.126 -3.902 0.48699999
11.15 -3.878 0.48800001
11.192 -3.8599999 0.49000001
11.197 -3.8280001 0.49000001
11.241 -3.8110001 0.49200001
11.275 -3.79 0.493
11.288 -3.7609999 0.49399999
11.296 -3.7309999 0.49399999
11.347 -3.7149999 0.49599999
11.357 -3.6849999 0.49599999
11.395 -3.664 0.498
11.474 -3.6559999 0.50099999
11.673 -3.6849999 0.50999999
11.602 -3.6289999 0.50700003
11.575 -3.5869999 0.50599998
11.558 -3.5480001 0.505
11.582 -3.5220001 0.50599998
11.605 -3.4949999 0.50700003
11.624 -3.467 0.50800002
11.664 -3.4449999 0.509
11.658 -3.4100001 0.509
11.732 -3.3970001 0.51200002
11.757 -3.3699999 0.51300001
11.789 -3.345 0.514
11.811 -3.3180001 0.51499999
11.82 -3.286 0.51599997
11.858 -3.2620001 0.51700002
11.893 -3.237 0.51899999
11.924 -3.211 0.51999998
11.938 -3.1800001 0.52100003
11.968 -3.1530001 0.52200001
12.019 -3.132 0.52399999
12.095 -3.1170001 0.52700001
12.106 -3.085 0.528
12.154 -3.062 0.52999997
12.187 -3.0350001 0.53100002
12.221 -3.0079999 0.53200001
12.255 -2.9809999 0.53399998
12.264 -2.947 0.53399998
12.341 -2.9300001 0.537
12.382 -2.904 0.53899997
12.45 -2.8840001 0.542
12.49 -2.858 0.54400003
12.603 -2.8469999 0.54900002
10.779 -2.404 0.46900001
10.683 -2.3510001 0.465
10.675 -2.319 0.46399999
10.701 -2.2939999 0.465
10.912 -2.3069999 0.47499999
10.712 -1.957 0.465
10.666 -1.9170001 0.463
10.685 -1.89 0.46399999
10.833 -1.885 0.47
13.778 -2.358 0.59799999
13.731 -2.3110001 0.59600002
13.83 -2.2880001 0.60000002
14.029 -2.2 0.60900003
13.973 -2.151 0.60600001
13.958 -2.108 0.60500002
14.062 -2.0840001 0.61000001
14.084 -2.0469999 0.611
14.109 -2.01 0.61199999
12.944 -1.806 0.56099999
12.763 -1.745 0.55299997
12.741 -1.705 0.55199999
12.764 -1.671 0.55299997
12.872 -1.649 0.55699998
12.522 -1.46 0.542
12.481 -1.42 0.54000002
