# .PCD v0.7 - Point Cloud Data file format
VERSION 0.7
FIELDS x y z
SIZE 4 4 4
TYPE F F F
COUNT 1 1 1
WIDTH 1821
HEIGHT 1
VIEWPOINT 0 0 0 1 0 0 0
POINTS 1821
DATA ascii
17.122 1.855 0.64399999
17.191999 1.9069999 0.64600003
17.215 1.954 0.64700001
17.290001 2.0079999 0.64999998
17.389999 2.0650001 0.65399998
17.399 2.112 0.65399998
17.396 2.158 0.65399998
17.533001 2.2219999 0.65899998
17.58 2.2750001 0.66100001
16.069 2.1229999 0.60399997
15.93 2.148 0.59899998
15.92 2.1900001 0.59899998
16.018999 2.2479999 0.60299999
15.899 2.319 0.59799999
15.722 2.3369999 0.59200001
15.679 2.375 0.58999997
15.675 2.418 0.58999997
15.748 2.474 0.59299999
18.131001 2.9000001 0.68300003
18.149 2.9549999 0.68400002
18.162001 3.01 0.68400002
18.274 3.0810001 0.68900001
18.441999 3.1630001 0.69499999
18.455 3.2190001 0.69599998
18.679001 3.312 0.704
18.669001 3.3659999 0.704
18.698999 3.4260001 0.70599997
18.759001 3.493 0.708
18.802999 3.5569999 0.70999998
18.839001 3.6199999 0.71100003
18.902 3.6889999 0.71399999
18.950001 3.7550001 0.71600002
18.989 3.8199999 0.71799999
19.077 3.8959999 0.72100002
19.143 3.9679999 0.72399998
19.155001 4.0289998 0.72500002
19.155001 4.0879998 0.72500002
19.268999 4.1719999 0.72899997
19.268 4.2309999 0.73000002
19.341 4.3070002 0.73299998
19.57 4.4190001 0.74199998
19.556999 4.4780002 0.741
19.737 4.7680001 0.74900001
19.74 4.8319998 0.75
19.761999 4.9000001 0.75099999
12.927 3.711 0.49399999
12.844 3.73 0.491
12.81 3.763 0.49000001
12.836 3.8139999 0.491
12.93 3.885 0.495
12.875 3.9119999 0.493
12.805 3.9330001 0.491
12.768 3.9649999 0.49000001
12.793 4.0159998 0.491
13.006 4.1269999 0.49900001
15.503 5.3449998 0.59799999
15.348 5.3449998 0.59299999
15.232 5.3569999 0.58899999
15.155 5.3829999 0.58600003
15.114 5.421 0.58499998
15.244 5.5209999 0.58999997
14.711 5.8470001 0.574
14.582 5.848 0.56900001
9.9160004 -5.8769999 0.48199999
9.9230003 -5.8530002 0.48300001
9.9519997 -5.8410001 0.484
9.9820004 -5.8299999 0.48500001
9.9720001 -5.796 0.48500001
9.9750004 -5.7690001 0.48500001
10.005 -5.757 0.486
10.01 -5.7309999 0.48699999
10.012 -5.7030001 0.48699999
10.016 -5.677 0.48699999
10.035 -5.658 0.48800001
10.034 -5.6290002 0.48800001
10.045 -5.6059999 0.48800001
10.074 -5.5929999 0.49000001
10.084 -5.5689998 0.49000001
10.094 -5.546 0.491
10.121 -5.5310001 0.49200001
10.118 -5.5 0.49200001
10.151 -5.4889998 0.493
10.17 -5.4689999 0.49399999
10.206 -5.4590001 0.49599999
10.22 -5.4369998 0.49599999
10.226 -5.4099998 0.49700001
10.282 -5.4099998 0.49900001
10.276 -5.3769999 0.49900001
10.256 -5.3369999 0.498
10.276 -5.3169999 0.49900001
10.305 -5.302 0.5
10.315 -5.277 0.50099999
10.349 -5.2639999 0.50199997
10.369 -5.244 0.50300002
10.356 -5.2069998 0.50300002
10.355 -5.1760001 0.50300002
10.391 -5.164 0.50400001
10.424 -5.151 0.50599998
10.437 -5.1259999 0.50599998
10.467 -5.1110001 0.50800002
10.471 -5.0819998 0.50800002
10.479 -5.0549998 0.50800002
10.528 -5.0479999 0.51099998
10.537 -5.0209999 0.51099998
10.579 -5.0110002 0.51300001
10.583 -4.9819999 0.51300001
10.589 -4.9530001 0.51300001
10.642 -4.947 0.51599997
10.642 -4.9159999 0.51599997
10.65 -4.888 0.51599997
10.68 -4.8709998 0.51800001
10.719 -4.8569999 0.51899999
10.715 -4.8239999 0.51899999
10.738 -4.803 0.51999998
10.762 -4.7820001 0.52100003
10.797 -4.7659998 0.523
10.81 -4.7399998 0.52399999
10.863 -4.7319999 0.52600002
10.84 -4.6900001 0.52499998
10.917 -4.6919999 0.52899998
10.925 -4.6630001 0.52899998
10.921 -4.6290002 0.52899998
10.948 -4.6090002 0.52999997
10.958 -4.5809999 0.52999997
10.996 -4.5640001 0.53200001
11.013 -4.539 0.53299999
11.029 -4.5139999 0.53399998
11.068 -4.4980001 0.53600001
11.103 -4.4790001 0.537
11.138 -4.461 0.53899997
11.166 -4.4390001 0.54000002
11.223 -4.4289999 0.54299998
11.34 -4.4419999 0.54799998
11.441 -4.415 0.55299997
11.32 -4.335 0.54699999
11.291 -4.2909999 0.546
11.306 -4.263 0.546
11.324 -4.237 0.54699999
11.335 -4.2080002 0.54799998
11.378 -4.191 0.55000001
11.41 -4.1690001 0.551
11.433 -4.1440001 0.55199999
11.443 -4.1149998 0.55299997
11.468 -4.0900002 0.55400002
11.507 -4.0700002 0.55599999
11.517 -4.0409999 0.55599999
11.553 -4.0190001 0.55800003
11.589 -3.9979999 0.55900002
11.602 -3.9679999 0.56
11.604 -3.9360001 0.56
11.617 -3.9059999 0.56099999
11.666 -3.888 0.56300002
11.7 -3.8659999 0.56400001
11.72 -3.8380001 0.565
11.758 -3.816 0.56699997
11.814 -3.8 0.56999999
11.853 -3.7780001 0.57099998
11.914 -3.763 0.574
11.941 -3.737 0.57599998
11.95 -3.7049999 0.57599998
11.981 -3.6789999 0.57700002
12.031 -3.6600001 0.57999998
12.014 -3.6199999 0.579
12.012 -3.5840001 0.579
12.037 -3.5569999 0.57999998
12.098 -3.539 0.583
12.19 -3.5309999 0.58700001
12.249 -3.513 0.58999997
12.272 -3.483 0.59100002
12.297 -3.4549999 0.59200001
12.375 -3.441 0.59600002
12.413 -3.4159999 0.597
12.483 -3.3989999 0.60100001
12.703 -3.4219999 0.611
13.566 -3.1830001 0.65100002
13.46 -3.119 0.64600003
13.477 -3.0840001 0.64700001
13.442 -3.0369999 0.64499998
13.506 -3.0120001 0.648
13.502 -2.9719999 0.648
13.595 -2.954 0.65200001
13.625 -2.921 0.65399998
13.617 -2.8800001 0.653
13.667 -2.8510001 0.65499997
13.689 -2.816 0.65600002
13.729 -2.7850001 0.65799999
13.778 -2.7550001 0.66000003
13.806 -2.721 0.662
13.854 -2.6900001 0.66399997
13.947 -2.668 0.66799998
13.931 -2.625 0.667
14.057 -2.608 0.67299998
14.007 -2.5580001 0.671
14.027 -2.5220001 0.67199999
14.045 -2.484 0.67199999
14.063 -2.447 0.67299998
14.139 -2.4200001 0.67699999
14.28 -2.4030001 0.68300003
14.279 -2.279 0.68300003
14.338 -2.2479999 0.68599999
14.321 -2.204 0.685
14.454 -2.1830001 0.69099998
14.418 -2.1359999 0.68900001
14.504 -2.1070001 0.69300002
14.52 -2.0669999 0.69400001
14.508 -2.0239999 0.69300002
14.546 -1.988 0.69499999
14.629 -1.957 0.699
14.687 -1.923 0.70099998
13.128 0.57200003 0.61900002
13.098 0.60900003 0.61799997
10.695 0.098999999 0.428
10.691 0.109 0.428
10.683 0.119 0.42699999
10.688 0.12899999 0.42699999
10.697 0.139 0.42699999
10.686 0.15000001 0.42699999
10.677 0.161 0.426
10.691 0.17200001 0.426
10.687 0.184 0.426
10.717 0.19599999 0.42699999
10.729 0.20900001 0.42699999
10.777 0.222 0.42899999
10.9 0.237 0.43399999
10.951 0.252 0.43599999
10.94 0.26499999 0.435
10.852 0.27700001 0.43099999
10.817 0.28999999 0.43000001
10.769 0.30199999 0.428
10.745 0.31600001 0.426
10.733 0.33000001 0.426
10.723 0.345 0.42500001
10.722 0.36000001 0.42500001
10.745 0.37599999 0.426
10.752 0.391 0.426
10.784 0.40900001 0.42699999
10.836 0.42699999 0.42899999
12.736 0.52100003 0.50400001
12.714 0.54000002 0.50300002
12.713 0.55900002 0.50300002
12.712 0.57999998 0.50300002
12.71 0.60000002 0.50199997
12.706 0.62099999 0.50199997
12.723 0.64200002 0.50300002
12.734 0.66399997 0.50300002
12.781 0.68800002 0.505
12.862 0.71499997 0.50800002
12.908 0.74000001 0.50999999
12.928 0.764 0.50999999
12.975 0.79000002 0.51200002
12.968 0.81300002 0.51200002
12.966 0.83700001 0.51200002
12.952 0.86000001 0.51099998
12.955 0.884 0.51099998
12.945 0.90799999 0.51099998
12.929 0.93199998 0.50999999
12.92 0.95599997 0.509
12.906 0.98000002 0.509
12.911 1.006 0.509
12.917 1.0319999 0.509
12.915 1.058 0.509
12.934 1.086 0.50999999
12.943 1.113 0.50999999
12.954 1.141 0.51099998
12.989 1.1720001 0.51200002
13.037 1.204 0.514
17.849001 1.648 0.704
13.037 1.232 0.514
17.764 1.678 0.69999999
13.046 1.261 0.514
17.868 1.727 0.70499998
13.071 1.291 0.51499999
17.858999 1.765 0.704
13.091 1.322 0.51599997
17.830999 1.801 0.70300001
13.157 1.358 0.51899999
17.877001 1.845 0.70499998
13.187 1.391 0.51999998
17.865 1.8839999 0.70499998
17.934 1.932 0.70700002
18.007999 1.9809999 0.70999998
18.114 2.0339999 0.71499997
18.136999 2.0780001 0.71600002
18.159 2.1229999 0.71700001
18.4 2.1949999 0.72600001
18.365 2.234 0.72500002
18.49 2.293 0.73000002
18.573999 2.348 0.73299998
15.952 2.056 0.63
15.912 2.089 0.62800002
15.893 2.1259999 0.62800002
15.919 2.1689999 0.62900001
16.042 2.2260001 0.634
15.809 2.273 0.625
15.726 2.3010001 0.62199998
15.683 2.335 0.62
15.68 2.375 0.62
15.72 2.4219999 0.62199998
15.866 2.487 0.62800002
19.052 2.9860001 0.75400001
18.910999 3.0139999 0.74900001
19.01 3.0799999 0.75300002
19.007 3.1300001 0.75300002
19.025999 3.1849999 0.75400001
19.046 3.24 0.755
19.065001 3.2950001 0.75599998
19.099001 3.3529999 0.75800002
19.125999 3.411 0.759
19.209 3.4790001 0.76300001
19.229 3.536 0.764
19.231001 3.5910001 0.76499999
19.407 3.678 0.77200001
19.391001 3.73 0.77200001
19.534 3.8139999 0.778
19.74 3.911 0.78600001
19.718 5.2360001 0.79500002
19.712999 5.2989998 0.796
19.715 5.3639998 0.796
12.936 3.734 0.52399999
12.823 3.744 0.51999998
12.792 3.7780001 0.51899999
12.811 3.8269999 0.51999998
12.882 3.892 0.52399999
12.87 3.9330001 0.52399999
12.775 3.948 0.51999998
12.756 3.9860001 0.51999998
12.783 4.039 0.52100003
12.991 4.1490002 0.52999997
15.461 5.3779998 0.63599998
15.37 5.401 0.63200003
15.313 5.4369998 0.63099998
14.832 5.7620001 0.616
14.8 5.8060002 0.616
14.633 5.796 0.60900003
14.545 5.816 0.60600001
14.802 5.9759998 0.61799997
9.448 -6.2090001 0.48800001
9.4949999 -6.1810002 0.49000001
9.5319996 -6.1459999 0.49200001
9.566 -6.1090002 0.493
9.6079998 -6.0770001 0.495
9.625 -6.0300002 0.495
9.6599998 -5.994 0.49700001
9.717 -5.9720001 0.49900001
9.7419996 -5.9299998 0.5
9.7550001 -5.881 0.50099999
9.8100004 -5.8569999 0.50300002
9.8190002 -5.8070002 0.50300002
9.8610001 -5.776 0.505
9.9040003 -5.7459998 0.50700003
9.9250002 -5.7030001 0.50800002
9.9720001 -5.6739998 0.50999999
9.9870005 -5.6279998 0.50999999
10.023 -5.5949998 0.51200002
10.07 -5.566 0.514
10.124 -5.5419998 0.51599997
10.151 -5.5029998 0.51700002
10.163 -5.4569998 0.51700002
10.162 -5.4029999 0.51700002
10.214 -5.3779998 0.51899999
10.251 -5.3449998 0.52100003
10.305 -5.3210001 0.523
10.321 -5.277 0.52399999
10.336 -5.2340002 0.52399999
10.378 -5.2030001 0.52600002
10.412 -5.1690001 0.52700001
10.451 -5.138 0.52899998
10.455 -5.0890002 0.52899998
10.533 -5.0760002 0.53299999
10.561 -5.04 0.53399998
10.569 -4.994 0.53399998
10.6 -4.9580002 0.53500003
10.643 -4.9289999 0.537
10.674 -4.8940001 0.53799999
10.746 -4.8779998 0.542
10.76 -4.836 0.542
10.796 -4.803 0.54400003
10.815 -4.763 0.54500002
10.866 -4.737 0.54699999
10.906 -4.7069998 0.54900002
10.948 -4.6760001 0.55000001
10.968 -4.638 0.551
11.007 -4.6059999 0.55299997
11.044 -4.5739999 0.55400002
11.073 -4.539 0.55599999
11.098 -4.5029998 0.55699998
11.156 -4.4790001 0.55900002
11.184 -4.4439998 0.56099999
11.236 -4.4180002 0.56300002
11.326 -4.4070001 0.56699997
11.394 -4.3870001 0.56999999
11.577 -4.4109998 0.579
11.471 -4.3239999 0.574
11.42 -4.2600002 0.57099998
11.414 -4.2119999 0.56999999
11.47 -4.1880002 0.57300001
11.504 -4.1550002 0.57499999
11.546 -4.125 0.57599998
11.561 -4.086 0.57700002
11.624 -4.0640001 0.57999998
11.665 -4.0339999 0.58200002
11.695 -4 0.583
11.749 -3.9749999 0.58600003
11.799 -3.947 0.588
11.817 -3.9100001 0.58899999
11.874 -3.885 0.59100002
11.924 -3.858 0.59399998
11.964 -3.8269999 0.59500003
12.057 -3.8139999 0.60000002
12.193 -3.77 0.60600001
12.202 -3.7290001 0.60600001
12.251 -3.7019999 0.60900003
12.332 -3.6830001 0.61299998
12.396 -3.6589999 0.616
12.594 -3.674 0.625
12.655 -3.6489999 0.62800002
13.418 -3.4260001 0.66399997
13.4 -3.3789999 0.66299999
13.493 -3.3599999 0.66799998
13.524 -3.325 0.66900003
13.55 -3.247 0.67000002
13.52 -3.1989999 0.66799998
13.611 -3.178 0.67299998
13.647 -3.145 0.67400002
13.744 -3.1259999 0.67900002
13.712 -3.0780001 0.67699999
13.802 -3.0569999 0.68199998
13.781 -3.0109999 0.68099999
13.807 -2.9760001 0.68199998
13.842 -2.9430001 0.68300003
13.874 -2.9100001 0.685
13.905 -2.8759999 0.68599999
14.057 -2.8670001 0.69400001
14.033 -2.822 0.69199997
14.089 -2.793 0.69499999
14.144 -2.7639999 0.69800001
14.167 -2.7290001 0.699
14.192 -2.694 0.69999999
14.27 -2.6700001 0.70300001
14.291 -2.595 0.704
14.323 -2.562 0.70599997
14.401 -2.5369999 0.70999998
14.433 -2.5039999 0.71100003
14.455 -2.47 0.71200001
14.5 -2.325 0.71399999
14.473 -2.2839999 0.713
14.544 -2.2579999 0.71600002
14.579 -2.2260001 0.71799999
14.617 -2.1949999 0.71899998
14.708 -2.1719999 0.72399998
14.66 -2.128 0.72100002
14.729 -2.1010001 0.72500002
10.732 0.152 0.458
10.776 0.171 0.46000001
10.744 0.19 0.458
10.72 0.20900001 0.45699999
10.713 0.229 0.45699999
10.7 0.248 0.456
10.687 0.26800001 0.45500001
10.694 0.289 0.45500001
10.699 0.31 0.45500001
10.707 0.331 0.456
10.734 0.35299999 0.45699999
10.765 0.375 0.458
10.862 0.40000001 0.46200001
12.716 0.49399999 0.54100001
12.706 0.51999998 0.54000002
12.706 0.546 0.54000002
12.705 0.57300001 0.54000002
12.704 0.59899998 0.54000002
12.717 0.62699997 0.54000002
12.736 0.65499997 0.54100001
12.801 0.68599999 0.54299998
12.887 0.71899998 0.54699999
12.891 0.74800003 0.54699999
12.918 0.778 0.54799998
12.926 0.80800003 0.54799998
12.915 0.83600003 0.54799998
12.895 0.86400002 0.54699999
12.893 0.89399999 0.54699999
12.879 0.92199999 0.546
12.868 0.95200002 0.546
12.851 0.98100001 0.54500002
12.86 1.012 0.54500002
12.871 1.043 0.546
12.874 1.074 0.546
12.881 1.1059999 0.546
12.892 1.138 0.546
12.911 1.1720001 0.54699999
12.926 1.205 0.54799998
12.954 1.24 0.54900002
17.964001 1.72 0.76200002
12.976 1.274 0.55000001
17.899 1.758 0.759
12.994 1.309 0.551
18.021 1.816 0.764
13.01 1.3430001 0.551
17.992001 1.858 0.76300001
13.032 1.3789999 0.55199999
18.047001 1.91 0.76499999
13.08 1.418 0.55400002
18.122999 1.964 0.76800001
13.141 1.4579999 0.55699998
18.282 2.029 0.77499998
18.405001 2.0899999 0.78100002
18.419001 2.1400001 0.78100002
13.189 1.567 0.55900002
18.419001 2.1889999 0.78100002
13.022 1.582 0.55199999
18.539 2.2520001 0.78600001
13.151 1.632 0.55800003
18.552999 2.303 0.787
18.586 2.3570001 0.78899997
18.695 2.421 0.79299998
15.915 2.1040001 0.67500001
15.879 2.142 0.67400002
15.877 2.1849999 0.67400002
15.935 2.237 0.67699999
15.84 2.3110001 0.67299998
15.718 2.3369999 0.66799998
15.677 2.375 0.66600001
15.672 2.4189999 0.66600001
15.725 2.471 0.66799998
19.256001 3.0810001 0.81900001
19.26 3.1370001 0.81900001
19.298 3.1989999 0.82099998
19.311001 3.256 0.82200003
19.379999 3.3239999 0.82499999
19.427999 3.3889999 0.82700002
19.471001 3.454 0.829
19.549 3.5250001 0.833
19.606001 3.5929999 0.83499998
19.632 3.6559999 0.83700001
19.625 3.7130001 0.83700001
19.679001 3.7820001 0.83899999
21.245001 4.7319999 0.91000003
21.166 4.7800002 0.90700001
21.091999 4.8299999 0.90399998
21.319 5.151 0.91500002
21.155001 5.178 0.90899998
21.204 5.2579999 0.91100001
19.656 5.191 0.847
19.667 5.2579999 0.84799999
19.629999 5.3119998 0.84600002
19.747 5.4089999 0.852
12.917 3.7079999 0.55800003
12.821 3.724 0.55500001
12.79 3.757 0.55400002
12.793 3.8010001 0.55400002
12.865 3.865 0.55699998
12.864 3.908 0.55800003
12.797 3.931 0.55500001
12.762 3.9630001 0.55400002
12.761 4.006 0.55400002
12.848 4.0770001 0.55900002
14.861 5.7480001 0.65600002
14.661 5.723 0.64700001
14.663 5.776 0.648
14.625 5.8130002 0.64700001
14.534 5.8280001 0.64300001
14.619 5.915 0.648
10.348 -6.138 0.551
10.377 -6.125 0.55299997
10.397 -6.1069999 0.55400002
10.397 -6.0770001 0.55400002
10.4 -6.0489998 0.55400002
10.415 -6.0279999 0.55500001
10.415 -5.9980001 0.55400002
10.464 -5.9959998 0.55699998
10.449 -5.9569998 0.55599999
10.478 -5.9429998 0.55800003
10.46 -5.9029999 0.55699998
10.467 -5.8759999 0.55699998
10.504 -5.8670001 0.55900002
10.527 -5.849 0.56
10.49 -5.7979999 0.55800003
10.506 -5.776 0.55900002
10.55 -5.77 0.56099999
10.539 -5.7329998 0.56099999
10.538 -5.7020001 0.56099999
10.554 -5.6799998 0.56099999
10.552 -5.6479998 0.56099999
10.593 -5.6399999 0.56300002
10.621 -5.6230001 0.565
10.735 -5.652 0.57099998
10.735 -5.6209998 0.57099998
10.673 -5.5570002 0.56699997
10.694 -5.5370002 0.56800002
10.703 -5.5110002 0.56900001
10.716 -5.4860001 0.56900001
10.722 -5.4580002 0.56999999
10.748 -5.4390001 0.57099998
10.779 -5.4239998 0.57300001
10.785 -5.3959999 0.57300001
10.815 -5.3790002 0.574
10.824 -5.3520002 0.57499999
10.862 -5.3379998 0.57700002
10.862 -5.3070002 0.57700002
10.861 -5.2750001 0.57700002
10.875 -5.2490001 0.57700002
10.903 -5.2309999 0.579
10.924 -5.2090001 0.57999998
10.963 -5.1950002 0.58200002
10.98 -5.1719999 0.583
10.977 -5.138 0.583
11 -5.1160002 0.58399999
11.034 -5.0999999 0.58499998
11.036 -5.0689998 0.58499998
11.048 -5.0419998 0.58600003
11.081 -5.0250001 0.588
11.115 -5.007 0.58899999
11.138 -4.9850001 0.59100002
11.137 -4.9520001 0.58999997
11.158 -4.9289999 0.59200001
11.181 -4.9060001 0.59299999
11.22 -4.8899999 0.59500003
11.238 -4.8649998 0.59600002
11.289 -4.8540001 0.59799999
11.287 -4.8200002 0.59799999
11.274 -4.7820001 0.597
11.327 -4.7709999 0.60000002
11.337 -4.7420001 0.60000002
11.363 -4.7189999 0.602
11.402 -4.7020001 0.60399997
11.411 -4.6729999 0.60399997
11.436 -4.6490002 0.60500002
11.45 -4.6209998 0.60600001
11.482 -4.6009998 0.60799998
11.524 -4.5840001 0.61000001
11.603 -4.5809999 0.61400002
11.644 -4.5630002 0.616
11.631 -4.5240002 0.61500001
11.626 -4.4879999 0.61500001
11.62 -4.4520001 0.61400002
11.657 -4.4320002 0.616
11.704 -4.4159999 0.61900002
11.709 -4.3829999 0.61900002
11.743 -4.362 0.62099999
11.752 -4.3309999 0.62099999
11.791 -4.3099999 0.62300003
11.814 -4.2839999 0.62400001
11.831 -4.256 0.625
11.852 -4.2290001 0.62599999
11.869 -4.1999998 0.62699997
11.931 -4.1869998 0.63
11.933 -4.1529999 0.63
11.963 -4.1290002 0.63200003
11.999 -4.1059999 0.63300002
12.002 -4.072 0.63300002
12.061 -4.0570002 0.63599998
12.132 -4.0450001 0.63999999
12.175 -4.0240002 0.64200002
12.251 -4.0139999 0.64600003
12.372 -4.0170002 0.65200001
12.363 -3.9779999 0.65200001
13.377 -3.76 0.704
13.382 -3.7219999 0.704
13.363 -3.678 0.70300001
13.358 -3.638 0.70300001
13.382 -3.605 0.704
13.365 -3.562 0.70300001
13.405 -3.5339999 0.70499998
13.539 -3.53 0.71200001
13.497 -3.441 0.70899999
13.515 -3.4059999 0.70999998
13.591 -3.3859999 0.71399999
13.631 -3.3559999 0.71600002
13.759 -3.348 0.72299999
13.708 -3.296 0.72000003
13.725 -3.26 0.72100002
13.737 -3.223 0.72100002
13.769 -3.191 0.72299999
13.849 -3.1689999 0.727
13.846 -3.1289999 0.72600001
13.863 -3.092 0.727
13.885 -3.0569999 0.72799999
13.923 -3.0250001 0.73000002
13.955 -2.9920001 0.73199999
13.973 -2.9549999 0.73199999
14.059 -2.9330001 0.73699999
14.094 -2.9000001 0.73900002
14.159 -2.872 0.74199998
14.208 -2.8410001 0.74400002
14.231 -2.8039999 0.745
14.267 -2.77 0.74699998
14.387 -2.7520001 0.75300002
14.344 -2.7030001 0.75099999
14.419 -2.675 0.755
14.482 -2.645 0.75800002
14.44 -2.596 0.75599998
14.535 -2.5710001 0.75999999
14.526 -2.527 0.75999999
14.53 -2.4860001 0.75999999
14.74 -2.3099999 0.76999998
14.761 -2.2709999 0.77100003
14.839 -2.24 0.77499998
14.863 -2.201 0.77600002
14.952 -2.171 0.78100002
14.982 -2.1329999 0.78200001
10.681 0.101 0.479
10.669 0.111 0.47799999
10.672 0.121 0.47799999
10.662 0.131 0.477
10.66 0.141 0.477
10.654 0.152 0.47600001
10.65 0.163 0.47600001
10.655 0.17399999 0.47600001
10.662 0.186 0.47600001
10.679 0.198 0.47600001
10.692 0.20999999 0.477
10.745 0.223 0.479
10.799 0.237 0.48100001
10.871 0.252 0.484
10.841 0.26499999 0.48199999
10.8 0.27700001 0.47999999
10.776 0.28999999 0.479
10.741 0.303 0.477
10.721 0.317 0.47600001
10.707 0.331 0.47499999
10.703 0.34599999 0.47499999
10.705 0.361 0.47499999
10.705 0.37599999 0.47499999
10.729 0.39199999 0.47600001
10.763 0.40900001 0.477
10.823 0.428 0.47999999
11.02 0.45199999 0.48800001
12.67 0.54000002 0.56099999
12.668 0.55900002 0.56099999
12.661 0.579 0.56099999
12.675 0.60000002 0.56099999
12.666 0.62 0.56099999
12.671 0.64200002 0.56099999
12.682 0.66299999 0.56099999
12.73 0.68800002 0.56300002
12.817 0.71399999 0.56699997
12.906 0.74199998 0.57099998
12.897 0.764 0.56999999
12.89 0.78600001 0.56999999
12.881 0.80900002 0.56900001
12.885 0.833 0.56900001
12.857 0.85500002 0.56800002
12.819 0.87599999 0.56599998
12.81 0.89999998 0.56599998
12.815 0.92500001 0.56599998
12.796 0.94800001 0.565
12.791 0.97299999 0.565
12.804 0.99900001 0.56599998
12.802 1.025 0.56599998
12.818 1.052 0.56599998
12.819 1.0779999 0.56599998
12.84 1.1059999 0.56699997
12.864 1.135 0.56800002
12.883 1.163 0.56900001
12.883 1.191 0.56900001
12.936 1.223 0.57200003
12.939 1.251 0.57200003
12.955 1.281 0.57200003
12.973 1.311 0.57300001
12.99 1.342 0.574
19.351999 1.999 0.85600001
13.037 1.376 0.57599998
19.202999 2.027 0.84899998
13.085 1.41 0.57800001
19.298 2.0799999 0.85299999
13.145 1.447 0.58099997
19.409 2.1359999 0.85799998
13.13 1.475 0.58099997
19.51 2.1919999 0.86299998
13.142 1.507 0.58099997
13.027 1.524 0.57599998
12.994 1.551 0.57499999
13.1 1.594 0.57999998
19.408001 2.362 0.85900003
19.388 2.4059999 0.85799998
16.132 2.0409999 0.71399999
15.905 2.0510001 0.704
15.841 2.0810001 0.70200002
15.817 2.1170001 0.70099998
15.833 2.158 0.70200002
15.931 2.211 0.70599997
13.022 1.873 0.57800001
13.129 1.9220001 0.58200002
15.674 2.335 0.69599998
15.673 2.375 0.69599998
15.693 2.4189999 0.69700003
15.81 2.4790001 0.70200002
19.870001 3.168 0.88300002
19.858 3.2179999 0.88300002
19.874001 3.2739999 0.884
19.927999 3.336 0.88700002
20.177 3.4330001 0.898
20.377001 3.5220001 0.90799999
20.556999 3.6099999 0.91600001
21.701 4.8779998 0.97500002
21.681 4.9400001 0.97500002
19.75 5.1810002 0.89499998
19.656 5.2199998 0.89099997
19.620001 5.2740002 0.88999999
19.596001 5.3309999 0.88999999
19.625 5.4039998 0.89200002
19.712 5.493 0.89600003
12.973 3.744 0.59100002
12.838 3.7490001 0.58600003
12.791 3.7780001 0.58399999
12.76 3.812 0.583
12.812 3.8710001 0.58600003
12.857 3.9289999 0.588
12.793 3.9530001 0.58600003
12.762 3.9879999 0.58499998
12.769 4.0339999 0.58600003
12.819 4.0939999 0.58899999
14.929 5.743 0.69800001
14.701 5.711 0.68800002
14.666 5.7529998 0.68699998
14.692 5.8189998 0.68900001
14.603 5.8400002 0.685
9.7939997 -6.434 0.55199999
9.8520002 -6.4109998 0.55500001
9.9200001 -6.3940001 0.55800003
9.9490004 -6.3509998 0.55900002
9.9940004 -6.3189998 0.56099999
10.053 -6.296 0.56400001
10.06 -6.2399998 0.56400001
10.12 -6.2179999 0.56699997
10.143 -6.1729999 0.56800002
10.169 -6.1290002 0.56900001
10.196 -6.0869999 0.56999999
10.226 -6.046 0.57099998
10.246 -6 0.57200003
10.284 -5.9650002 0.574
10.32 -5.928 0.57499999
10.344 -5.8850002 0.57599998
10.363 -5.8390002 0.57700002
10.418 -5.8140001 0.57999998
10.443 -5.7709999 0.58099997
10.512 -5.7540002 0.58399999
10.578 -5.7340002 0.58700001
10.557 -5.6669998 0.58600003
10.558 -5.6129999 0.58600003
10.599 -5.5799999 0.58700001
10.627 -5.54 0.58899999
10.679 -5.513 0.59100002
10.695 -5.4679999 0.59200001
10.74 -5.4369998 0.59399998
10.761 -5.395 0.59500003
10.804 -5.3629999 0.597
10.836 -5.3260002 0.59799999
10.864 -5.2870002 0.59899998
10.899 -5.2519999 0.60100001
10.935 -5.217 0.60299999
10.968 -5.1810002 0.60399997
11.002 -5.1459999 0.60600001
11.037 -5.1110001 0.60699999
11.059 -5.0700002 0.60799998
11.095 -5.0359998 0.61000001
11.139 -5.0050001 0.61199999
11.169 -4.9679999 0.61299998
11.208 -4.9349999 0.61500001
11.225 -4.8930001 0.616
11.257 -4.8569999 0.61699998
11.311 -4.8309999 0.62
11.37 -4.8070002 0.62300003
11.374 -4.7589998 0.62300003
11.39 -4.717 0.62300003
11.442 -4.6900001 0.62599999
11.492 -4.6620002 0.62800002
11.516 -4.6230001 0.62900001
11.544 -4.5869999 0.63099998
11.594 -4.559 0.63300002
11.677 -4.5430002 0.63700002
11.719 -4.5120001 0.639
11.79 -4.4920001 0.64300001
11.752 -4.4299998 0.64099997
11.793 -4.3979998 0.64300001
11.836 -4.3670001 0.64499998
11.865 -4.3309999 0.64600003
11.934 -4.3099999 0.64999998
11.968 -4.276 0.65100002
11.978 -4.2329998 0.65100002
12.023 -4.2030001 0.65399998
12.113 -4.1880002 0.65799999
12.182 -4.1659999 0.662
12.22 -4.1339998 0.66399997
12.374 -4.1399999 0.67199999
12.568 -4.158 0.68199998
12.647 -4.138 0.68599999
13.41 -3.8670001 0.72500002
13.415 -3.822 0.72500002
13.441 -3.7839999 0.72600001
13.452 -3.7420001 0.727
13.487 -3.707 0.72799999
13.524 -3.6730001 0.73000002
13.729 -3.6830001 0.741
13.749 -3.599 0.74199998
13.701 -3.543 0.73900002
13.773 -3.517 0.74299997
13.809 -3.4820001 0.745
13.797 -3.4360001 0.74400002
13.946 -3.4289999 0.75199997
14.038 -3.408 0.75599998
13.951 -3.3429999 0.75099999
13.946 -3.299 0.75099999
14.017 -3.273 0.755
13.998 -3.2260001 0.75400001
14.039 -3.1930001 0.75599998
14.086 -3.1619999 0.75800002
14.152 -3.1340001 0.76099998
14.236 -3.1110001 0.76599997
14.233 -3.0680001 0.76499999
14.339 -3.049 0.77100003
14.321 -3.003 0.76999998
14.357 -2.9690001 0.77200001
14.374 -2.9319999 0.77200001
14.401 -2.8959999 0.77399999
14.464 -2.868 0.77700001
14.569 -2.8469999 0.78299999
14.524 -2.7980001 0.77999997
14.574 -2.767 0.78299999
14.583 -2.7279999 0.78299999
14.629 -2.6570001 0.78500003
14.766 -2.642 0.792
14.804 -2.609 0.79400003
15.034 -2.45 0.80599999
14.997 -2.405 0.80400002
15.048 -2.375 0.80699998
15.072 -2.3399999 0.80800003
10.651 0.152 0.505
10.712 0.17200001 0.50800002
10.732 0.192 0.509
10.719 0.211 0.50800002
10.699 0.23 0.50700003
10.672 0.249 0.505
10.659 0.26899999 0.505
10.673 0.28999999 0.505
10.673 0.31 0.505
10.674 0.331 0.505
10.689 0.352 0.505
10.704 0.37400001 0.50599998
10.774 0.398 0.509
10.919 0.426 0.51599997
12.672 0.51999998 0.59899998
12.682 0.54699999 0.59899998
12.666 0.57200003 0.59799999
12.665 0.59899998 0.59799999
12.675 0.62699997 0.59799999
12.691 0.65499997 0.59899998
12.717 0.68300003 0.60000002
12.799 0.71600002 0.60399997
12.903 0.75 0.60900003
12.889 0.778 0.60799998
12.872 0.80599999 0.60699999
12.864 0.83399999 0.60699999
12.865 0.86299998 0.60699999
12.824 0.88999999 0.60500002
12.805 0.91799998 0.60399997
12.791 0.94700003 0.60299999
12.78 0.97600001 0.60299999
12.774 1.006 0.602
12.775 1.0369999 0.602
12.791 1.069 0.60299999
12.785 1.099 0.60299999
12.808 1.132 0.60399997
12.83 1.166 0.60500002
12.871 1.201 0.60699999
12.895 1.235 0.60799998
12.919 1.27 0.60900003
19.375999 1.905 0.91399997
12.924 1.303 0.61000001
19.362 1.952 0.91299999
12.958 1.339 0.611
19.34 1.999 0.91299999
12.952 1.3710001 0.611
19.374001 2.052 0.91399997
12.996 1.409 0.61299998
19.400999 2.1040001 0.91600001
13.04 1.448 0.61500001
19.482 2.1630001 0.91900003
13.097 1.488 0.61799997
19.426001 2.2079999 0.917
13.134 1.527 0.62
19.514999 2.2690001 0.921
13.121 1.5599999 0.61900002
19.514999 2.3199999 0.921
13.06 1.587 0.61699998
19.636999 2.3859999 0.92699999
13.057 1.6210001 0.616
19.615999 2.4360001 0.926
13.147 1.668 0.62099999
19.613001 2.4879999 0.926
19.719999 2.5550001 0.93199998
15.774 2.1719999 0.74599999
15.831 2.223 0.74800003
15.941 2.283 0.75400001
13.058 1.906 0.61699998
13.052 1.942 0.61699998
15.669 2.375 0.741
15.67 2.4189999 0.74199998
15.697 2.4679999 0.74299997
15.859 2.5380001 0.75099999
20.26 3.3010001 0.95999998
20.483 3.3959999 0.97100002
20.421 3.4449999 0.96799999
20.423 3.5039999 0.96799999
20.458 3.569 0.97000003
20.565001 3.648 0.97600001
21.684 4.1680002 1.031
21.667999 4.23 1.03
21.738001 4.309 1.034
21.754999 4.3779998 1.035
21.909 4.677 1.044
21.740999 4.7080002 1.0369999
21.725 4.7719998 1.036
21.674999 4.8280001 1.035
21.738001 4.9099998 1.038
19.719999 5.0809999 0.94700003
19.662001 5.1290002 0.94400001
19.639999 5.1869998 0.94400001
19.610001 5.243 0.94300002
19.569 5.296 0.94099998
19.624001 5.375 0.94499999
19.743999 5.473 0.95099998
12.887 3.7 0.62199998
12.798 3.717 0.61799997
12.776 3.753 0.61699998
12.773 3.7950001 0.61699998
12.819 3.8510001 0.62
12.829 3.898 0.62099999
12.781 3.9260001 0.61900002
12.756 3.961 0.61799997
12.762 4.006 0.61900002
12.831 4.072 0.62300003
14.847 5.743 0.73199999
14.794 5.7750001 0.73000002
14.874 5.8590002 0.73500001
14.896 5.9200001 0.736
10.706 -6.355 0.62
10.852 -6.4109998 0.62800002
10.707 -6.2940001 0.62
10.735 -6.2800002 0.62099999
10.743 -6.2540002 0.62199998
10.773 -6.2399998 0.62300003
10.776 -6.211 0.62300003
10.787 -6.1859999 0.62400001
10.834 -6.1810002 0.62699997
10.826 -6.145 0.62599999
10.892 -6.151 0.63
10.895 -6.1209998 0.63
10.853 -6.066 0.62800002
10.874 -6.0469999 0.62900001
10.907 -6.033 0.63099998
10.891 -5.9920001 0.63
10.93 -5.9819999 0.63200003
10.944 -5.9580002 0.63200003
10.947 -5.928 0.63300002
10.976 -5.9109998 0.634
11.01 -5.8979998 0.63599998
10.977 -5.848 0.634
11.079 -5.8049998 0.63999999
11.093 -5.7800002 0.64099997
11.068 -5.7350001 0.639
11.047 -5.6919999 0.63800001
11.068 -5.6700001 0.639
11.113 -5.6609998 0.64099997
11.111 -5.6269999 0.64099997
11.121 -5.5999999 0.64200002
11.167 -5.5900002 0.64399999
11.176 -5.5619998 0.64499998
11.205 -5.5440001 0.64600003
11.233 -5.5240002 0.648
11.232 -5.4910002 0.648
11.247 -5.4650002 0.64899999
11.284 -5.4499998 0.65100002
11.283 -5.4169998 0.65100002
11.316 -5.4000001 0.65200001
11.328 -5.3720002 0.653
11.333 -5.3410001 0.653
11.365 -5.323 0.65499997
11.37 -5.2919998 0.65499997
11.38 -5.263 0.65600002
11.405 -5.2420001 0.65700001
11.43 -5.2189999 0.65799999
11.464 -5.2010002 0.66000003
11.469 -5.1700001 0.66000003
11.506 -5.1529999 0.66299999
11.532 -5.131 0.66399997
11.538 -5.0999999 0.66399997
11.584 -5.086 0.667
11.585 -5.052 0.667
11.622 -5.0339999 0.66900003
11.646 -5.0110002 0.67000002
11.666 -4.9850001 0.671
11.666 -4.9510002 0.671
11.721 -4.9400001 0.67400002
11.743 -4.914 0.67500001
11.774 -4.8930001 0.67699999
11.784 -4.862 0.67699999
11.822 -4.8439999 0.68000001
11.837 -4.8150001 0.68000001
11.895 -4.8039999 0.68400002
11.935 -4.7849998 0.68599999
11.975 -4.7659998 0.68800002
11.984 -4.7340002 0.68800002
12.039 -4.7210002 0.69099998
12.101 -4.7090001 0.69499999
12.141 -4.6890001 0.69700003
12.168 -4.664 0.699
12.138 -4.6170001 0.69700003
12.223 -4.6139998 0.70200002
12.238 -4.5840001 0.70200002
12.361 -4.5939999 0.70899999
12.374 -4.5619998 0.70999998
12.313 -4.5029998 0.70599997
12.426 -4.5079999 0.713
12.561 -4.5209999 0.72000003
12.587 -4.493 0.722
12.627 -4.4699998 0.72399998
12.647 -4.441 0.72500002
12.67 -4.4120002 0.72600001
12.772 -4.4099998 0.73199999
12.91 -4.4200001 0.74000001
12.868 -4.368 0.73699999
12.964 -4.362 0.74299997
13.48 -4.1030002 0.77100003
13.57 -4.0910001 0.77600002
13.484 -4.026 0.77100003
13.535 -4.0019999 0.77399999
13.519 -3.9579999 0.77200001
13.559 -3.9300001 0.77499998
13.594 -3.901 0.77700001
13.58 -3.8570001 0.77600002
13.572 -3.8150001 0.77499998
13.608 -3.786 0.77700001
13.686 -3.7679999 0.78100002
13.721 -3.7379999 0.78299999
13.767 -3.71 0.78600001
13.764 -3.6689999 0.78500003
13.907 -3.6670001 0.79299998
13.97 -3.6429999 0.79699999
13.94 -3.5539999 0.79500002
13.956 -3.5179999 0.796
14.007 -3.49 0.79799998
14.037 -3.457 0.80000001
14.14 -3.4000001 0.80599999
14.18 -3.369 0.80800003
14.15 -3.3210001 0.80599999
14.205 -3.293 0.80900002
14.191 -3.2479999 0.80800003
14.257 -3.2219999 0.81199998
14.386 -3.2090001 0.81900001
14.368 -3.122 0.81699997
14.375 -3.082 0.81800002
14.467 -3.0599999 0.82300001
14.571 -2.914 0.82800001
14.632 -2.8840001 0.83099997
14.687 -2.852 0.83399999
14.684 -2.809 0.83399999
14.727 -2.7750001 0.83600003
14.728 -2.7320001 0.83600003
14.907 -2.723 0.84600002
10.649 0.103 0.528
10.666 0.113 0.528
10.652 0.123 0.52700001
10.637 0.133 0.52600002
10.65 0.14300001 0.52600002
10.647 0.154 0.52600002
10.638 0.16500001 0.52499998
10.645 0.176 0.52499998
10.629 0.18700001 0.52399999
10.651 0.199 0.52499998
10.641 0.211 0.52499998
10.677 0.22400001 0.52600002
10.71 0.237 0.52700001
10.713 0.25 0.52700001
10.742 0.264 0.52899998
10.742 0.278 0.528
10.717 0.29100001 0.52700001
10.717 0.30500001 0.52700001
10.707 0.31900001 0.52600002
10.697 0.333 0.52499998
10.686 0.347 0.52499998
10.685 0.36199999 0.52499998
10.702 0.37799999 0.52499998
10.708 0.39300001 0.52499998
10.747 0.41100001 0.52700001
10.846 0.43099999 0.53200001
12.681 0.523 0.62199998
12.675 0.542 0.62099999
12.666 0.56099999 0.62099999
12.67 0.58099997 0.62099999
12.673 0.602 0.62099999
12.678 0.62300003 0.62099999
12.679 0.64399999 0.62099999
12.69 0.66600001 0.62099999
12.732 0.68900001 0.62300003
12.814 0.71600002 0.62699997
12.896 0.74299997 0.63099998
12.907 0.76599997 0.63200003
12.902 0.78899997 0.63099998
12.877 0.81099999 0.63
12.855 0.833 0.62900001
12.829 0.85500002 0.62800002
12.78 0.875 0.625
12.745 0.89700001 0.62300003
12.714 0.91900003 0.62199998
12.712 0.94300002 0.62199998
12.71 0.96799999 0.62199998
12.715 0.99400002 0.62199998
12.733 1.02 0.62300003
12.74 1.0470001 0.62300003
12.759 1.074 0.62400001
12.781 1.102 0.625
12.775 1.128 0.625
12.821 1.159 0.62699997
12.868 1.191 0.63
12.91 1.222 0.63200003
12.945 1.253 0.634
12.942 1.281 0.63300002
20.360001 2.016 0.99699998
12.982 1.313 0.63599998
20.57 2.0810001 1.007
12.979 1.342 0.63499999
13.005 1.374 0.63700002
20.656 2.1819999 1.012
13.059 1.409 0.63999999
20.635 2.2260001 1.011
13.142 1.448 0.64399999
20.586 2.2679999 1.0089999
20.631001 2.3199999 1.011
20.635 2.368 1.011
20.657 2.4189999 1.013
20.641001 2.4649999 1.012
13.217 1.61 0.648
20.728001 2.5250001 1.017
13.177 1.636 0.64600003
20.872 2.592 1.024
15.94 2.056 0.78200001
15.795 2.076 0.77499998
15.739 2.1070001 0.773
15.726 2.145 0.77200001
15.788 2.1919999 0.77600002
15.889 2.2460001 0.78100002
15.926 2.2920001 0.78299999
15.778 2.3110001 0.77600002
15.698 2.339 0.77200001
15.673 2.3759999 0.77100003
15.664 2.415 0.77100003
15.721 2.4649999 0.77399999
20.681 3.3529999 1.02
20.664 3.405 1.0190001
20.664 3.461 1.02
21.879 3.783 1.081
21.737 3.8180001 1.074
21.756001 3.881 1.075
21.719999 3.9349999 1.074
21.677999 3.9879999 1.073
21.677 4.0489998 1.073
21.686001 4.112 1.074
21.747999 4.1849999 1.0779999
21.82 4.2620001 1.082
21.882999 4.3369999 1.086
21.972 4.4180002 1.091
21.983999 4.4840002 1.092
22.101 4.573 1.098
22.212999 4.6609998 1.104
22.226 4.73 1.1059999
22.155001 4.7810001 1.103
21.951 4.802 1.0930001
21.93 4.8639998 1.0930001
21.91 4.9260001 1.0930001
19.671 5.1599998 0.98900002
19.603001 5.2059999 0.98699999
19.587 5.2649999 0.98699999
19.573 5.3249998 0.98699999
19.563 5.3870001 0.98699999
19.695999 5.4879999 0.99400002
12.942 3.7349999 0.65499997
12.812 3.7409999 0.64899999
12.778 3.7739999 0.648
12.758 3.8110001 0.64700001
12.76 3.855 0.648
12.796 3.9100001 0.64999998
12.777 3.948 0.64999998
12.76 3.987 0.64999998
12.769 4.0339999 0.65100002
12.811 4.092 0.653
13.048 4.2129998 0.66600001
15.005 5.7729998 0.77999997
14.83 5.7610002 0.77100003
15.016 5.8899999 0.78200001
10.176 -6.684 0.62099999
10.233 -6.658 0.62400001
10.271 -6.619 0.62599999
10.321 -6.5879998 0.62800002
10.344 -6.54 0.62900001
10.395 -6.5089998 0.63200003
10.423 -6.4640002 0.63300002
10.457 -6.4229999 0.63499999
10.472 -6.3709998 0.63499999
10.531 -6.3460002 0.63800001
10.558 -6.302 0.639
10.571 -6.2490001 0.63999999
10.615 -6.2150002 0.64200002
10.646 -6.1729999 0.64300001
10.686 -6.1370001 0.64499998
10.723 -6.099 0.64700001
10.739 -6.0489998 0.64700001
10.794 -6.0219998 0.64999998
10.859 -6 0.65399998
10.904 -5.967 0.65600002
10.943 -5.9310002 0.65799999
10.92 -5.8610001 0.65600002
10.943 -5.816 0.65700001
10.966 -5.7719998 0.65799999
10.984 -5.7249999 0.65899998
11.031 -5.6939998 0.66100001
11.064 -5.6550002 0.66299999
11.109 -5.6230001 0.66500002
11.166 -5.5960002 0.66799998
11.171 -5.5440001 0.66799998
11.206 -5.507 0.67000002
11.221 -5.46 0.67000002
11.248 -5.4190001 0.671
11.298 -5.3899999 0.67400002
11.336 -5.3540001 0.676
11.375 -5.3189998 0.67799997
11.396 -5.276 0.67900002
11.421 -5.2350001 0.68000001
11.454 -5.198 0.68099999
11.52 -5.1750002 0.685
11.532 -5.1290002 0.685
11.57 -5.0939999 0.68699998
11.614 -5.0609999 0.69
11.675 -5.0370002 0.69300002
11.694 -4.994 0.69400001
11.73 -4.9580002 0.69499999
11.766 -4.9229999 0.69700003
11.81 -4.8899999 0.699
11.841 -4.8530002 0.70099998
11.883 -4.8200002 0.70300001
11.923 -4.7859998 0.70499998
12.032 -4.7800002 0.71100003
12.113 -4.7620001 0.71600002
12.162 -4.7309999 0.71799999
12.191 -4.6929998 0.72000003
12.287 -4.6799998 0.72500002
12.317 -4.6420002 0.727
12.369 -4.6129999 0.72899997
12.51 -4.6149998 0.73699999
12.514 -4.5679998 0.73699999
12.645 -4.566 0.745
12.666 -4.5250001 0.74599999
12.792 -4.5209999 0.75300002
12.824 -4.4829998 0.755
12.854 -4.4439998 0.75599998
12.98 -4.4390001 0.76300001
13.079 -4.4239998 0.76899999
13.029 -4.3590002 0.76499999
13.219 -4.3730001 0.77600002
13.508 -4.3699999 0.79299998
13.499 -4.3179998 0.792
13.583 -4.151 0.796
13.53 -4.0879998 0.79299998
13.569 -4.052 0.79500002
13.59 -4.0110002 0.796
13.645 -3.9809999 0.79900002
13.658 -3.938 0.79900002
13.651 -3.8889999 0.79799998
13.738 -3.868 0.80299997
13.813 -3.8429999 0.80699998
13.888 -3.8180001 0.81199998
13.962 -3.7920001 0.81599998
14.166 -3.7079999 0.82700002
14.204 -3.6719999 0.829
14.102 -3.6010001 0.82300001
14.153 -3.569 0.82599998
14.209 -3.5380001 0.829
14.232 -3.4990001 0.82999998
14.259 -3.461 0.83099997
14.606 -3.2349999 0.85000002
14.602 -3.1900001 0.85000002
13.059 -0.40099999 0.75599998
12.959 -0.37599999 0.75
12.9 -0.352 0.74699998
12.857 -0.33000001 0.74400002
12.854 -0.308 0.74400002
12.881 -0.28799999 0.74599999
12.975 -0.26899999 0.75099999
10.611 0.153 0.55299997
10.655 0.17299999 0.55599999
10.69 0.192 0.55699998
10.675 0.211 0.55599999
10.675 0.23100001 0.55599999
10.659 0.25 0.55500001
10.647 0.27000001 0.55400002
10.674 0.29100001 0.55599999
10.658 0.31099999 0.55500001
10.666 0.33199999 0.55500001
10.696 0.354 0.55599999
10.739 0.377 0.55800003
10.866 0.403 0.565
12.669 0.49599999 0.65899998
12.674 0.52200001 0.65899998
12.687 0.54799998 0.65899998
12.669 0.574 0.65799999
12.683 0.60100001 0.65899998
12.687 0.62900001 0.65899998
12.709 0.65700001 0.66000003
12.753 0.68699998 0.662
12.851 0.72000003 0.667
12.9 0.75099999 0.67000002
12.895 0.77899998 0.67000002
12.872 0.80699998 0.66799998
12.837 0.83399999 0.66600001
12.812 0.861 0.66500002
12.762 0.88700002 0.662
12.724 0.91399997 0.66100001
12.698 0.94099998 0.65899998
12.687 0.97000003 0.65899998
12.693 1.001 0.65899998
12.71 1.0319999 0.66000003
12.733 1.0650001 0.66100001
12.739 1.096 0.66100001
12.76 1.1289999 0.662
12.788 1.163 0.66399997
12.827 1.198 0.66600001
12.904 1.237 0.67000002
12.961 1.275 0.67299998
12.979 1.309 0.67400002
12.988 1.3430001 0.67500001
20.677 2.1389999 1.074
12.978 1.375 0.67400002
20.601 2.1830001 1.0700001
12.996 1.41 0.67500001
20.615999 2.2379999 1.071
13.061 1.451 0.67900002
20.605 2.29 1.071
13.125 1.492 0.68199998
20.628 2.346 1.072
20.614 2.398 1.072
20.646 2.4560001 1.074
20.648001 2.5109999 1.074
20.789 2.5829999 1.081
20.812 2.641 1.0829999
20.937 2.714 1.09
15.94 2.109 0.82999998
15.744 2.1259999 0.81999999
15.693 2.1619999 0.81699997
15.696 2.2049999 0.81699997
15.75 2.256 0.81999999
15.853 2.3150001 0.82599998
15.778 2.348 0.82200003
15.688 2.378 0.81800002
15.661 2.418 0.81699997
15.664 2.4630001 0.81699997
15.734 2.5190001 0.82099998
21.85 3.813 1.142
21.834 3.8740001 1.142
21.900999 3.951 1.146
21.905001 4.0159998 1.146
21.792999 4.0599999 1.141
21.872999 4.1399999 1.146
21.985001 4.2270002 1.152
22 4.296 1.153
22.054001 4.3730001 1.156
22.139 4.4559999 1.161
22.247 4.5450001 1.168
22.299999 4.6240001 1.171
22.344999 4.7020001 1.174
22.334 4.7680001 1.174
22.289 4.8270001 1.1720001
19.664 5.1300001 1.0420001
19.621 5.1830001 1.04
19.620001 5.2459998 1.041
19.577 5.2989998 1.039
19.608 5.3709998 1.041
19.774 5.4819999 1.051
12.891 3.701 0.68599999
12.798 3.717 0.68199998
12.764 3.75 0.68000001
12.752 3.789 0.68000001
12.764 3.835 0.68099999
12.781 3.8829999 0.68300003
12.782 3.927 0.68300003
12.754 3.961 0.68199998
12.764 4.007 0.68300003
12.795 4.0599999 0.685
12.925 4.1459999 0.69300002
11.026 -6.5510001 0.68900001
11.082 -6.553 0.69199997
11.105 -6.5339999 0.69400001
11.147 -6.4619999 0.69599998
11.143 -6.427 0.69599998
11.212 -6.402 0.69999999
11.241 -6.3860002 0.70200002
11.213 -6.3379998 0.69999999
11.219 -6.3080001 0.69999999
11.226 -6.2800002 0.70099998
11.222 -6.2449999 0.69999999
11.219 -6.21 0.69999999
11.238 -6.1880002 0.70099998
11.263 -6.1690001 0.70300001
11.285 -6.1479998 0.704
11.33 -6.1399999 0.70700002
11.336 -6.1100001 0.70700002
11.44 -6.132 0.713
11.487 -6.0570002 0.71600002
11.449 -6.0040002 0.71399999
11.452 -5.9720001 0.71399999
11.451 -5.9369998 0.71399999
11.475 -5.9159999 0.71499997
11.451 -5.8699999 0.713
11.464 -5.8439999 0.71399999
11.476 -5.816 0.71499997
11.521 -5.8049998 0.71799999
11.572 -5.7969999 0.72100002
11.599 -5.777 0.722
11.612 -5.7490001 0.72299999
11.637 -5.7270002 0.72399998
11.625 -5.6869998 0.72399998
11.653 -5.6669998 0.72500002
11.65 -5.631 0.72500002
11.663 -5.6030002 0.72600001
11.71 -5.5910001 0.72899997
11.732 -5.5669999 0.73000002
11.74 -5.5359998 0.73000002
11.728 -5.4959998 0.72899997
11.798 -5.4949999 0.73400003
11.808 -5.4650002 0.73400003
11.855 -5.4520001 0.73699999
11.874 -5.4250002 0.73799998
11.917 -5.4099998 0.741
11.954 -5.3920002 0.74299997
11.979 -5.368 0.74400002
11.988 -5.3369999 0.745
12.083 -5.3439999 0.75099999
12.075 -5.3049998 0.75
12.096 -5.2779999 0.75099999
12.161 -5.2709999 0.755
12.135 -5.224 0.75300002
12.201 -5.217 0.75700003
12.271 -5.21 0.76200002
12.28 -5.178 0.76200002
12.32 -5.1589999 0.764
12.308 -5.118 0.764
12.323 -5.0869999 0.764
12.363 -5.0679998 0.76700002
12.407 -5.0500002 0.76899999
12.458 -5.0339999 0.77200001
12.487 -5.0089998 0.77399999
12.584 -5.0110002 0.77999997
12.633 -4.993 0.78299999
12.659 -4.9660001 0.78399998
12.824 -4.9559999 0.79400003
12.916 -4.9530001 0.80000001
12.993 -4.9450002 0.80500001
12.837 -4.848 0.79500002
12.951 -4.8530002 0.80199999
13.016 -4.8390002 0.80599999
13.094 -4.8299999 0.81
13.159 -4.8150001 0.81400001
13.121 -4.763 0.81199998
13.102 -4.7179999 0.81
13.187 -4.7090001 0.81599998
13.453 -4.5289998 0.83099997
13.505 -4.507 0.83399999
13.504 -4.467 0.83399999
13.565 -4.448 0.838
13.585 -4.414 0.83899999
13.648 -4.395 0.84200001
13.617 -4.3449998 0.83999997
13.729 -4.3410001 0.847
13.817 -4.1669998 0.852
13.785 -4.1170001 0.85000002
13.847 -4.0960002 0.85299999
13.841 -4.053 0.85299999
13.941 -4.0419998 0.85900003
13.944 -4.0019999 0.85900003
14.052 -3.9920001 0.86500001
14.043 -3.9489999 0.86500001
14.042 -3.908 0.86500001
14.446 -3.516 0.88700002
14.512 -3.49 0.89099997
14.612 -3.4719999 0.89700001
12.956 -0.50400001 0.78399998
12.853 -0.463 0.778
12.773 -0.42300001 0.773
12.72 -0.38499999 0.76899999
12.719 -0.34900001 0.76899999
12.737 -0.31299999 0.76999998
12.85 -0.27900001 0.77700001
10.628 0.106 0.57700002
10.636 0.115 0.57700002
10.628 0.125 0.57599998
10.615 0.13500001 0.57499999
10.621 0.145 0.57499999
10.603 0.155 0.574
10.6 0.16599999 0.57300001
10.595 0.177 0.57300001
10.608 0.189 0.57300001
10.608 0.20100001 0.57300001
10.617 0.213 0.57300001
10.608 0.22499999 0.57300001
10.634 0.23800001 0.574
10.643 0.25099999 0.574
10.68 0.26499999 0.57599998
10.687 0.278 0.57599998
10.699 0.292 0.57700002
10.687 0.30599999 0.57599998
10.687 0.31999999 0.57599998
10.686 0.33399999 0.57499999
10.694 0.34900001 0.57599998
10.692 0.36399999 0.57499999
10.697 0.37900001 0.57499999
10.709 0.39500001 0.57599998
10.779 0.41299999 0.57999998
10.849 0.43200001 0.583
12.825 0.53100002 0.68900001
12.821 0.55000001 0.68900001
12.826 0.56999999 0.68900001
12.823 0.58999997 0.68900001
12.819 0.611 0.68800002
12.839 0.63300002 0.68900001
12.864 0.65499997 0.69099998
12.905 0.67900002 0.69300002
12.925 0.70200002 0.69400001
12.927 0.72399998 0.69400001
12.914 0.74599999 0.69300002
12.919 0.76899999 0.69300002
12.896 0.79000002 0.69199997
12.877 0.81199998 0.69099998
12.846 0.83399999 0.68900001
12.834 0.85699999 0.68900001
12.783 0.87699997 0.68599999
12.733 0.898 0.68300003
12.711 0.92000002 0.68199998
12.708 0.94499999 0.68199998
12.706 0.96899998 0.68199998
12.72 0.995 0.68199998
12.729 1.021 0.68300003
12.742 1.048 0.68400002
12.782 1.077 0.68599999
12.8 1.105 0.68699998
12.829 1.1339999 0.68800002
12.864 1.164 0.69
12.89 1.194 0.69199997
12.901 1.222 0.69300002
20.85 1.976 1.12
12.927 1.253 0.69400001
20.875 2.023 1.1210001
12.953 1.283 0.69599998
20.823999 2.063 1.118
12.978 1.314 0.69700003
20.952 2.122 1.125
12.97 1.342 0.69700003
20.892 2.1619999 1.122
12.984 1.373 0.69800001
21.357 2.2579999 1.148
12.996 1.403 0.69800001
21.200001 2.289 1.1390001
13.04 1.437 0.70099998
21.096001 2.326 1.1339999
13.147 1.479 0.70700002
21.143 2.3789999 1.137
21.09 2.4219999 1.1339999
21.202 2.484 1.141
21.584 2.579 1.161
21.659 2.6400001 1.166
21.888 2.72 1.178
21.893 2.773 1.179
15.957 2.0599999 0.85900003
22.094 2.852 1.1900001
15.707 2.0650001 0.84600002
15.657 2.0969999 0.84399998
15.64 2.1340001 0.84299999
15.651 2.174 0.84399998
15.701 2.221 0.847
15.777 2.2709999 0.85100001
15.733 2.3050001 0.84899998
15.684 2.3380001 0.847
15.655 2.3740001 0.84600002
15.652 2.414 0.84600002
15.688 2.461 0.84799999
15.8 2.52 0.85500002
22.496 3.589 1.217
22.327999 3.6210001 1.2079999
22.278 3.6719999 1.206
22.289 3.734 1.207
22.242001 3.786 1.205
22.162001 3.8329999 1.202
22.101999 3.8829999 1.199
22.127001 3.9489999 1.201
22.125 4.0100002 1.201
22.198 4.085 1.206
22.274 4.1609998 1.211
22.320999 4.2329998 1.214
22.332001 4.2989998 1.215
22.235001 4.3439999 1.211
22.403 4.441 1.22
22.489 4.5229998 1.226
22.493999 4.5890002 1.227
22.531 4.6630001 1.23
22.468 4.7160001 1.227
22.414 4.7709999 1.225
22.455999 4.8460002 1.228
19.805 5.1960001 1.095
19.635 5.2150002 1.086
19.622 5.2750001 1.086
19.591999 5.3309999 1.085
19.618 5.402 1.0880001
12.864 3.7130001 0.71600002
12.766 3.7279999 0.71100003
12.757 3.7679999 0.71100003
12.757 3.8110001 0.71100003
12.754 3.8540001 0.71200001
12.759 3.8989999 0.713
12.752 3.941 0.713
12.757 3.9860001 0.71399999
12.769 4.0339999 0.71499997
12.82 4.0949998 0.71899998
12.971 4.1890001 0.72799999
17.429001 5.7509999 0.98000002
17.323 5.777 0.97500002
10.514 -6.9039998 0.69099998
10.573 -6.8769999 0.69400001
10.586 -6.8200002 0.69400001
10.645 -6.7930002 0.69800001
10.69 -6.756 0.69999999
10.735 -6.7199998 0.70200002
10.788 -6.6890001 0.70499998
10.817 -6.6440001 0.70700002
10.85 -6.5999999 0.708
10.884 -6.5570002 0.70999998
10.908 -6.5089998 0.71100003
10.94 -6.4660001 0.71200001
10.971 -6.4219999 0.71399999
10.998 -6.3759999 0.71499997
11.037 -6.3369999 0.71700001
11.075 -6.2979999 0.71899998
11.114 -6.2600002 0.72100002
11.163 -6.2270002 0.72399998
11.226 -6.2020001 0.727
11.283 -6.1729999 0.73100001
11.316 -6.132 0.73199999
11.309 -6.0689998 0.73100001
11.333 -6.0219998 0.73199999
11.358 -5.9770002 0.73400003
11.367 -5.9239998 0.73400003
11.417 -5.8920002 0.736
11.452 -5.8530002 0.73799998
11.494 -5.8169999 0.74000001
11.538 -5.7820001 0.74299997
11.549 -5.7309999 0.74299997
11.623 -5.711 0.74699998
11.627 -5.6570001 0.74699998
11.635 -5.605 0.74699998
11.683 -5.572 0.75
11.752 -5.5500002 0.75400001
11.797 -5.5159998 0.75599998
11.854 -5.487 0.75999999
11.876 -5.4429998 0.76099998
11.943 -5.4190001 0.76499999
11.973 -5.3779998 0.76599997
12.025 -5.348 0.76899999
12.084 -5.3189998 0.77200001
12.098 -5.2719998 0.773
12.167 -5.2480001 0.77700001
12.241 -5.2270002 0.78100002
12.317 -5.2059999 0.78600001
12.317 -5.152 0.78500003
12.369 -5.1209998 0.78799999
12.421 -5.0900002 0.79100001
12.468 -5.0570002 0.79400003
12.519 -5.0250001 0.79699999
12.586 -5 0.801
12.701 -4.993 0.80800003
12.798 -4.9780002 0.81300002
12.858 -4.9499998 0.81699997
12.925 -4.9229999 0.82099998
13.004 -4.901 0.82499999
13.036 -4.8610001 0.82700002
13.103 -4.8340001 0.83099997
13.243 -4.8330002 0.83999997
13.228 -4.777 0.838
13.273 -4.7410002 0.84100002
13.29 -4.6960001 0.84200001
13.521 -4.7259998 0.85600001
13.589 -4.698 0.86000001
13.58 -4.6440001 0.85900003
13.661 -4.6199999 0.86400002
13.636 -4.5609999 0.86199999
13.626 -4.5079999 0.861
13.707 -4.4840002 0.866
13.741 -4.4450002 0.86799997
13.767 -4.4029999 0.86900002
13.824 -4.3720002 0.87199998
13.851 -4.3309999 0.87400001
14.067 -4.2989998 0.88700002
13.948 -4.2140002 0.87900001
13.925 -4.158 0.87699997
14.013 -4.1360002 0.88200003
14.094 -4.1110001 0.88700002
14.245 -4.1069999 0.89600003
14.238 -4.0560002 0.89600003
14.336 -3.941 0.90100002
14.376 -3.904 0.903
14.55 -3.809 0.91399997
14.67 -3.793 0.921
12.958 -0.41999999 0.80599999
12.849 -0.39399999 0.79900002
12.746 -0.37 0.79299998
12.693 -0.347 0.79000002
12.664 -0.32499999 0.78799999
12.655 -0.30399999 0.78799999
12.659 -0.28299999 0.78799999
12.663 -0.26199999 0.78799999
12.714 -0.243 0.79100001
12.847 -0.22499999 0.80000001
10.553 0.154 0.60000002
10.578 0.17299999 0.60100001
10.62 0.193 0.60399997
10.639 0.212 0.60500002
