# .PCD v0.7 - Point Cloud Data file format
VERSION 0.7
FIELDS x y z
SIZE 4 4 4
TYPE F F F
COUNT 1 1 1
WIDTH 1908
HEIGHT 1
VIEWPOINT 0 0 0 1 0 0 0
POINTS 1908
DATA ascii
12.839 -7.875 1.609
12.936 -7.8590002 1.62
13.031 -7.8410001 1.631
13.121 -7.8210001 1.641
13.236 -7.8140001 1.654
13.354 -7.8080001 1.6670001
14.991 -6.8660002 1.84
14.969 -6.7880001 1.836
15.168 -6.8099999 1.859
15.513 -6.4200001 1.893
15.511 -6.3540001 1.892
15.639 -6.3400002 1.906
15.842 -6.3559999 1.9299999
22.127001 -5.5809999 2.652
22.125 -5.5100002 2.651
22.301001 -5.4840002 2.671
22.225 -5.3270001 2.661
22.181999 -5.2490001 2.655
9.8120003 -2.2320001 1.173
9.7939997 -2.198 1.171
9.8620005 -2.184 1.178
9.8950005 -2.1619999 1.182
9.8199997 -2.1170001 1.173
9.7910004 -2.082 1.169
9.7659998 -2.0480001 1.166
9.7659998 -2.02 1.165
9.7700005 -1.993 1.166
9.7790003 -1.967 1.166
9.8190002 -1.947 1.171
9.8540001 -1.926 1.175
9.8649998 -1.901 1.176
9.9110003 -1.882 1.181
10.005 -1.872 1.192
10.134 -1.813 1.207
10.071 -1.775 1.199
10.099 -1.753 1.202
22.507 -3.6099999 2.677
22.365999 -3.53 2.6600001
22.367001 -3.473 2.6589999
22.312 -3.4070001 2.652
22.294001 -3.348 2.6500001
22.389 -3.306 2.661
22.452 -2.665 2.664
22.382999 -2.605 2.655
22.360001 -2.5510001 2.652
22.365999 -2.5 2.6530001
22.318001 -2.444 2.6470001
22.237 -2.385 2.6370001
22.174 -2.329 2.6289999
22.117001 -2.273 2.622
22.084999 -2.221 2.618
22.077999 -2.1719999 2.6170001
22.104 -2.1259999 2.6199999
12.092 -1.137 1.433
22.190001 -2.0869999 2.6300001
11.987 -1.101 1.42
11.939 -1.071 1.415
11.953 -1.0470001 1.416
11.927 -1.02 1.413
11.932 -0.995 1.413
11.916 -0.96899998 1.411
11.935 -0.94599998 1.414
11.958 -0.92299998 1.416
11.96 -0.89899999 1.416
11.976 -0.87599999 1.418
12.007 -0.85399997 1.4220001
12.037 -0.83200002 1.425
12.041 -0.80800003 1.426
12.067 -0.78600001 1.429
12.106 -0.76499999 1.433
12.156 -0.74400002 1.439
12.185 -0.72299999 1.443
12.222 -0.70099998 1.447
12.306 -0.68300003 1.457
13.364 0.221 1.5779999
13.366 0.244 1.5779999
13.354 0.26699999 1.576
13.348 0.29100001 1.575
13.329 0.315 1.573
13.32 0.33899999 1.572
13.322 0.36399999 1.572
13.293 0.38800001 1.568
13.298 0.41299999 1.568
13.29 0.43900001 1.567
13.289 0.46399999 1.567
13.28 0.49000001 1.566
13.302 0.51700002 1.569
13.332 0.54500002 1.572
13.411 0.57599998 1.581
23.179001 3.029 2.753
23.129999 3.085 2.7479999
23.118999 3.1459999 2.7479999
23.173 3.2160001 2.756
23.238001 3.2880001 2.7639999
12.046 2.1129999 1.441
23.330999 4.092 2.7920001
11.879 2.118 1.4220001
23.333 4.1609998 2.7939999
11.86 2.1489999 1.421
11.851 2.1819999 1.42
11.819 2.211 1.4170001
11.803 2.243 1.416
11.77 2.2720001 1.413
11.737 2.3010001 1.41
11.754 2.339 1.413
11.83 2.3900001 1.423
15.593 -6.6729999 1.956
15.477 -6.5780001 1.941
15.524 -6.5510001 1.946
15.589 -6.5320001 1.954
15.72 -6.54 1.97
15.884 -6.5609999 1.99
22.254 -5.4310002 2.7509999
22.24 -5.362 2.7490001
22.261 -5.302 2.7509999
22.158001 -5.1469998 2.7360001
22.143999 -5.079 2.734
9.8260002 -2.1670001 1.212
9.7989998 -2.132 1.2079999
9.8800001 -2.1210001 1.2180001
9.9209995 -2.1010001 1.223
9.8369999 -2.0539999 1.212
9.8059998 -2.0190001 1.2079999
9.7819996 -1.985 1.205
9.776 -1.955 1.204
9.7819996 -1.928 1.204
9.7930002 -1.901 1.205
9.8269997 -1.8789999 1.209
9.8620005 -1.857 1.2130001
9.8929996 -1.834 1.216
9.974 -1.8200001 1.226
10.259 -1.842 1.261
10.1 -1.755 1.2410001
10.081 -1.722 1.238
10.192 -1.711 1.251
22.521 -3.5179999 2.7620001
22.330999 -3.4230001 2.7379999
22.309999 -3.355 2.7349999
22.32 -3.2920001 2.7349999
22.361 -3.233 2.74
22.379999 -2.714 2.7360001
22.379 -2.6489999 2.7349999
22.362 -2.582 2.7320001
22.228001 -2.5020001 2.7149999
22.122 -2.425 2.7019999
22.065001 -2.355 2.694
22.055 -2.29 2.6919999
11.957 -1.207 1.459
22.157 -2.2360001 2.704
11.902 -1.166 1.452
11.921 -1.1339999 1.4529999
11.909 -1.098 1.452
11.905 -1.063 1.451
11.932 -1.031 1.454
11.948 -0.99699998 1.455
11.976 -0.96499997 1.4579999
11.997 -0.93199998 1.46
12.047 -0.90100002 1.466
12.112 -0.87 1.473
12.148 -0.838 1.477
12.22 -0.80699998 1.4859999
23.246 3.3110001 2.8099999
23.256001 3.3699999 2.812
23.259001 3.4300001 2.8139999
23.226999 3.484 2.812
23.259001 3.549 2.8169999
23.283001 3.6129999 2.822
23.365 3.687 2.8329999
12.044 2.2260001 1.47
11.909 2.234 1.454
11.806 2.2479999 1.443
11.735 2.2679999 1.4349999
11.715 2.2969999 1.434
11.701 2.3280001 1.433
11.731 2.368 1.438
11.808 2.4170001 1.448
12.361 -8.1059999 1.617
12.417 -8.066 1.623
12.476 -8.0270004 1.6289999
12.531 -7.9860001 1.635
12.602 -7.9549999 1.642
12.697 -7.9380002 1.653
12.779 -7.914 1.663
12.865 -7.8909998 1.6720001
12.938 -7.8600001 1.6799999
13.051 -7.8540001 1.694
13.176 -7.8530002 1.7079999
15.71 -6.5019999 1.988
15.597 -6.3889999 1.972
15.704 -6.3670001 1.985
15.887 -6.375 2.007
9.7889996 -2.227 1.2130001
9.7840004 -2.1960001 1.212
9.8739996 -2.187 1.223
9.8859997 -2.1600001 1.224
9.8140001 -2.1159999 1.215
9.8050003 -2.085 1.214
9.7720003 -2.05 1.209
9.7550001 -2.0179999 1.207
9.7600002 -1.9910001 1.207
9.7749996 -1.966 1.209
9.8079996 -1.9450001 1.2130001
9.8319998 -1.9220001 1.215
9.8570004 -1.899 1.2180001
9.9119997 -1.882 1.225
10.024 -1.876 1.238
10.183 -1.849 1.257
10.079 -1.803 1.244
10.071 -1.775 1.243
10.15 -1.761 1.253
22.444 -3.484 2.767
22.337 -3.411 2.753
22.316 -3.3510001 2.75
22.312 -3.2939999 2.7490001
22.294001 -3.2360001 2.7460001
22.298 -3.181 2.7460001
22.311001 -3.128 2.7479999
22.375999 -3.082 2.7550001
22.393 -2.605 2.7539999
22.357 -2.55 2.7490001
22.368999 -2.5 2.75
22.378 -2.45 2.7509999
22.348 -2.3959999 2.747
22.287001 -2.3399999 2.74
22.236 -2.2850001 2.733
22.162001 -2.2279999 2.724
22.145 -2.178 2.721
11.95 -1.149 1.4680001
22.197001 -2.135 2.727
11.893 -1.118 1.461
11.895 -1.092 1.461
11.89 -1.066 1.46
11.9 -1.0420001 1.462
11.908 -1.017 1.462
11.919 -0.99299997 1.464
11.921 -0.96899998 1.464
11.923 -0.94400001 1.464
11.958 -0.92199999 1.4680001
11.968 -0.89899999 1.469
11.97 -0.875 1.47
11.987 -0.852 1.472
12.022 -0.82999998 1.476
12.044 -0.80800003 1.478
12.068 -0.78600001 1.4809999
12.11 -0.76499999 1.4859999
12.155 -0.74400002 1.492
12.188 -0.722 1.4960001
12.259 -0.70300001 1.505
13.377 0.223 1.643
13.409 0.24699999 1.647
13.425 0.271 1.648
13.397 0.294 1.645
13.427 0.31900001 1.648
13.45 0.34400001 1.651
13.447 0.36899999 1.65
12.049 2.256 1.5039999
11.85 2.253 1.48
11.76 2.2709999 1.469
11.704 2.2950001 1.4630001
11.694 2.329 1.4630001
11.714 2.368 1.466
11.822 2.425 1.4809999
19.112 -7.0430002 2.473
19.021999 -6.9530001 2.461
19.084 -6.9190001 2.4679999
9.8260002 -2.1670001 1.256
9.7930002 -2.131 1.251
9.8719997 -2.119 1.261
9.8809996 -2.092 1.262
9.8369999 -2.0539999 1.256
9.8140001 -2.02 1.253
9.7950001 -1.988 1.25
9.7690001 -1.954 1.2460001
9.7770004 -1.927 1.247
9.783 -1.9 1.247
9.8109999 -1.876 1.25
9.8339996 -1.852 1.253
9.8789997 -1.831 1.258
9.9630003 -1.818 1.2690001
10.198 -1.831 1.299
10.169 -1.796 1.294
10.082 -1.751 1.283
10.097 -1.724 1.285
10.331 -1.734 1.314
22.378 -3.365 2.842
22.299 -3.2880001 2.8310001
22.285999 -3.221 2.829
22.274 -3.154 2.8269999
22.299999 -3.0929999 2.829
22.323 -3.0309999 2.8310001
22.316999 -2.9649999 2.8299999
22.371 -2.9070001 2.836
22.403999 -2.7149999 2.8380001
22.379 -2.6470001 2.8340001
22.392 -2.5840001 2.835
22.344999 -2.513 2.8280001
22.336 -2.447 2.826
22.282 -2.3759999 2.8180001
11.995 -1.244 1.516
22.267 -2.3099999 2.8150001
11.872 -1.197 1.501
11.861 -1.161 1.499
11.879 -1.1289999 1.501
11.896 -1.096 1.502
11.903 -1.062 1.503
11.924 -1.029 1.505
11.956 -0.99699998 1.5089999
11.986 -0.96499997 1.512
12.015 -0.93199998 1.515
12.053 -0.89999998 1.5190001
12.122 -0.87 1.528
12.181 -0.83899999 1.535
12.355 -0.815 1.556
11.984 2.2490001 1.522
11.811 2.25 1.501
11.752 2.2720001 1.495
11.71 2.2969999 1.4910001
11.712 2.3310001 1.492
11.673 2.3570001 1.488
11.703 2.3970001 1.493
11.84 2.4590001 1.512
12.461 -8.1719999 1.688
12.539 -8.1450005 1.697
12.609 -8.1129999 1.705
12.692 -8.0880003 1.715
12.777 -8.0649996 1.725
12.87 -8.0469999 1.7359999
12.984 -8.0410004 1.75
19.202 -6.9330001 2.5
18.993999 -6.7839999 2.4719999
19.082001 -6.7420001 2.4820001
9.8109999 -2.2320001 1.2589999
9.7749996 -2.194 1.2539999
9.8549995 -2.1830001 1.2640001
9.8730001 -2.158 1.266
9.8240004 -2.118 1.26
9.8079996 -2.086 1.257
9.7679996 -2.049 1.252
9.7580004 -2.0179999 1.25
9.7629995 -1.9910001 1.251
9.7690001 -1.965 1.251
9.7889996 -1.941 1.253
9.8170004 -1.919 1.257
9.8400002 -1.896 1.2589999
9.8990002 -1.88 1.267
9.9619999 -1.864 1.274
10.174 -1.876 1.301
10.145 -1.8430001 1.2970001
10.082 -1.804 1.289
10.09 -1.778 1.29
10.217 -1.773 1.306
22.344 -3.299 2.8510001
22.299999 -3.2360001 2.845
22.292 -3.1800001 2.8429999
22.294001 -3.125 2.8429999
22.309999 -3.073 2.845
22.311001 -3.0179999 2.8440001
22.33 -2.967 2.846
22.332001 -2.9130001 2.846
22.382999 -2.8659999 2.852
22.466 -2.8239999 2.8629999
22.478001 -2.7190001 2.8629999
22.459 -2.664 2.8599999
22.389999 -2.6040001 2.8510001
22.399 -2.5539999 2.852
22.407 -2.503 2.8529999
22.410999 -2.4530001 2.8529999
22.437 -2.405 2.8559999
22.457001 -2.3570001 2.858
22.42 -2.303 2.8529999
22.479 -2.2590001 2.8610001
11.95 -1.149 1.52
11.893 -1.117 1.513
11.866 -1.089 1.5089999
11.883 -1.0650001 1.511
11.905 -1.0420001 1.5140001
11.908 -1.017 1.5140001
11.917 -0.99299997 1.515
11.921 -0.96799999 1.516
11.922 -0.94400001 1.516
11.943 -0.921 1.518
11.969 -0.898 1.522
11.978 -0.875 1.523
12.005 -0.852 1.526
12.023 -0.82999998 1.528
12.056 -0.80800003 1.5319999
12.092 -0.78600001 1.5369999
12.124 -0.76499999 1.541
12.182 -0.745 1.548
12.222 -0.72299999 1.553
11.865 2.257 1.54
11.788 2.2780001 1.531
11.733 2.302 1.524
11.712 2.3329999 1.523
11.678 2.362 1.5190001
11.708 2.4030001 1.524
11.914 2.4820001 1.552
18.99 -7.0009999 2.543
18.933001 -6.9239998 2.5350001
18.962 -6.8779998 2.539
19.207001 -6.9089999 2.5710001
9.802 -2.1619999 1.296
9.79 -2.131 1.294
9.835 -2.112 1.3
9.8459997 -2.085 1.301
9.816 -2.05 1.2970001
9.802 -2.0179999 1.295
9.7819996 -1.985 1.2920001
9.7659998 -1.9529999 1.289
9.7489996 -1.921 1.2869999
9.7770004 -1.898 1.29
9.8079996 -1.876 1.294
9.8400002 -1.853 1.298
9.8760004 -1.831 1.302
9.9460001 -1.8150001 1.311
10.097 -1.813 1.33
10.092 -1.7819999 1.33
10.08 -1.751 1.327
10.174 -1.737 1.339
22.393 -3.3 2.9419999
22.374001 -3.2320001 2.9389999
22.337999 -3.1619999 2.9330001
22.329 -3.096 2.9319999
22.32 -3.029 2.9300001
22.332001 -2.9660001 2.9300001
22.368999 -2.905 2.934
22.405001 -2.845 2.938
22.378 -2.776 2.934
22.388 -2.7119999 2.934
22.381001 -2.6459999 2.9330001
22.407 -2.5840001 2.9349999
22.459999 -2.5250001 2.941
12.034 -1.247 1.574
11.871 -1.196 1.553
11.869 -1.161 1.552
11.896 -1.1289999 1.5549999
11.895 -1.094 1.554
11.904 -1.061 1.5549999
11.922 -1.028 1.557
11.949 -0.995 1.5599999
11.987 -0.963 1.5650001
12.02 -0.93099999 1.568
12.082 -0.90100002 1.576
12.145 -0.87 1.584
12.224 -0.83999997 1.594
11.996 2.286 1.584
11.884 2.2980001 1.5700001
11.791 2.3139999 1.559
11.732 2.336 1.552
11.716 2.3659999 1.551
11.719 2.401 1.553
11.813 2.4549999 1.567
12.515 -8.2080002 1.7539999
12.587 -8.177 1.763
12.666 -8.1499996 1.772
12.727 -8.1110001 1.779
12.836 -8.1029997 1.793
12.954 -8.1000004 1.807
13.062 -8.0900002 1.821
13.403 -8.066 1.864
13.388 -7.9809999 1.86
13.477 -7.9569998 1.8710001
19.289 -6.9650002 2.598
19.018 -6.7930002 2.5599999
19.101999 -6.75 2.5699999
9.8920002 -2.25 1.313
9.7790003 -2.1949999 1.298
9.7819996 -2.1670001 1.298
9.8269997 -2.148 1.304
9.8249998 -2.118 1.303
9.7969999 -2.0829999 1.299
9.7740002 -2.05 1.296
9.7419996 -2.0150001 1.291
9.7440004 -1.988 1.291
9.7629995 -1.964 1.293
9.79 -1.941 1.2970001
9.816 -1.919 1.3
9.823 -1.892 1.3
9.8669996 -1.873 1.306
9.9119997 -1.855 1.312
10.035 -1.85 1.3279999
10.099 -1.834 1.336
10.068 -1.801 1.331
10.108 -1.781 1.336
22.423 -2.924 2.9560001
22.412001 -2.869 2.954
22.441999 -2.8199999 2.9579999
22.454 -2.7679999 2.9590001
22.462999 -2.717 2.96
22.49 -2.6670001 2.9630001
22.509001 -2.6170001 2.9649999
22.426001 -2.556 2.954
22.431 -2.5050001 2.954
22.445 -2.4560001 2.9549999
12.005 -1.153 1.58
11.91 -1.118 1.567
11.895 -1.091 1.5650001
11.891 -1.0650001 1.564
11.9 -1.041 1.5650001
11.907 -1.016 1.566
11.921 -0.99199998 1.568
11.921 -0.96799999 1.568
11.937 -0.94400001 1.5700001
11.962 -0.921 1.573
11.976 -0.898 1.575
11.997 -0.875 1.577
12.028 -0.85299999 1.581
12.053 -0.83099997 1.585
12.098 -0.81 1.591
12.131 -0.78799999 1.595
12.177 -0.76700002 1.601
12.236 -0.74699998 1.608
11.99 2.3180001 1.6160001
11.813 2.319 1.5930001
11.747 2.3410001 1.585
11.769 2.381 1.589
11.787 2.4200001 1.592
14.929 -7.118 2.0840001
14.831 -7.026 2.0699999
14.886 -7.0079999 2.0769999
19.155001 -7.0650001 2.6530001
19.079 -6.98 2.641
9.8140001 -2.165 1.342
9.7810001 -2.1289999 1.337
9.7840004 -2.1010001 1.337
9.8210001 -2.0799999 1.342
9.8179998 -2.05 1.341
9.7819996 -2.0139999 1.336
9.7690001 -1.983 1.334
9.7670002 -1.954 1.3329999
9.7580004 -1.923 1.331
9.7860003 -1.9 1.335
9.8039999 -1.875 1.337
9.8439999 -1.854 1.342
9.8789997 -1.831 1.346
9.9390001 -1.813 1.354
10.061 -1.806 1.3710001
10.079 -1.78 1.373
10.098 -1.7539999 1.375
22.462 -2.654 3.043
22.48 -2.5910001 3.0439999
11.917 -1.2 1.6109999
11.873 -1.161 1.605
11.894 -1.128 1.607
11.892 -1.0930001 1.6059999
11.913 -1.0599999 1.609
11.933 -1.027 1.6109999
11.96 -0.995 1.614
12.001 -0.963 1.619
12.037 -0.93099999 1.624
12.093 -0.89999998 1.631
12.179 -0.87099999 1.642
11.929 2.342 1.636
11.861 2.362 1.628
11.858 2.3959999 1.6289999
11.985 2.4560001 1.648
12.491 -8.1929998 1.809
12.572 -8.1669998 1.819
12.645 -8.1370001 1.8279999
12.736 -8.1169996 1.84
12.831 -8.1000004 1.852
12.928 -8.0839996 1.864
14.941 -6.9829998 2.1070001
14.9 -6.895 2.0999999
9.9700003 -2.2679999 1.368
9.783 -2.1960001 1.342
9.7600002 -2.1619999 1.3380001
9.7770004 -2.1370001 1.34
9.7980003 -2.112 1.3430001
9.7790003 -2.0799999 1.34
9.7679996 -2.049 1.3380001
9.7740002 -2.0220001 1.339
9.7740002 -1.994 1.3380001
9.7589998 -1.9630001 1.336
9.783 -1.9400001 1.339
9.8000002 -1.916 1.341
9.8290005 -1.8940001 1.344
9.8760004 -1.875 1.351
9.8950005 -1.851 1.353
9.9820004 -1.84 1.364
10.028 -1.821 1.37
10.041 -1.796 1.372
10.134 -1.785 1.3839999
11.99 -1.125 1.63
11.938 -1.095 1.623
11.934 -1.069 1.622
11.922 -1.0420001 1.62
11.94 -1.018 1.623
11.933 -0.99299997 1.622
11.953 -0.96899998 1.624
11.972 -0.94599998 1.627
11.989 -0.92299998 1.6289999
12.006 -0.89999998 1.631
12.019 -0.87599999 1.633
12.044 -0.85399997 1.636
12.073 -0.83200002 1.64
12.118 -0.81099999 1.646
12.213 -0.79299998 1.659
19.715 -6.8039999 2.8139999
19.743999 -6.7550001 2.8180001
19.989 -6.7789998 2.852
9.8950005 -2.1830001 1.397
9.7709999 -2.1270001 1.3789999
9.7550001 -2.095 1.377
9.7709999 -2.069 1.3789999
9.7930002 -2.0450001 1.381
9.7709999 -2.0120001 1.378
9.7930002 -1.988 1.381
9.802 -1.961 1.382
9.8039999 -1.932 1.381
9.8000002 -1.903 1.381
9.8009996 -1.874 1.38
9.8319998 -1.851 1.3839999
9.8710003 -1.83 1.3890001
9.9020004 -1.806 1.393
9.9860001 -1.7920001 1.405
10.016 -1.768 1.409
10.062 -1.747 1.415
12.083 -1.215 1.687
11.953 -1.1670001 1.668
11.929 -1.13 1.665
11.932 -1.096 1.664
11.935 -1.061 1.664
11.987 -1.031 1.671
12.004 -0.99699998 1.673
12.021 -0.96399999 1.675
12.057 -0.93199998 1.679
12.191 -0.90700001 1.698
12.435 -8.1560001 1.86
12.513 -8.1289997 1.87
12.588 -8.1000004 1.8789999
12.665 -8.073 1.8890001
12.741 -8.0439997 1.899
12.846 -8.033 1.913
12.96 -8.0279999 1.928
19.67 -6.6539998 2.819
19.834999 -6.6360002 2.8410001
9.7609997 -2.191 1.382
9.7209997 -2.1530001 1.376
9.7399998 -2.128 1.378
9.7659998 -2.105 1.382
9.757 -2.075 1.38
9.7629995 -2.0480001 1.381
9.8079996 -2.029 1.387
9.823 -2.0039999 1.388
9.8100004 -1.973 1.386
9.8050003 -1.944 1.385
9.8039999 -1.916 1.385
9.8269997 -1.893 1.388
9.8549995 -1.8710001 1.391
9.8730001 -1.847 1.393
9.9510002 -1.834 1.404
9.9949999 -1.8150001 1.41
10.013 -1.791 1.4119999
10.104 -1.78 1.425
12.113 -1.084 1.7
12.049 -1.053 1.6900001
12.036 -1.026 1.689
12 -0.99800003 1.683
12.008 -0.97299999 1.684
12.013 -0.949 1.6849999
12.029 -0.92500001 1.687
12.039 -0.90100002 1.688
12.041 -0.87699997 1.689
12.072 -0.85500002 1.693
12.141 -0.83499998 1.702
19.181999 -7.0819998 2.8310001
19.040001 -6.9720001 2.8099999
19.083 -6.9310002 2.8150001
19.676001 -6.8520002 2.8989999
19.622999 -6.7750001 2.891
19.695 -6.7410002 2.9000001
19.882 -6.7459998 2.927
9.9709997 -2.2 1.4529999
9.7550001 -2.1240001 1.421
9.7209997 -2.0880001 1.416
9.7259998 -2.0599999 1.416
9.7589998 -2.0380001 1.42
9.7559996 -2.0090001 1.42
9.7620001 -1.9809999 1.42
9.79 -1.9579999 1.424
9.7889996 -1.929 1.423
9.7980003 -1.902 1.424
9.783 -1.8710001 1.4220001
9.8260002 -1.85 1.427
9.849 -1.825 1.4299999
9.8699999 -1.8 1.433
9.9350004 -1.783 1.442
9.9989996 -1.765 1.451
10.031 -1.7410001 1.455
10.281 -1.755 1.4910001
12.067 -1.107 1.737
12.005 -1.066 1.727
12.017 -1.0319999 1.728
12.042 -0.99900001 1.7309999
12.065 -0.96600002 1.734
12.183 -0.94 1.751
12.4 -8.1339998 1.913
12.476 -8.1059999 1.923
12.539 -8.0699997 1.931
12.599 -8.0319996 1.938
12.698 -8.0179996 1.952
12.821 -8.0190001 1.969
12.943 -8.0179996 1.9859999
19.051001 -6.8070002 2.822
19.118999 -6.757 2.8310001
19.723 -6.6729999 2.915
19.889 -6.6550002 2.938
9.7740002 -2.194 1.427
9.7069998 -2.1500001 1.4170001
9.7159996 -2.1229999 1.418
9.7299995 -2.098 1.42
9.7530003 -2.0739999 1.423
9.7340002 -2.0420001 1.42
9.7349997 -2.0139999 1.42
9.7530003 -1.989 1.4220001
9.7840004 -1.9680001 1.426
9.7860003 -1.9400001 1.426
9.8120003 -1.918 1.429
9.8170004 -1.891 1.4299999
9.8459997 -1.869 1.434
9.8640003 -1.845 1.436
9.9359999 -1.831 1.446
9.9759998 -1.812 1.452
10.016 -1.791 1.457
10.165 -1.791 1.479
12.139 -1.008 1.756
12.088 -0.97899997 1.749
12.067 -0.95200002 1.745
12.067 -0.92699999 1.745
12.113 -0.90600002 1.752
12.184 -0.88700002 1.762
19.139 -7.0689998 2.9119999
19.017 -6.967 2.8929999
19.051001 -6.9229999 2.898
19.221001 -6.927 2.9230001
21.704 -7.3670001 3.2950001
21.719 -7.3070002 3.296
9.8050003 -2.135 1.472
9.7259998 -2.089 1.46
9.7180004 -2.059 1.459
9.7399998 -2.0350001 1.462
9.7399998 -2.006 1.461
9.7340002 -1.976 1.46
9.7370005 -1.948 1.46
9.757 -1.923 1.462
9.7740002 -1.898 1.465
9.7849998 -1.8710001 1.466
9.8190002 -1.849 1.471
9.8369999 -1.823 1.473
9.8769999 -1.802 1.478
9.9320002 -1.7819999 1.4859999
9.9689999 -1.76 1.4910001
10.041 -1.743 1.502
12.187 -1.117 1.808
12.12 -1.075 1.798
12.092 -1.038 1.793
12.161 -1.008 1.803
12.453 -8.1700001 1.98
12.533 -8.1440001 1.9910001
12.615 -8.1199999 2.0020001
12.706 -8.1000004 2.0150001
12.822 -8.0970001 2.0309999
12.975 -8.1160002 2.0539999
19.229 -6.8709998 2.9349999
19.283001 -6.8169999 2.9430001
9.8319998 -2.207 1.48
9.7270002 -2.155 1.4630001
9.7040005 -2.1210001 1.46
9.7189999 -2.095 1.462
9.7089996 -2.0650001 1.46
9.7089996 -2.036 1.459
9.7209997 -2.0109999 1.461
9.7320004 -1.985 1.462
9.7469997 -1.96 1.464
9.7779999 -1.939 1.4680001
9.7919998 -1.914 1.47
9.8059998 -1.8890001 1.472
9.8409996 -1.868 1.477
9.8769999 -1.848 1.482
9.927 -1.83 1.489
9.9689999 -1.8099999 1.495
10.024 -1.793 1.503
10.242 -1.804 1.535
12.285 -1.046 1.832
12.187 -1.012 1.817
12.156 -0.98400003 1.812
12.155 -0.958 1.812
12.175 -0.935 1.8150001
12.228 -0.91399997 1.822
9.8219995 -2.1389999 1.5190001
9.7290001 -2.0899999 1.505
9.7139997 -2.0580001 1.502
9.7200003 -2.03 1.502
9.7250004 -2.003 1.503
9.7220001 -1.974 1.502
9.7340002 -1.947 1.503
9.7469997 -1.921 1.505
9.7740002 -1.898 1.5089999
9.7849998 -1.8710001 1.51
9.8190002 -1.849 1.515
9.8430004 -1.824 1.518
9.8999996 -1.806 1.526
9.9230003 -1.781 1.53
9.9720001 -1.76 1.5369999
10.074 -1.748 1.552
12.212 -1.118 1.8660001
12.147 -1.077 1.8559999
12.162 -1.043 1.857
12.255 -1.015 1.8710001
31.475 12.635 5.289
31.382999 12.719 5.2810001
31.368 12.834 5.2859998
31.363001 12.954 5.2930002
9.9650002 -2.237 1.544
9.7469997 -2.1589999 1.51
9.6969995 -2.119 1.502
9.698 -2.0910001 1.502
9.7119999 -2.0650001 1.503
9.7130003 -2.0369999 1.503
9.7259998 -2.0120001 1.505
9.7299995 -1.985 1.505
9.7510004 -1.961 1.508
9.7740002 -1.938 1.511
9.8149996 -1.918 1.517
9.8179998 -1.891 1.517
9.8570004 -1.8710001 1.523
9.8909998 -1.85 1.528
9.9239998 -1.829 1.5319999
9.948 -1.806 1.536
10.017 -1.791 1.546
12.249 -1.016 1.88
12.205 -0.98699999 1.873
12.21 -0.96200001 1.874
12.197 -0.93599999 1.872
31.391001 11.748 5.2659998
31.349001 11.843 5.2649999
31.396999 11.973 5.2789998
31.357 12.069 5.2789998
31.379 12.189 5.289
31.424 12.318 5.302
31.375999 12.411 5.3000002
31.429001 12.544 5.3150001
31.378 12.636 5.3130002
31.372 12.746 5.3179998
31.368 12.857 5.3239999
31.356001 12.965 5.329
9.882 -2.152 1.573
9.7370005 -2.092 1.55
9.6999998 -2.0550001 1.543
9.7130003 -2.029 1.545
9.71 -2 1.544
9.724 -1.974 1.546
9.7410002 -1.949 1.548
9.7559996 -1.923 1.55
9.7670002 -1.896 1.552
9.7950001 -1.873 1.556
9.8389997 -1.852 1.562
9.8739996 -1.83 1.567
9.9110003 -1.807 1.573
9.9309998 -1.7819999 1.576
9.9709997 -1.76 1.581
10.165 -1.7640001 1.612
12.246 -1.084 1.925
12.21 -1.046 1.919
31.315001 10.599 5.3140001
31.304001 10.708 5.3179998
31.274 10.81 5.3200002
31.264 10.92 5.3249998
31.231001 11.022 5.3260002
31.245001 11.141 5.335
31.242001 11.254 5.342
31.243 11.369 5.349
31.26 11.491 5.3590002
31.25 11.603 5.3639998
31.26 11.723 5.3730001
31.278 11.847 5.3829999
31.275999 11.964 5.3899999
31.283001 12.085 5.3990002
31.285999 12.205 5.4060001
31.322001 12.338 5.4200001
31.281 12.442 5.421
31.302999 12.57 5.4320002
31.301001 12.69 5.4390001
31.309 12.815 5.448
31.323999 12.943 5.4590001
9.802 -2.171 1.562
9.7110004 -2.122 1.548
9.6999998 -2.0910001 1.545
9.7069998 -2.0639999 1.546
9.7110004 -2.0369999 1.546
9.7259998 -2.0120001 1.548
9.743 -1.987 1.551
9.7550001 -1.962 1.552
9.7860003 -1.9400001 1.557
9.8199997 -1.919 1.562
9.8380003 -1.895 1.564
9.8870001 -1.877 1.572
9.8909998 -1.85 1.572
9.934 -1.831 1.579
9.9770002 -1.811 1.585
10.065 -1.8 1.599
31.309999 9.8789997 5.3239999
31.302 9.9829998 5.3280001
31.254 10.074 5.3249998
31.295 10.194 5.3379998
31.235001 10.281 5.3330002
31.233999 10.388 5.3379998
31.228001 10.494 5.3429999
31.246 10.608 5.3509998
31.268999 10.723 5.3610001
31.233 10.819 5.3600001
31.264999 10.939 5.3720002
31.284 11.055 5.381
31.325001 11.178 5.3940001
31.290001 11.275 5.3930001
31.247 11.369 5.3920002
31.290001 11.495 5.4050002
31.291 11.605 5.4120002
31.304001 11.72 5.4200001
31.32 11.837 5.4289999
31.313 11.945 5.434
31.309 12.055 5.4390001
31.298 12.162 5.4439998
31.389999 12.309 5.4660001
9.8319998 -2.112 1.61
9.7270002 -2.0610001 1.592
9.7130003 -2.029 1.589
9.7270002 -2.003 1.591
9.7449999 -1.978 1.594
9.7639999 -1.9529999 1.596
9.7580004 -1.923 1.595
9.7779999 -1.899 1.598
9.8079996 -1.875 1.602
9.8470001 -1.854 1.608
9.8769999 -1.83 1.612
9.9280005 -1.811 1.62
9.9700003 -1.789 1.627
10.049 -1.773 1.6390001
31.188999 8.8389997 5.3600001
31.179001 8.9390001 5.3639998
31.167 9.04 5.368
31.181 9.1490002 5.3759999
31.173 9.2519999 5.381
31.164 9.3549995 5.3850002
31.162001 9.4610004 5.3909998
31.141001 9.5609999 5.3930001
31.155001 9.6730003 5.402
31.134001 9.7740002 5.4050002
31.139 9.8839998 5.4120002
31.139999 9.993 5.4190001
31.166 10.11 5.4289999
31.158001 10.218 5.4349999
31.166 10.33 5.4429998
31.167999 10.442 5.4499998
31.169001 10.554 5.4559999
31.195999 10.675 5.4679999
31.198 10.788 5.4749999
31.193001 10.899 5.4809999
31.216999 11.021 5.4920001
31.212999 11.133 5.4990001
31.194 11.241 5.5029998
31.224001 11.367 5.5149999
31.240999 11.488 5.5250001
31.233999 11.602 5.5310001
31.254 11.726 5.5419998
31.250999 11.842 5.5489998
31.268 11.965 5.5599999
31.275999 12.087 5.5689998
31.271999 12.204 5.5760002
31.281 12.327 5.585
31.322001 12.463 5.5999999
31.292 12.571 5.6030002
31.320999 12.703 5.6160002
31.337 12.831 5.6259999
31.346001 12.957 5.6360002
9.7959995 -2.141 1.605
9.7419996 -2.1010001 1.596
9.7399998 -2.0710001 1.595
9.7449999 -2.0439999 1.596
9.7460003 -2.016 1.595
9.7779999 -1.994 1.6
9.7740002 -1.966 1.599
9.7880001 -1.941 1.601
9.8210001 -1.919 1.6059999
9.8330002 -1.8940001 1.608
9.8999996 -1.8789999 1.618
9.9449997 -1.86 1.625
10.021 -1.847 1.637
10.261 -1.863 1.676
31.186001 7.7870002 5.3699999
31.139999 7.875 5.3660002
31.120001 7.9699998 5.3670001
31.115 8.0690002 5.3709998
31.111 8.1680002 5.375
31.097 8.2659998 5.3769999
31.105 8.3690004 5.3829999
31.089001 8.4659996 5.3850002
31.111 8.5740004 5.3940001
31.111 8.6759996 5.3979998
31.118 8.7810001 5.4050002
31.125 8.8850002 5.4109998
31.143 8.9940004 5.4190001
31.135 9.0950003 5.4229999
31.153 9.2040005 5.4310002
31.146 9.3059998 5.4349999
31.16 9.415 5.4419999
31.148001 9.5159998 5.4450002
31.174999 9.6289997 5.4549999
31.186001 9.7379999 5.4629998
31.146999 9.8319998 5.461
31.184 9.9490004 5.473
31.160999 10.048 5.4749999
31.212999 10.172 5.4889998
31.177999 10.267 5.4889998
31.184999 10.376 5.4959998
31.207001 10.491 5.5050001
31.225 10.605 5.5139999
31.219 10.711 5.5190001
31.216999 10.818 5.5250001
31.225 10.93 5.5320001
31.243999 11.045 5.5409999
31.26 11.16 5.5500002
31.257999 11.268 5.5560002
31.266001 11.381 5.5630002
31.25 11.485 5.5669999
31.309999 11.617 5.5840001
31.304001 11.725 5.5890002
31.305 11.836 5.5960002
31.33 11.957 5.6059999
31.319 12.064 5.6110001
31.306999 12.17 5.6149998
26.523001 -9.9750004 4.5279999
26.548 -9.9040003 4.5310001
26.596001 -9.842 4.5380001
9.9580002 -2.1099999 1.675
9.816 -2.0510001 1.651
9.7729998 -2.013 1.643
9.7790003 -1.985 1.6440001
9.7740002 -1.955 1.642
9.7880001 -1.929 1.6440001
9.7889996 -1.901 1.6440001
9.8000002 -1.874 1.645
9.8319998 -1.851 1.65
9.8780003 -1.83 1.658
9.9820004 -1.8200001 1.675
31.096001 6.573 5.3899999
31.101 6.6659999 5.395
31.07 6.7519999 5.3940001
31.056 6.842 5.3959999
31.122999 6.9499998 5.4130001
31.082001 7.0349998 5.4099998
31.059 7.1240001 5.4109998
31.023001 7.21 5.4099998
31.007999 7.302 5.4120002
31.058001 7.4089999 5.4260001
31.065001 7.507 5.4320002
31.070999 7.6059999 5.4380002
31.089001 7.7080002 5.447
31.045 7.7950001 5.4439998
31.059999 7.8969998 5.4520001
31.059999 7.9959998 5.4569998
31.049 8.092 5.461
31.038 8.1890001 5.4640002
31.063 8.2959995 5.474
31.049 8.3940001 5.4780002
31.063 8.4989996 5.4860001
31.054001 8.5979996 5.4899998
31.055 8.7010002 5.4959998
31.076 8.8100004 5.5050001
31.063999 8.9099998 5.5089998
31.107 9.026 5.5229998
31.118 9.1339998 5.5310001
31.121 9.2399998 5.5380001
31.108 9.342 5.5419998
31.112 9.4490004 5.5489998
31.073999 9.5450001 5.5479999
31.111 9.6630001 5.5609999
31.118 9.7729998 5.5689998
31.125 9.8830004 5.5770001
31.139 9.9969997 5.586
31.150999 10.11 5.5949998
31.155001 10.22 5.6020002
31.15 10.329 5.6079998
31.146 10.439 5.6139998
31.146 10.55 5.6209998
31.146 10.662 5.6279998
31.164 10.78 5.638
31.173 10.896 5.6469998
31.172001 11.009 5.6539998
31.163 11.12 5.6599998
31.177 11.239 5.6700001
31.209999 11.366 5.6830001
31.212 11.482 5.691
31.245001 11.61 5.7049999
31.202 11.711 5.704
31.243999 11.843 5.7199998
31.237 11.958 5.7259998
31.26 12.085 5.7379999
31.268 12.207 5.7480001
31.277 12.33 5.757
31.264 12.444 5.763
31.275 12.569 5.7729998
31.298 12.699 5.7849998
31.322001 12.83 5.7979999
31.306999 12.946 5.8039999
26.610001 -9.8260002 4.5549998
26.607 -9.7200003 4.552
26.603001 -9.6149998 4.5489998
26.667 -9.5340004 4.5580001
9.8999996 -2.105 1.666
9.8190002 -2.059 1.652
9.8129997 -2.03 1.65
9.7889996 -1.997 1.646
9.7959995 -1.97 1.647
9.7880001 -1.9400001 1.645
9.7880001 -1.913 1.645
9.7819996 -1.8839999 1.643
9.823 -1.864 1.65
10.072 -1.8839999 1.691
31.118999 5.5830002 5.4310002
31.048 5.6609998 5.4219999
31.056999 5.7540002 5.427
31.063999 5.8470001 5.4310002
31.048 5.9359999 5.4320002
31.027 6.0240002 5.4320002
31.021999 6.1160002 5.4349999
31.035 6.211 5.441
31.028 6.3039999 5.4429998
31.004 6.3930001 5.4429998
30.992001 6.4840002 5.4439998
30.993 6.579 5.448
31.004999 6.677 5.454
31.011 6.7729998 5.4590001
31.011 6.869 5.4629998
31.021999 6.967 5.4689999
31.024 7.0640001 5.474
31.025999 7.1620002 5.4780002
31.025 7.2589998 5.4819999
31.037001 7.3590002 5.4889998
31.080999 7.4679999 5.5009999
31.108 7.573 5.5100002
31.073999 7.6630001 5.5079999
31.065001 7.7600002 5.5110002
31.068001 7.8610001 5.5159998
31.063999 7.9590001 5.52
31.08 8.0640001 5.5279999
31.084 8.165 5.533
31.066999 8.2609997 5.5349998
31.098 8.3710003 5.5450001
31.104 8.474 5.5510001
31.101999 8.5749998 5.5560002
31.093 8.6750002 5.559
31.108 8.7819996 5.5669999
31.132 8.8909998 5.5760002
31.173 9.0059996 5.5890002
31.146 9.1020002 5.5890002
31.18 9.2159996 5.6009998
31.17 9.3179998 5.6040001
31.157 9.4180002 5.6069999
31.174 9.5279999 5.6160002
31.202 9.6420002 5.6259999
31.18 9.7410002 5.6279998
31.167 9.842 5.631
31.225 9.967 5.6469998
31.188999 10.061 5.6459999
31.277 10.197 5.6680002
31.212 10.282 5.6620002
31.214001 10.39 5.6680002
31.193001 10.491 5.6700001
31.228001 10.61 5.6830001
31.253 10.727 5.6929998
31.242001 10.831 5.697
31.237 10.938 5.7030001
31.264 11.057 5.7140002
31.281 11.281 5.7290001
31.271 11.387 5.7340002
31.285 11.502 5.743
31.305 11.62 5.7529998
26.474001 -10.361 4.6490002
26.454 -10.273 4.6440001
26.452 -10.192 4.6430001
26.493 -10.128 4.6490002
26.488001 -10.047 4.6469998
26.495001 -9.9689999 4.6469998
26.504 -9.8929996 4.6469998
26.507 -9.8140001 4.6459999
26.549 -9.7489996 4.6529999
26.542999 -9.6669998 4.6500001
26.575001 -9.599 4.6550002
26.6 -9.5279999 4.658
9.974 -2.0250001 1.722
9.9169998 -1.984 1.712
9.8210001 -1.936 1.6950001
9.7969999 -1.902 1.6900001
9.7869997 -1.8710001 1.688
9.7589998 -1.837 1.683
9.7629995 -1.809 1.683
9.8730001 -1.8 1.701
31.038 4.2930002 5.4400001
31.004999 4.3649998 5.4369998
31.004999 4.4429998 5.4400001
31.007999 4.5209999 5.4439998
31.017 4.6009998 5.4489999
30.962 4.6719999 5.4419999
30.997 4.757 5.4510002
30.972 4.8330002 5.4499998
30.981001 4.915 5.4549999
30.969999 4.994 5.4569998
30.951 5.073 5.4569998
30.952 5.1560001 5.461
30.971001 5.2410002 5.467
30.962 5.323 5.4699998
30.961 5.4070001 5.473
30.966 5.4920001 5.4780002
30.931 5.5710001 5.4759998
30.957001 5.6620002 5.4840002
30.952999 5.7470002 5.487
30.971001 5.8369999 5.4949999
30.969 5.9239998 5.4980001
30.969999 6.0120001 5.5029998
30.973 6.1009998 5.5079999
30.971001 6.1890001 5.5110002
30.986 6.2820001 5.5190001
30.98 6.3699999 5.5219998
30.990999 6.4629998 5.5279999
30.975 6.5510001 5.5300002
30.969999 6.6409998 5.5339999
30.971001 6.7329998 5.539
30.987 6.829 5.546
30.983999 6.9219999 5.5510001
31.003 7.02 5.559
30.995001 7.112 5.5630002
30.990999 7.2059999 5.5669999
30.997999 7.302 5.573
31.021999 7.4039998 5.5830002
31.007 7.4959998 5.585
31.044001 7.6020002 5.5970001
31.035 7.697 5.6009998
31.014999 7.79 5.6030002
31.021 7.8899999 5.6090002
31.038 7.993 5.618
31.041 8.0939999 5.6240001
31.049 8.1960001 5.631
31.038 8.2930002 5.6350002
31.046 8.3959999 5.6420002
31.066 8.5030003 5.652
31.056999 8.6029997 5.6560001
31.07 8.7089996 5.664
31.065001 8.8100004 5.6700001
31.087 8.9200001 5.6799998
31.09 9.0249996 5.6869998
31.076 9.1260004 5.6900001
31.083 9.2329998 5.698
31.106001 9.3450003 5.7080002
31.129999 9.4589996 5.7189999
31.105 9.5579996 5.7210002
31.114 9.6680002 5.73
31.121 9.7779999 5.7379999
31.115 9.8839998 5.743
31.111 9.9910002 5.7490001
31.115 10.102 5.757
31.139 10.22 5.7680001
31.164 10.338 5.7800002
31.146 10.443 5.7839999
31.132999 10.55 5.7880001
31.142 10.665 5.7969999
31.186001 10.792 5.8130002
31.152 10.893 5.8140001
31.184999 11.018 5.8280001
31.169001 11.126 5.8319998
31.169001 11.24 5.8400002
31.223 11.375 5.8569999
31.216999 11.488 5.8639998
31.229 11.609 5.8740001
31.229 11.725 5.882
31.232 11.844 5.8899999
31.275999 11.978 5.9070001
31.277 12.097 5.915
31.275999 12.334 5.9310002
31.287001 12.458 5.9419999
31.285 12.578 5.9499998
31.316 12.711 5.9640002
31.358999 12.85 5.9809999
31.349001 12.968 5.987
26.628 -10.26 4.6900001
26.584 -10.136 4.6799998
26.556 -10.019 4.6729999
26.549 -9.9099998 4.6690001
26.587999 -9.8199997 4.6739998
26.605 -9.7209997 4.6739998
26.629 -9.6260004 4.677
26.599001 -9.5120001 4.6690001
26.613001 -9.4139996 4.6690001
26.608 -9.3109999 4.6659999
26.697001 -9.2399998 4.6799998
9.9779997 -2.0350001 1.723
9.8140001 -1.973 1.694
9.7810001 -1.939 1.688
9.75 -1.905 1.682
9.7259998 -1.873 1.678
9.7550001 -1.851 1.682
9.7919998 -1.831 1.688
31.030001 3.5250001 5.5110002
31.009001 3.6029999 5.5100002
30.969999 3.678 5.5050001
30.941999 3.7550001 5.5019999
30.927 3.835 5.5009999
30.934999 3.9170001 5.5050001
30.912001 3.9960001 5.5029998
30.948 4.0830002 5.5120001
30.889999 4.1589999 5.5040002
30.879 4.2399998 5.5050001
30.909 4.3280001 5.513
30.892 4.4099998 5.5120001
30.892 4.4949999 5.5149999
30.886999 4.579 5.5170002
30.870001 4.6620002 5.5159998
30.879 4.75 5.5209999
30.882 4.8369999 5.5240002
30.912001 4.928 5.5320001
30.889999 5.0120001 5.5320001
30.91 5.1030002 5.5380001
30.888 5.1880002 5.5370002
30.926001 5.283 5.5469999
30.951 5.3769999 5.5549998
30.919001 5.461 5.552
30.889 5.5450001 5.5500002
30.933001 5.6440001 5.5619998
30.934999 5.7350001 5.566
30.93 5.8249998 5.5679998
30.941 5.9190001 5.5739999
30.927999 6.0079999 5.5749998
30.959 6.1069999 5.5840001
30.952 6.1989999 5.5869999
30.969 6.2950001 5.5939999
30.971001 6.3899999 5.598
30.989 6.487 5.605
30.950001 6.5739999 5.6020002
30.968 6.6719999 5.6090002
31.006001 6.776 5.6199999
30.989 6.868 5.6209998
30.997999 6.9660001 5.6269999
31.017 7.0669999 5.6350002
31.002001 7.1599998 5.6360002
30.993999 7.2550001 5.6389999
31.024 7.3600001 5.6490002
31.017 7.4559999 5.652
31.051001 7.5630002 5.6630001
31.031 7.6570001 5.664
31.030001 7.756 5.6690001
31.046 7.8590002 5.6760001
31.062 7.9629998 5.684
31.086 8.0690002 5.6929998
31.082001 8.1689997 5.697
31.059 8.2629995 5.698
31.099001 8.375 5.71
31.118999 8.4820004 5.7189999
31.1 8.5790005 5.7199998
31.104 8.6820002 5.7259998
31.097 8.783 5.73
31.115 8.8909998 5.7389998
31.115999 8.9940004 5.744
31.162001 9.1110001 5.7579999
31.171 9.2180004 5.7649999
31.149 9.3149996 5.7670002
31.156 9.4219999 5.7740002
31.281 9.6709995 5.8080001
31.232 9.7609997 5.8049998
31.194 9.9610004 5.809
31.186001 10.065 5.8140001
31.215 10.288 5.8309999
31.238001 10.403 5.842
31.246 10.513 5.849
31.294001 10.637 5.8639998
31.289 10.744 5.8699999
31.242001 10.836 5.8670001
26.41 -10.741 4.7670002
26.437 -10.672 4.7709999
26.414 -10.582 4.7659998
26.406 -10.499 4.763
26.422001 -10.426 4.7649999
26.416 -10.343 4.7620001
26.414 -10.263 4.7610002
26.448 -10.196 4.7659998
26.486 -10.131 4.7709999
26.483999 -10.05 4.77
26.504 -9.9770002 4.7719998
26.492001 -9.8929996 4.7690001
26.497 -9.8149996 4.7690001
26.532 -9.7480001 4.7740002
26.549 -9.6739998 4.7750001
26.546 -9.5930004 4.7740002
26.52 -9.5039997 4.7680001
26.548 -9.4329996 4.7719998
26.566999 -9.3599997 4.7740002
26.538 -9.2700005 4.7670002
9.9849997 -1.9680001 1.7690001
9.7869997 -1.9 1.733
9.7379999 -1.862 1.724
9.7229996 -1.83 1.721
9.7469997 -1.806 1.725
9.7860003 -1.784 1.7309999
31.040001 3.2809999 5.5650001
30.972 3.3429999 5.5549998
30.985001 3.4130001 5.559
31.025999 3.487 5.5689998
30.952 3.549 5.5580001
30.962999 3.6210001 5.5619998
30.934 3.6889999 5.559
30.948999 3.763 5.5650001
30.945999 3.835 5.5669999
30.966 3.911 5.573
30.966 3.9849999 5.5760002
30.973 4.0599999 5.5799999
30.958 4.1329999 5.5799999
30.931999 4.2049999 5.5780001
30.931 4.2810001 5.5809999
30.952999 4.3610001 5.5879998
30.941999 4.4359999 5.5890002
30.958 4.5159998 5.5949998
30.955 4.5939999 5.5970001
30.934999 4.6700001 5.5970001
30.961 4.7540002 5.605
30.959 4.8330002 5.6079998
30.938999 4.9109998 5.6079998
30.962999 4.9959998 5.6160002
30.968 5.0780001 5.6199999
30.951 5.158 5.6209998
30.988001 5.2470002 5.631
30.987 5.3299999 5.6350002
30.962 5.4099998 5.6339998
30.983999 5.4990001 5.6420002
30.958 5.579 5.6409998
30.972 5.6669998 5.6479998
30.98 5.7550001 5.6539998
30.976 5.8410001 5.6570001
30.993999 5.9310002 5.665
30.990999 6.0190001 5.6690001
31.004 6.1100001 5.6750002
30.983 6.1939998 5.6760001
30.983 6.2839999 5.6799998
30.986 6.3740001 5.6849999
30.993999 6.467 5.6919999
30.996 6.5580001 5.697
30.989 6.6479998 5.6999998
31.016001 6.7459998 5.71
30.995001 6.8340001 5.711
31.024 6.934 5.7220001
31.004999 7.0229998 5.723
31.021 7.1209998 5.7309999
31.014 7.2140002 5.7350001
31.047001 7.3169999 5.7459998
31.038 7.4109998 5.75
31.046 7.5089998 5.757
31.070999 7.612 5.7670002
31.024 7.698 5.7639999
31.063 7.8060002 5.777
31.042 7.8990002 5.7779999
31.112 8.0159998 5.7969999
31.045 8.0979996 5.7909999
31.087999 8.2089996 5.8039999
31.086 8.309 5.8099999
31.070999 8.4060001 5.8130002
31.094999 8.5139999 5.8239999
31.097 8.6169996 5.8299999
31.082001 8.7150002 5.8340001
31.062 8.8129997 5.836
31.075001 8.9200001 5.8449998
31.103001 9.033 5.8569999
31.110001 9.1389999 5.8639998
31.061001 9.2299995 5.862
31.093 9.3450003 5.875
31.143 9.4659996 5.8909998
31.118999 9.6730003 5.9000001
31.15 9.7910004 5.9130001
31.162001 9.9029999 5.9219999
31.150999 10.008 5.927
31.125999 10.109 5.9289999
31.158001 10.23 5.9419999
31.164 10.342 5.9510002
31.164 10.453 5.9580002
31.139999 10.556 5.961
31.169001 10.678 5.974
31.188 10.797 5.9850001
31.18 10.907 5.9910002
31.216999 11.034 6.006
31.209 11.145 6.0120001
31.261 11.278 6.0300002
31.246 11.388 6.0349998
31.275 11.515 6.0489998
31.237 11.617 6.0489998
31.256001 11.741 6.0609999
31.249001 11.855 6.0679998
31.282 11.985 6.0830002
31.274 12.101 6.0900002
31.361 12.253 6.1149998
26.414 -11.877 4.8150001
26.443001 -11.771 4.8169999
26.502001 -11.679 4.8249998
26.483 -11.32 4.8130002
26.490999 -11.209 4.8119998
26.513 -11.104 4.8130002
26.525 -10.995 4.8130002
26.462 -10.857 4.7989998
26.552999 -10.45 4.8049998
26.518999 -10.328 4.796
26.524 -10.222 4.7950001
26.540001 -10.121 4.7950001
26.528999 -10.01 4.7909999
26.549 -9.9119997 4.7919998
26.561001 -9.8109999 4.7919998
26.577 -9.7130003 4.7930002
26.603001 -9.618 4.7950001
26.601 -9.5139999 4.7919998
26.596001 -9.4099998 4.789
26.597 -9.3079996 4.7870002
26.607 -9.2110004 4.7870002
26.612 -9.1120005 4.7859998
26.657 -9.0270004 4.7919998
26.690001 -8.9390001 4.7950001
26.677 -8.8360004 4.7909999
26.802 -6.0999999 4.7610002
26.753 -6.0079999 4.7509999
26.789 -5.9359999 4.756
26.896 -5.8790002 4.7740002
9.809 -1.973 1.738
9.7639999 -1.936 1.73
9.71 -1.897 1.72
9.7080002 -1.87 1.719
9.7259998 -1.846 1.722
9.7519999 -1.824 1.726
9.9200001 -1.8279999 1.755
30.903999 2.3840001 5.6240001
30.914 2.4560001 5.6269999
30.872 2.5250001 5.6199999
30.908001 2.6010001 5.6279998
30.889999 2.6730001 5.6259999
30.832001 2.7409999 5.6170001
30.867001 2.8180001 5.625
30.844999 2.891 5.6220002
30.872999 2.9690001 5.6290002
30.849001 3.043 5.6259999
30.856001 3.1199999 5.6290002
30.871 3.198 5.6339998
30.886999 3.277 5.6389999
30.849001 3.3510001 5.6339998
30.844 3.4289999 5.6350002
30.875 3.5109999 5.6420002
30.872 3.5899999 5.6440001
30.892 3.6730001 5.6500001
30.877001 3.7509999 5.6490002
30.875 3.832 5.651
30.863001 3.9119999 5.651
30.849001 3.9920001 5.651
30.912001 4.0819998 5.665
30.863001 4.1589999 5.658
30.858 4.2410002 5.6599998
30.875 4.3270001 5.6659999
30.888 4.4130001 5.671
30.875 4.4959998 5.671
30.879999 4.5819998 5.6750002
30.896 4.6700001 5.6810002
30.899 4.757 5.684
30.891001 4.842 5.6859999
30.910999 4.9320002 5.6919999
30.909 5.0190001 5.6950002
30.917 5.1079998 5.6999998
30.929001 5.1989999 5.7049999
30.929001 5.2870002 5.7080002
30.943001 5.3790002 5.7140002
30.927999 5.4660001 5.7150002
30.955999 5.5609999 5.724
30.948999 5.6500001 5.7259998
30.959 5.743 5.7309999
30.936001 5.8299999 5.7309999
30.959999 5.9260001 5.7389998
30.986 6.0240002 5.7470002
30.974001 6.1139998 5.7490001
30.959999 6.204 5.75
30.988001 6.303 5.7589998
30.978001 6.395 5.7610002
30.993 6.4920001 5.7680001
30.993999 6.5869999 5.7719998
30.997 6.6820002 5.777
31.035999 6.7859998 5.789
31.01 6.8759999 5.7880001
30.995001 6.9689999 5.79
31.059999 7.0799999 5.8060002
31.016001 7.1669998 5.803
31.040001 7.27 5.8109999
31.052 7.3709998 5.8179998
31.048 7.4679999 5.822
31.055 7.5679998 5.8280001
31.091999 7.6760001 5.8400002
31.073999 7.7709999 5.8410001
31.072001 7.869 5.8460002
31.094999 7.9749999 5.855
31.072001 8.0699997 5.8559999
31.096001 8.1759996 5.8649998
31.146999 8.2910004 5.8800001
31.120001 8.3850002 5.8800001
31.145 8.4940004 5.8899999
31.084999 8.5790005 5.8839998
31.106001 8.6870003 5.8930001
31.134001 8.7980003 5.9039998
31.143999 8.9029999 5.9109998
31.188999 9.0200005 5.9250002
31.143999 9.1099997 5.9219999
26.23 -12.188 4.881
26.225 -12.106 4.8790002
26.243999 -12.035 4.881
26.268 -11.966 4.8839998
26.243999 -11.875 4.8790002
26.267 -11.806 4.882
26.315001 -11.747 4.8899999
26.247999 -11.637 4.8759999
26.319 -11.589 4.888
26.268 -11.486 4.8769999
26.327999 -11.433 4.8870001
26.379999 -11.295 4.895
26.323999 -11.191 4.8829999
26.322001 -11.11 4.881
26.339001 -11.037 4.8829999
26.337 -10.957 4.882
26.392 -10.899 4.8909998
26.386999 -10.817 4.8889999
26.389 -10.738 4.888
26.396999 -10.661 4.888
26.405001 -10.584 4.888
26.402 -10.503 4.8860002
26.398001 -10.422 4.8850002
26.414 -10.348 4.8860002
26.406 -10.265 4.8839998
26.490999 -10.218 4.8979998
26.504 -10.143 4.8990002
26.504 -10.063 4.8979998
26.514999 -9.9860001 4.8990002
26.518 -9.908 4.8979998
26.607 -9.8599997 4.9130001
26.52 -9.7480001 4.8959999
26.514 -9.6660004 4.8940001
26.506001 -9.5830002 4.8909998
26.525 -9.5089998 4.8930001
26.549 -9.4379997 4.8959999
26.569 -9.3649998 4.8990002
26.537001 -9.2740002 4.8920002
26.577999 -9.2080002 4.8979998
26.6 -9.1359997 4.901
26.555 -9.04 4.8909998
26.561001 -8.9619999 4.8909998
26.579 -8.8879995 4.8930001
26.597 -8.8140001 4.895
26.617001 -8.7410002 4.8969998
26.636999 -8.6669998 4.9000001
26.627001 -8.5839996 4.8959999
26.761 -6.6259999 4.888
26.764 -6.5469999 4.8870001
26.736 -6.461 4.881
26.723 -6.3779998 4.8769999
26.725 -6.2989998 4.8759999
26.774 -6.2309999 4.8839998
26.764 -6.1490002 4.8800001
26.771999 -6.072 4.881
26.756001 -5.9879999 4.8759999
26.735001 -5.9039998 4.8709998
26.763 -5.8309999 4.875
26.837999 -5.7680001 4.8870001
9.8290005 -1.937 1.7869999
9.776 -1.898 1.776
9.7370005 -1.862 1.7690001
9.7019997 -1.826 1.762
9.698 -1.7970001 1.761
9.7299995 -1.774 1.766
9.9219999 -1.779 1.8
30.989 3.1440001 5.711
30.924999 3.204 5.7020001
30.987 3.4860001 5.7220001
30.961 3.553 5.7189999
30.938 3.6210001 5.717
30.951 3.694 5.7220001
30.922001 3.7620001 5.7189999
30.933001 3.836 5.724
30.944 3.911 5.7290001
30.948999 3.9849999 5.7329998
30.940001 4.0580001 5.7340002
30.924 4.131 5.7340002
30.972 4.2129998 5.7459998
30.912001 4.2810001 5.7379999
30.958 4.3639998 5.7490001
30.973 4.4429998 5.7550001
30.959 4.5190001 5.756
30.948 4.5960002 5.757
30.938 4.6729999 5.7579999
30.959 4.756 5.7659998
30.966999 4.8369999 5.7709999
30.952999 4.9159999 5.7719998
30.929001 4.993 5.7709999
30.969 5.0809999 5.7820001
30.955999 5.1609998 5.783
30.974001 5.2470002 5.7909999
30.957001 5.3280001 5.7909999
30.974001 5.415 5.7989998
30.976 5.5 5.803
30.969999 5.5840001 5.8060002
30.966 5.6690001 5.8099999
30.945 5.7509999 5.8099999
31.000999 5.848 5.8249998
30.985001 5.9330001 5.8260002
30.993 6.0219998 5.8319998
31.014999 6.1149998 5.8410001
30.99 6.1989999 5.8410001
30.981001 6.2859998 5.8439999
31.003 6.381 5.8530002
30.976999 6.4660001 5.8520002
30.997999 6.5609999 5.8610001
30.993999 6.652 5.8660002
31.006001 6.7470002 5.8730001
30.989 6.836 5.875
30.981001 6.927 5.8779998
30.997999 7.0250001 5.8870001
31.017 7.1230001 5.8959999
30.974001 7.2080002 5.8930001
31.018999 7.3140001 5.9070001
31.056999 7.4190001 5.9200001
31.042999 7.5120001 5.9219999
31.02 7.6030002 5.9239998
31.035999 7.704 5.9320002
31.033001 7.8010001 5.9380002
31.030001 7.8990002 5.9429998
31.083 8.0120001 5.9590001
31.042999 8.1009998 5.9569998
31.038 8.1999998 5.9619999
31.042999 8.3009996 5.9689999
31.084999 8.4139996 5.9840002
31.047001 8.5050001 5.9829998
31.049999 8.6079998 5.9899998
31.056999 8.7119999 5.9970002
31.035999 8.809 6
31.059999 8.9200001 6.0110002
31.077 9.0290003 6.0209999
31.101999 9.1409998 6.033
31.096001 9.2440004 6.0380001
31.09 9.3479996 6.0440001
31.087 9.4540005 6.0500002
31.125999 9.6800003 6.072
31.184999 9.8059998 6.0900002
31.202999 9.9200001 6.1009998
31.142 10.01 6.0960002
31.132999 10.116 6.1020002
31.153 10.232 6.1129999
31.171 10.349 6.1240001
31.163 10.457 6.1300001
31.191999 10.579 6.1440001
31.176001 10.685 6.1479998
31.259001 11.053 6.1880002
31.225 11.155 6.1890001
26.334 -12.084 4.9299998
26.337999 -11.965 4.928
26.337999 -11.846 4.9250002
26.347 -11.731 4.9229999
26.362 -11.62 4.9229999
26.379 -11.51 4.9229999
26.403 -11.404 4.9250002
26.421 -11.296 4.9260001
26.414 -11.178 4.9219999
26.427 -11.07 4.921
26.475 -10.976 4.927
26.41 -10.838 4.9130001
26.468 -10.749 4.921
26.489 -10.647 4.9219999
26.490999 -10.538 4.9200001
26.502001 -10.432 4.9190001
26.507 -10.326 4.9180002
26.514999 -10.221 4.9169998
26.528 -10.119 4.9169998
26.545 -10.018 4.9169998
26.539 -9.9099998 4.914
26.57 -9.816 4.9169998
26.565001 -9.71 4.914
26.589001 -9.6149998 4.9159999
26.589001 -9.5120001 4.914
26.559 -9.3990002 4.9060001
26.596001 -9.3100004 4.9099998
26.643999 -9.2250004 4.9169998
26.604 -9.1110001 4.9070001
26.597 -9.0089998 4.9039998
26.615999 -8.9160004 4.9050002
26.614 -8.816 4.9029999
26.620001 -8.7200003 4.902
26.608999 -8.6199999 4.8979998
26.614 -8.5249996 4.8969998
26.653 -8.441 4.902
26.721001 -8.3669996 4.9120002
26.764 -7.1890001 4.8959999
26.702999 -7.085 4.8839998
26.698999 -6.9970002 4.881
26.737 -6.9200001 4.8870001
26.780001 -6.8449998 4.8930001
26.737 -6.7490001 4.8829999
26.700001 -6.6550002 4.875
26.681999 -6.566 4.8699999
26.701 -6.487 4.8720002
26.733999 -6.4120002 4.8769999
26.729 -6.3280001 4.8740001
26.704 -6.2399998 4.868
26.718 -6.1620002 4.869
26.725 -6.0819998 4.869
26.740999 -6.0050001 4.8709998
26.827 -5.9439998 4.8850002
9.8120003 -1.973 1.783
9.783 -1.939 1.777
9.7360001 -1.902 1.768
9.6940002 -1.867 1.761
9.6780005 -1.837 1.757
9.7060003 -1.8150001 1.762
9.8030005 -1.806 1.779
30.931 2.4619999 5.789
30.855 2.5280001 5.776
30.841 2.599 5.7750001
30.863001 2.674 5.7800002
30.839001 2.7460001 5.777
30.860001 2.822 5.783
30.812 2.892 5.7750001
30.834 2.9690001 5.7810001
30.851999 3.0469999 5.7859998
30.836 3.1210001 5.7849998
30.854 3.2 5.79
30.841 3.276 5.79
30.823999 3.352 5.7880001
30.868 3.4349999 5.7989998
30.841999 3.5109999 5.796
30.84 3.5899999 5.7979999
30.834999 3.6700001 5.7989998
30.825001 3.7490001 5.7989998
30.834999 3.8310001 5.8039999
30.822001 3.9100001 5.803
30.829 3.993 5.8070002
30.862 4.0799999 5.816
30.834999 4.1589999 5.8130002
30.832001 4.2410002 5.816
30.858 4.329 5.823
30.85 4.4120002 5.8239999
30.846001 4.4959998 5.8260002
30.857 4.5819998 5.8309999
30.851 4.6669998 5.8330002
30.860001 4.7540002 5.8379998
30.862 4.8410001 5.842
30.882 4.9310002 5.848
30.886 5.0190001 5.8520002
30.905001 5.1100001 5.8590002
30.885 5.1950002 5.8590002
30.892 5.2849998 5.8629999
30.885 5.3730001 5.8649998
30.886999 5.4619999 5.869
30.891001 5.553 5.8740001
30.913 5.6469998 5.882
30.905001 5.737 5.8839998
30.927 5.8319998 5.8920002
30.931 5.9250002 5.8959999
30.934 6.0170002 5.901
30.950001 6.1129999 5.908
30.927 6.2010002 5.9070001
30.931999 6.296 5.9120002
30.948 6.3930001 5.9190001
30.969 6.4910002 5.928
30.993999 6.5910001 5.9369998
30.995001 6.6859999 5.941
31 6.7820001 5.9460001
30.988001 6.8759999 5.948
31 6.974 5.9549999
31.000999 7.0710001 5.96
30.995001 7.1669998 5.9629998
31.002001 7.2649999 5.9689999
31.059999 7.3769999 5.9850001
31.025999 7.467 5.9840002
31.035999 7.5669999 5.9899998
31.017 7.6609998 5.9910002
31.059 7.7709999 6.0040002
31.052999 7.869 6.0079999
31.084 7.9770002 6.0190001
31.047001 8.0670004 6.0170002
31.099001 8.1809998 6.033
31.054001 8.2700005 6.0289998
31.077999 8.3780003 6.039
31.063999 8.4759998 6.0419998
31.091999 8.585 6.053
31.051001 8.6759996 6.0500002
31.08 8.7869997 6.0609999
31.176001 8.9169998 6.086
31.142 9.0109997 6.085
31.167999 9.1219997 6.0960002
26.181 -12.732 5.0050001
26.160999 -12.642 5
26.191 -12.577 5.0040002
26.226999 -12.274 5.006
26.167999 -12.167 4.994
26.209 -12.106 5.0009999
26.25 -12.045 5.007
26.247 -11.964 5.0050001
26.285999 -11.902 5.0120001
26.281 -11.819 5.0089998
26.254 -11.727 5.0029998
26.242001 -11.642 5
26.273001 -11.575 5.0040002
26.264 -11.492 5.0009999
26.358 -11.452 5.0180001
26.329 -11.279 5.0100002
