# .PCD v0.7 - Point Cloud Data file format
VERSION 0.7
FIELDS x y z
SIZE 4 4 4
TYPE F F F
COUNT 1 1 1
WIDTH 1797
HEIGHT 1
VIEWPOINT 0 0 0 1 0 0 0
POINTS 1797
DATA ascii
7.7579999 -3.3559999 -0.001
7.7870002 -3.335 -0.001
7.8080001 -3.309 -0.001
7.8239999 -3.2820001 -0.001
7.8410001 -3.2550001 -0.001
7.875 -3.2360001 -0.001
7.8870001 -3.207 -0.001
7.9089999 -3.1830001 -0.001
7.9320002 -3.1589999 -0.001
7.9489999 -3.1329999 -0.001
7.974 -3.109 -0.001
7.9970002 -3.086 -0.001
8.033 -3.0669999 -0
8.0579996 -3.0439999 -0
8.0839996 -3.0209999 -0
8.1059999 -2.997 -0
8.1309996 -2.974 -0
8.1529999 -2.95 -0
8.1780005 -2.927 -0
8.1999998 -2.9030001 -0
8.2069998 -2.8740001 -0
8.2410002 -2.855 -0
8.2690001 -2.8329999 -0
8.2950001 -2.8110001 -0
8.3240004 -2.789 -0
8.3380003 -2.763 -0
8.3500004 -2.7360001 -0
8.3780003 -2.714 -0
8.408 -2.694 -0
8.4320002 -2.671 -0
8.4729996 -2.6530001 -0
8.4829998 -2.6259999 -0
8.5100002 -2.6040001 -0
8.5469999 -2.585 -0
8.5799999 -2.5650001 -0
8.5799999 -2.5350001 -0
8.5930004 -2.51 -0
8.6269999 -2.49 -0
8.6440001 -2.4649999 -0
8.677 -2.4460001 -0
8.7110004 -2.4260001 -0
8.7209997 -2.3989999 -0
8.7440004 -2.3770001 0.001
8.7770004 -2.3570001 0.001
8.8070002 -2.336 0.001
8.8319998 -2.3139999 0.001
8.8540001 -2.2909999 0.001
8.875 -2.2679999 0.001
8.8879995 -2.2420001 0.001
8.9049997 -2.2190001 0.001
8.948 -2.201 0.001
8.9709997 -2.178 0.001
8.9899998 -2.155 0.001
9.0249996 -2.1359999 0.001
9.052 -2.1140001 0.001
9.099 -2.0969999 0.001
9.1070004 -2.0710001 0.001
9.125 -2.0480001 0.0020000001
9.1459999 -2.0250001 0.0020000001
9.165 -2.0020001 0.0020000001
9.1960001 -1.982 0.0020000001
9.2040005 -1.956 0.0020000001
9.224 -1.934 0.0020000001
9.2510004 -1.913 0.0020000001
9.2799997 -1.892 0.0020000001
9.3170004 -1.873 0.0020000001
9.3369999 -1.85 0.0020000001
9.3450003 -1.825 0.0020000001
9.4029999 -1.8099999 0.0020000001
9.4139996 -1.786 0.0020000001
9.4540005 -1.767 0.0020000001
9.5019999 -1.75 0.003
9.4829998 -1.72 0.003
9.5030003 -1.698 0.003
9.5299997 -1.677 0.003
9.5469999 -1.655 0.003
9.5869999 -1.636 0.003
9.5959997 -1.612 0.003
9.6160002 -1.59 0.003
9.6730003 -1.574 0.003
9.7959995 -1.568 0.003
9.7989998 -1.544 0.003
9.7200003 -1.506 0.003
9.75 -1.4859999 0.003
9.7749996 -1.465 0.003
9.8050003 -1.4450001 0.0040000002
9.8380003 -1.425 0.0040000002
9.8690004 -1.405 0.0040000002
9.9020004 -1.385 0.0040000002
9.941 -1.3660001 0.0040000002
9.9610004 -1.344 0.0040000002
9.9759998 -1.322 0.0040000002
9.9860001 -1.299 0.0040000002
10.031 -1.281 0.0040000002
10.046 -1.2589999 0.0040000002
10.078 -1.24 0.0040000002
10.082 -1.216 0.0040000002
10.136 -1.199 0.0040000002
10.138 -1.176 0.0049999999
10.192 -1.159 0.0049999999
10.199 -1.136 0.0049999999
10.217 -1.115 0.0049999999
10.285 -1.099 0.0049999999
10.308 -1.079 0.0049999999
10.341 -1.059 0.0049999999
10.359 -1.038 0.0049999999
10.393 -1.018 0.0049999999
10.42 -0.99800003 0.0049999999
10.476 -0.98100001 0.0049999999
10.513 -0.96200001 0.0049999999
10.524 -0.94 0.0049999999
10.553 -0.921 0.0060000001
10.617 -0.90399998 0.0060000001
10.593 -0.87900001 0.0060000001
10.619 -0.85900003 0.0060000001
10.628 -0.838 0.0060000001
10.666 -0.81900001 0.0060000001
10.716 -0.801 0.0060000001
10.801 -0.78600001 0.0060000001
10.843 -0.76700002 0.0060000001
10.895 -0.74900001 0.0060000001
10.911 -0.72899997 0.0060000001
10.943 -0.70899999 0.0060000001
10.93 -0.68699998 0.0070000002
11.05 -0.67299998 0.0070000002
11.004 -0.64899999 0.0070000002
10.358 0.12899999 -0.112
10.36 0.148 -0.112
10.361 0.167 -0.112
10.398 0.18700001 -0.113
10.389 0.206 -0.113
10.413 0.226 -0.113
10.439 0.24699999 -0.114
10.426 0.266 -0.114
10.444 0.287 -0.114
10.446 0.308 -0.114
10.435 0.32800001 -0.114
10.449 0.34999999 -0.115
10.432 0.37 -0.115
10.44 0.39199999 -0.115
10.447 0.414 -0.115
10.449 0.43599999 -0.115
10.472 0.45899999 -0.116
10.471 0.48100001 -0.116
10.484 0.505 -0.116
10.498 0.528 -0.117
10.497 0.551 -0.117
10.52 0.57499999 -0.117
10.54 0.60000002 -0.118
10.558 0.625 -0.118
10.572 0.64899999 -0.119
10.556 0.67299998 -0.119
10.579 0.69800001 -0.119
10.6 0.72399998 -0.119
10.625 0.75099999 -0.12
8.6020002 0.62800002 -0.097000003
8.474 0.639 -0.096000001
8.4309998 0.65600002 -0.096000001
8.4060001 0.67400002 -0.096000001
8.3950005 0.69300002 -0.096000001
8.4049997 0.71499997 -0.096000001
8.4429998 0.73900002 -0.096000001
8.5839996 0.77200001 -0.097999997
10.748 0.99400002 -0.123
10.745 1.02 -0.124
10.77 1.05 -0.124
10.809 1.081 -0.125
10.815 1.109 -0.125
10.83 1.1390001 -0.126
10.854 1.169 -0.126
8.3579998 0.92199999 -0.097000003
8.2589998 0.93300003 -0.096000001
8.2309999 0.95099998 -0.096000001
8.2220001 0.972 -0.096000001
8.2130003 0.99299997 -0.096000001
8.21 1.015 -0.096000001
8.2489996 1.0420001 -0.097000003
8.401 1.0829999 -0.098999999
10.993 1.448 -0.13
11.023 1.482 -0.131
11.047 1.516 -0.131
11.044 1.546 -0.131
11.078 1.581 -0.132
11.1 1.615 -0.133
11.123 1.65 -0.133
11.13 1.682 -0.134
11.163 1.719 -0.134
11.173 1.752 -0.13500001
11.195 1.788 -0.13500001
11.234 1.826 -0.13600001
11.253 1.862 -0.13699999
11.303 1.903 -0.138
11.343 1.943 -0.138
11.37 1.9809999 -0.139
11.401 2.02 -0.14
11.407 2.0539999 -0.14
11.442 2.095 -0.141
11.462 2.132 -0.141
11.5 2.174 -0.142
11.538 2.2160001 -0.14300001
11.565 2.256 -0.14399999
11.599 2.2980001 -0.14399999
11.616 2.336 -0.145
11.668 2.382 -0.146
11.705 2.4260001 -0.147
11.717 2.464 -0.147
11.743 2.506 -0.148
11.773 2.549 -0.149
11.795 2.5899999 -0.149
11.866 2.6429999 -0.15000001
11.882 2.684 -0.15099999
11.897 2.7249999 -0.152
11.939 2.7720001 -0.152
11.941 2.8099999 -0.153
11.954 2.8510001 -0.153
11.999 2.9000001 -0.154
12.021 2.944 -0.155
12.015 2.9809999 -0.155
12.039 3.026 -0.156
12.116 3.0840001 -0.15700001
12.127 3.1259999 -0.15800001
12.146 3.171 -0.15800001
12.161 3.214 -0.15899999
9.2489996 2.4749999 -0.121
9.1420002 2.4760001 -0.12
9.1169996 2.4990001 -0.12
9.1009998 2.5250001 -0.12
9.1169996 2.559 -0.121
9.2469997 2.6259999 -0.123
12.295 3.4920001 -0.163
12.273 3.527 -0.163
12.292 3.573 -0.164
12.317 3.622 -0.16500001
12.34 3.6700001 -0.16500001
12.38 3.723 -0.16599999
12.398 3.77 -0.167
12.401 3.813 -0.167
9.125 2.8369999 -0.123
12.528 3.895 -0.17
9.0129995 2.8329999 -0.122
8.9619999 2.8469999 -0.122
8.9530001 2.875 -0.122
8.9809999 2.914 -0.123
9.1090002 2.987 -0.125
12.511 4.1030002 -0.17200001
12.487 4.138 -0.17200001
12.536 4.197 -0.17299999
12.552 4.2459998 -0.17299999
12.544 4.2870002 -0.17399999
12.548 4.3309999 -0.17399999
12.56 4.3790002 -0.175
12.595 4.4349999 -0.176
12.611 4.4850001 -0.177
12.612 4.5300002 -0.177
12.64 4.5840001 -0.178
12.673 4.6399999 -0.17900001
12.704 4.6960001 -0.18000001
12.749 4.7579999 -0.18099999
12.787 4.8169999 -0.182
12.815 4.8730001 -0.183
12.853 4.9330001 -0.184
12.897 4.9949999 -0.185
12.927 5.053 -0.186
12.961 5.112 -0.18700001
12.986 5.1680002 -0.18799999
12.979 5.2119999 -0.18799999
12.983 5.2600002 -0.189
13.005 5.3150001 -0.189
13.023 5.369 -0.19
13.044 5.4250002 -0.191
13.061 5.4790001 -0.192
13.07 5.5289998 -0.192
13.085 5.5830002 -0.193
13.131 5.6500001 -0.19400001
13.203 5.7290001 -0.19599999
13.246 5.7950001 -0.197
13.267 5.8520002 -0.198
13.294 5.9120002 -0.199
13.306 5.9660001 -0.2
13.295 6.0089998 -0.2
13.342 6.079 -0.20100001
13.33 6.1220002 -0.20200001
13.368 6.1880002 -0.20299999
13.38 6.2420001 -0.204
13.41 6.3049998 -0.205
13.462 6.3790002 -0.206
13.453 6.4229999 -0.206
13.473 6.4819999 -0.207
13.504 6.546 -0.208
13.557 6.6209998 -0.20999999
12.495 6.2389998 -0.19499999
12.197 6.1350002 -0.191
12.243 6.2030001 -0.192
12.237 6.29 -0.193
12.285 6.3590002 -0.19400001
12.261 6.3920002 -0.19400001
12.081 6.342 -0.192
12.035 6.362 -0.192
12.091 6.4349999 -0.193
12.145 6.5079999 -0.19499999
12.122 6.54 -0.19499999
12.198 6.6259999 -0.197
12.166 6.6529999 -0.197
12.274 6.757 -0.199
10.683 6.152 -0.177
10.507 6.0890002 -0.17399999
10.429 6.0819998 -0.17299999
10.382 6.0910001 -0.17299999
10.317 6.0900002 -0.17200001
10.258 6.092 -0.17200001
10.202 6.0949998 -0.17200001
10.149 6.0999999 -0.171
10.087 6.099 -0.171
10.041 6.1069999 -0.17
10.004 6.1199999 -0.17
9.948 6.1209998 -0.17
9.9209995 6.1399999 -0.17
9.9130001 6.1700001 -0.17
9.974 6.243 -0.171
10.209 6.4260001 -0.176
5.8330002 3.773 -0.102
5.7350001 3.7290001 -0.1
5.6869998 3.7179999 -0.1
5.6490002 3.7119999 -0.098999999
5.6170001 3.711 -0.098999999
5.5689998 3.698 -0.098999999
5.4850001 3.661 -0.097000003
5.4429998 3.651 -0.097000003
5.4029999 3.6429999 -0.096000001
5.3709998 3.6389999 -0.096000001
5.3600001 3.6500001 -0.096000001
5.3369999 3.652 -0.096000001
5.3340001 3.6670001 -0.096000001
5.3039999 3.664 -0.096000001
5.3010001 3.6789999 -0.096000001
5.2930002 3.691 -0.096000001
5.2789998 3.698 -0.096000001
5.2719998 3.71 -0.096000001
5.257 3.7160001 -0.096000001
5.25 3.7290001 -0.097000003
5.2459998 3.7420001 -0.097000003
5.2399998 3.7550001 -0.097000003
5.2329998 3.7650001 -0.097000003
5.2220001 3.7739999 -0.097000003
5.2220001 3.79 -0.097000003
5.2090001 3.7969999 -0.097000003
7.3340001 -4.3119998 0.013
7.3509998 -4.3010001 0.013
7.3579998 -4.2839999 0.013
7.3639998 -4.2670002 0.013
7.3649998 -4.2459998 0.013
7.3850002 -4.237 0.013
7.3860002 -4.217 0.013
7.402 -4.2049999 0.013
7.4250002 -4.197 0.013
7.4320002 -4.1799998 0.013
7.4369998 -4.1620002 0.013
7.4520001 -4.1490002 0.013
7.448 -4.125 0.014
7.467 -4.1139998 0.014
7.4780002 -4.099 0.014
7.487 -4.0830002 0.014
7.4959998 -4.0669999 0.014
7.5110002 -4.053 0.014
7.5170002 -4.0349998 0.014
7.5289998 -4.02 0.014
7.533 -4 0.014
7.5469999 -3.9860001 0.014
7.5580001 -3.97 0.014
7.5489998 -3.944 0.014
7.5359998 -3.915 0.014
7.5630002 -3.908 0.015
7.5939999 -3.902 0.015
7.6009998 -3.8840001 0.015
7.6009998 -3.862 0.015
7.6199999 -3.8499999 0.015
7.6269999 -3.8310001 0.015
7.6329999 -3.812 0.015
7.652 -3.8 0.015
7.6700001 -3.786 0.015
7.6680002 -3.763 0.015
7.6919999 -3.753 0.015
7.6950002 -3.7320001 0.016000001
7.7140002 -3.72 0.016000001
7.7290001 -3.7049999 0.016000001
7.737 -3.6860001 0.016000001
7.7589998 -3.674 0.016000001
7.7610002 -3.6530001 0.016000001
7.7639999 -3.632 0.016000001
7.783 -3.618 0.016000001
7.7950001 -3.6010001 0.016000001
7.803 -3.5829999 0.016000001
7.8169999 -3.566 0.016000001
7.8390002 -3.5539999 0.017000001
7.8520002 -3.5369999 0.017000001
7.8699999 -3.5220001 0.017000001
7.8720002 -3.5 0.017000001
7.8870001 -3.484 0.017000001
7.895 -3.4649999 0.017000001
7.914 -3.45 0.017000001
7.9299998 -3.4349999 0.017000001
7.9400001 -3.4159999 0.017000001
7.9660001 -3.404 0.017000001
7.9759998 -3.385 0.017000001
7.9949999 -3.3699999 0.017999999
8.0120001 -3.3540001 0.017999999
8.007 -3.329 0.017999999
8.0220003 -3.312 0.017999999
8.0439997 -3.2980001 0.017999999
8.059 -3.2809999 0.017999999
8.0670004 -3.2609999 0.017999999
8.0810003 -3.243 0.017999999
8.0860004 -3.2219999 0.017999999
8.1239996 -3.2130001 0.017999999
8.1359997 -3.194 0.018999999
8.1429996 -3.174 0.018999999
8.1540003 -3.155 0.018999999
8.1879997 -3.1440001 0.018999999
8.2110004 -3.1289999 0.018999999
8.2399998 -3.1159999 0.018999999
8.2639999 -3.1010001 0.018999999
8.2489996 -3.072 0.018999999
8.2709999 -3.056 0.018999999
8.2770004 -3.0339999 0.018999999
8.2810001 -3.0120001 0.02
8.3079996 -2.9979999 0.02
8.3269997 -2.9809999 0.02
8.3269997 -2.957 0.02
8.3559999 -2.9430001 0.02
8.3669996 -2.9219999 0.02
8.3830004 -2.904 0.02
8.3990002 -2.885 0.02
8.4320002 -2.872 0.02
8.4259996 -2.846 0.02
8.4689999 -2.836 0.021
8.4709997 -2.812 0.021
8.4820004 -2.7909999 0.021
8.4940004 -2.7709999 0.021
8.5319996 -2.7590001 0.021
8.5310001 -2.734 0.021
8.5579996 -2.7179999 0.021
8.5719995 -2.697 0.021
8.5880003 -2.678 0.021
8.6000004 -2.6570001 0.022
8.6470003 -2.6459999 0.022
8.6689997 -2.628 0.022
8.6630001 -2.6010001 0.022
8.6899996 -2.585 0.022
8.6969995 -2.5610001 0.022
8.7189999 -2.543 0.022
8.7449999 -2.5250001 0.022
8.7580004 -2.5039999 0.022
8.7849998 -2.4860001 0.023
8.8199997 -2.471 0.023
8.8470001 -2.4530001 0.023
8.8660002 -2.4330001 0.023
8.8809996 -2.411 0.023
8.8870001 -2.388 0.023
8.908 -2.368 0.023
8.9259996 -2.3469999 0.023
8.9379997 -2.3239999 0.024
8.9820004 -2.3099999 0.024
9.0059996 -2.29 0.024
9.0080004 -2.2650001 0.024
9.0369997 -2.2460001 0.024
9.0469999 -2.223 0.024
9.0810003 -2.2049999 0.024
9.1029997 -2.184 0.024
9.1079998 -2.1589999 0.025
9.1210003 -2.1359999 0.025
9.1610003 -2.119 0.025
9.1800003 -2.0969999 0.025
9.2080002 -2.0769999 0.025
9.2200003 -2.0539999 0.025
9.2539997 -2.0350001 0.025
9.2729998 -2.0120001 0.025
9.2919998 -1.99 0.026000001
9.316 -1.9680001 0.026000001
9.3450003 -1.948 0.026000001
9.3719997 -1.927 0.026000001
9.375 -1.9 0.026000001
9.4099998 -1.881 0.026000001
9.4650002 -1.865 0.026000001
9.4700003 -1.8380001 0.027000001
9.5109997 -1.819 0.027000001
9.5500002 -1.8 0.027000001
9.5760002 -1.777 0.027000001
9.6099997 -1.756 0.027000001
9.6359997 -1.733 0.027000001
9.6680002 -1.711 0.028000001
9.6730003 -1.6849999 0.028000001
9.6879997 -1.66 0.028000001
9.7259998 -1.638 0.028000001
9.7580004 -1.6160001 0.028000001
9.7910004 -1.5930001 0.028000001
9.849 -1.575 0.028000001
9.9420004 -1.561 0.028999999
9.875 -1.523 0.028999999
9.8920002 -1.497 0.028999999
9.9460001 -1.477 0.028999999
9.9890003 -1.455 0.028999999
10.032 -1.432 0.028999999
10.063 -1.408 0.029999999
10.088 -1.383 0.029999999
10.136 -1.3609999 0.029999999
10.172 -1.337 0.029999999
10.2 -1.311 0.029999999
10.212 -1.284 0.029999999
10.272 -1.262 0.030999999
10.329 -1.24 0.030999999
10.339 -1.211 0.030999999
10.403 -1.189 0.030999999
10.442 -1.164 0.030999999
10.468 -1.137 0.032000002
10.534 -1.114 0.032000002
10.602 -1.092 0.032000002
10.656 -1.067 0.032000002
10.69 -1.04 0.033
10.689 -1.0089999 0.033
10.71 -0.98100001 0.033
10.77 -0.95599997 0.033
10.816 -0.92900002 0.033
10.878 -0.903 0.033
10.943 -0.87800002 0.034000002
10.963 -0.84799999 0.034000002
10.959 -0.81699997 0.034000002
11.06 -0.79299998 0.034000002
11.072 -0.76200002 0.034000002
11.178 -0.73799998 0.035
11.166 0.30700001 -0.097000003
11.168 0.322 -0.097000003
11.036 0.33399999 -0.096000001
11.056 0.34999999 -0.096000001
11.037 0.366 -0.096000001
11.048 0.38299999 -0.096000001
11.004 0.398 -0.096000001
11.026 0.41499999 -0.097000003
11.012 0.43200001 -0.097000003
10.972 0.447 -0.096000001
10.97 0.465 -0.097000003
10.964 0.48199999 -0.097000003
10.94 0.49900001 -0.097000003
10.965 0.51800001 -0.097000003
10.968 0.537 -0.097000003
10.96 0.55500001 -0.097000003
10.983 0.57499999 -0.097999997
10.983 0.59399998 -0.097999997
10.97 0.61299998 -0.097999997
10.965 0.63200003 -0.097999997
10.995 0.65399998 -0.098999999
10.992 0.67400002 -0.098999999
10.995 0.69499999 -0.098999999
10.984 0.71499997 -0.098999999
10.968 0.73400003 -0.098999999
10.988 0.75700003 -0.1
11.048 0.78200001 -0.1
8.5240002 0.62 -0.077
8.4420004 0.63099998 -0.077
8.3809996 0.64300001 -0.075999998
8.3699999 0.65899998 -0.075999998
8.3610001 0.67500001 -0.077
8.3610001 0.69300002 -0.077
8.3760004 0.71100003 -0.077
8.4420004 0.73500001 -0.078000002
8.6960001 0.77499998 -0.079999998
11.088 1.012 -0.103
11.092 1.0369999 -0.103
11.125 1.064 -0.104
11.122 1.0880001 -0.104
11.147 1.115 -0.104
11.171 1.143 -0.105
8.4379997 0.88200003 -0.079000004
8.3100004 0.88800001 -0.078000002
8.2550001 0.90100002 -0.078000002
8.2349997 0.91799998 -0.078000002
8.2259998 0.93599999 -0.078000002
8.2060003 0.95300001 -0.078000002
8.2130003 0.97299999 -0.078000002
8.2309999 0.995 -0.078000002
8.2980003 1.023 -0.079000004
11.3 1.421 -0.108
11.305 1.449 -0.109
11.334 1.4809999 -0.109
11.333 1.5089999 -0.109
11.359 1.54 -0.11
11.389 1.573 -0.11
11.378 1.6 -0.111
11.398 1.632 -0.111
11.43 1.666 -0.112
11.473 1.702 -0.112
11.502 1.7359999 -0.113
11.539 1.772 -0.113
11.54 1.803 -0.114
11.578 1.84 -0.114
11.598 1.874 -0.115
11.642 1.9119999 -0.116
11.659 1.947 -0.116
11.675 1.9809999 -0.116
11.684 2.0150001 -0.117
11.701 2.05 -0.117
11.715 2.085 -0.118
11.751 2.1240001 -0.118
11.781 2.1630001 -0.119
11.809 2.201 -0.12
11.833 2.2390001 -0.12
11.862 2.279 -0.121
11.892 2.319 -0.121
11.9 2.355 -0.122
11.945 2.3989999 -0.122
11.974 2.4389999 -0.123
11.985 2.477 -0.123
12.026 2.5209999 -0.124
12.039 2.559 -0.125
12.069 2.602 -0.125
12.078 2.6400001 -0.126
12.095 2.681 -0.126
12.14 2.727 -0.127
12.158 2.7690001 -0.12800001
12.177 2.8099999 -0.12800001
12.198 2.8529999 -0.12899999
12.225 2.8970001 -0.12899999
12.243 2.9400001 -0.13
12.237 2.977 -0.13
12.269 3.023 -0.131
12.285 3.066 -0.131
12.297 3.108 -0.132
12.327 3.155 -0.132
12.324 3.194 -0.133
12.321 3.233 -0.133
12.345 3.279 -0.134
9.2250004 2.4809999 -0.1
12.483 3.3570001 -0.13600001
9.1280003 2.484 -0.098999999
9.1099997 2.5090001 -0.098999999
9.1099997 2.54 -0.1
9.1309996 2.576 -0.1
9.2469997 2.6389999 -0.102
12.471 3.5599999 -0.13699999
12.47 3.6010001 -0.138
12.497 3.651 -0.138
12.498 3.694 -0.139
12.51 3.74 -0.139
12.524 3.7869999 -0.14
12.543 3.836 -0.14
12.554 3.882 -0.141
9.0570002 2.832 -0.102
12.707 3.974 -0.14300001
8.9860001 2.8410001 -0.101
8.9519997 2.862 -0.101
8.948 2.892 -0.101
9.0129995 2.9449999 -0.103
12.778 4.1750002 -0.146
12.656 4.1799998 -0.145
12.677 4.2319999 -0.145
12.712 4.289 -0.146
12.71 4.3340001 -0.146
12.743 4.3909998 -0.147
12.744 4.4369998 -0.148
12.781 4.4959998 -0.149
12.789 4.546 -0.149
12.805 4.598 -0.15000001
12.843 4.6589999 -0.15099999
12.911 4.7319999 -0.152
12.96 4.7979999 -0.153
12.988 4.8559999 -0.154
13.054 4.9299998 -0.155
13.047 4.9759998 -0.155
13.095 5.0440001 -0.156
13.162 5.119 -0.15700001
13.18 5.177 -0.15800001
13.255 5.256 -0.16
13.235 5.2989998 -0.16
13.229 5.3470001 -0.16
13.27 5.415 -0.161
13.309 5.4829998 -0.162
13.314 5.5370002 -0.163
13.346 5.6020002 -0.164
13.379 5.6680002 -0.164
13.432 5.744 -0.16599999
13.435 5.7979999 -0.16599999
13.482 5.8720002 -0.167
13.523 5.9429998 -0.168
13.582 6.0229998 -0.169
13.616 6.0929999 -0.17
13.613 6.1469998 -0.171
13.632 6.21 -0.17200001
13.629 6.2639999 -0.17200001
13.654 6.3309999 -0.17299999
13.624 6.3730001 -0.17299999
13.656 6.4439998 -0.17399999
13.654 6.4990001 -0.175
13.687 6.572 -0.176
13.764 6.6659999 -0.177
12.245 6.1350002 -0.15899999
12.205 6.1659999 -0.15899999
12.197 6.2659998 -0.16
12.297 6.3699999 -0.162
12.247 6.3959999 -0.162
12.057 6.349 -0.16
12.032 6.388 -0.16
12.09 6.4710002 -0.161
12.098 6.527 -0.162
12.198 6.6350002 -0.164
12.177 6.677 -0.164
12.15 6.7150002 -0.164
10.79 6.2509999 -0.149
10.568 6.1700001 -0.146
10.431 6.1370001 -0.145
10.36 6.1420002 -0.14399999
10.298 6.152 -0.14399999
10.243 6.1659999 -0.14300001
10.171 6.1690001 -0.14300001
10.118 6.1830001 -0.142
10.051 6.1890001 -0.142
9.9960003 6.2010002 -0.142
9.9499998 6.2189999 -0.141
9.8889999 6.2259998 -0.141
9.8529997 6.25 -0.141
9.8479996 6.2930002 -0.141
9.8959999 6.3699999 -0.14300001
10.147 6.579 -0.147
5.8369999 3.8959999 -0.085000001
5.6919999 3.826 -0.082999997
5.6199999 3.8039999 -0.082999997
5.5770001 3.802 -0.082000002
5.5510001 3.8110001 -0.082000002
5.4879999 3.7939999 -0.081
5.4109998 3.7679999 -0.081
5.3569999 3.756 -0.079999998
5.3140001 3.7520001 -0.079999998
5.276 3.7509999 -0.079000004
5.2519999 3.7590001 -0.079000004
5.224 3.7650001 -0.079000004
7.0240002 -4.632 0.028999999
7.0560002 -4.6090002 0.028999999
7.0770001 -4.579 0.028999999
7.1149998 -4.559 0.029999999
7.1350002 -4.5279999 0.029999999
7.1589999 -4.5 0.029999999
7.1890001 -4.4749999 0.029999999
7.2129998 -4.448 0.029999999
7.2350001 -4.4180002 0.029999999
7.2410002 -4.3790002 0.029999999
7.2670002 -4.3530002 0.029999999
7.2989998 -4.3299999 0.030999999
7.3319998 -4.3080001 0.030999999
7.3460002 -4.2750001 0.030999999
7.3610001 -4.2420001 0.030999999
7.395 -4.2210002 0.030999999
7.4039998 -4.1849999 0.030999999
7.434 -4.1609998 0.032000002
7.4460001 -4.1279998 0.032000002
7.4679999 -4.0999999 0.032000002
7.467 -4.0599999 0.032000002
7.4749999 -4.0250001 0.032000002
7.513 -4.006 0.032000002
7.5419998 -3.983 0.032000002
7.5630002 -3.954 0.032000002
7.5799999 -3.924 0.032000002
7.6020002 -3.898 0.033
7.6149998 -3.8659999 0.033
7.6329999 -3.8369999 0.033
7.6459999 -3.806 0.033
7.677 -3.783 0.033
7.697 -3.756 0.033
7.7199998 -3.73 0.033
7.7319999 -3.6989999 0.033
7.7729998 -3.6819999 0.034000002
7.7870002 -3.651 0.034000002
7.8140001 -3.628 0.034000002
7.8200002 -3.5940001 0.034000002
7.842 -3.5680001 0.034000002
7.8740001 -3.5469999 0.034000002
7.882 -3.5150001 0.034000002
7.901 -3.487 0.035
7.9229999 -3.4619999 0.035
7.9590001 -3.4419999 0.035
7.9790001 -3.4159999 0.035
8.0170002 -3.3970001 0.035
8.0340004 -3.369 0.035
8.0469999 -3.3399999 0.035999998
8.0740004 -3.316 0.035999998
8.1009998 -3.293 0.035999998
8.1169996 -3.266 0.035999998
8.1540003 -3.2460001 0.035999998
8.191 -3.227 0.035999998
8.1850004 -3.191 0.035999998
8.2130003 -3.168 0.037
8.2410002 -3.1459999 0.037
8.2740002 -3.125 0.037
8.2959995 -3.0999999 0.037
8.3240004 -3.0769999 0.037
8.3319998 -3.0469999 0.037
8.3430004 -3.0179999 0.037
8.3640003 -2.993 0.037999999
8.3920002 -2.971 0.037999999
8.415 -2.947 0.037999999
8.4399996 -2.9230001 0.037999999
8.4809999 -2.905 0.037999999
8.4899998 -2.8759999 0.037999999
8.5279999 -2.8570001 0.039000001
8.5579996 -2.835 0.039000001
8.5710001 -2.8080001 0.039000001
8.6049995 -2.7880001 0.039000001
8.6239996 -2.7620001 0.039000001
8.6470003 -2.7379999 0.039000001
8.6719999 -2.7149999 0.039999999
8.724 -2.7 0.039999999
8.7580004 -2.6800001 0.039999999
8.7580004 -2.6489999 0.039999999
8.7679996 -2.6210001 0.039999999
8.8050003 -2.602 0.039999999
8.8280001 -2.5780001 0.041000001
8.8690004 -2.5599999 0.041000001
8.9209995 -2.5439999 0.041000001
8.9689999 -2.527 0.041000001
8.9750004 -2.4990001 0.041000001
8.9829998 -2.471 0.041999999
9.0050001 -2.447 0.041999999
9.0319996 -2.425 0.041999999
9.0539999 -2.401 0.041999999
9.0690002 -2.3759999 0.041999999
9.1009998 -2.3540001 0.041999999
9.1230001 -2.3310001 0.043000001
9.1800003 -2.316 0.043000001
9.2040005 -2.293 0.043000001
9.2279997 -2.27 0.043000001
9.2349997 -2.243 0.043000001
9.2349997 -2.214 0.043000001
9.2740002 -2.1949999 0.044
9.3039999 -2.1730001 0.044
9.3450003 -2.154 0.044
9.375 -2.132 0.044
9.3979998 -2.109 0.044
9.4329996 -2.089 0.045000002
9.4569998 -2.066 0.045000002
9.4860001 -2.0439999 0.045000002
9.5150003 -2.023 0.045000002
9.5410004 -2 0.045000002
9.5939999 -1.984 0.046
9.585 -1.954 0.046
9.6309996 -1.936 0.046
9.6520004 -1.913 0.046
9.6850004 -1.892 0.046
9.7119999 -1.87 0.046
9.7449999 -1.849 0.046999998
9.7650003 -1.826 0.046999998
9.8179998 -1.808 0.046999998
9.802 -1.779 0.046999998
9.8470001 -1.76 0.046999998
9.8699999 -1.737 0.048
9.8979998 -1.716 0.048
9.9350004 -1.6950001 0.048
9.9659996 -1.674 0.048
9.9809999 -1.651 0.048
10.019 -1.631 0.048999999
10.09 -1.6160001 0.048999999
10.179 -1.604 0.048999999
10.135 -1.571 0.048999999
10.098 -1.539 0.048999999
10.134 -1.5190001 0.048999999
10.165 -1.498 0.050000001
10.189 -1.476 0.050000001
10.259 -1.461 0.050000001
10.277 -1.438 0.050000001
10.296 -1.415 0.050000001
10.326 -1.3940001 0.050999999
10.346 -1.372 0.050999999
10.362 -1.349 0.050999999
10.383 -1.327 0.050999999
10.433 -1.308 0.050999999
10.49 -1.291 0.052000001
10.525 -1.27 0.052000001
10.549 -1.249 0.052000001
10.572 -1.227 0.052000001
10.6 -1.206 0.052000001
10.655 -1.188 0.052999999
10.658 -1.164 0.052999999
10.705 -1.145 0.052999999
10.72 -1.122 0.052999999
10.746 -1.101 0.052999999
10.755 -1.0779999 0.054000001
10.8 -1.059 0.054000001
10.815 -1.0369999 0.054000001
10.829 -1.015 0.054000001
10.84 -0.99199998 0.054000001
10.865 -0.97100002 0.054000001
10.868 -0.949 0.055
10.899 -0.92799997 0.055
10.935 -0.90899998 0.055
10.951 -0.88700002 0.055
10.956 -0.86500001 0.055
11.012 -0.847 0.056000002
11.034 -0.82599998 0.056000002
11.074 -0.80699998 0.056000002
11.114 -0.787 0.056000002
11.158 -0.76800001 0.056000002
11.163 -0.74599999 0.057
11.2 -0.727 0.057
11.246 -0.708 0.057
11.281 -0.68800002 0.057
11.277 -0.66600001 0.057
11.299 -0.64600003 0.057999998
11.393 -0.63 0.057999998
10.866 0.13699999 -0.063000001
10.883 0.15700001 -0.063000001
10.856 0.177 -0.063000001
10.878 0.197 -0.063000001
10.904 0.21799999 -0.064000003
10.906 0.23800001 -0.064000003
10.912 0.259 -0.064000003
10.929 0.28099999 -0.064000003
10.923 0.30199999 -0.064999998
10.896 0.32300001 -0.064999998
10.91 0.345 -0.064999998
10.936 0.36700001 -0.064999998
10.91 0.389 -0.064999998
10.922 0.412 -0.064999998
10.915 0.43399999 -0.066
10.905 0.456 -0.066
10.884 0.47799999 -0.066
10.927 0.50400001 -0.066
10.932 0.52700001 -0.066
10.951 0.55199999 -0.067000002
10.968 0.57700002 -0.067000002
10.962 0.60100001 -0.067000002
10.954 0.625 -0.067000002
10.967 0.64999998 -0.068000004
10.981 0.676 -0.068000004
10.961 0.699 -0.068000004
10.99 0.72600001 -0.068000004
10.988 0.75199997 -0.068999998
10.995 0.778 -0.068999998
11.065 0.80900002 -0.07
8.5430002 0.64499998 -0.054000001
8.4350004 0.65700001 -0.052999999
8.382 0.67299998 -0.052999999
8.3649998 0.69099998 -0.052999999
8.3610001 0.71100003 -0.052999999
8.3640003 0.73199999 -0.052999999
8.4069996 0.75700003 -0.054000001
8.5109997 0.787 -0.055
11.123 1.057 -0.071999997
11.165 1.089 -0.071999997
11.171 1.118 -0.072999999
11.189 1.148 -0.072999999
11.216 1.1799999 -0.072999999
8.5950003 0.926 -0.056000002
8.3339996 0.92000002 -0.055
8.2480001 0.93199998 -0.054000001
8.2200003 0.94999999 -0.054000001
8.2159996 0.972 -0.054000001
8.2049999 0.99199998 -0.055
8.2110004 1.015 -0.055
8.2629995 1.043 -0.055
8.4759998 1.0930001 -0.057
11.403 1.471 -0.077
11.407 1.503 -0.077
11.442 1.539 -0.077
11.451 1.571 -0.078000002
11.479 1.607 -0.078000002
11.51 1.643 -0.079000004
11.539 1.679 -0.079000004
11.572 1.717 -0.079999998
11.614 1.756 -0.079999998
11.661 1.796 -0.081
11.673 1.831 -0.081
11.683 1.8660001 -0.081
11.728 1.9069999 -0.082000002
11.769 1.948 -0.082999997
11.815 1.989 -0.082999997
11.826 2.026 -0.083999999
11.851 2.0650001 -0.083999999
11.895 2.1070001 -0.085000001
11.936 2.1500001 -0.085000001
11.947 2.187 -0.086000003
11.991 2.2309999 -0.086000003
12.014 2.2709999 -0.086999997
12.048 2.3139999 -0.086999997
12.081 2.3570001 -0.088
12.124 2.401 -0.088
12.129 2.4389999 -0.089000002
12.193 2.4890001 -0.089000002
12.222 2.533 -0.090000004
12.242 2.575 -0.090000004
12.275 2.619 -0.090999998
12.279 2.658 -0.090999998
12.295 2.7 -0.092
12.349 2.75 -0.092
12.355 2.79 -0.093000002
12.381 2.835 -0.093000002
12.382 2.8740001 -0.093999997
12.396 2.9170001 -0.093999997
12.407 2.9590001 -0.093999997
12.424 3.003 -0.094999999
12.433 3.0439999 -0.094999999
12.456 3.0899999 -0.096000001
12.472 3.1340001 -0.096000001
12.507 3.1830001 -0.097000003
12.537 3.2309999 -0.097000003
12.566 3.28 -0.097999997
9.349 2.47 -0.072999999
12.624 3.336 -0.098999999
9.177 2.4549999 -0.071999997
9.1199999 2.4690001 -0.071999997
9.0950003 2.493 -0.071999997
9.0869999 2.52 -0.071999997
9.1370001 2.5639999 -0.072999999
12.857 3.609 -0.102
9.3549995 2.6570001 -0.075000003
12.733 3.6159999 -0.102
12.705 3.6500001 -0.102
12.694 3.6889999 -0.102
12.684 3.7290001 -0.102
12.699 3.776 -0.103
12.73 3.8280001 -0.103
12.762 3.881 -0.104
9.217 2.8340001 -0.075000003
12.813 3.9389999 -0.105
9.0150003 2.802 -0.074000001
8.9689999 2.8180001 -0.074000001
8.9379997 2.839 -0.074000001
8.9379997 2.869 -0.074000001
8.9940004 2.918 -0.075000003
13.234 4.2940001 -0.11
12.957 4.2480001 -0.108
12.991 4.3039999 -0.109
13.048 4.368 -0.11
13.065 4.4190001 -0.11
13.092 4.473 -0.111
13.106 4.5229998 -0.111
13.129 4.5770001 -0.112
13.165 4.6350002 -0.113
13.221 4.7010002 -0.114
13.286 4.7709999 -0.114
13.319 4.829 -0.115
13.372 4.895 -0.116
13.398 4.9520001 -0.117
13.445 5.0159998 -0.117
13.482 5.0780001 -0.118
13.549 5.151 -0.119
13.57 5.2069998 -0.12
13.61 5.27 -0.121
13.624 5.3239999 -0.121
13.668 5.3899999 -0.122
13.747 5.4699998 -0.123
13.791 5.5370002 -0.124
13.796 5.5879998 -0.124
13.838 5.6550002 -0.125
13.847 5.7080002 -0.126
13.902 5.7800002 -0.127
13.89 5.8249998 -0.127
13.916 5.8860002 -0.12800001
13.929 5.9419999 -0.12800001
13.995 6.02 -0.12899999
14.011 6.0780001 -0.13
14.061 6.151 -0.131
14.081 6.21 -0.132
14.049 6.2470002 -0.132
13.855 6.211 -0.13
13.813 6.2420001 -0.13
12.238 6.1550002 -0.121
12.182 6.171 -0.121
12.182 6.2600002 -0.122
12.099 6.2620001 -0.122
12.129 6.322 -0.122
12.111 6.3559999 -0.123
12.05 6.368 -0.123
12.045 6.4089999 -0.123
12.112 6.4889998 -0.124
12.11 6.533 -0.124
12.231 6.6430001 -0.126
12.21 6.7199998 -0.127
12.248 6.7849998 -0.12800001
10.632 6.1599998 -0.114
10.52 6.1329999 -0.113
10.419 6.112 -0.112
10.353 6.1100001 -0.112
10.302 6.1170001 -0.112
10.251 6.1240001 -0.111
10.199 6.1290002 -0.111
10.142 6.131 -0.111
10.098 6.1409998 -0.111
10.064 6.1550002 -0.111
10.02 6.164 -0.111
9.9910002 6.1820002 -0.111
9.9610004 6.198 -0.111
9.9689999 6.2389998 -0.111
10.081 6.3449998 -0.113
5.8070002 3.796 -0.066
5.7059999 3.75 -0.066
5.652 3.733 -0.064999998
5.6030002 3.72 -0.064999998
5.5500002 3.7030001 -0.064000003
5.4959998 3.6860001 -0.064000003
5.448 3.6719999 -0.064000003
5.4050002 3.661 -0.063000001
5.3740001 3.658 -0.063000001
5.355 3.6630001 -0.063000001
5.3280001 3.6619999 -0.063000001
5.3210001 3.675 -0.063000001
5.3080001 3.684 -0.063000001
5.3000002 3.6949999 -0.063000001
5.2849998 3.7019999 -0.063000001
5.277 3.714 -0.064000003
5.2639999 3.721 -0.064000003
5.2529998 3.73 -0.064000003
5.2550001 3.7479999 -0.064000003
5.2519999 3.763 -0.064000003
5.2360001 3.767 -0.064000003
5.2350001 3.783 -0.064000003
5.2220001 3.79 -0.064000003
5.2210002 3.8050001 -0.064999998
7.4990001 -4.4120002 0.048999999
7.5079999 -4.3959999 0.048999999
7.5170002 -4.3800001 0.048999999
7.526 -4.3639998 0.048999999
7.5359998 -4.348 0.048999999
7.5450001 -4.3319998 0.048999999
7.5539999 -4.316 0.048999999
7.5770001 -4.3080001 0.048999999
7.5970001 -4.2969999 0.050000001
7.598 -4.277 0.050000001
7.6220002 -4.2680001 0.050000001
7.619 -4.2449999 0.050000001
7.6230001 -4.2249999 0.050000001
7.632 -4.2080002 0.050000001
7.651 -4.197 0.050000001
7.6539998 -4.177 0.050000001
7.665 -4.1609998 0.050999999
7.6690001 -4.1409998 0.050999999
7.691 -4.131 0.050999999
7.6929998 -4.1100001 0.050999999
7.7069998 -4.0949998 0.050999999
7.7049999 -4.072 0.050999999
7.723 -4.0599999 0.050999999
7.7480001 -4.0510001 0.050999999
7.7680001 -4.039 0.052000001
7.79 -4.0279999 0.052000001
7.7620001 -3.9909999 0.052000001
7.7600002 -3.9679999 0.052000001
7.7820001 -3.957 0.052000001
7.796 -3.9419999 0.052000001
7.809 -3.925 0.052000001
7.8210001 -3.9089999 0.052000001
7.842 -3.8970001 0.052999999
7.8579998 -3.882 0.052999999
7.869 -3.865 0.052999999
7.888 -3.8510001 0.052999999
7.8839998 -3.8269999 0.052999999
7.9109998 -3.8169999 0.052999999
7.9349999 -3.806 0.054000001
7.9159999 -3.7739999 0.054000001
7.9629998 -3.773 0.054000001
7.9549999 -3.7460001 0.054000001
7.9590001 -3.7249999 0.054000001
7.9920001 -3.7179999 0.054000001
7.9949999 -3.6960001 0.054000001
8.0240002 -3.6860001 0.055
8.0179996 -3.6600001 0.055
8.0410004 -3.6470001 0.055
8.0419998 -3.625 0.055
8.0640001 -3.6110001 0.055
8.0670004 -3.589 0.055
8.0889997 -3.576 0.055
8.1149998 -3.5639999 0.056000002
8.1260004 -3.5450001 0.056000002
8.1400003 -3.527 0.056000002
8.1590004 -3.5120001 0.056000002
8.1789999 -3.497 0.056000002
8.1739998 -3.471 0.056000002
8.1940002 -3.4560001 0.056000002
8.2040005 -3.437 0.057
8.2349997 -3.4260001 0.057
8.2410002 -3.404 0.057
8.2489996 -3.3840001 0.057
8.2700005 -3.368 0.057
8.2989998 -3.3559999 0.057999998
8.2969999 -3.332 0.057999998
8.3219995 -3.3169999 0.057999998
8.3389997 -3.3 0.057999998
8.3520002 -3.2809999 0.057999998
8.3690004 -3.2639999 0.057999998
8.3789997 -3.243 0.057999998
8.4099998 -3.2309999 0.059
8.4119997 -3.207 0.059
8.4329996 -3.191 0.059
8.4619999 -3.177 0.059
8.4650002 -3.154 0.059
8.4840002 -3.1359999 0.059
8.4949999 -3.1159999 0.059999999
8.5 -3.0929999 0.059999999
8.5200005 -3.076 0.059999999
8.5419998 -3.059 0.059999999
8.5570002 -3.04 0.059999999
8.5550003 -3.0139999 0.059999999
8.585 -3 0.061000001
8.5889997 -2.977 0.061000001
8.6339998 -2.967 0.061000001
8.6420002 -2.9449999 0.061000001
8.6470003 -2.9219999 0.061000001
8.6709995 -2.905 0.061000001
8.6920004 -2.8870001 0.061999999
8.7119999 -2.868 0.061999999
8.7209997 -2.846 0.061999999
8.7290001 -2.823 0.061999999
8.757 -2.8069999 0.061999999
8.7749996 -2.7880001 0.063000001
8.7989998 -2.77 0.063000001
8.8249998 -2.753 0.063000001
8.8780003 -2.744 0.063000001
8.9219999 -2.7320001 0.064000003
8.9110003 -2.7030001 0.064000003
8.9189997 -2.6789999 0.064000003
8.9309998 -2.6570001 0.064000003
8.9540005 -2.638 0.064000003
8.9709997 -2.6170001 0.064000003
8.9899998 -2.5969999 0.064999998
8.9969997 -2.573 0.064999998
9.0600004 -2.5650001 0.064999998
9.0950003 -2.549 0.066
9.1079998 -2.526 0.066
9.1230001 -2.5039999 0.066
9.1239996 -2.4779999 0.066
9.1300001 -2.4530001 0.066
9.1520004 -2.4330001 0.066
9.184 -2.415 0.067000002
9.1899996 -2.3900001 0.067000002
9.2519999 -2.3800001 0.067000002
9.2449999 -2.3510001 0.067000002
9.2650003 -2.3299999 0.067000002
9.2980003 -2.312 0.068000004
9.2959995 -2.2839999 0.068000004
9.3500004 -2.2709999 0.068000004
9.3649998 -2.2479999 0.068000004
9.3900003 -2.227 0.068000004
9.4189997 -2.2060001 0.068999998
9.434 -2.1830001 0.068999998
9.46 -2.1619999 0.068999998
9.4940004 -2.142 0.068999998
9.5389996 -2.125 0.07
9.5620003 -2.1029999 0.07
9.5860004 -2.0810001 0.07
9.6289997 -2.062 0.071000002
9.6639996 -2.0420001 0.071000002
9.6759996 -2.017 0.071000002
9.7019997 -1.995 0.071000002
9.7270002 -1.972 0.071999997
9.7539997 -1.95 0.071999997
9.7880001 -1.928 0.071999997
9.823 -1.9069999 0.072999999
9.8409996 -1.882 0.072999999
9.8769999 -1.8609999 0.072999999
9.9060001 -1.8380001 0.072999999
9.927 -1.814 0.074000001
9.9469995 -1.789 0.074000001
9.993 -1.7690001 0.074000001
10.018 -1.745 0.074000001
10.048 -1.721 0.075000003
10.078 -1.697 0.075000003
10.131 -1.677 0.075000003
10.165 -1.654 0.075999998
10.206 -1.632 0.075999998
10.293 -1.6160001 0.077
10.256 -1.581 0.077
10.259 -1.552 0.077
10.302 -1.529 0.077
10.358 -1.508 0.077
10.382 -1.482 0.078000002
10.434 -1.46 0.078000002
10.436 -1.4299999 0.078000002
10.484 -1.4069999 0.079000004
10.568 -1.388 0.079000004
10.592 -1.3609999 0.079999998
10.652 -1.339 0.079999998
10.678 -1.311 0.079999998
10.702 -1.284 0.081
10.735 -1.257 0.081
10.779 -1.232 0.081
10.805 -1.204 0.081
10.842 -1.177 0.082000002
10.861 -1.148 0.082000002
10.89 -1.12 0.082000002
10.926 -1.0930001 0.082999997
10.927 -1.062 0.082999997
10.968 -1.035 0.082999997
11.025 -1.0089999 0.083999999
11.087 -0.98299998 0.083999999
11.122 -0.954 0.083999999
11.158 -0.926 0.085000001
11.227 -0.89999998 0.085000001
11.275 -0.87099999 0.086000003
11.307 -0.84200001 0.086000003
11.345 -0.81199998 0.086000003
11.412 -0.78500003 0.086999997
11.696 0.35600001 -0.044
11.699 0.373 -0.044
11.714 0.391 -0.044
11.701 0.40700001 -0.044
11.736 0.426 -0.044
11.685 0.442 -0.044
11.647 0.45899999 -0.044
11.611 0.47499999 -0.044
11.59 0.493 -0.045000002
11.58 0.51099998 -0.045000002
11.558 0.52899998 -0.045000002
11.551 0.54799998 -0.045000002
11.561 0.56800002 -0.045000002
11.495 0.58399999 -0.045000002
11.515 0.60500002 -0.045000002
11.518 0.625 -0.046
11.52 0.64600003 -0.046
11.52 0.66600001 -0.046
11.513 0.68699998 -0.046
11.503 0.70700002 -0.046
11.506 0.72899997 -0.046
11.523 0.75099999 -0.046999998
11.512 0.77200001 -0.046999998
11.533 0.796 -0.046999998
11.543 0.81900001 -0.046999998
8.6689997 0.63200003 -0.035999998
11.647 0.84899998 -0.048
8.4689999 0.634 -0.035
8.3850002 0.64399999 -0.035
8.3529997 0.65899998 -0.035
8.3360004 0.67400002 -0.035
8.3269997 0.69099998 -0.035
8.3059998 0.70599997 -0.035
8.323 0.72500002 -0.035
8.3540001 0.74599999 -0.035
11.802 1.054 -0.050000001
8.4429998 0.77200001 -0.035999998
11.647 1.0650001 -0.050000001
11.628 1.0880001 -0.050000001
11.648 1.115 -0.050000001
11.664 1.142 -0.050000001
11.679 1.17 -0.050999999
11.676 1.196 -0.050999999
8.6040001 0.89999998 -0.037999999
11.709 1.225 -0.050999999
8.349 0.89300001 -0.037
11.857 1.268 -0.052000001
8.2480001 0.90100002 -0.035999998
8.2349997 0.91799998 -0.035999998
8.2200003 0.93599999 -0.035999998
8.2069998 0.954 -0.037
8.21 0.97299999 -0.037
8.2060003 0.99199998 -0.037
8.2200003 1.0140001 -0.037
8.3319998 1.048 -0.037999999
11.89 1.4960001 -0.054000001
11.845 1.5190001 -0.054000001
11.845 1.548 -0.054000001
11.882 1.582 -0.055
11.925 1.618 -0.055
11.957 1.652 -0.056000002
11.968 1.684 -0.056000002
12.006 1.72 -0.056000002
12.034 1.755 -0.057
12.056 1.789 -0.057
12.057 1.821 -0.057
12.067 1.854 -0.057
12.083 1.888 -0.057999998
12.116 1.926 -0.057999998
12.151 1.964 -0.059
12.173 2 -0.059
12.208 2.039 -0.059
12.212 2.073 -0.059999999
12.269 2.1159999 -0.059999999
12.271 2.1500001 -0.059999999
12.278 2.1860001 -0.061000001
12.311 2.2260001 -0.061000001
12.354 2.2679999 -0.061999999
12.38 2.3080001 -0.061999999
12.378 2.3429999 -0.061999999
12.4 2.3829999 -0.063000001
12.417 2.421 -0.063000001
12.424 2.4590001 -0.063000001
12.453 2.5009999 -0.064000003
12.482 2.543 -0.064000003
12.515 2.586 -0.064999998
12.526 2.6259999 -0.064999998
12.535 2.665 -0.064999998
12.545 2.7049999 -0.066
12.54 2.7409999 -0.066
12.562 2.7839999 -0.066
12.543 2.8180001 -0.066
12.572 2.8629999 -0.067000002
12.59 2.9059999 -0.067000002
12.596 2.9460001 -0.067000002
12.607 2.9879999 -0.068000004
12.627 3.0320001 -0.068000004
12.641 3.075 -0.068999998
12.658 3.119 -0.068999998
12.663 3.1600001 -0.068999998
12.687 3.2060001 -0.07
12.733 3.2590001 -0.07
12.732 3.299 -0.071000002
12.759 3.348 -0.071000002
12.77 3.392 -0.071000002
9.4110003 2.53 -0.052999999
12.82 3.447 -0.071999997
9.1549997 2.4920001 -0.050999999
9.1000004 2.506 -0.050999999
9.0819998 2.5309999 -0.050999999
9.0679998 2.5580001 -0.052000001
9.1040001 2.598 -0.052000001
9.2959995 2.684 -0.052999999
12.937 3.7360001 -0.074000001
12.941 3.7809999 -0.075000003
12.939 3.8239999 -0.075000003
12.939 3.8670001 -0.075000003
12.975 3.9230001 -0.075999998
13.009 3.9779999 -0.075999998
13.061 4.039 -0.077
9.0719995 2.836 -0.054000001
13.242 4.1399999 -0.078000002
8.9659996 2.8340001 -0.052999999
8.9250002 2.8529999 -0.052999999
8.927 2.8840001 -0.052999999
8.9650002 2.928 -0.054000001
9.2119999 3.0420001 -0.056000002
13.296 4.3899999 -0.079999998
13.271 4.4289999 -0.081
13.303 4.487 -0.081
13.351 4.5510001 -0.082000002
13.403 4.6170001 -0.082999997
13.436 4.677 -0.082999997
13.483 4.743 -0.083999999
13.524 4.8060002 -0.083999999
13.583 4.8769999 -0.085000001
13.579 4.9260001 -0.085000001
13.637 4.9970002 -0.086000003
13.706 5.073 -0.086999997
13.772 5.1490002 -0.088
13.813 5.2160001 -0.088
13.831 5.2740002 -0.089000002
13.888 5.348 -0.090000004
13.912 5.4099998 -0.090000004
13.987 5.4920001 -0.090999998
14.077 5.5809999 -0.092
14.107 5.6469998 -0.093000002
14.103 5.6999998 -0.093000002
14.128 5.7639999 -0.093000002
14.156 5.8309999 -0.093999997
14.159 5.8870001 -0.093999997
14.181 5.9510002 -0.094999999
14.191 6.0110002 -0.094999999
14.248 6.0910001 -0.096000001
14.305 6.1719999 -0.097000003
14.374 6.2589998 -0.097999997
14.37 6.3140001 -0.097999997
13.902 6.164 -0.096000001
12.293 6.1059999 -0.089000002
12.203 6.112 -0.089000002
12.156 6.1919999 -0.089000002
12.114 6.2220001 -0.089000002
12.097 6.2649999 -0.090000004
12.089 6.3130002 -0.090000004
12.077 6.3579998 -0.090000004
12.113 6.4289999 -0.090999998
12.126 6.4889998 -0.090999998
12.212 6.5879998 -0.092
10.643 6.165 -0.083999999
10.522 6.1420002 -0.082999997
10.409 6.1230001 -0.082000002
10.343 6.131 -0.082000002
10.277 6.1389999 -0.082000002
10.216 6.1490002 -0.082000002
10.169 6.1669998 -0.082000002
10.108 6.1760001 -0.082000002
10.056 6.191 -0.082000002
10.025 6.2179999 -0.082000002
9.9870005 6.2399998 -0.082000002
9.9560003 6.2670002 -0.082000002
9.9910002 6.336 -0.082000002
10.154 6.487 -0.083999999
5.8800001 3.9230001 -0.050000001
5.6960001 3.8269999 -0.048
5.6100001 3.7969999 -0.048
5.553 3.7850001 -0.048
5.487 3.766 -0.046999998
5.4369998 3.7590001 -0.046999998
5.3779998 3.744 -0.046999998
5.3319998 3.737 -0.046
5.3010001 3.7420001 -0.046
5.2789998 3.7520001 -0.046
5.2540002 3.76 -0.046
5.2179999 3.76 -0.046
7.1939998 -4.7420001 0.064000003
7.217 -4.7119999 0.064999998
7.2470002 -4.6859999 0.064999998
7.2729998 -4.658 0.064999998
7.2979999 -4.6300001 0.064999998
7.3179998 -4.598 0.066
7.3559999 -4.5780001 0.066
7.3699999 -4.5419998 0.066
7.3920002 -4.5120001 0.066
7.427 -4.4899998 0.067000002
7.4489999 -4.46 0.067000002
7.4699998 -4.4299998 0.067000002
7.4840002 -4.395 0.067000002
7.5019999 -4.3639998 0.067000002
7.526 -4.336 0.068000004
7.5510001 -4.3080001 0.068000004
7.5619998 -4.2729998 0.068000004
7.572 -4.237 0.068000004
7.6100001 -4.217 0.068000004
7.6279998 -4.1859999 0.068999998
7.6389999 -4.152 0.068999998
7.6849999 -4.1360002 0.068999998
7.7020001 -4.105 0.068999998
7.7049999 -4.0669999 0.068999998
7.7290001 -4.04 0.07
7.757 -4.0149999 0.07
7.7690001 -3.9820001 0.07
7.783 -3.95 0.07
7.8280001 -3.934 0.071000002
7.8410001 -3.902 0.071000002
7.862 -3.8729999 0.071000002
7.881 -3.845 0.071000002
7.9050002 -3.8180001 0.071000002
7.9169998 -3.786 0.071000002
7.9549999 -3.767 0.071999997
7.9679999 -3.7349999 0.071999997
8.007 -3.7160001 0.071999997
8.0229998 -3.6860001 0.071999997
8.0389996 -3.6570001 0.072999999
8.0509996 -3.625 0.072999999
8.0810003 -3.602 0.072999999
8.1079998 -3.5780001 0.072999999
8.1379995 -3.5539999 0.074000001
8.1569996 -3.527 0.074000001
8.1700001 -3.497 0.074000001
8.2069998 -3.4760001 0.074000001
8.2349997 -3.4519999 0.075000003
8.2349997 -3.4170001 0.075000003
8.2729998 -3.3970001 0.075000003
8.2989998 -3.3729999 0.075000003
8.3219995 -3.3469999 0.075000003
8.3590002 -3.3269999 0.075999998
8.368 -3.296 0.075999998
8.3879995 -3.2690001 0.075999998
8.4119997 -3.244 0.075999998
8.4540005 -3.2260001 0.077
8.4829998 -3.2030001 0.077
8.5050001 -3.177 0.077
8.5240002 -3.1500001 0.078000002
8.5489998 -3.1259999 0.078000002
8.5719995 -3.0999999 0.078000002
8.5979996 -3.076 0.078000002
8.6269999 -3.053 0.079000004
8.6450005 -3.026 0.079000004
8.6610003 -2.9990001 0.079000004
8.6899996 -2.9760001 0.079000004
8.7209997 -2.954 0.079999998
8.7530003 -2.9319999 0.079999998
8.7810001 -2.9089999 0.079999998
8.8129997 -2.8870001 0.079999998
8.8360004 -2.862 0.081
8.8579998 -2.8369999 0.081
8.9029999 -2.819 0.081
8.9449997 -2.8 0.082000002
8.9879999 -2.7820001 0.082000002
8.9949999 -2.7520001 0.082000002
9.0380001 -2.733 0.082999997
9.0459995 -2.704 0.082999997
9.0839996 -2.684 0.082999997
9.1219997 -2.664 0.083999999
9.1269999 -2.6340001 0.083999999
9.1789999 -2.6170001 0.083999999
9.1949997 -2.5910001 0.083999999
9.2440004 -2.5739999 0.085000001
9.2600002 -2.5469999 0.085000001
9.2749996 -2.52 0.085000001
9.3070002 -2.4990001 0.086000003
9.3380003 -2.4760001 0.086000003
9.375 -2.4549999 0.086000003
9.415 -2.4360001 0.086999997
9.434 -2.4100001 0.086999997
9.4619999 -2.3870001 0.086999997
9.5120001 -2.3699999 0.088
9.5620003 -2.352 0.088
9.5889997 -2.329 0.088
9.6110001 -2.3039999 0.089000002
9.6700001 -2.2880001 0.089000002
9.7089996 -2.267 0.090000004
9.743 -2.2460001 0.090000004
9.7690001 -2.2219999 0.090000004
9.7749996 -2.194 0.090000004
9.8030005 -2.171 0.090999998
9.8380003 -2.1489999 0.090999998
9.8780003 -2.1289999 0.090999998
9.8920002 -2.1029999 0.092
9.9230003 -2.0810001 0.092
9.9449997 -2.056 0.092
9.9829998 -2.0350001 0.093000002
9.9899998 -2.0079999 0.093000002
10.031 -1.988 0.093000002
10.058 -1.965 0.093000002
10.069 -1.939 0.093999997
10.11 -1.918 0.093999997
10.127 -1.893 0.093999997
10.192 -1.878 0.094999999
10.227 -1.8559999 0.094999999
10.244 -1.831 0.094999999
10.26 -1.806 0.096000001
10.3 -1.786 0.096000001
10.321 -1.762 0.096000001
10.349 -1.739 0.097000003
10.367 -1.715 0.097000003
10.395 -1.692 0.097000003
10.459 -1.675 0.097999997
10.478 -1.651 0.097999997
10.48 -1.625 0.097999997
10.48 -1.598 0.097999997
10.514 -1.576 0.097999997
10.554 -1.556 0.098999999
10.581 -1.533 0.098999999
10.632 -1.5140001 0.1
10.675 -1.494 0.1
10.664 -1.466 0.1
10.687 -1.443 0.1
10.736 -1.424 0.101
10.757 -1.401 0.101
10.776 -1.377 0.101
10.794 -1.354 0.102
10.815 -1.331 0.102
10.842 -1.309 0.102
10.872 -1.2869999 0.102
10.899 -1.265 0.103
10.916 -1.242 0.103
10.958 -1.222 0.103
10.972 -1.198 0.104
10.999 -1.177 0.104
11.005 -1.153 0.104
11.051 -1.133 0.105
11.053 -1.109 0.105
11.069 -1.086 0.105
11.086 -1.063 0.105
11.117 -1.0420001 0.105
11.149 -1.021 0.106
11.178 -1 0.106
11.195 -0.97799999 0.106
11.219 -0.95599997 0.107
11.269 -0.93699998 0.107
11.283 -0.91500002 0.107
11.335 -0.89499998 0.108
11.445 -0.88099998 0.109
11.417 -0.85500002 0.109
11.409 -0.83200002 0.109
11.459 -0.81199998 0.109
11.515 -0.79299998 0.11
11.603 -0.77600002 0.111
11.594 -0.75300002 0.111
11.601 -0.73100001 0.111
11.686 -0.71399999 0.112
11.47 0.147 -0.0089999996
11.523 0.168 -0.0089999996
11.574 0.19 -0.0099999998
11.59 0.211 -0.0099999998
11.604 0.233 -0.0099999998
11.634 0.25600001 -0.0099999998
11.644 0.278 -0.011
11.636 0.30000001 -0.011
11.637 0.32300001 -0.011
11.636 0.34599999 -0.011
11.649 0.36899999 -0.011
11.668 0.39399999 -0.011
11.664 0.417 -0.012
11.657 0.44100001 -0.012
11.681 0.46599999 -0.012
11.643 0.48899999 -0.012
11.642 0.51300001 -0.012
11.642 0.53799999 -0.013
11.638 0.56300002 -0.013
11.64 0.588 -0.013
11.61 0.61199999 -0.013
11.657 0.63999999 -0.013
11.635 0.66399997 -0.014
11.669 0.69300002 -0.014
11.659 0.71799999 -0.014
11.675 0.74599999 -0.014
11.682 0.773 -0.014
11.668 0.79900002 -0.015
11.696 0.82800001 -0.015
11.716 0.85699999 -0.015
11.765 0.889 -0.015
8.5150003 0.66299999 -0.011
11.918 0.92900002 -0.016000001
8.3970003 0.67400002 -0.011
8.3500004 0.69099998 -0.011
8.3120003 0.708 -0.011
8.3109999 0.72799999 -0.011
8.2939997 0.74699998 -0.012
8.2930002 0.76800001 -0.012
8.323 0.79100001 -0.012
11.925 1.1339999 -0.017000001
8.4519997 0.82499999 -0.012
11.858 1.1569999 -0.017000001
11.853 1.187 -0.017999999
11.885 1.22 -0.017999999
11.909 1.253 -0.017999999
11.909 1.284 -0.017999999
8.441 0.93199998 -0.013
11.98 1.323 -0.018999999
8.2849998 0.93599999 -0.013
8.2320004 0.95200002 -0.013
8.2110004 0.97100002 -0.013
8.1969995 0.99199998 -0.013
8.1969995 1.013 -0.013
8.1999998 1.036 -0.013
8.2600002 1.066 -0.014
12.22 1.577 -0.021
8.4799995 1.117 -0.014
12.096 1.594 -0.021
12.1 1.628 -0.021
12.138 1.666 -0.021
12.16 1.702 -0.021
12.185 1.74 -0.022
12.196 1.775 -0.022
12.23 1.8150001 -0.022
12.244 1.851 -0.022
12.27 1.89 -0.023
12.294 1.929 -0.023
12.309 1.966 -0.023
12.35 2.0079999 -0.024
12.365 2.046 -0.024
12.39 2.086 -0.024
12.428 2.1289999 -0.025
12.442 2.168 -0.025
12.472 2.21 -0.025
12.492 2.25 -0.025
12.523 2.293 -0.026000001
12.556 2.336 -0.026000001
12.581 2.378 -0.026000001
12.582 2.4159999 -0.027000001
12.597 2.457 -0.027000001
12.622 2.5 -0.027000001
12.629 2.54 -0.027000001
12.66 2.585 -0.028000001
12.664 2.6240001 -0.028000001
12.686 2.668 -0.028000001
12.681 2.7060001 -0.028999999
12.696 2.7479999 -0.028999999
12.7 2.789 -0.028999999
12.709 2.8299999 -0.028999999
12.724 2.8729999 -0.029999999
12.74 2.9170001 -0.029999999
12.753 2.96 -0.029999999
12.791 3.01 -0.030999999
12.788 3.049 -0.030999999
12.828 3.0999999 -0.030999999
12.861 3.1489999 -0.032000002
12.873 3.1930001 -0.032000002
12.888 3.2379999 -0.032000002
12.898 3.2820001 -0.033
12.932 3.3329999 -0.033
12.95 3.3789999 -0.033
12.998 3.434 -0.034000002
9.2559996 2.4760001 -0.024
13.123 3.51 -0.034000002
9.1090002 2.4660001 -0.024
9.0830002 2.4890001 -0.024
9.0799999 2.5179999 -0.024
9.0810003 2.5480001 -0.024
9.1450005 2.5969999 -0.025
13.283 3.7720001 -0.035999998
13.19 3.789 -0.035999998
13.214 3.8399999 -0.037
13.239 3.892 -0.037
13.305 3.9549999 -0.037
13.366 4.0190001 -0.037999999
13.406 4.0760002 -0.037999999
13.436 4.1300001 -0.039000001
9.0120001 2.8010001 -0.026000001
8.941 2.809 -0.026000001
8.9130001 2.8299999 -0.026000001
8.9280005 2.8659999 -0.026000001
8.9729996 2.911 -0.027000001
9.1780005 3.0090001 -0.028000001
13.614 4.4629998 -0.041000001
13.598 4.5040002 -0.041000001
13.623 4.559 -0.041999999
13.69 4.6290002 -0.041999999
13.724 4.6880002 -0.043000001
13.752 4.7449999 -0.043000001
13.757 4.7950001 -0.043000001
13.841 4.8720002 -0.044
13.847 4.9229999 -0.044
13.894 4.9879999 -0.045000002
13.958 5.0599999 -0.045000002
14.015 5.1300001 -0.046
14.054 5.1929998 -0.046
14.081 5.2529998 -0.046999998
14.138 5.3239999 -0.046999998
14.181 5.3899999 -0.048
