# .PCD v0.7 - Point Cloud Data file format
VERSION 0.7
FIELDS x y z
SIZE 4 4 4
TYPE F F F
COUNT 1 1 1
WIDTH 1812
HEIGHT 1
VIEWPOINT 0 0 0 1 0 0 0
POINTS 1812
DATA ascii
10.205 -3.7539999 0.354
10.206 -3.724 0.354
10.232 -3.704 0.35499999
10.251 -3.681 0.35499999
10.273 -3.6589999 0.35600001
10.301 -3.6389999 0.35699999
10.309 -3.612 0.35699999
10.334 -3.5899999 0.35800001
10.343 -3.5639999 0.35800001
10.391 -3.55 0.36000001
10.381 -3.516 0.36000001
10.421 -3.4990001 0.361
10.447 -3.4779999 0.36199999
10.467 -3.454 0.36300001
10.496 -3.4330001 0.36399999
10.52 -3.411 0.36399999
10.571 -3.3959999 0.366
10.638 -3.3870001 0.368
10.624 -3.352 0.368
10.629 -3.323 0.368
10.667 -3.3039999 0.36899999
10.685 -3.2780001 0.37
10.672 -3.243 0.36899999
10.715 -3.2249999 0.37099999
10.742 -3.2019999 0.37200001
10.765 -3.178 0.373
10.83 -3.1659999 0.375
10.893 -3.152 0.377
10.926 -3.1300001 0.37799999
10.936 -3.1010001 0.37799999
10.925 -3.0669999 0.37799999
10.863 -3.0179999 0.37599999
10.762 -2.9590001 0.37200001
10.712 -2.914 0.37099999
10.665 -2.8699999 0.36899999
10.626 -2.829 0.368
10.624 -2.7980001 0.36700001
10.592 -2.7590001 0.366
10.617 -2.7349999 0.36700001
10.627 -2.707 0.36700001
10.663 -2.6849999 0.36899999
10.822 -2.694 0.37400001
11.38 -2.8 0.39300001
11.464 -2.7869999 0.396
11.491 -2.7609999 0.39700001
11.52 -2.734 0.398
11.556 -2.71 0.39899999
11.593 -2.6849999 0.40099999
11.626 -2.6589999 0.40200001
11.645 -2.6300001 0.40200001
11.676 -2.6029999 0.403
11.711 -2.5769999 0.405
11.733 -2.5480001 0.405
11.793 -2.527 0.40700001
11.85 -2.5050001 0.40900001
11.843 -2.47 0.40900001
11.884 -2.444 0.41
11.909 -2.415 0.41100001
11.98 -2.395 0.414
12.015 -2.368 0.41499999
12.045 -2.339 0.41600001
12.077 -2.3099999 0.417
12.112 -2.2820001 0.41800001
12.174 -2.2590001 0.41999999
12.216 -2.2320001 0.42199999
12.252 -2.2030001 0.42300001
12.284 -2.174 0.42399999
12.344 -2.1489999 0.426
12.352 -2.115 0.426
12.418 -2.0899999 0.428
12.474 -2.0639999 0.43000001
12.476 -2.0280001 0.43000001
12.631 -2.017 0.43599999
12.699 -1.992 0.43799999
12.67 -1.915 0.43700001
12.73 -1.887 0.43900001
12.767 -1.8559999 0.44
12.898 -1.8380001 0.44400001
12.901 -1.802 0.44400001
12.994 -1.777 0.44800001
11.5 0.41299999 0.29100001
11.267 0.421 0.285
11.19 0.435 0.28299999
11.166 0.45100001 0.28200001
11.127 0.46700001 0.28099999
11.113 0.484 0.28099999
11.102 0.50099999 0.28
11.085 0.51800001 0.28
11.087 0.53600001 0.28
11.083 0.55500001 0.27900001
11.119 0.57499999 0.28
11.192 0.59799999 0.28200001
14.74 0.83899999 0.37099999
14.859 0.87199998 0.37400001
14.735 0.89099997 0.37099999
14.802 0.92199999 0.37200001
14.872 0.954 0.37400001
11.13 0.73400003 0.27900001
11.016 0.74800003 0.27700001
10.977 0.76599997 0.27500001
10.949 0.78500003 0.27500001
10.954 0.80699998 0.27500001
10.952 0.82800001 0.27500001
10.957 0.85000002 0.27500001
10.97 0.87300003 0.27500001
10.998 0.89700001 0.27500001
11.07 0.926 0.27700001
15.455 1.357 0.38699999
15.07 1.355 0.377
15.051 1.385 0.377
15.066 1.419 0.377
15.121 1.457 0.37799999
15.136 1.4910001 0.37900001
15.177 1.529 0.38
15.245 1.569 0.38100001
15.344 1.614 0.384
15.287 1.643 0.382
15.22 1.67 0.38
15.228 1.706 0.38100001
15.272 1.7460001 0.382
15.324 1.788 0.38299999
15.352 1.8279999 0.384
15.405 1.87 0.38499999
15.458 1.914 0.38600001
15.507 1.957 0.38699999
15.528 1.998 0.38800001
15.554 2.039 0.389
15.534 2.075 0.38800001
15.557 2.1159999 0.389
15.598 2.161 0.38999999
15.612 2.2019999 0.38999999
15.661 2.2490001 0.391
15.712 2.296 0.39199999
15.75 2.3429999 0.39300001
15.802 2.391 0.39500001
15.83 2.437 0.39500001
15.874 2.4849999 0.39700001
15.909 2.533 0.39700001
15.904 2.5739999 0.39700001
15.949 2.6240001 0.39899999
15.984 2.6730001 0.39899999
16.039 2.7260001 0.40099999
16.031 2.7679999 0.40099999
16.101999 2.825 0.403
16.171 2.882 0.40400001
16.263 2.9430001 0.40700001
16.288 2.993 0.40700001
16.339001 3.049 0.40900001
16.395 3.1059999 0.41
16.440001 3.161 0.41100001
16.539 3.2279999 0.414
16.545 3.276 0.414
16.542999 3.3239999 0.414
16.562 3.3759999 0.41499999
16.587999 3.4300001 0.41600001
16.646 3.4909999 0.417
16.697001 3.5510001 0.419
16.809999 3.625 0.421
16.834 3.681 0.42199999
16.912001 3.7490001 0.42399999
16.881001 3.793 0.42399999
16.903 3.8499999 0.42399999
16.924 3.9059999 0.42500001
16.962 3.967 0.426
17.091 4.0500002 0.42899999
17.145 4.1160002 0.43099999
17.145 4.1700001 0.43099999
17.273001 4.2550001 0.43399999
17.458 4.4120002 0.43900001
17.629 4.5110002 0.44400001
17.431 4.5159998 0.43900001
17.684 4.6389999 0.44600001
17.663 4.6900001 0.44499999
17.701 4.7579999 0.447
17.794001 4.8410001 0.449
17.84 4.9120002 0.44999999
17.937 4.9980001 0.45300001
17.965 5.0650001 0.454
17.959999 5.1240001 0.454
18.09 5.2210002 0.458
18.108 5.2870002 0.458
18.072001 5.3379998 0.458
18.156 5.4239998 0.46000001
18.288 5.526 0.46399999
18.316 5.5970001 0.465
18.347 5.6700001 0.46599999
18.403999 5.7509999 0.46700001
18.389 5.8099999 0.46700001
18.41 5.881 0.46799999
18.471001 5.9650002 0.47
18.504 6.0409999 0.47099999
18.607 6.1399999 0.47400001
18.59 6.1999998 0.47400001
18.656 6.289 0.47600001
18.695 6.369 0.477
8.0240002 3.3329999 0.207
7.7740002 3.26 0.20100001
7.7010002 3.2590001 0.199
7.6459999 3.266 0.198
7.6059999 3.279 0.197
7.572 3.2939999 0.197
7.5320001 3.3069999 0.19599999
7.513 3.3280001 0.19499999
7.4910002 3.348 0.19499999
7.474 3.3710001 0.19499999
7.4720001 3.4000001 0.19499999
7.4759998 3.4319999 0.19499999
7.4790001 3.464 0.19499999
7.4720001 3.4909999 0.19499999
7.447 3.51 0.19499999
7.4380002 3.5369999 0.19499999
7.5019999 3.598 0.197
8.6450005 -5.6859999 0.32499999
8.6730003 -5.6500001 0.32600001
8.7049999 -5.6170001 0.32699999
8.7519999 -5.5939999 0.32800001
8.7709999 -5.552 0.329
8.8170004 -5.5279999 0.33000001
8.842 -5.4910002 0.331
8.8529997 -5.4450002 0.331
8.8830004 -5.4109998 0.33199999
8.9239998 -5.3839998 0.333
8.9490004 -5.348 0.33399999
8.9770002 -5.3130002 0.33500001
9.007 -5.2800002 0.336
9.0270004 -5.2410002 0.336
9.0489998 -5.2030001 0.33700001
9.0799999 -5.171 0.338
9.1169996 -5.1420002 0.33899999
9.1379995 -5.1040001 0.33899999
9.1590004 -5.066 0.34
9.1899996 -5.0349998 0.34099999
9.2130003 -4.9980001 0.34200001
9.2250004 -4.9569998 0.34200001
9.2110004 -4.901 0.34099999
9.2849998 -4.8920002 0.34400001
9.3190002 -4.8629999 0.345
9.3570004 -4.835 0.34599999
9.3929996 -4.8060002 0.347
9.4040003 -4.7649999 0.347
9.4329996 -4.7329998 0.34799999
9.4499998 -4.6939998 0.34900001
9.4729996 -4.6599998 0.34900001
9.493 -4.6240001 0.34999999
9.5220003 -4.592 0.35100001
9.5489998 -4.559 0.352
9.5719995 -4.5250001 0.352
9.6070004 -4.4970002 0.35299999
9.6199999 -4.4580002 0.354
9.6440001 -4.4239998 0.35499999
9.6719999 -4.3930001 0.35499999
9.7030001 -4.3629999 0.35600001
9.7449999 -4.3379998 0.35800001
9.7729998 -4.3060002 0.359
9.8050003 -4.277 0.36000001
9.8260002 -4.243 0.36000001
9.8590002 -4.2129998 0.361
9.8690004 -4.1750002 0.36199999
9.8900003 -4.1409998 0.36199999
9.9160004 -4.1090002 0.36300001
9.9610004 -4.085 0.36500001
9.9770002 -4.0500002 0.36500001
10.008 -4.02 0.366
10.044 -3.993 0.36700001
10.074 -3.9630001 0.368
10.087 -3.927 0.368
10.131 -3.9030001 0.37
10.151 -3.869 0.37099999
10.19 -3.8429999 0.37200001
10.248 -3.8239999 0.37400001
10.268 -3.7909999 0.37400001
10.292 -3.7590001 0.375
10.301 -3.7219999 0.375
10.342 -3.697 0.377
10.377 -3.6689999 0.37799999
10.393 -3.635 0.37799999
10.426 -3.6070001 0.37900001
10.48 -3.586 0.38100001
10.504 -3.5550001 0.382
10.546 -3.529 0.384
10.595 -3.507 0.38499999
10.655 -3.487 0.38699999
10.663 -3.451 0.38699999
10.784 -3.451 0.39199999
10.815 -3.4219999 0.39300001
10.808 -3.381 0.39199999
10.846 -3.3540001 0.39399999
10.882 -3.3269999 0.39500001
10.947 -3.3080001 0.39700001
11.06 -3.3039999 0.40099999
11.08 -3.2720001 0.40200001
11.143 -3.2520001 0.40400001
11.184 -3.2260001 0.405
11.229 -3.2 0.40700001
11.268 -3.1730001 0.40799999
11.353 -3.1589999 0.41100001
10.807 -2.971 0.391
10.675 -2.9000001 0.38699999
10.605 -2.846 0.384
10.603 -2.8099999 0.384
10.623 -2.7809999 0.384
10.672 -2.76 0.38600001
11.662 -2.9779999 0.42199999
11.625 -2.9319999 0.421
11.642 -2.8989999 0.421
11.692 -2.875 0.42300001
11.709 -2.8429999 0.42300001
11.769 -2.8210001 0.42500001
11.784 -2.7880001 0.426
11.841 -2.7650001 0.428
11.901 -2.743 0.43000001
11.927 -2.7130001 0.43099999
11.976 -2.688 0.433
12.027 -2.664 0.43399999
12.036 -2.6300001 0.435
12.078 -2.6029999 0.43599999
12.102 -2.573 0.43700001
12.156 -2.549 0.43900001
12.202 -2.523 0.44
12.261 -2.5 0.44299999
12.266 -2.4660001 0.44299999
12.322 -2.4430001 0.44499999
12.406 -2.424 0.44800001
12.444 -2.3970001 0.449
12.491 -2.3710001 0.45100001
12.477 -2.3340001 0.44999999
12.595 -2.3210001 0.454
12.595 -2.2869999 0.454
12.638 -2.26 0.456
12.697 -2.237 0.458
12.725 -2.207 0.45899999
12.713 -2.1719999 0.458
12.769 -2.1470001 0.46000001
12.883 -2.1329999 0.46399999
13.636 -1.844 0.491
13.702 -1.8200001 0.49399999
13.93 -1.653 0.50199997
13.807 -1.6059999 0.49700001
14.049 -1.382 0.50599998
14.023 -1.349 0.505
14.382 0.197 0.40799999
14.462 0.22400001 0.41
14.487 0.25 0.41
14.545 0.278 0.412
14.622 0.30599999 0.414
14.574 0.333 0.412
14.633 0.36199999 0.414
14.665 0.38999999 0.414
11.277 0.34400001 0.31799999
11.192 0.36300001 0.31600001
11.143 0.384 0.31400001
11.119 0.40599999 0.31299999
11.104 0.428 0.31299999
11.09 0.44999999 0.31200001
11.083 0.47299999 0.31200001
11.058 0.495 0.31099999
11.069 0.51899999 0.31099999
11.096 0.54299998 0.31200001
11.157 0.56999999 0.31400001
11.327 0.60399997 0.31799999
14.999 0.80000001 0.421
14.909 0.82700002 0.419
14.9 0.86000001 0.41800001
14.901 0.89300001 0.41800001
14.963 0.93000001 0.41999999
11.116 0.71600002 0.31200001
10.992 0.73299998 0.308
10.96 0.75700003 0.30700001
10.949 0.78100002 0.30700001
10.941 0.80599999 0.30599999
10.945 0.83200002 0.30599999
10.943 0.85799998 0.30599999
10.958 0.88499999 0.30700001
11.019 0.917 0.308
11.173 0.95700002 0.31299999
15.274 1.383 0.42699999
15.271 1.42 0.42699999
15.237 1.455 0.426
15.269 1.4960001 0.42699999
15.308 1.539 0.428
15.37 1.584 0.42899999
15.467 1.6339999 0.43200001
15.499 1.677 0.433
15.529 1.72 0.43399999
15.507 1.758 0.433
15.503 1.798 0.433
15.563 1.846 0.435
15.639 1.897 0.43700001
15.717 1.948 0.43900001
15.713 1.99 0.43900001
15.751 2.0369999 0.44
15.757 2.0799999 0.44
15.775 2.1259999 0.44
15.771 2.168 0.44
15.819 2.2179999 0.44100001
15.905 2.2750001 0.44400001
15.966 2.3280001 0.44499999
16.018999 2.3800001 0.447
16.066 2.4319999 0.44800001
16.073999 2.4790001 0.44800001
16.1 2.5280001 0.449
16.156 2.5829999 0.45100001
16.191999 2.635 0.45199999
16.27 2.6949999 0.454
16.295 2.7460001 0.45500001
16.379999 2.8080001 0.45699999
16.445999 2.8670001 0.45899999
16.525999 2.9300001 0.461
16.527 2.9779999 0.461
16.570999 3.0350001 0.46200001
16.639 3.0969999 0.46399999
16.736 3.165 0.46700001
16.795 3.2260001 0.46900001
16.865 3.2909999 0.47099999
16.923 3.3529999 0.47299999
16.902 3.4000001 0.472
16.959999 3.4630001 0.47400001
17.07 3.5380001 0.477
17.063999 3.589 0.477
17.112 3.651 0.47799999
17.142 3.711 0.479
17.181999 3.773 0.47999999
17.320999 3.8570001 0.484
17.344 3.9159999 0.48500001
17.374001 3.9779999 0.486
17.403 4.039 0.48699999
17.466999 4.1090002 0.48899999
17.589001 4.1929998 0.49200001
17.746 4.2870002 0.49700001
18.094 4.6030002 0.50700003
18.114 4.6669998 0.50800002
18.129999 4.7290001 0.50800002
18.033001 4.763 0.50599998
18.156 4.8540001 0.509
18.216999 4.9299998 0.51099998
18.243999 4.9970002 0.51200002
18.246 5.0580001 0.51200002
18.424999 5.1680002 0.51800001
18.424999 5.29 0.51800001
18.731001 5.4400001 0.52700001
18.724001 5.5009999 0.52700001
18.892 5.868 0.53200001
18.813 5.9070001 0.52999997
18.846001 5.9809999 0.53200001
15.718 5.4749999 0.44499999
15.48 5.4450002 0.43799999
15.327 5.4450002 0.43399999
15.214 5.4580002 0.43099999
15.214 5.5110002 0.43200001
7.8099999 3.3 0.223
7.6869998 3.276 0.22
7.645 3.286 0.219
7.605 3.296 0.21799999
7.5809999 3.313 0.21699999
7.552 3.3269999 0.21699999
7.5229998 3.342 0.21600001
7.5 3.359 0.21600001
7.4699998 3.372 0.215
7.4619999 3.3959999 0.215
7.4450002 3.415 0.214
7.4400001 3.4400001 0.214
7.4559999 3.474 0.215
7.4510002 3.4990001 0.215
7.441 3.5220001 0.215
7.4089999 3.533 0.214
7.427 3.569 0.215
7.5570002 3.6589999 0.219
12.157 6.8179998 0.35800001
11.955 6.7480001 0.352
11.899 6.7589998 0.35100001
11.965 6.8400002 0.35299999
9.2709999 -5.4860001 0.36500001
9.2670002 -5.4569998 0.36500001
9.2869997 -5.4419999 0.36500001
9.3009996 -5.4239998 0.366
9.3070002 -5.4000001 0.366
9.3190002 -5.381 0.36700001
9.3170004 -5.3530002 0.36700001
9.3339996 -5.336 0.36700001
9.3579998 -5.323 0.368
9.3780003 -5.3070002 0.36899999
9.3999996 -5.2930002 0.37
9.4110003 -5.2709999 0.37
9.4209995 -5.25 0.37099999
9.4399996 -5.2329998 0.37099999
9.4510002 -5.2119999 0.37200001
9.4659996 -5.1929998 0.37200001
9.4820004 -5.1739998 0.373
9.4879999 -5.1500001 0.373
9.4980001 -5.1279998 0.37400001
9.5089998 -5.1059999 0.37400001
9.5200005 -5.085 0.375
9.5310001 -5.0630002 0.375
9.5839996 -5.0640001 0.377
9.6059999 -5.0469999 0.37799999
9.6260004 -5.0300002 0.37900001
9.6149998 -4.9959998 0.37799999
9.6079998 -4.9640002 0.37799999
9.6330004 -4.9489999 0.37900001
9.6499996 -4.9299998 0.38
9.6619997 -4.908 0.38
9.6719999 -4.8850002 0.38
9.6730003 -4.8569999 0.38
9.6999998 -4.8429999 0.38100001
9.7200003 -4.8239999 0.382
9.7180004 -4.7950001 0.382
9.743 -4.7789998 0.38299999
9.7639999 -4.7610002 0.384
9.7910004 -4.7459998 0.38499999
9.79 -4.7160001 0.38499999
9.7980003 -4.6919999 0.38499999
9.8149996 -4.671 0.38600001
9.8269997 -4.6490002 0.38600001
9.8470001 -4.6290002 0.38699999
9.8579998 -4.605 0.38800001
9.8800001 -4.5869999 0.38800001
9.8940001 -4.5650001 0.389
9.927 -4.5510001 0.38999999
9.948 -4.5320001 0.391
9.9510002 -4.5040002 0.391
9.9720001 -4.4840002 0.39199999
10.001 -4.4679999 0.39300001
10.021 -4.448 0.39399999
10.044 -4.4289999 0.39500001
10.058 -4.4050002 0.39500001
10.051 -4.3730001 0.39500001
10.078 -4.3559999 0.396
10.09 -4.3309999 0.396
10.105 -4.3080001 0.39700001
10.13 -4.289 0.398
10.149 -4.2680001 0.39899999
10.176 -4.25 0.40000001
10.187 -4.224 0.40000001
10.205 -4.2020001 0.40099999
10.216 -4.177 0.40099999
10.251 -4.1609998 0.40200001
10.264 -4.1360002 0.403
10.271 -4.1090002 0.403
10.322 -4.099 0.405
10.328 -4.072 0.405
10.333 -4.0430002 0.40599999
10.385 -4.0339999 0.40799999
10.379 -4.0009999 0.40700001
10.408 -3.9820001 0.40799999
10.458 -3.971 0.41
10.477 -3.947 0.41100001
10.495 -3.9230001 0.412
10.524 -3.9030001 0.41299999
10.554 -3.8840001 0.414
10.564 -3.8570001 0.414
10.614 -3.8440001 0.41600001
10.615 -3.8139999 0.41600001
10.659 -3.7980001 0.41800001
10.688 -3.777 0.419
10.713 -3.7550001 0.41999999
10.747 -3.7360001 0.421
10.74 -3.7019999 0.421
10.773 -3.6819999 0.42199999
10.818 -3.6659999 0.42399999
10.85 -3.645 0.42500001
10.898 -3.6300001 0.42699999
10.933 -3.609 0.428
10.977 -3.592 0.43000001
10.99 -3.5639999 0.43099999
10.992 -3.533 0.43099999
11.091 -3.533 0.43399999
11.151 -3.5190001 0.43700001
11.217 -3.5079999 0.43900001
11.076 -3.431 0.43399999
10.921 -3.352 0.428
10.978 -3.3369999 0.43000001
11.183 -3.3670001 0.43799999
11.249 -3.3540001 0.44
11.333 -3.3469999 0.44400001
11.335 -3.3139999 0.44400001
11.324 -3.2780001 0.44299999
11.371 -3.2590001 0.44499999
11.422 -3.24 0.447
11.446 -3.214 0.44800001
11.448 -3.181 0.44800001
11.48 -3.1570001 0.449
11.515 -3.1329999 0.44999999
11.576 -3.1159999 0.45300001
11.641 -3.0999999 0.45500001
10.79 -2.842 0.42199999
10.647 -2.7739999 0.41600001
10.631 -2.7390001 0.41600001
10.639 -2.71 0.41600001
10.649 -2.6819999 0.41600001
10.793 -2.687 0.42199999
11.818 -2.908 0.46200001
11.87 -2.8870001 0.46399999
11.883 -2.8559999 0.46399999
11.914 -2.829 0.465
11.951 -2.803 0.46700001
11.979 -2.7750001 0.46799999
12.032 -2.7520001 0.47
12.07 -2.7260001 0.47099999
12.104 -2.6989999 0.47299999
12.121 -2.668 0.47299999
12.18 -2.6459999 0.47499999
12.2 -2.615 0.47600001
12.259 -2.592 0.47799999
12.329 -2.5710001 0.48100001
12.339 -2.5380001 0.48100001
12.39 -2.513 0.48300001
12.411 -2.4809999 0.484
12.433 -2.45 0.48500001
12.501 -2.427 0.48699999
12.576 -2.4059999 0.49000001
12.624 -2.3789999 0.49200001
12.71 -2.358 0.495
12.787 -2.336 0.498
13.784 -1.885 0.53600001
13.904 -1.8609999 0.54100001
13.887 -1.78 0.54000002
13.879 -1.739 0.54000002
13.897 -1.701 0.54000002
11.315 0.42500001 0.34
11.207 0.43799999 0.33700001
11.152 0.45199999 0.33500001
11.116 0.46799999 0.33399999
11.1 0.48500001 0.333
11.084 0.50199997 0.333
11.074 0.51899999 0.33199999
11.08 0.53799999 0.33199999
11.077 0.55599999 0.33199999
11.097 0.57599998 0.333
11.14 0.597 0.33399999
11.261 0.62300003 0.33700001
11.069 0.69099998 0.331
10.963 0.704 0.32800001
10.935 0.72299999 0.32699999
10.929 0.74299997 0.32699999
10.923 0.76300001 0.32600001
10.929 0.78500003 0.32699999
10.928 0.80599999 0.32600001
10.936 0.82800001 0.32699999
10.956 0.85100001 0.32699999
11.02 0.87800002 0.329
11.142 0.91000003 0.333
16.256001 1.429 0.48500001
15.989 1.439 0.477
16.014 1.475 0.47799999
16.009001 1.5089999 0.47799999
16.046 1.5470001 0.479
16.099001 1.5880001 0.47999999
16.176001 1.631 0.48300001
16.173 1.666 0.48300001
16.18 1.7029999 0.48300001
16.202999 1.742 0.48300001
16.226999 1.7819999 0.484
16.264 1.823 0.48500001
16.277 1.863 0.486
16.294001 1.903 0.486
16.334 1.946 0.48699999
16.365 1.988 0.48800001
16.423 2.0339999 0.49000001
16.487 2.082 0.49200001
16.500999 2.1240001 0.49200001
16.525999 2.168 0.493
16.538 2.21 0.493
16.566999 2.2550001 0.49399999
16.552999 2.2939999 0.49399999
16.658001 2.3510001 0.49700001
16.649 2.392 0.49700001
16.759001 2.45 0.5
16.827 2.5039999 0.50199997
16.874001 2.5539999 0.50400001
16.858 2.596 0.50400001
16.92 2.6500001 0.505
16.957001 2.701 0.50700003
17.003 2.753 0.50800002
17.040001 2.8050001 0.509
17.052999 2.8529999 0.50999999
17.083 2.904 0.51099998
17.164 2.9649999 0.51300001
17.181 3.0150001 0.514
17.17 3.0599999 0.514
17.222 3.1170001 0.51599997
17.245001 3.1700001 0.51599997
17.332001 3.2349999 0.51899999
17.358 3.289 0.51999998
17.521999 3.3699999 0.52499998
17.559 3.427 0.52600002
17.565001 3.4790001 0.52700001
17.700001 3.5569999 0.53100002
17.652 3.598 0.52999997
17.738001 3.668 0.53200001
17.752001 3.723 0.53299999
17.764 3.7780001 0.53399998
17.792 3.8380001 0.53500003
17.862 3.9059999 0.537
18.035999 3.9979999 0.542
18.08 4.0630002 0.54400003
18.17 4.138 0.54699999
18.502001 4.2709999 0.55699998
18.187 4.2540002 0.54799998
18.377001 4.355 0.55400002
18.554001 4.4549999 0.55900002
18.763 4.6820002 0.56699997
18.665001 4.717 0.56400001
18.705999 4.8470001 0.56599998
18.639999 4.8889999 0.56400001
18.687 4.9619999 0.56599998
18.667999 5.0180001 0.565
18.774 5.1079998 0.56900001
18.893999 5.2020001 0.57300001
18.927 5.2740002 0.574
18.938 5.3400002 0.57499999
19.065001 5.4390001 0.579
19.247 5.816 0.58700001
19.35 5.9130001 0.58999997
15.533 5.4029999 0.47799999
15.318 5.3839998 0.47099999
15.177 5.3889999 0.46700001
15.085 5.4120002 0.465
15.074 5.4629998 0.465
14.62 5.7919998 0.454
14.704 5.881 0.45699999
7.9089999 3.316 0.24699999
7.7379999 3.2739999 0.242
7.6560001 3.27 0.23999999
7.6090002 3.28 0.23800001
7.5780001 3.296 0.23800001
7.5570002 3.3169999 0.237
7.526 3.3340001 0.236
7.493 3.349 0.236
7.4710002 3.369 0.235
7.4520001 3.391 0.235
7.4489999 3.4189999 0.235
7.4619999 3.4560001 0.236
7.461 3.4860001 0.236
7.4260001 3.5 0.235
7.4200001 3.5280001 0.235
7.473 3.5840001 0.237
12 6.7839999 0.38999999
11.874 6.7649999 0.38600001
11.859 6.8099999 0.38600001
12.117 7.0120001 0.39500001
8.8610001 -5.8260002 0.375
8.901 -5.7969999 0.37599999
8.9390001 -5.7659998 0.377
8.974 -5.7340002 0.37900001
8.993 -5.691 0.37900001
9.0290003 -5.6589999 0.38
9.0620003 -5.6259999 0.38100001
9.0860004 -5.5869999 0.382
9.1210003 -5.5549998 0.38299999
9.1389999 -5.513 0.384
9.1809998 -5.4850001 0.38499999
9.2130003 -5.4510002 0.38600001
9.2390003 -5.414 0.38699999
9.2469997 -5.3670001 0.38699999
9.2950001 -5.3429999 0.389
9.3219995 -5.3070002 0.38999999
9.3559999 -5.276 0.391
9.3739996 -5.2340002 0.39199999
9.3979998 -5.197 0.39199999
9.4289999 -5.164 0.39300001
9.4560003 -5.1290002 0.39399999
9.5030003 -5.1040001 0.396
9.5170002 -5.0630002 0.396
9.5360003 -5.0229998 0.39700001
9.5559998 -4.9850001 0.398
9.5760002 -4.947 0.398
9.6129999 -4.9180002 0.40000001
9.6409998 -4.8839998 0.40099999
9.6599998 -4.8449998 0.40099999
9.6789999 -4.8070002 0.40200001
9.7209997 -4.7810001 0.403
9.7340002 -4.7399998 0.40400001
9.7620001 -4.7069998 0.40400001
9.7910004 -4.6739998 0.405
9.8240004 -4.6430001 0.40700001
9.8430004 -4.6059999 0.40700001
9.8809996 -4.5780001 0.40900001
9.9029999 -4.5419998 0.40900001
9.9429998 -4.5149999 0.41100001
9.9610004 -4.4780002 0.41100001
9.9949999 -4.448 0.41299999
10.019 -4.414 0.41299999
10.071 -4.3920002 0.41499999
10.118 -4.368 0.417
10.116 -4.322 0.417
10.147 -4.2919998 0.41800001
10.174 -4.2589998 0.419
10.209 -4.23 0.41999999
10.23 -4.1950002 0.421
10.278 -4.171 0.42300001
10.293 -4.1339998 0.42300001
10.334 -4.1079998 0.42500001
10.384 -4.0840001 0.426
10.402 -4.0489998 0.42699999
10.458 -4.0279999 0.42899999
10.499 -4.0009999 0.43099999
10.542 -3.9749999 0.43200001
10.569 -3.9430001 0.433
10.611 -3.9170001 0.435
10.664 -3.8940001 0.43700001
10.694 -3.8640001 0.43799999
10.785 -3.8540001 0.442
10.798 -3.8169999 0.442
10.856 -3.796 0.44400001
10.882 -3.7639999 0.44499999
10.91 -3.733 0.44600001
10.971 -3.7119999 0.44800001
11.01 -3.684 0.44999999
11.084 -3.668 0.45300001
11.108 -3.635 0.454
11.123 -3.599 0.454
11.217 -3.589 0.458
11.443 -3.6199999 0.46700001
11.3 -3.5339999 0.461
10.809 -3.342 0.44100001
10.819 -3.3069999 0.44100001
11.405 -3.4460001 0.465
11.431 -3.415 0.46599999
11.494 -3.3929999 0.46799999
11.515 -3.3599999 0.46900001
11.532 -3.326 0.47
11.599 -3.306 0.472
11.608 -3.2690001 0.472
11.678 -3.25 0.47499999
11.722 -3.223 0.477
11.758 -3.194 0.47799999
10.704 -2.872 0.435
10.612 -2.813 0.43099999
10.6 -2.7750001 0.43099999
10.664 -2.7579999 0.433
12.027 -3.0710001 0.48899999
12.004 -3.027 0.48800001
12.02 -2.993 0.48800001
12.042 -2.961 0.48899999
12.129 -2.9449999 0.49200001
12.217 -2.928 0.49599999
12.241 -2.8959999 0.49700001
12.306 -2.8740001 0.49900001
12.298 -2.8340001 0.49900001
12.326 -2.803 0.5
12.428 -2.789 0.50400001
12.498 -2.7679999 0.50700003
12.57 -2.7460001 0.50999999
12.609 -2.7179999 0.51099998
13.874 -2.1530001 0.56099999
13.87 -2.1170001 0.56099999
13.976 -1.959 0.565
14.068 -1.937 0.56900001
14.026 -1.897 0.56699997
14.224 -1.89 0.57499999
14.082 -1.837 0.56900001
14.236 -1.823 0.57499999
14.194 -1.717 0.574
14.176 -1.682 0.57300001
14.175 -1.649 0.57300001
14.229 -1.623 0.57499999
14.284 -1.597 0.57700002
14.304 -1.566 0.57800001
14.317 -1.536 0.579
14.351 -1.507 0.57999998
15.21 0.211 0.50400001
15.438 0.241 0.51200002
15.459 0.26899999 0.51200002
15.314 0.29499999 0.50700003
15.254 0.322 0.505
15.385 0.35299999 0.509
15.344 0.38100001 0.50700003
15.36 0.41100001 0.50800002
15.376 0.44100001 0.50800002
11.503 0.375 0.38
11.251 0.389 0.37099999
11.175 0.40900001 0.36899999
11.122 0.43000001 0.36700001
11.089 0.45100001 0.36500001
11.078 0.47400001 0.36500001
11.062 0.49599999 0.36399999
11.055 0.51899999 0.36399999
11.07 0.54299998 0.36399999
11.081 0.56800002 0.36500001
11.106 0.59299999 0.36500001
11.183 0.62199998 0.368
11.265 0.70099998 0.37
11.018 0.71100003 0.36199999
10.951 0.73199999 0.36000001
10.923 0.755 0.359
10.92 0.77999997 0.35800001
10.916 0.80500001 0.35800001
10.922 0.83099997 0.35800001
10.929 0.85799998 0.359
10.957 0.88599998 0.359
11.011 0.917 0.361
11.172 0.95700002 0.366
16.132 1.502 0.52899998
16.122999 1.541 0.52899998
16.101 1.579 0.528
16.145 1.624 0.52899998
16.200001 1.671 0.53100002
16.27 1.72 0.53299999
16.266001 1.761 0.53299999
16.291 1.806 0.53399998
16.370001 1.857 0.53600001
16.384001 1.902 0.537
16.431999 1.95 0.53799999
16.457001 1.997 0.53899997
16.482 2.0439999 0.54000002
16.530001 2.0940001 0.542
16.622999 2.151 0.54500002
16.681999 2.2030001 0.54699999
16.646999 2.244 0.546
16.73 2.3010001 0.54799998
16.789 2.355 0.55000001
16.862 2.4119999 0.55299997
16.888 2.4630001 0.55400002
16.961 2.5209999 0.55599999
17.002001 2.575 0.55699998
17.073999 2.6340001 0.56
17.125 2.6900001 0.56199998
17.149 2.743 0.56199998
17.208 2.8010001 0.56400001
17.221001 2.8529999 0.565
17.292 2.915 0.56699997
17.346001 2.974 0.56900001
17.385 3.0309999 0.56999999
17.468 3.0969999 0.57300001
17.493 3.1530001 0.574
17.537001 3.2130001 0.57599998
17.684 3.2920001 0.58099997
17.792999 3.365 0.58399999
18.152 3.4879999 0.59600002
18.134001 3.539 0.59600002
18.190001 3.6040001 0.59799999
18.062 3.6340001 0.59399998
18.131001 3.7030001 0.59600002
18.174 3.767 0.59799999
18.323 3.8540001 0.60299999
18.379999 3.9219999 0.60500002
18.518 4.0089998 0.60900003
18.495001 4.0609999 0.60900003
18.601999 4.1430001 0.61299998
18.625 4.2059999 0.61299998
18.656 4.2709999 0.61500001
18.681999 4.336 0.616
18.816999 4.427 0.62
18.9 4.506 0.62300003
19.013 4.5929999 0.62699997
18.973 4.6440001 0.62599999
18.962 4.7020001 0.62599999
18.948 4.7589998 0.62599999
18.983 4.829 0.62699997
19.040001 4.9050002 0.62900001
19.069 4.974 0.63
19.160999 5.0609999 0.634
19.221001 5.1389999 0.63599998
19.177999 5.1900001 0.63499999
19.358999 5.303 0.64099997
19.795 5.6830001 0.65700001
19.799 5.75 0.65700001
19.743999 5.8000002 0.65600002
19.687 5.849 0.65399998
15.457 5.3299999 0.51700002
15.301 5.329 0.51200002
15.189 5.3429999 0.509
15.076 5.355 0.505
15.019 5.388 0.50400001
15.068 5.4580002 0.50599998
7.9990001 3.3510001 0.271
7.836 3.3110001 0.266
7.697 3.28 0.26100001
7.6290002 3.2780001 0.259
7.5970001 3.2920001 0.25799999
7.5609999 3.3039999 0.257
7.5430002 3.323 0.257
7.5279999 3.3440001 0.25600001
7.5089998 3.362 0.25600001
7.4770002 3.375 0.255
7.461 3.395 0.255
7.4439998 3.414 0.25400001
7.4460001 3.4419999 0.255
7.4419999 3.4679999 0.255
7.4510002 3.4990001 0.255
7.4200001 3.5109999 0.25400001
7.4000001 3.529 0.25400001
7.4239998 3.5669999 0.255
7.5749998 3.668 0.25999999
12.141 6.8530002 0.426
11.954 6.79 0.41999999
11.942 6.8270001 0.41999999
9.5209999 -5.638 0.419
9.5340004 -5.619 0.419
9.5509996 -5.6009998 0.41999999
9.5679998 -5.5840001 0.421
9.6000004 -5.5749998 0.42199999
9.5860004 -5.539 0.42199999
9.6129999 -5.527 0.42300001
9.6549997 -5.5229998 0.42500001
9.651 -5.494 0.42500001
9.6730003 -5.4780002 0.42500001
9.6949997 -5.4629998 0.426
9.6759996 -5.4239998 0.426
9.7019997 -5.4099998 0.42699999
9.7130003 -5.3889999 0.42699999
9.7250004 -5.3670001 0.428
9.7419996 -5.348 0.428
9.7510004 -5.3249998 0.42899999
9.7919998 -5.3189998 0.43099999
9.7690001 -5.2779999 0.43000001
9.7779999 -5.2550001 0.43000001
9.809 -5.243 0.43099999
9.8210001 -5.2210002 0.43200001
9.8590002 -5.2119999 0.433
9.8710003 -5.1900001 0.43399999
9.901 -5.177 0.435
9.8920002 -5.1430001 0.435
9.8959999 -5.1170001 0.435
9.9040003 -5.092 0.435
9.9200001 -5.0710001 0.43599999
9.9530001 -5.059 0.43700001
9.9779997 -5.0430002 0.43799999
9.9860001 -5.0180001 0.43900001
10.001 -4.9959998 0.43900001
10.014 -4.974 0.44
10.048 -4.9619999 0.44100001
10.043 -4.9299998 0.44100001
10.066 -4.9120002 0.442
10.098 -4.8979998 0.44400001
10.119 -4.8779998 0.44400001
10.113 -4.8460002 0.44400001
10.139 -4.829 0.44499999
10.142 -4.8000002 0.44499999
10.173 -4.7859998 0.447
10.192 -4.7649999 0.447
10.217 -4.7459998 0.449
10.243 -4.7280002 0.44999999
10.238 -4.6960001 0.449
10.271 -4.6810002 0.45100001
10.303 -4.6659999 0.45199999
10.345 -4.6550002 0.454
10.35 -4.6269999 0.454
10.364 -4.6030002 0.45500001
10.384 -4.5819998 0.456
10.397 -4.5570002 0.456
10.42 -4.5370002 0.45699999
10.426 -4.5079999 0.45699999
10.464 -4.494 0.45899999
10.486 -4.473 0.46000001
10.502 -4.4489999 0.461
10.516 -4.4239998 0.461
10.541 -4.4039998 0.46200001
10.575 -4.3870001 0.46399999
10.582 -4.3590002 0.46399999
10.622 -4.3449998 0.46599999
10.643 -4.322 0.46599999
10.681 -4.3070002 0.46799999
10.71 -4.2870002 0.46900001
10.769 -4.2789998 0.472
10.799 -4.2600002 0.47299999
10.909 -4.2709999 0.47799999
10.957 -4.2579999 0.47999999
10.959 -4.2270002 0.47999999
10.947 -4.1900001 0.479
10.891 -4.1370001 0.477
10.915 -4.1139998 0.47799999
10.926 -4.086 0.47799999
10.951 -4.0640001 0.479
10.998 -4.0489998 0.48100001
11.019 -4.0250001 0.48199999
11.034 -3.9979999 0.48300001
11.045 -3.97 0.48300001
11.107 -3.9590001 0.486
11.108 -3.928 0.486
11.141 -3.9070001 0.48699999
11.174 -3.8859999 0.48899999
11.175 -3.8529999 0.48899999
11.205 -3.8310001 0.49000001
11.285 -3.826 0.49399999
11.272 -3.789 0.493
11.278 -3.7579999 0.493
11.299 -3.7320001 0.49399999
11.373 -3.723 0.49700001
11.355 -3.684 0.49599999
11.39 -3.6619999 0.498
11.489 -3.661 0.50199997
11.017 -3.4460001 0.48100001
10.788 -3.3429999 0.47099999
10.743 -3.2980001 0.46900001
10.714 -3.2579999 0.46799999
10.773 -3.2449999 0.47
11.651 -3.4749999 0.509
11.679 -3.45 0.50999999
11.705 -3.424 0.51099998
11.74 -3.4000001 0.51200002
11.786 -3.3789999 0.514
11.802 -3.349 0.51499999
11.804 -3.3150001 0.51499999
11.838 -3.2909999 0.51599997
11.874 -3.266 0.51800001
11.89 -3.2360001 0.51899999
11.919 -3.21 0.51999998
11.954 -3.184 0.52100003
12.029 -3.1689999 0.52399999
10.651 -2.7750001 0.46399999
10.624 -2.7379999 0.463
10.609 -2.7030001 0.46200001
10.642 -2.681 0.46399999
10.852 -2.7019999 0.47299999
12.264 -3.0179999 0.53399998
12.264 -2.983 0.53399998
12.273 -2.95 0.53500003
12.326 -2.927 0.537
12.39 -2.9059999 0.54000002
12.45 -2.8840001 0.542
12.484 -2.8559999 0.54299998
12.521 -2.829 0.54500002
12.614 -2.813 0.54900002
13.662 -2.5739999 0.59399998
13.602 -2.5239999 0.59100002
13.632 -2.49 0.59200001
13.661 -2.4560001 0.59299999
13.656 -2.4159999 0.59299999
13.717 -2.3870001 0.59600002
13.703 -2.345 0.59500003
13.76 -2.316 0.597
13.904 -2.22 0.60299999
14.046 -2.2019999 0.60900003
14.1 -2.1700001 0.61199999
13.991 -2.1129999 0.60699999
14.04 -2.0799999 0.60900003
14.183 -2.0610001 0.61500001
14.141 -2.0139999 0.61299998
14.122 -1.971 0.61199999
14.185 -1.939 0.61500001
14.229 -1.904 0.61699998
14.31 -1.874 0.62
14.293 -1.831 0.61900002
14.349 -1.7970001 0.62099999
14.378 -1.7589999 0.62300003
14.413 -1.722 0.62400001
14.444 -1.6849999 0.625
13.021 0.118 0.46000001
13.016 0.12899999 0.45899999
13.016 0.142 0.45899999
13.035 0.154 0.45899999
13.014 0.167 0.458
13.002 0.18000001 0.45699999
13.021 0.193 0.458
13.038 0.208 0.458
13.09 0.223 0.46000001
13.049 0.236 0.458
13.038 0.25099999 0.45699999
13.016 0.266 0.456
13.027 0.28099999 0.45699999
13.027 0.29699999 0.456
12.997 0.31200001 0.45500001
12.997 0.329 0.45500001
12.993 0.345 0.454
12.996 0.36300001 0.454
12.996 0.38 0.454
12.995 0.39700001 0.454
12.984 0.41499999 0.45300001
12.978 0.433 0.45300001
13.012 0.45300001 0.454
13.049 0.47299999 0.45500001
11.251 0.42399999 0.39199999
11.196 0.43900001 0.38999999
11.144 0.454 0.38800001
11.111 0.47 0.38699999
11.099 0.48699999 0.38600001
11.085 0.50400001 0.38600001
11.071 0.52100003 0.38499999
11.07 0.53899997 0.38499999
11.06 0.55699998 0.384
11.074 0.57599998 0.38499999
11.088 0.59600002 0.38499999
11.12 0.61699998 0.38600001
11.192 0.63999999 0.389
11.204 0.66100001 0.389
11.027 0.67000002 0.38299999
10.955 0.685 0.38
10.927 0.704 0.37900001
10.924 0.72399998 0.37900001
10.919 0.74400002 0.37900001
10.912 0.764 0.37799999
10.916 0.78500003 0.37799999
10.936 0.80800003 0.37900001
10.942 0.82999998 0.37900001
10.981 0.85399997 0.38
11.041 0.88099998 0.38299999
16.941 1.527 0.58700001
16.837999 1.553 0.583
16.827 1.5880001 0.583
16.855 1.627 0.58399999
16.806999 1.659 0.58200002
16.865999 1.702 0.58399999
16.863001 1.739 0.58399999
16.874001 1.778 0.58499998
16.902 1.819 0.58600003
16.900999 1.857 0.58600003
16.957001 1.903 0.588
17.032 1.95 0.58999997
17.138 2.0020001 0.59399998
17.070999 2.0350001 0.59200001
17.153 2.085 0.59500003
17.163 2.1270001 0.59500003
17.205999 2.174 0.59600002
17.302 2.2279999 0.60000002
17.326 2.2739999 0.60100001
17.413 2.3280001 0.60399997
17.427 2.3729999 0.60500002
17.454 2.4200001 0.60600001
17.51 2.4719999 0.60799998
17.582001 2.527 0.61000001
17.579 2.5710001 0.61000001
17.614 2.622 0.61199999
17.648001 2.6730001 0.61299998
17.657 2.72 0.61299998
17.778999 2.7850001 0.61799997
17.750999 2.8280001 0.61699998
17.794001 2.882 0.61900002
17.867001 2.9419999 0.62099999
17.931 3.0009999 0.62400001
17.99 3.059 0.62599999
18.089001 3.125 0.63
18.264 3.2060001 0.63599998
18.228001 3.25 0.63499999
18.285 3.3110001 0.63700002
18.361 3.3759999 0.63999999
18.459 3.4460001 0.64399999
18.561001 3.517 0.64700001
18.636999 3.585 0.64999998
18.6 3.631 0.64899999
18.596001 3.684 0.64899999
18.726999 3.7639999 0.65399998
18.666 3.806 0.65200001
18.698 3.8670001 0.65399998
18.731001 3.9289999 0.65499997
18.721001 3.983 0.65499997
18.777 4.0500002 0.65700001
18.783001 4.1079998 0.65799999
18.83 4.1750002 0.66000003
18.903 4.2480001 0.66299999
18.915001 4.3080001 0.66299999
18.945 4.3730001 0.66500002
19.009001 4.4460001 0.667
19.128 4.533 0.67199999
19.129 4.5929999 0.67199999
19.271999 4.6880002 0.67799997
15.6 5.3699999 0.56
15.375 5.348 0.55299997
15.229 5.3520002 0.54799998
15.127 5.3709998 0.54500002
15.03 5.3920002 0.542
15.054 5.4559999 0.54299998
8.0279999 3.3340001 0.29300001
7.8509998 3.2909999 0.287
7.7119999 3.263 0.28200001
7.6370001 3.2620001 0.28
7.5890002 3.2709999 0.278
7.5599999 3.289 0.278
7.5419998 3.3110001 0.27700001
7.5190001 3.3299999 0.27700001
7.4889998 3.3469999 0.27599999
7.4569998 3.3629999 0.27500001
7.447 3.388 0.27500001
7.4559999 3.4219999 0.27599999
7.4549999 3.4530001 0.27599999
7.4369998 3.4749999 0.27500001
7.4089999 3.4920001 0.27500001
7.4390001 3.536 0.27599999
7.6859999 3.6849999 0.28600001
9.1160002 -5.9920001 0.428
9.1529999 -5.9590001 0.43000001
9.1960001 -5.9299998 0.43099999
9.2200003 -5.8889999 0.43200001
9.2670002 -5.8629999 0.43399999
9.283 -5.8169999 0.43399999
9.3280001 -5.789 0.43599999
9.3570004 -5.7519999 0.43700001
9.3870001 -5.7160001 0.43799999
9.4209995 -5.6810002 0.44
9.4580002 -5.6490002 0.44100001
9.4790001 -5.6069999 0.442
9.5159998 -5.5749998 0.44299999
9.5469999 -5.54 0.44400001
9.5670004 -5.4980001 0.44499999
9.5880003 -5.4569998 0.44600001
9.6379995 -5.4330001 0.44800001
9.6459999 -5.3850002 0.44800001
9.6780005 -5.3509998 0.449
9.71 -5.3169999 0.44999999
9.7080002 -5.2639999 0.44999999
9.7740002 -5.2490001 0.45199999
9.8140001 -5.2199998 0.454
9.8210001 -5.1719999 0.454
9.8389997 -5.132 0.45500001
9.8730001 -5.099 0.456
9.9139996 -5.0710001 0.458
9.9569998 -5.0430002 0.45899999
9.9790001 -5.0040002 0.46000001
10.002 -4.9660001 0.461
10.029 -4.9310002 0.46200001
10.062 -4.8990002 0.463
10.094 -4.8660002 0.46399999
10.12 -4.8299999 0.465
10.147 -4.7950001 0.46599999
10.184 -4.7649999 0.46799999
10.214 -4.7309999 0.46900001
10.266 -4.7080002 0.47099999
10.262 -4.6589999 0.47099999
10.313 -4.6350002 0.47299999
10.355 -4.6069999 0.47499999
10.394 -4.5780001 0.47600001
10.416 -4.5419998 0.477
10.433 -4.5029998 0.477
10.485 -4.48 0.47999999
10.51 -4.4439998 0.48100001
10.563 -4.421 0.48300001
10.6 -4.3909998 0.484
10.627 -4.3569999 0.48500001
10.677 -4.3319998 0.48699999
10.716 -4.303 0.48899999
10.759 -4.276 0.491
10.802 -4.2480001 0.493
10.903 -4.243 0.49700001
10.967 -4.223 0.5
11.093 -4.2270002 0.505
11.057 -4.1690001 0.50300002
11.033 -4.1160002 0.50199997
11.058 -4.0809999 0.50300002
11.078 -4.0450001 0.50400001
11.12 -4.0170002 0.505
11.171 -3.9920001 0.50800002
11.214 -3.964 0.509
11.268 -3.9400001 0.51200002
11.309 -3.911 0.51300001
11.323 -3.8729999 0.514
11.372 -3.8469999 0.51599997
11.385 -3.809 0.51599997
11.415 -3.777 0.51700002
11.454 -3.7479999 0.51899999
11.52 -3.7279999 0.52200001
11.554 -3.697 0.523
10.846 -3.392 0.491
10.733 -3.319 0.486
10.7 -3.2709999 0.484
10.766 -3.253 0.48699999
11.818 -3.53 0.53399998
11.838 -3.4949999 0.53500003
11.868 -3.4630001 0.53600001
11.934 -3.441 0.53899997
12 -3.4189999 0.542
12.016 -3.3840001 0.54299998
12.043 -3.3510001 0.54400003
12.062 -3.316 0.54400003
12.133 -3.2950001 0.54699999
10.795 -2.8959999 0.48699999
10.595 -2.8080001 0.47799999
10.584 -2.7709999 0.477
10.626 -2.7479999 0.479
10.844 -2.7690001 0.48899999
12.439 -3.1370001 0.56099999
12.543 -3.1240001 0.565
13.445 -3.0179999 0.60500002
13.527 -2.9960001 0.60799998
13.536 -2.957 0.60900003
13.563 -2.8840001 0.61000001
13.656 -2.8640001 0.61400002
13.66 -2.786 0.61400002
13.735 -2.7620001 0.61699998
13.881 -2.674 0.62300003
13.82 -2.6240001 0.62099999
13.828 -2.5869999 0.62099999
13.928 -2.5669999 0.625
13.897 -2.5239999 0.62400001
13.892 -2.4849999 0.62400001
13.912 -2.451 0.62400001
13.958 -2.4219999 0.62599999
14.013 -2.3940001 0.62900001
14.207 -2.3150001 0.63700002
14.197 -2.277 0.63700002
14.257 -2.2490001 0.639
14.218 -2.207 0.63800001
14.191 -2.1659999 0.63599998
14.356 -2.155 0.64399999
14.3 -2.1110001 0.64099997
14.37 -2.085 0.64399999
14.42 -2.0569999 0.64600003
14.407 -2.02 0.64600003
14.402 -1.984 0.64499998
14.414 -1.95 0.64600003
14.406 -1.914 0.64600003
14.523 -1.895 0.65100002
14.534 -1.862 0.65100002
14.526 -1.826 0.65100002
14.531 -1.7920001 0.65100002
13.106 0.155 0.58999997
13.084 0.17200001 0.58899999
13.064 0.189 0.588
13.019 0.206 0.58600003
13.026 0.223 0.58700001
13.011 0.23899999 0.58600003
13.018 0.25600001 0.58700001
13.032 0.273 0.58700001
13.038 0.289 0.588
13.017 0.30500001 0.58700001
13.018 0.32100001 0.58700001
13.016 0.33700001 0.58700001
13.026 0.35299999 0.588
13.053 0.36899999 0.58899999
13.062 0.384 0.58999997
13.07 0.40000001 0.58999997
13.135 0.417 0.59299999
13.129 0.43200001 0.59299999
12.833 0.18000001 0.48699999
12.848 0.20299999 0.48699999
12.864 0.226 0.48800001
12.862 0.249 0.48699999
12.864 0.273 0.48699999
12.887 0.29800001 0.48800001
12.88 0.322 0.48699999
12.881 0.34599999 0.48699999
12.886 0.37099999 0.48699999
12.89 0.396 0.48699999
11.348 0.37099999 0.42899999
11.212 0.389 0.42300001
11.155 0.41 0.421
11.112 0.43099999 0.419
11.095 0.45300001 0.419
11.07 0.47499999 0.41800001
11.048 0.49700001 0.417
11.042 0.51999998 0.41600001
11.056 0.54400003 0.417
11.04 0.56699997 0.41600001
11.065 0.59200001 0.417
11.076 0.61699998 0.417
11.132 0.64499998 0.419
11.089 0.667 0.41800001
10.979 0.685 0.41299999
10.923 0.70599997 0.41100001
10.904 0.73000002 0.41
10.906 0.755 0.41
10.913 0.78100002 0.41100001
10.899 0.80500001 0.41
10.914 0.83200002 0.41
10.936 0.85900003 0.41100001
10.977 0.889 0.41299999
11.088 0.92400002 0.417
13.129 1.126 0.49399999
13.17 1.1619999 0.495
13.276 1.204 0.49900001
17.240999 1.6059999 0.648
16.968 1.623 0.63800001
16.985001 1.6670001 0.639
17 1.711 0.639
17.037001 1.758 0.64099997
17.082001 1.807 0.64200002
17.15 1.858 0.64499998
17.207001 1.908 0.64700001
17.221001 1.955 0.64700001
17.237 2.0020001 0.648
17.371 2.063 0.653
17.434 2.1159999 0.65600002
17.389999 2.1570001 0.65399998
17.462999 2.2130001 0.65700001
17.518 2.267 0.65899998
17.598 2.325 0.662
17.607 2.3740001 0.662
17.639 2.427 0.66399997
17.635 2.4749999 0.66399997
17.667 2.5280001 0.66500002
17.773001 2.5929999 0.66900003
17.922001 2.664 0.67500001
17.934 2.717 0.67500001
17.987 2.7750001 0.67699999
18.028999 2.8329999 0.67900002
18.045 2.8870001 0.68000001
18.104 2.948 0.68199998
18.200001 3.016 0.68599999
18.268999 3.0799999 0.68800002
18.371 3.151 0.69199997
18.452 3.2179999 0.69599998
18.563999 3.2920001 0.69999999
18.641001 3.3599999 0.70300001
18.695 3.425 0.70499998
18.721001 3.4860001 0.70700002
18.82 3.5599999 0.70999998
18.809999 3.6140001 0.70999998
18.816999 3.6719999 0.71100003
18.889 3.743 0.71399999
18.950001 3.813 0.71600002
19.063999 3.8929999 0.72100002
19.149 3.9690001 0.72399998
19.288 4.0570002 0.73000002
19.132 4.0830002 0.72399998
19.237 4.165 0.72799999
19.280001 4.2340002 0.73000002
19.413 4.3239999 0.73500001
19.457001 4.3940001 0.73699999
19.573999 4.4819999 0.74199998
19.714001 4.5760002 0.74800003
19.799999 4.7839999 0.75199997
19.728001 4.829 0.74900001
19.816999 4.914 0.75300002
19.85 4.9860001 0.755
15.505 5.3460002 0.59799999
15.339 5.342 0.59200001
15.231 5.3569999 0.58899999
15.149 5.381 0.58600003
15.103 5.4169998 0.58399999
15.214 5.5100002 0.58899999
14.727 5.8540001 0.57499999
14.595 5.8530002 0.56999999
8.1350002 3.3789999 0.31799999
7.9029999 3.3110001 0.31
7.8119998 3.3010001 0.30599999
7.6830001 3.2739999 0.301
7.618 3.2739999 0.29899999
7.5890002 3.2880001 0.29800001
7.5570002 3.302 0.29699999
7.5370002 3.3199999 0.29699999
7.513 3.3369999 0.296
7.494 3.3559999 0.29499999
7.4650002 3.369 0.29499999
7.4450002 3.3870001 0.294
7.4359999 3.411 0.294
7.4450002 3.4419999 0.29499999
7.448 3.47 0.29499999
7.4120002 3.48 0.294
7.3959999 3.5 0.29300001
7.3979998 3.5280001 0.294
7.4829998 3.595 0.29699999
10.901 7.527 0.46200001
10.784 7.4809999 0.45699999
10.727 7.4759998 0.45500001
10.686 7.4829998 0.454
10.65 7.4920001 0.45300001
10.617 7.5029998 0.45199999
10.578 7.5089998 0.45100001
10.562 7.5320001 0.45100001
10.549 7.5549998 0.45100001
10.519 7.5669999 0.44999999
10.514 7.5960002 0.44999999
10.49 7.6110001 0.44999999
10.475 7.6329999 0.44999999
9.9130001 -5.875 0.48199999
9.9230003 -5.8530002 0.48300001
9.9300003 -5.8280001 0.48300001
9.9490004 -5.8109999 0.484
9.9700003 -5.7940001 0.48500001
9.974 -5.7680001 0.48500001
9.9899998 -5.7490001 0.486
9.9860001 -5.717 0.48500001
9.9989996 -5.6960001 0.486
10.004 -5.6700001 0.486
10.04 -5.6609998 0.48800001
10.047 -5.6360002 0.48800001
10.031 -5.598 0.48800001
10.055 -5.5830002 0.48899999
10.074 -5.5640001 0.49000001
10.091 -5.5440001 0.49000001
10.114 -5.527 0.491
10.141 -5.513 0.493
10.135 -5.48 0.49200001
10.177 -5.473 0.49399999
10.196 -5.454 0.495
10.202 -5.427 0.49599999
10.226 -5.4099998 0.49700001
10.317 -5.428 0.50099999
10.276 -5.3769999 0.49900001
10.272 -5.3449998 0.49900001
10.266 -5.3119998 0.498
10.307 -5.303 0.5
10.334 -5.2870002 0.50199997
10.348 -5.2639999 0.50199997
10.352 -5.2360001 0.50199997
10.342 -5.2010002 0.50199997
10.373 -5.1859999 0.50300002
10.4 -5.1690001 0.505
10.403 -5.1399999 0.505
10.44 -5.1279998 0.50700003
10.441 -5.098 0.50700003
10.459 -5.0760002 0.50700003
10.467 -5.0489998 0.50800002
10.523 -5.046 0.50999999
10.516 -5.0110002 0.50999999
10.552 -4.9980001 0.51200002
10.583 -4.9819999 0.51300001
10.578 -4.948 0.51300001
10.609 -4.9320002 0.514
10.637 -4.914 0.51599997
10.631 -4.8800001 0.51499999
10.686 -4.8740001 0.51800001
10.702 -4.8499999 0.51899999
10.72 -4.8270001 0.51999998
10.739 -4.8039999 0.51999998
10.748 -4.776 0.52100003
10.802 -4.7690001 0.523
10.813 -4.7420001 0.52399999
10.85 -4.7259998 0.52600002
10.862 -4.6989999 0.52600002
10.897 -4.6830001 0.528
10.942 -4.6700001 0.52999997
10.923 -4.6300001 0.52899998
10.949 -4.6090002 0.52999997
10.958 -4.5809999 0.52999997
10.976 -4.5560002 0.53100002
11.015 -4.54 0.53299999
11.027 -4.513 0.53399998
11.078 -4.5009999 0.53600001
11.095 -4.4759998 0.537
11.127 -4.4559999 0.53799999
11.15 -4.4330001 0.53899997
11.194 -4.4180002 0.54100001
11.328 -4.4369998 0.54799998
11.388 -4.3940001 0.551
11.319 -4.335 0.54699999
11.291 -4.2909999 0.546
11.306 -4.263 0.546
11.331 -4.2399998 0.54799998
11.336 -4.2090001 0.54799998
11.375 -4.1900001 0.55000001
11.411 -4.1700001 0.551
11.435 -4.145 0.55199999
11.448 -4.1160002 0.55299997
11.484 -4.0960002 0.55500001
11.476 -4.059 0.55400002
11.519 -4.0409999 0.55599999
11.541 -4.0149999 0.55699998
11.569 -3.9909999 0.55800003
11.574 -3.9590001 0.55900002
11.599 -3.934 0.56
11.611 -3.904 0.56
11.646 -3.882 0.56199998
11.676 -3.858 0.56300002
11.71 -3.835 0.565
11.761 -3.8169999 0.56699997
11.785 -3.7909999 0.56800002
10.836 -3.454 0.52200001
10.835 -3.4219999 0.52200001
10.767 -3.369 0.51899999
10.714 -3.322 0.51599997
10.712 -3.29 0.51599997
10.696 -3.2539999 0.51499999
10.741 -3.2360001 0.51700002
10.898 -3.2520001 0.52499998
12.044 -3.559 0.57999998
12.08 -3.5339999 0.58200002
12.168 -3.5250001 0.58600003
12.199 -3.4979999 0.58700001
12.253 -3.4779999 0.58999997
12.267 -3.4460001 0.58999997
12.456 -3.4630001 0.59899998
12.451 -3.4260001 0.59899998
12.605 -3.4319999 0.60600001
12.585 -3.3900001 0.60500002
10.793 -2.8440001 0.51899999
10.605 -2.7639999 0.50999999
10.593 -2.73 0.509
10.609 -2.704 0.50999999
10.665 -2.687 0.51300001
13.445 -3.154 0.64600003
13.487 -3.125 0.648
13.49 -3.0869999 0.648
13.471 -3.043 0.64700001
13.476 -3.006 0.64700001
13.505 -2.973 0.648
13.569 -2.948 0.65100002
13.585 -2.9119999 0.65200001
13.632 -2.8829999 0.65399998
13.702 -2.858 0.65700001
13.706 -2.8199999 0.65700001
13.726 -2.7839999 0.65799999
13.792 -2.7579999 0.66100001
13.802 -2.72 0.662
13.858 -2.691 0.66399997
13.93 -2.665 0.667
13.943 -2.6270001 0.66799998
14.055 -2.5669999 0.67299998
13.999 -2.517 0.67000002
14.034 -2.483 0.67199999
14.097 -2.4530001 0.67500001
14.153 -2.4219999 0.67699999
14.16 -2.3829999 0.67799997
14.328 -2.2869999 0.685
14.329 -2.2460001 0.685
14.318 -2.2030001 0.685
14.38 -2.1719999 0.68699998
14.495 -2.1470001 0.69300002
14.498 -2.1059999 0.69300002
14.516 -2.0669999 0.69400001
14.536 -2.0280001 0.69400001
14.504 -1.982 0.69300002
14.581 -1.951 0.69599998
14.747 -1.9299999 0.704
12.992 0.23199999 0.61400002
12.918 0.26800001 0.61000001
12.903 0.30399999 0.60900003
12.902 0.34099999 0.60900003
12.902 0.37799999 0.60900003
12.884 0.414 0.60799998
12.883 0.45100001 0.60799998
12.9 0.48899999 0.60900003
12.895 0.52499998 0.60799998
12.895 0.56199998 0.60799998
12.89 0.59899998 0.60799998
12.89 0.63599998 0.60799998
12.899 0.67299998 0.60799998
12.908 0.70999998 0.60799998
12.907 0.74699998 0.60799998
12.913 0.78500003 0.60799998
12.922 0.82200003 0.60799998
12.906 0.85799998 0.60799998
12.917 0.89600003 0.60799998
12.788 0.119 0.51200002
12.793 0.13 0.51200002
12.784 0.142 0.51200002
12.781 0.154 0.51099998
12.795 0.167 0.51099998
12.789 0.18000001 0.51099998
12.772 0.192 0.50999999
12.765 0.206 0.509
12.759 0.22 0.509
12.759 0.234 0.509
12.756 0.248 0.50800002
12.765 0.26300001 0.50800002
12.754 0.278 0.50800002
12.754 0.29300001 0.50700003
12.751 0.30899999 0.50700003
12.753 0.32499999 0.50700003
12.745 0.34099999 0.50599998
12.747 0.35800001 0.50599998
12.743 0.375 0.50599998
12.736 0.39199999 0.505
12.73 0.40900001 0.505
12.738 0.42699999 0.505
12.733 0.44499999 0.505
12.731 0.46399999 0.50400001
12.733 0.48199999 0.50400001
11.294 0.44499999 0.447
11.2 0.458 0.44299999
11.116 0.472 0.44
11.096 0.48800001 0.43900001
11.081 0.505 0.43799999
11.071 0.523 0.43799999
11.053 0.54000002 0.43700001
11.046 0.55800003 0.43599999
11.03 0.57499999 0.43599999
11.044 0.59500003 0.43599999
11.051 0.61400002 0.43599999
11.05 0.63300002 0.43599999
10.999 0.64999998 0.43399999
10.949 0.667 0.43200001
10.91 0.68400002 0.43000001
10.908 0.704 0.43000001
10.9 0.72299999 0.43000001
10.894 0.74299997 0.43000001
10.897 0.764 0.43000001
10.917 0.787 0.43000001
10.931 0.80900002 0.43099999
10.974 0.833 0.433
11.067 0.86199999 0.43599999
12.921 1.033 0.509
12.93 1.059 0.50999999
12.943 1.087 0.50999999
12.943 1.113 0.50999999
12.958 1.142 0.51099998
12.997 1.1720001 0.51200002
13.046 1.204 0.514
17.861 1.649 0.704
13.045 1.232 0.514
17.83 1.684 0.70300001
13.067 1.263 0.51499999
17.844 1.724 0.704
13.08 1.2920001 0.51599997
17.830999 1.762 0.70300001
13.106 1.324 0.51700002
17.854 1.803 0.704
13.148 1.357 0.51800001
17.875 1.845 0.70499998
13.217 1.3940001 0.52100003
17.915001 1.8890001 0.70700002
17.985001 1.937 0.70899999
18.041 1.984 0.71200001
18.075001 2.029 0.713
18.416 2.1099999 0.727
18.315001 2.142 0.72299999
18.356001 2.1889999 0.72399998
18.311001 2.227 0.72299999
18.474001 2.2909999 0.72899997
18.533001 2.3429999 0.73199999
18.540001 2.3889999 0.73199999
18.620001 2.4449999 0.73500001
18.622999 2.4909999 0.736
18.68 2.5450001 0.73799998
18.771 2.6040001 0.74199998
18.738001 2.6470001 0.741
18.802999 2.704 0.74400002
18.851999 2.7590001 0.74599999
18.860001 2.8080001 0.74599999
18.848 2.855 0.74599999
18.867001 2.9070001 0.74699998
18.922001 2.9649999 0.74900001
18.981001 3.0250001 0.75199997
19.030001 3.0829999 0.75400001
19.033001 3.135 0.75400001
18.979 3.177 0.75300002
19.055 3.2409999 0.75599998
19.099001 3.3010001 0.75800002
19.121 3.3570001 0.759
19.159 3.4159999 0.76099998
19.216 3.48 0.76300001
19.261999 3.5420001 0.76599997
19.292999 3.602 0.76700002
