# .PCD v0.7 - Point Cloud Data file format
VERSION 0.7
FIELDS x y z
SIZE 4 4 4
TYPE F F F
COUNT 1 1 1
WIDTH 1924
HEIGHT 1
VIEWPOINT 0 0 0 1 0 0 0
POINTS 1924
DATA ascii
13.134 -7.6160002 1.604
13.209 -7.6199999 1.612
13.292 -7.6290002 1.622
13.359 -7.6279998 1.63
13.433 -7.6300001 1.6390001
14.979 -7.033 1.816
14.899 -6.9520001 1.806
14.925 -6.9190001 1.809
15.483 -6.6230001 1.872
15.425 -6.552 1.864
15.466 -6.5229998 1.869
15.562 -6.5170002 1.88
15.692 -6.5250001 1.895
15.862 -6.5479999 1.916
22.256001 -5.4959998 2.6530001
22.164 -5.408 2.641
22.232 -5.3590002 2.6489999
11.735 -2.6570001 1.396
11.612 -2.595 1.381
11.529 -2.5420001 1.3710001
11.486 -2.4990001 1.365
11.467 -2.4619999 1.363
11.458 -2.4260001 1.3609999
11.466 -2.3940001 1.362
11.458 -2.359 1.3609999
11.47 -2.3280001 1.362
11.492 -2.299 1.364
11.506 -2.2679999 1.365
11.547 -2.2420001 1.37
11.604 -2.2190001 1.376
13.27 -2.151 1.5700001
13.161 -2.095 1.556
13.154 -2.0550001 1.5549999
13.184 -2.0209999 1.558
13.186 -1.983 1.558
13.214 -1.949 1.561
13.245 -1.915 1.564
9.2480001 -1.3099999 1.092
13.454 -1.906 1.589
9.0469999 -1.255 1.068
9.0100002 -1.224 1.063
8.9680004 -1.192 1.058
8.9540005 -1.164 1.056
8.9180002 -1.1339999 1.051
8.8979998 -1.105 1.049
8.8929996 -1.079 1.048
8.8979998 -1.053 1.048
8.8990002 -1.028 1.048
8.9160004 -1.0039999 1.05
8.9230003 -0.97899997 1.05
8.9160004 -0.95200002 1.049
8.9040003 -0.92500001 1.0470001
8.9490004 -0.90399998 1.052
9.1400003 -0.89600003 1.075
13.529 0.486 1.554
13.473 0.50300002 1.5470001
13.405 0.51999998 1.539
13.385 0.53799999 1.5369999
13.39 0.55800003 1.5369999
13.416 0.579 1.54
23.191 2.905 2.6819999
23.104 2.9489999 2.674
23.142 3.0090001 2.6789999
23.164 3.0680001 2.6830001
23.299 4.369 2.7320001
23.257999 4.427 2.7290001
23.257999 4.493 2.7309999
23.252001 4.5580001 2.7320001
23.367001 4.6479998 2.747
14.036 3.122 1.66
13.939 3.142 1.65
13.883 3.1719999 1.645
13.845 3.2049999 1.642
13.848 3.2479999 1.6440001
13.827 3.286 1.643
13.825 3.3280001 1.6440001
13.844 3.3759999 1.648
13.9 3.4330001 1.656
12.369 -8.1110001 1.5599999
12.436 -8.0780001 1.567
12.481 -8.0299997 1.571
12.546 -7.9949999 1.5779999
12.591 -7.948 1.582
12.673 -7.9229999 1.591
12.755 -7.8990002 1.6
12.834 -7.8720002 1.609
12.928 -7.8540001 1.619
13.035 -7.8439999 1.631
13.132 -7.8270001 1.642
13.24 -7.816 1.654
13.357 -7.8099999 1.668
15.006 -6.8730001 1.841
14.973 -6.79 1.836
15.16 -6.8060002 1.858
15.508 -6.4180002 1.892
15.508 -6.3530002 1.891
15.628 -6.336 1.905
15.822 -6.348 1.928
22.132999 -5.5819998 2.6530001
22.115999 -5.5079999 2.6500001
22.34 -5.494 2.6760001
22.266001 -5.3369999 2.665
22.195999 -5.2519999 2.6559999
11.655 -2.7219999 1.3940001
11.55 -2.6619999 1.381
11.525 -2.622 1.378
11.469 -2.575 1.3710001
11.442 -2.5339999 1.367
11.436 -2.4990001 1.3660001
11.437 -2.4660001 1.3660001
11.45 -2.4349999 1.367
11.449 -2.401 1.367
11.47 -2.3729999 1.369
11.484 -2.3429999 1.37
11.528 -2.319 1.375
11.602 -2.3010001 1.3839999
11.697 -2.286 1.395
13.216 -2.154 1.572
13.151 -2.109 1.564
13.144 -2.0739999 1.563
13.17 -2.0450001 1.566
13.184 -2.013 1.567
13.2 -1.982 1.569
13.212 -1.951 1.5700001
13.249 -1.923 1.574
13.312 -1.899 1.581
9.0950003 -1.275 1.08
9.0229998 -1.243 1.071
8.9969997 -1.217 1.068
8.9580002 -1.1900001 1.063
8.9610004 -1.169 1.064
8.9289999 -1.1440001 1.0599999
8.9099998 -1.12 1.057
8.8889999 -1.096 1.0549999
8.8809996 -1.074 1.054
8.8879995 -1.0549999 1.054
8.8909998 -1.034 1.054
8.8929996 -1.0140001 1.0549999
8.908 -0.99599999 1.056
8.8950005 -0.97399998 1.0549999
8.8990002 -0.954 1.0549999
8.8850002 -0.93300003 1.053
8.875 -0.912 1.052
8.8850002 -0.89300001 1.053
8.882 -0.87400001 1.053
8.9029999 -0.85600001 1.0549999
8.9320002 -0.83999997 1.058
8.9960003 -0.82599998 1.066
13.337 0.22 1.575
13.354 0.244 1.577
13.325 0.26699999 1.573
13.333 0.29100001 1.573
13.327 0.315 1.573
13.323 0.33899999 1.572
13.292 0.36300001 1.568
13.293 0.38800001 1.568
13.3 0.414 1.569
13.279 0.43799999 1.566
13.277 0.46399999 1.566
13.279 0.49000001 1.566
13.275 0.51599997 1.5650001
13.335 0.54500002 1.572
13.408 0.57499999 1.581
23.120001 3.0829999 2.747
23.122 3.1459999 2.7479999
23.155001 3.2130001 2.753
23.237 3.2880001 2.7639999
23.354 4.0960002 2.7950001
23.285 4.152 2.7880001
23.268999 4.217 2.7869999
23.323999 4.296 2.796
23.315001 4.3629999 2.796
23.368999 4.4419999 2.8039999
14.128 3.158 1.707
13.996 3.1719999 1.693
13.905 3.194 1.683
13.884 3.233 1.681
13.866 3.2720001 1.6799999
13.865 3.316 1.682
13.923 3.3740001 1.6900001
15.491 -6.5830002 1.943
15.514 -6.5469999 1.9450001
15.581 -6.5289998 1.9529999
15.688 -6.527 1.966
15.845 -6.5450001 1.985
22.274 -5.4359999 2.7539999
22.219999 -5.3579998 2.7460001
22.26 -5.302 2.75
22.160999 -5.1479998 2.737
22.142 -5.0780001 2.734
11.598 -2.6259999 1.431
11.53 -2.5769999 1.423
11.509 -2.5380001 1.42
11.468 -2.4960001 1.414
11.461 -2.46 1.413
11.447 -2.424 1.411
11.446 -2.3900001 1.41
11.452 -2.358 1.411
11.455 -2.325 1.411
11.486 -2.2969999 1.414
11.506 -2.2679999 1.416
11.542 -2.2409999 1.42
11.63 -2.224 1.431
13.199 -2.0999999 1.619
13.133 -2.0510001 1.6109999
13.156 -2.017 1.613
13.181 -1.982 1.6160001
13.194 -1.946 1.617
13.211 -1.91 1.619
9.2320004 -1.307 1.131
13.346 -1.89 1.635
9.0240002 -1.252 1.105
8.9729996 -1.2180001 1.098
8.9519997 -1.1900001 1.095
8.9259996 -1.16 1.092
8.8879995 -1.1289999 1.087
8.8699999 -1.101 1.084
8.882 -1.077 1.086
8.8830004 -1.051 1.085
8.8800001 -1.025 1.085
8.8620005 -0.99699998 1.082
8.8520002 -0.97000003 1.081
8.868 -0.94599998 1.082
8.8780003 -0.921 1.0829999
8.908 -0.89899999 1.087
9.1029997 -0.89200002 1.11
23.291 3.3169999 2.8150001
23.233 3.3670001 2.8099999
23.233 3.4260001 2.8110001
23.225 3.484 2.812
23.268999 3.5510001 2.819
23.275999 3.612 2.8210001
23.294001 3.675 2.825
23.851999 4.4749999 2.9130001
23.798 4.5320001 2.908
14.023 3.2479999 1.733
13.923 3.267 1.722
13.882 3.3 1.7180001
13.901 3.348 1.722
13.984 3.411 1.734
12.356 -8.1029997 1.6160001
12.425 -8.0699997 1.624
12.477 -8.0270004 1.6289999
12.541 -7.9920001 1.636
12.607 -7.9580002 1.643
12.684 -7.9310002 1.652
12.786 -7.9180002 1.664
12.865 -7.8909998 1.6720001
12.951 -7.869 1.682
13.073 -7.8670001 1.697
13.211 -7.875 1.7130001
15.59 -6.3860002 1.971
15.69 -6.3610001 1.983
15.87 -6.368 2.0050001
11.525 -2.6919999 1.429
11.484 -2.6470001 1.424
11.484 -2.612 1.424
11.448 -2.5699999 1.419
11.444 -2.5350001 1.418
11.422 -2.4960001 1.415
11.424 -2.4630001 1.415
11.435 -2.4319999 1.416
11.451 -2.402 1.4170001
11.463 -2.3710001 1.418
11.484 -2.3429999 1.421
11.525 -2.3180001 1.425
11.594 -2.299 1.434
11.755 -2.2980001 1.4529999
13.347 -2.175 1.646
13.176 -2.1129999 1.625
13.135 -2.073 1.619
13.15 -2.0409999 1.6210001
13.169 -2.0109999 1.623
13.188 -1.98 1.625
13.196 -1.948 1.626
13.231 -1.92 1.63
9.25 -1.319 1.1390001
13.277 -1.8940001 1.635
9.052 -1.2690001 1.115
9.0039997 -1.24 1.108
8.9809999 -1.215 1.105
8.967 -1.191 1.103
8.9309998 -1.165 1.099
8.9029999 -1.14 1.095
8.882 -1.1160001 1.0930001
8.8739996 -1.094 1.091
8.8660002 -1.073 1.09
8.8699999 -1.052 1.091
8.8710003 -1.0319999 1.091
8.8739996 -1.012 1.091
8.8909998 -0.99299997 1.0930001
8.8780003 -0.972 1.091
8.8710003 -0.95099998 1.09
8.8540001 -0.92900002 1.0880001
8.8559999 -0.91000003 1.0880001
8.8599997 -0.89099997 1.089
8.8739996 -0.87300003 1.09
8.8909998 -0.85500002 1.092
8.9420004 -0.83999997 1.098
9.0489998 -0.83099997 1.1109999
13.359 0.223 1.641
13.399 0.24699999 1.645
13.404 0.27000001 1.646
13.397 0.294 1.645
13.391 0.31799999 1.6440001
13.41 0.34299999 1.646
13.493 0.37 1.656
13.505 0.396 1.6569999
13.975 3.2550001 1.762
13.909 3.2839999 1.7539999
13.913 3.329 1.756
13.968 3.3859999 1.765
19.108 -7.0409999 2.473
19.017 -6.9510002 2.46
19.073999 -6.915 2.467
22.252001 -5.3660002 2.849
22.294001 -5.3109999 2.8540001
11.481 -2.5999999 1.4680001
11.469 -2.563 1.466
11.465 -2.529 1.465
11.46 -2.494 1.464
11.455 -2.4590001 1.4630001
11.421 -2.4189999 1.459
11.427 -2.3859999 1.459
11.44 -2.3559999 1.46
11.452 -2.3239999 1.461
11.474 -2.2950001 1.464
11.508 -2.2679999 1.4680001
11.556 -2.244 1.473
11.667 -2.2309999 1.487
13.311 -2.118 1.692
13.155 -2.0539999 1.6720001
13.149 -2.0150001 1.67
13.165 -1.979 1.6720001
13.178 -1.943 1.673
13.225 -1.911 1.679
9.1079998 -1.289 1.156
13.457 -1.905 1.7079999
9.0109997 -1.249 1.143
8.9799995 -1.219 1.1390001
8.948 -1.188 1.1339999
8.9029999 -1.1569999 1.128
8.8629999 -1.126 1.123
8.8509998 -1.098 1.1210001
8.8620005 -1.074 1.122
8.8649998 -1.048 1.122
8.8690004 -1.023 1.122
8.8559999 -0.99599999 1.1210001
8.8330002 -0.96700001 1.117
8.8559999 -0.94400001 1.12
8.875 -0.92000002 1.122
8.9250002 -0.89999998 1.128
14.017 3.29 1.803
13.929 3.312 1.793
13.902 3.349 1.7920001
13.932 3.4000001 1.7970001
14.047 3.4719999 1.814
12.463 -8.1730003 1.688
12.526 -8.1359997 1.6950001
12.611 -8.1140003 1.705
12.693 -8.0889997 1.715
12.792 -8.0749998 1.727
12.864 -8.0430002 1.735
13.009 -8.0570002 1.753
19.190001 -6.9289999 2.4990001
18.997 -6.7849998 2.4719999
19.079 -6.7410002 2.4820001
11.507 -2.687 1.478
11.428 -2.6340001 1.467
11.433 -2.6010001 1.4680001
11.452 -2.5710001 1.47
11.427 -2.5309999 1.466
11.421 -2.4960001 1.465
11.423 -2.4630001 1.465
11.423 -2.4289999 1.464
11.427 -2.3970001 1.465
11.442 -2.3670001 1.466
11.472 -2.3399999 1.47
11.512 -2.3150001 1.474
11.602 -2.3 1.485
11.798 -2.306 1.51
13.27 -2.128 1.694
13.172 -2.0780001 1.681
13.127 -2.0380001 1.675
13.145 -2.007 1.677
13.172 -1.978 1.681
13.206 -1.95 1.6849999
13.214 -1.918 1.6849999
9.1610003 -1.307 1.168
13.328 -1.901 1.7
9.0579996 -1.2690001 1.155
9.0019999 -1.24 1.148
8.9940004 -1.216 1.146
8.9759998 -1.192 1.1440001
8.9399996 -1.166 1.1390001
8.9040003 -1.14 1.1339999
8.8719997 -1.115 1.13
8.8599997 -1.092 1.1289999
8.8479996 -1.0700001 1.127
8.8500004 -1.05 1.127
8.8459997 -1.029 1.126
8.8570004 -1.01 1.128
8.8570004 -0.98900002 1.127
8.8509998 -0.96799999 1.126
8.849 -0.94800001 1.126
8.8509998 -0.92900002 1.126
8.8439999 -0.90799999 1.125
8.8610001 -0.88999999 1.127
8.875 -0.87199998 1.1289999
8.8950005 -0.85500002 1.131
8.9580002 -0.84100002 1.1390001
9.1210003 -0.83700001 1.16
14.005 3.263 1.835
13.936 3.2909999 1.827
13.92 3.3310001 1.826
13.969 3.3870001 1.834
14.102 3.464 1.853
19.201 -7.1360002 2.572
18.962999 -6.9910002 2.54
18.931999 -6.9229999 2.5350001
18.983999 -6.8850002 2.5409999
11.462 -2.596 1.517
11.414 -2.5510001 1.51
11.421 -2.5190001 1.511
11.428 -2.487 1.511
11.42 -2.4519999 1.51
11.414 -2.4170001 1.5089999
11.418 -2.3840001 1.5089999
11.42 -2.3510001 1.508
11.432 -2.3199999 1.51
11.461 -2.293 1.513
11.5 -2.267 1.518
11.561 -2.2449999 1.526
11.702 -2.2379999 1.544
13.358 -2.125 1.757
13.189 -2.059 1.734
13.145 -2.0139999 1.728
13.137 -1.974 1.726
13.151 -1.938 1.728
13.206 -1.908 1.735
9.1020002 -1.288 1.1950001
9 -1.247 1.181
8.9689999 -1.217 1.177
8.9300003 -1.186 1.1720001
8.8920002 -1.155 1.166
8.8640003 -1.125 1.1619999
8.8479996 -1.097 1.16
8.8409996 -1.071 1.158
8.8459997 -1.046 1.159
8.8470001 -1.02 1.159
8.8439999 -0.99400002 1.158
8.8260002 -0.96600002 1.155
8.8430004 -0.94199997 1.1569999
8.8760004 -0.92000002 1.161
8.9230003 -0.89899999 1.1670001
14.041 3.2969999 1.876
13.981 3.326 1.87
13.963 3.365 1.869
13.979 3.4119999 1.873
14.058 3.4749999 1.885
12.498 -8.1969995 1.752
12.571 -8.1660004 1.76
12.653 -8.1409998 1.77
12.738 -8.1190004 1.781
12.823 -8.0950003 1.791
12.907 -8.0699997 1.801
13.029 -8.0690002 1.816
13.373 -8.0480003 1.86
13.406 -7.9910002 1.863
13.463 -7.948 1.869
19.160999 -6.9180002 2.5810001
19.011999 -6.7909999 2.559
19.139 -6.763 2.575
11.415 -2.631 1.516
11.374 -2.5880001 1.51
11.353 -2.549 1.507
11.379 -2.5209999 1.51
11.398 -2.4909999 1.512
11.396 -2.457 1.512
11.398 -2.424 1.511
11.404 -2.392 1.512
11.429 -2.3640001 1.515
11.464 -2.3380001 1.5190001
11.528 -2.319 1.527
11.596 -2.299 1.536
11.702 -2.2869999 1.549
13.342 -2.1400001 1.762
13.192 -2.0810001 1.742
13.135 -2.039 1.734
13.119 -2.003 1.732
13.103 -1.967 1.729
13.156 -1.942 1.7359999
13.174 -1.9119999 1.738
9.2819996 -1.324 1.224
13.248 -1.8890001 1.747
9.0740004 -1.271 1.197
9 -1.239 1.187
8.9560003 -1.211 1.181
8.9350004 -1.187 1.178
8.9209995 -1.163 1.176
8.908 -1.14 1.174
8.8879995 -1.117 1.171
8.8669996 -1.0930001 1.168
8.8509998 -1.0700001 1.166
8.8459997 -1.049 1.165
8.8409996 -1.028 1.164
8.8369999 -1.007 1.164
8.8540001 -0.98900002 1.166
8.8400002 -0.96700001 1.164
8.8439999 -0.94700003 1.164
8.8380003 -0.92699999 1.163
8.8400002 -0.90700001 1.163
8.8599997 -0.88999999 1.166
8.8780003 -0.87199998 1.168
8.9040003 -0.85500002 1.1720001
8.9829998 -0.84299999 1.182
14.166 3.302 1.926
14.031 3.3150001 1.909
14.013 3.355 1.908
14.058 3.4100001 1.916
14.897 -7.1030002 2.0799999
14.828 -7.0250001 2.0699999
14.919 -7.0229998 2.082
19.110001 -7.0479999 2.6459999
19.083 -6.9819999 2.642
11.486 -2.602 1.571
11.361 -2.54 1.554
11.343 -2.5020001 1.551
11.35 -2.471 1.552
11.393 -2.4460001 1.557
11.4 -2.414 1.558
11.386 -2.378 1.5549999
11.404 -2.348 1.557
11.413 -2.3169999 1.558
11.447 -2.29 1.562
11.504 -2.2679999 1.5700001
11.578 -2.2479999 1.579
11.676 -2.233 1.592
13.211 -2.062 1.796
13.124 -2.01 1.783
13.099 -1.9680001 1.78
13.112 -1.932 1.781
13.163 -1.901 1.7869999
9.1680002 -1.2970001 1.244
13.343 -1.888 1.811
8.9960003 -1.2460001 1.221
8.9449997 -1.2130001 1.2130001
8.9219999 -1.184 1.21
8.8999996 -1.155 1.207
8.8760004 -1.126 1.2029999
8.8500004 -1.097 1.199
8.8500004 -1.071 1.199
8.8290005 -1.043 1.196
8.8299999 -1.017 1.1950001
8.8269997 -0.991 1.1950001
8.823 -0.96499997 1.194
8.8400002 -0.94099998 1.196
8.8769999 -0.91900003 1.2
8.9650002 -0.90200001 1.212
12.484 -8.1879997 1.808
12.551 -8.1540003 1.816
12.637 -8.132 1.827
12.715 -8.1040001 1.837
12.805 -8.0839996 1.848
12.9 -8.066 1.86
13.069 -8.0939999 1.883
14.953 -6.9889998 2.109
14.906 -6.8979998 2.1010001
11.39 -2.6259999 1.563
11.326 -2.5769999 1.554
11.334 -2.5439999 1.5549999
11.35 -2.5139999 1.556
11.377 -2.4860001 1.5599999
11.376 -2.4530001 1.559
11.388 -2.4219999 1.5599999
11.403 -2.392 1.562
11.416 -2.362 1.564
11.458 -2.3369999 1.569
11.534 -2.3199999 1.579
11.622 -2.3039999 1.591
11.73 -2.293 1.605
13.22 -2.086 1.804
13.13 -2.0380001 1.791
13.097 -1.999 1.786
13.114 -1.969 1.788
13.127 -1.937 1.79
13.152 -1.908 1.793
13.198 -1.882 1.799
9.1400003 -1.281 1.245
9.0279999 -1.243 1.23
8.9700003 -1.2130001 1.222
8.9460001 -1.188 1.2180001
8.9189997 -1.163 1.215
8.9219999 -1.142 1.215
8.8889999 -1.1160001 1.21
8.8640003 -1.092 1.207
8.849 -1.0700001 1.204
8.8520002 -1.049 1.205
8.8430004 -1.028 1.2029999
8.8299999 -1.006 1.201
8.8470001 -0.98799998 1.204
8.8190002 -0.96399999 1.2
8.8240004 -0.94499999 1.2
8.8409996 -0.92699999 1.202
8.8380003 -0.90700001 1.202
8.8520002 -0.889 1.204
8.8739996 -0.87099999 1.207
8.9320002 -0.85699999 1.214
9.0620003 -0.85000002 1.232
19.695 -6.7969999 2.812
19.733 -6.7509999 2.816
19.969 -6.7729998 2.849
11.394 -2.5469999 1.609
11.344 -2.503 1.602
11.339 -2.4679999 1.601
11.351 -2.437 1.602
11.372 -2.4089999 1.605
11.379 -2.3770001 1.605
11.398 -2.3469999 1.607
11.419 -2.3180001 1.61
11.46 -2.293 1.615
11.518 -2.27 1.623
11.587 -2.25 1.632
11.679 -2.234 1.645
13.274 -2.072 1.863
13.134 -2.0109999 1.8430001
13.115 -1.97 1.84
13.113 -1.931 1.839
13.141 -1.897 1.8430001
13.27 -1.877 1.86
9.0609999 -1.255 1.27
8.9779997 -1.217 1.258
8.9259996 -1.184 1.25
8.9069996 -1.156 1.247
8.882 -1.126 1.243
8.8509998 -1.097 1.239
8.8540001 -1.071 1.239
8.8310003 -1.043 1.235
8.8249998 -1.016 1.234
8.8219995 -0.99000001 1.233
8.8129997 -0.963 1.2309999
8.8479996 -0.94099998 1.2359999
8.8889999 -0.92000002 1.2410001
9.066 -0.912 1.266
12.441 -8.1599998 1.8609999
12.513 -8.1300001 1.87
12.576 -8.0930004 1.877
12.667 -8.0740004 1.8890001
12.748 -8.0489998 1.9
12.825 -8.0200005 1.909
12.943 -8.0170002 1.925
19.664 -6.652 2.8180001
19.813 -6.6290002 2.8380001
11.49 -2.6489999 1.628
11.349 -2.582 1.607
11.314 -2.54 1.602
11.335 -2.5109999 1.605
11.35 -2.48 1.6059999
11.369 -2.451 1.609
11.373 -2.4189999 1.609
11.4 -2.391 1.612
11.427 -2.3640001 1.6160001
11.488 -2.3429999 1.624
11.538 -2.3210001 1.63
11.615 -2.303 1.641
13.364 -2.108 1.882
13.166 -2.043 1.854
13.116 -2.0020001 1.847
13.091 -1.965 1.8430001
13.111 -1.9349999 1.845
13.131 -1.905 1.848
13.188 -1.88 1.8559999
9.2229996 -1.2920001 1.2970001
9.0679998 -1.248 1.275
9.0050001 -1.217 1.266
8.9759998 -1.192 1.262
8.9569998 -1.1670001 1.2589999
8.9169998 -1.141 1.253
8.8839998 -1.115 1.249
8.8769999 -1.094 1.247
8.8739996 -1.072 1.247
8.8769999 -1.052 1.247
8.8579998 -1.029 1.244
8.8459997 -1.007 1.242
8.8439999 -0.98699999 1.242
8.8260002 -0.96499997 1.239
8.8190002 -0.94400001 1.238
8.8339996 -0.926 1.24
8.8439999 -0.90700001 1.2410001
8.8629999 -0.889 1.244
8.9099998 -0.87400001 1.25
9.0179996 -0.86500001 1.266
19.231001 -7.0999999 2.8380001
19.035 -6.9699998 2.809
19.062 -6.9229999 2.812
19.295 -6.9499998 2.846
19.735001 -6.8730001 2.908
19.615999 -6.7729998 2.8900001
19.669001 -6.7319999 2.8970001
19.862 -6.7389998 2.924
11.494 -2.5699999 1.675
11.363 -2.507 1.656
11.331 -2.467 1.651
11.339 -2.4349999 1.651
11.345 -2.4030001 1.652
11.373 -2.375 1.655
11.4 -2.348 1.659
11.425 -2.319 1.6619999
11.471 -2.2950001 1.668
11.524 -2.2709999 1.676
11.577 -2.2479999 1.683
11.812 -2.2590001 1.717
13.176 -2.017 1.908
13.099 -1.967 1.896
13.099 -1.929 1.896
13.139 -1.896 1.901
13.301 -1.881 1.924
9.1169996 -1.262 1.318
9.0139999 -1.222 1.303
8.96 -1.188 1.295
8.9090004 -1.155 1.2869999
8.8809996 -1.126 1.283
8.868 -1.098 1.28
8.8610001 -1.071 1.279
8.842 -1.043 1.276
8.8190002 -1.015 1.272
8.8190002 -0.98900002 1.272
8.8330002 -0.96499997 1.273
8.8830004 -0.94400001 1.28
9.0010004 -0.93099999 1.2970001
12.399 -8.1330004 1.913
12.47 -8.1020002 1.9220001
12.537 -8.0690002 1.931
12.609 -8.0380001 1.9400001
12.719 -8.0310001 1.955
12.829 -8.0240002 1.97
12.973 -8.0369997 1.9910001
19.058001 -6.8099999 2.823
19.098 -6.75 2.8280001
19.733 -6.6760001 2.9170001
19.899 -6.658 2.9400001
11.412 -2.596 1.6670001
11.332 -2.5439999 1.655
11.334 -2.5109999 1.655
11.343 -2.4790001 1.656
11.368 -2.451 1.659
11.392 -2.4230001 1.6619999
11.417 -2.395 1.665
11.46 -2.3710001 1.671
11.494 -2.3440001 1.676
11.561 -2.325 1.6849999
11.716 -2.323 1.707
13.292 -2.062 1.9299999
13.164 -2.0090001 1.9119999
13.14 -1.972 1.908
13.161 -1.942 1.91
13.194 -1.913 1.915
9.3389997 -1.308 1.355
9.1389999 -1.257 1.326
9.0790005 -1.227 1.317
9.0089998 -1.196 1.306
8.9709997 -1.169 1.301
8.9320002 -1.142 1.295
8.9160004 -1.119 1.2920001
8.8959999 -1.096 1.289
8.8830004 -1.073 1.2869999
8.8800001 -1.052 1.2869999
8.882 -1.0319999 1.2869999
8.8690004 -1.01 1.285
8.8719997 -0.99000001 1.285
8.8620005 -0.96799999 1.283
8.8669996 -0.949 1.284
8.8850002 -0.93099999 1.286
8.9099998 -0.91299999 1.29
9.0030003 -0.903 1.303
19.143999 -7.0710001 2.9130001
19.021999 -6.9689999 2.8940001
19.072001 -6.9299998 2.901
19.24 -6.9330001 2.9260001
21.709999 -7.369 3.296
21.715 -7.3060002 3.296
11.405 -2.517 1.7130001
11.354 -2.4719999 1.705
11.351 -2.438 1.704
11.349 -2.404 1.7029999
11.374 -2.3759999 1.707
11.415 -2.3510001 1.712
11.443 -2.323 1.716
11.489 -2.2980001 1.723
11.546 -2.276 1.7309999
11.657 -2.263 1.747
13.305 -2.036 1.9859999
13.173 -1.978 1.966
13.175 -1.939 1.966
13.276 -1.915 1.98
9.1809998 -1.271 1.368
9.073 -1.229 1.352
8.9919996 -1.192 1.339
8.934 -1.158 1.33
8.901 -1.128 1.325
8.8789997 -1.099 1.321
8.8929996 -1.075 1.323
8.8780003 -1.0470001 1.3200001
8.8660002 -1.02 1.318
8.8809996 -0.995 1.3200001
8.9200001 -0.97399998 1.326
9.1759996 -0.97500002 1.363
12.448 -8.1660004 1.979
12.529 -8.1420002 1.99
12.595 -8.1070004 1.999
12.693 -8.092 2.013
12.81 -8.0900002 2.029
19.232 -6.8720002 2.9360001
19.285 -6.8169999 2.9430001
11.636 -2.6470001 1.752
11.393 -2.5580001 1.715
11.348 -2.5139999 1.707
11.356 -2.4820001 1.7079999
11.363 -2.45 1.709
11.412 -2.427 1.716
11.432 -2.398 1.7180001
11.476 -2.3740001 1.724
11.527 -2.3510001 1.732
11.617 -2.336 1.745
11.818 -2.3429999 1.775
13.294 -2.062 1.99
13.238 -2.02 1.9809999
13.232 -1.985 1.98
13.294 -1.961 1.989
9.151 -1.2359999 1.368
9.1029997 -1.2079999 1.36
9.0380001 -1.177 1.35
8.967 -1.147 1.339
8.9440002 -1.122 1.336
8.9169998 -1.098 1.332
8.908 -1.076 1.33
8.9029999 -1.054 1.329
8.8999996 -1.033 1.329
8.9060001 -1.013 1.329
8.9069996 -0.99299997 1.329
8.9250002 -0.97500002 1.332
8.9700003 -0.95899999 1.339
9.1020002 -0.95300001 1.358
11.476 -2.4990001 1.775
11.403 -2.4489999 1.763
11.38 -2.411 1.7589999
11.399 -2.381 1.762
11.446 -2.3570001 1.7690001
11.46 -2.326 1.77
11.513 -2.303 1.778
11.578 -2.2820001 1.788
11.667 -2.2650001 1.801
13.317 -2.0769999 2.0480001
13.218 -2.023 2.0320001
13.24 -1.987 2.0350001
13.35 -1.965 2.0510001
9.2220001 -1.249 1.415
9.1070004 -1.207 1.397
8.9870005 -1.164 1.378
8.9280005 -1.131 1.369
8.8990002 -1.101 1.364
8.9160004 -1.077 1.3660001
8.9189997 -1.051 1.3660001
8.9259996 -1.026 1.367
9.0220003 -1.011 1.381
31.43 12.617 5.2820001
31.372 12.715 5.2800002
31.375999 12.837 5.2880001
31.371 12.957 5.2940001
11.507 -2.549 1.783
11.426 -2.497 1.77
11.427 -2.464 1.7690001
11.438 -2.4330001 1.771
11.459 -2.404 1.774
11.495 -2.378 1.779
11.514 -2.349 1.781
11.57 -2.3269999 1.789
11.683 -2.316 1.806
13.22 -2.0840001 2.0380001
13.193 -2.046 2.033
13.244 -2.02 2.04
13.282 -1.992 2.046
9.1379995 -1.1900001 1.406
8.9840002 -1.148 1.382
8.9280005 -1.12 1.373
8.9110003 -1.097 1.37
8.908 -1.075 1.37
8.9099998 -1.0549999 1.37
8.9350004 -1.0369999 1.373
8.974 -1.021 1.3789999
9.059 -1.01 1.392
31.417 11.758 5.2709999
31.396999 11.861 5.2729998
31.385 11.968 5.277
31.353001 12.067 5.2779999
31.368999 12.185 5.2870002
31.388 12.304 5.296
31.389 12.64 5.3150001
31.391001 12.754 5.322
31.355 12.852 5.322
31.471001 13.012 5.348
31.417999 13.103 5.3460002
11.489 -2.434 1.8279999
11.454 -2.3929999 1.822
11.467 -2.362 1.824
11.485 -2.3310001 1.826
11.515 -2.3039999 1.83
11.528 -2.2720001 1.832
11.566 -2.2460001 1.837
11.7 -2.237 1.858
13.211 -2.0599999 2.0910001
13.195 -2.0190001 2.0880001
13.223 -1.984 2.092
13.375 -1.9680001 2.115
9.1619997 -1.2130001 1.447
8.9510002 -1.159 1.413
8.9099998 -1.128 1.406
8.9069996 -1.101 1.405
8.9379997 -1.079 1.41
9.0159998 -1.062 1.4220001
31.290001 10.703 5.316
31.261 10.805 5.3179998
31.239 10.911 5.3210001
31.246 11.027 5.329
31.233999 11.137 5.3330002
31.252001 11.257 5.3429999
31.243999 11.37 5.349
31.261 11.491 5.3590002
31.247 11.602 5.3629999
31.221001 11.709 5.3660002
31.292 11.853 5.3860002
31.256001 11.956 5.3870001
31.256001 12.074 5.3940001
31.282 12.203 5.4060001
31.294001 12.327 5.415
31.295 12.447 5.4229999
31.305 12.571 5.4320002
31.299 12.689 5.4390001
31.326 12.822 5.4510002
31.299 12.932 5.454
11.602 -2.536 1.849
11.508 -2.4809999 1.834
11.504 -2.447 1.832
11.514 -2.415 1.834
11.49 -2.3770001 1.829
11.5 -2.346 1.83
11.507 -2.3139999 1.831
11.565 -2.293 1.84
11.641 -2.2750001 1.852
13.243 -2.122 2.0999999
13.163 -2.075 2.0869999
13.184 -2.0450001 2.0899999
13.235 -2.0190001 2.098
13.285 -1.992 2.1059999
13.403 -1.976 2.1240001
8.9890003 -1.192 1.423
8.9560003 -1.166 1.418
8.9370003 -1.142 1.414
8.9049997 -1.117 1.409
8.8990002 -1.095 1.408
8.8920002 -1.073 1.4069999
8.9399996 -1.058 1.414
9.0209999 -1.046 1.427
31.316999 9.8809996 5.3249998
31.235001 9.9610004 5.3169999
31.229 10.066 5.3210001
31.282 10.19 5.335
31.222 10.277 5.3309999
31.242001 10.391 5.3400002
31.252001 10.502 5.3470001
31.243 10.607 5.3509998
31.231001 10.711 5.3540001
31.237 10.821 5.3610001
31.254 10.935 5.3699999
31.273001 11.051 5.3790002
31.278 11.162 5.3850002
31.287001 11.274 5.3930001
31.275999 11.38 5.3969998
31.299999 11.499 5.4070001
31.379 11.638 5.427
31.351999 11.738 5.428
31.326 11.839 5.4299998
31.372999 11.968 5.4439998
31.316 12.058 5.441
31.368 12.189 5.4559999
31.361 12.298 5.461
31.427 12.548 5.4850001
31.445 12.668 5.4949999
11.685 -2.441 1.9119999
11.634 -2.3959999 1.903
11.518 -2.3380001 1.8839999
11.513 -2.303 1.882
11.507 -2.2679999 1.881
11.5 -2.233 1.8789999
11.561 -2.211 1.8890001
11.759 -2.214 1.92
13.338 -2.118 2.1719999
13.179 -2.0539999 2.1459999
13.185 -2.017 2.1459999
13.293 -1.994 2.1630001
8.9320002 -1.209 1.451
8.8889999 -1.177 1.444
8.8839998 -1.15 1.442
8.8830004 -1.124 1.442
8.8929996 -1.099 1.443
8.9790001 -1.0829999 1.457
31.209 8.7410002 5.3579998
31.202999 8.8430004 5.362
31.187 8.9420004 5.3649998
31.165001 9.04 5.3670001
31.181999 9.1499996 5.3759999
31.165001 9.25 5.3790002
31.143 9.349 5.382
31.162001 9.4610004 5.3909998
31.138 9.5609999 5.3930001
31.155001 9.6730003 5.402
31.153 9.7799997 5.408
31.155001 9.8889999 5.415
31.149 9.9960003 5.4200001
31.153 10.106 5.427
31.165001 10.22 5.4359999
31.169001 10.331 5.4429998
31.169001 10.442 5.4499998
31.207001 10.567 5.4629998
31.181 10.67 5.4650002
31.200001 10.788 5.4749999
31.198 10.901 5.4819999
31.195999 11.013 5.4889998
31.216 11.134 5.4990001
31.216999 11.249 5.506
31.218 11.364 5.5139999
31.225 11.482 5.5219998
31.261999 11.612 5.5359998
31.243 11.722 5.54
31.271999 11.849 5.553
31.266001 11.965 5.559
31.252001 12.077 5.5640001
31.311001 12.219 5.5830002
31.299999 12.334 5.5879998
31.285999 12.448 5.5939999
31.313999 12.58 5.6069999
31.325001 12.705 5.6160002
31.336 12.831 5.6259999
31.320999 12.946 5.632
11.572 -2.427 1.895
11.484 -2.375 1.88
11.47 -2.339 1.877
11.473 -2.3069999 1.877
11.519 -2.2839999 1.8839999
11.542 -2.256 1.888
11.718 -2.257 1.916
13.241 -2.1210001 2.1589999
13.181 -2.0780001 2.1489999
13.196 -2.046 2.151
13.284 -2.026 2.165
8.9090004 -1.2029999 1.45
8.8549995 -1.174 1.441
8.8520002 -1.152 1.441
8.8529997 -1.131 1.441
8.8719997 -1.112 1.443
8.8859997 -1.0930001 1.446
8.9110003 -1.075 1.449
8.948 -1.058 1.455
9.0480003 -1.049 1.471
31.245001 7.8010001 5.3800001
31.174999 7.8839998 5.3720002
31.153999 7.9790001 5.3730001
31.124001 8.0710001 5.3730001
31.122 8.1709995 5.3769999
31.105 8.2679996 5.3779998
31.111 8.3710003 5.3839998
31.101 8.4689999 5.3870001
31.08 8.566 5.388
31.08 8.6669998 5.3930001
31.104 8.7770004 5.402
31.114 8.882 5.4089999
31.143999 8.9940004 5.4190001
31.135 9.0950003 5.4229999
31.136 9.1990004 5.428
31.155001 9.309 5.4359999
31.15 9.4119997 5.441
31.155001 9.5179996 5.447
31.184 9.632 5.4569998
31.159 9.7299995 5.4580002
31.16 9.8360004 5.4640002
31.187 9.9499998 5.474
31.166 10.05 5.4759998
31.235001 10.179 5.493
31.197001 10.273 5.4920001
31.191 10.378 5.4970002
31.195 10.487 5.5029998
31.228001 10.606 5.5149999
31.247999 10.721 5.5240002
31.219 10.819 5.5250001
31.231001 10.932 5.533
31.233 11.041 5.539
31.226 11.148 5.5440001
31.237 11.261 5.552
31.250999 11.375 5.5609999
31.274 11.493 5.5710001
31.285999 11.608 5.5799999
31.266001 11.711 5.5819998
31.33 11.846 5.5999999
31.292 12.053 5.6059999
31.393 12.204 5.631
26.566 -10.071 4.5359998
26.533001 -9.9790001 4.5300002
26.556 -9.9069996 4.533
26.577 -9.835 4.5349998
11.547 -2.3440001 1.941
11.501 -2.3010001 1.933
11.491 -2.2650001 1.931
11.476 -2.2279999 1.927
11.501 -2.1989999 1.931
11.583 -2.1800001 1.944
13.235 -2.063 2.2149999
13.24 -2.0239999 2.2149999
8.8800001 -1.201 1.483
8.8319998 -1.169 1.474
8.8380003 -1.1440001 1.475
8.8710003 -1.122 1.48
8.8979998 -1.099 1.484
8.967 -1.081 1.495
31.205 6.5050001 5.4039998
31.120001 6.5780001 5.3940001
31.087 6.6630001 5.3930001
31.048 6.7470002 5.3899999
31.048 6.8400002 5.395
31.087999 6.9419999 5.4070001
31.075001 7.033 5.4089999
31.059 7.1240001 5.4109998
31.049999 7.2160001 5.414
31.042 7.3099999 5.4180002
31.047001 7.4070001 5.4239998
31.063 7.507 5.4320002
31.098 7.612 5.4429998
31.065001 7.7020001 5.4419999
31.054001 7.7969999 5.4460001
31.077 7.901 5.4549999
31.073 7.9990001 5.46
31.038 8.0900002 5.4590001
31.045 8.191 5.4660001
31.042999 8.2910004 5.4710002
31.073 8.3999996 5.4819999
31.051001 8.4960003 5.4840002
31.048 8.5970001 5.4889998
31.063 8.7030001 5.4970002
31.065001 8.8070002 5.5040002
31.089001 8.9169998 5.5139999
31.094 9.0229998 5.5209999
31.114 9.1330004 5.5300002
31.087999 9.2309999 5.5320001
31.142 9.3520002 5.5479999
31.121 9.4519997 5.5500002
31.108 9.5550003 5.5539999
31.131001 9.6689997 5.5650001
31.114 9.7720003 5.5679998
31.120001 9.882 5.5760002
31.115999 9.9890003 5.5819998
31.146999 10.108 5.5939999
31.153999 10.22 5.6020002
31.132999 10.324 5.605
31.156 10.442 5.6160002
31.149 10.551 5.6220002
31.152 10.664 5.6290002
31.183001 10.787 5.6420002
31.190001 10.902 5.6500001
31.177 11.011 5.6550002
31.163 11.12 5.6599998
31.177999 11.239 5.6700001
31.219 11.369 5.6849999
31.223 11.486 5.6929998
31.229 11.604 5.7020001
31.226 11.72 5.7090001
31.275999 11.856 5.7259998
31.278999 11.975 5.7340002
31.267 12.088 5.7399998
31.271999 12.209 5.7480001
31.313999 12.344 5.7639999
31.280001 12.451 5.7659998
31.285 12.573 5.7750001
31.282 12.692 5.7820001
31.311001 12.826 5.796
31.306999 12.946 5.8039999
26.645 -9.8389997 4.5609999
26.587 -9.7130003 4.5489998
26.617001 -9.6199999 4.552
26.671 -9.5360003 4.559
11.608 -2.4349999 1.9529999
11.498 -2.378 1.934
11.484 -2.342 1.931
11.476 -2.3080001 1.929
11.482 -2.276 1.9299999
11.517 -2.2509999 1.9349999
11.633 -2.2409999 1.954
8.9750004 -1.233 1.502
8.8669996 -1.197 1.483
8.8409996 -1.1720001 1.479
8.8290005 -1.149 1.476
8.8290005 -1.127 1.476
8.849 -1.109 1.479
8.8719997 -1.091 1.483
8.8780003 -1.0700001 1.484
8.927 -1.0549999 1.492
8.9829998 -1.041 1.501
31.104 5.5799999 5.428
31.07 5.665 5.4260001
31.069 5.756 5.4289999
31.023001 5.8390002 5.4239998
31.042 5.9349999 5.4310002
31.014999 6.0219998 5.4299998
31.024 6.1160002 5.4349999
31.025999 6.21 5.4390001
30.997 6.2969999 5.4380002
30.995001 6.3909998 5.441
31.007999 6.4879999 5.447
30.987 6.5780001 5.447
30.996 6.6750002 5.4530001
31.007999 6.7729998 5.4590001
31.002001 6.8670001 5.4619999
31.027 6.9689999 5.4699998
31.016001 7.0630002 5.4720001
31.011999 7.1589999 5.4759998
31.021999 7.2579999 5.4819999
31.034 7.3590002 5.4879999
31.063999 7.4640002 5.4980001
31.101999 7.572 5.5089998
31.058001 7.6599998 5.506
31.079 7.7639999 5.5139999
31.061001 7.8590002 5.5149999
31.077999 7.9629998 5.5229998
31.084999 8.0649996 5.5289998
31.089001 8.1660004 5.5339999
31.066999 8.2609997 5.5349998
31.076 8.3649998 5.5409999
31.066999 8.4639997 5.5450001
31.080999 8.5699997 5.552
31.087 8.6730003 5.5580001
31.097 8.7790003 5.5650001
31.146 8.8950005 5.579
31.136999 8.9960003 5.5819998
31.15 9.1040001 5.5900002
31.136 9.2030001 5.5929999
31.173 9.3179998 5.605
31.184 9.4259996 5.612
31.174 9.5279999 5.6160002
31.169001 9.632 5.6199999
31.172001 9.7379999 5.6259999
31.181 9.8470001 5.6339998
31.202 9.9589996 5.6430001
31.231001 10.075 5.6539998
31.318001 10.21 5.6750002
31.188999 10.275 5.658
31.273001 10.41 5.6789999
31.229 10.503 5.677
31.239 10.614 5.6849999
31.250999 10.726 5.6929998
31.261999 10.839 5.7010002
31.298 10.96 5.7140002
31.268999 11.058 5.7150002
31.323 11.187 5.7309999
31.261999 11.274 5.7259998
31.246 11.378 5.7290001
31.288 11.504 5.744
26.471001 -10.36 4.6479998
26.448999 -10.271 4.6430001
26.483 -10.204 4.6479998
26.479 -10.123 4.6459999
26.493999 -10.049 4.6479998
26.492001 -9.9680004 4.6459999
26.49 -9.8879995 4.645
26.540001 -9.8260002 4.652
26.554001 -9.7510004 4.6539998
26.572001 -9.6780005 4.6550002
26.582001 -9.6020002 4.6560001
11.597 -2.355 2.003
11.523 -2.3050001 1.989
11.494 -2.266 1.984
11.494 -2.2320001 1.983
11.516 -2.2019999 1.9859999
11.629 -2.1889999 2.0050001
8.9420004 -1.235 1.534
8.8409996 -1.1950001 1.516
8.8210001 -1.1670001 1.512
8.8319998 -1.142 1.5140001
8.8500004 -1.119 1.517
8.8570004 -1.0930001 1.517
8.9160004 -1.075 1.527
9.0889997 -1.069 1.556
31.039 4.2930002 5.4400001
31.02 4.3670001 5.4400001
31 4.4419999 5.4390001
30.981001 4.5170002 5.4390001
30.993999 4.5970001 5.4439998
30.962 4.6719999 5.4419999
30.987 4.7550001 5.4499998
30.979 4.8340001 5.4520001
30.959999 4.9109998 5.4510002
30.959 4.993 5.4549999
30.955 5.0739999 5.4580002
30.964001 5.1570001 5.4629998
30.979 5.243 5.4689999
30.976999 5.3260002 5.4720001
30.966 5.408 5.474
30.938999 5.4879999 5.473
30.954 5.5760002 5.48
30.964001 5.6630001 5.4850001
30.964001 5.7490001 5.4889998
30.972 5.8369999 5.4949999
30.961 5.9219999 5.4970002
30.976999 6.013 5.5040002
30.990999 6.1040001 5.5110002
30.972 6.1890001 5.5120001
30.979 6.2800002 5.5170002
30.966999 6.368 5.52
30.988001 6.4619999 5.5279999
30.989 6.5539999 5.533
30.99 6.645 5.5370002
30.995001 6.7379999 5.5430002
30.989 6.8299999 5.5469999
30.989 6.9229999 5.552
30.995001 7.0180001 5.5580001
30.985001 7.1100001 5.5609999
31.002001 7.2080002 5.5689998
30.999001 7.303 5.573
30.999001 7.3979998 5.579
31.021 7.5 5.5879998
31.028999 7.599 5.5939999
31.024 7.6950002 5.599
31.046 7.7979999 5.6079998
31.041 7.895 5.6129999
31.063999 8 5.6230001
31.042 8.0939999 5.6240001
31.051001 8.1960001 5.631
31.02 8.2880001 5.632
31.077999 8.4049997 5.6479998
31.070999 8.5039997 5.6529999
31.066 8.6049995 5.658
31.076 8.71 5.6659999
31.077 8.8140001 5.6719999
31.072001 8.9160004 5.677
31.082001 9.0229998 5.6849999
31.087 9.1289997 5.6919999
31.079 9.2309999 5.697
31.108999 9.3459997 5.7090001
31.105 9.4510002 5.7150002
31.122 9.5629997 5.724
31.125 9.6709995 5.7319999
31.145 9.7849998 5.7420001
31.106001 9.8809996 5.7420001
31.115999 9.993 5.75
31.15 10.113 5.7639999
31.146 10.222 5.77
31.179001 10.343 5.783
31.153999 10.446 5.7849998
31.149 10.555 5.7909999
31.159 10.67 5.8010001
31.132999 10.773 5.803
31.159 10.895 5.8150001
31.184999 11.018 5.8280001
31.169001 11.126 5.8319998
31.193001 11.249 5.8439999
31.223 11.375 5.8569999
31.204 11.484 5.862
31.228001 11.608 5.8740001
31.212 11.719 5.8790002
31.268 11.858 5.8969998
31.249001 11.968 5.902
31.247 12.085 5.9089999
31.294001 12.222 5.927
31.290001 12.34 5.934
31.261999 12.449 5.9369998
31.297001 12.583 5.9520001
31.316999 12.712 5.9640002
31.313999 12.832 5.9720001
26.605 -10.36 4.6880002
26.613001 -10.255 4.6869998
26.566 -10.129 4.677
26.528999 -10.008 4.6680002
26.563 -9.915 4.6719999
26.565001 -9.8109999 4.6700001
26.569 -9.7080002 4.6680002
26.596001 -9.6140003 4.671
26.622999 -9.5200005 4.6729999
26.620001 -9.4169998 4.671
26.622 -9.3149996 4.6690001
26.664 -9.2290001 4.6739998
11.579 -2.395 2
11.517 -2.349 1.989
11.5 -2.313 1.985
11.515 -2.283 1.987
11.575 -2.2620001 1.997
8.9759998 -1.233 1.5420001
8.8640003 -1.196 1.523
8.835 -1.17 1.517
8.8249998 -1.148 1.515
8.8260002 -1.127 1.515
8.8299999 -1.1059999 1.516
8.8479996 -1.087 1.5190001
8.8629999 -1.068 1.521
8.8800001 -1.049 1.524
8.9049997 -1.031 1.528
8.9960003 -1.021 1.543
30.952 3.6760001 5.5019999
30.905001 3.7509999 5.4949999
30.934 3.835 5.5029998
30.922001 3.9159999 5.5029998
30.924999 3.9979999 5.506
30.936001 4.0819998 5.5100002
30.896 4.1589999 5.5050001
30.874001 4.2399998 5.5040002
30.860001 4.322 5.5040002
30.882999 4.4089999 5.5110002
30.885 4.494 5.513
30.885 4.579 5.5159998
30.892 4.6659999 5.52
30.892 4.7519999 5.5229998
30.886999 4.8379998 5.5250001
30.888 4.9250002 5.5279999
30.905001 5.0149999 5.5339999
30.907 5.1030002 5.5380001
30.903999 5.191 5.54
30.924999 5.283 5.5469999
30.957001 5.3779998 5.5560002
30.931999 5.4629998 5.5549998
30.926001 5.552 5.5570002
30.907 5.6389999 5.5570002
30.937 5.7350001 5.566
30.933001 5.8260002 5.5689998
30.938 5.9180002 5.573
30.945 6.0120001 5.5780001
30.955999 6.1059999 5.5840001
30.965 6.2010002 5.5890002
30.972 6.296 5.5939999
30.992001 6.3940001 5.6020002
30.962999 6.4819999 5.5999999
30.959 6.5760002 5.6040001
30.992001 6.678 5.6139998
31.014 6.7779999 5.6220002
30.992001 6.869 5.6220002
31.006001 6.9679999 5.6290002
30.993999 7.0619998 5.631
31.021 7.165 5.6399999
31.007999 7.2589998 5.6420002
31.024 7.3600001 5.6490002
31.030001 7.46 5.6550002
31.046 7.5619998 5.6620002
31.039 7.6589999 5.6659999
31.051001 7.7610002 5.6719999
31.073999 7.8660002 5.6810002
31.047001 7.9590001 5.6810002
31.106001 8.0740004 5.697
31.099001 8.1730003 5.6999998
31.083 8.2700005 5.7020001
31.118999 8.3809996 5.7140002
31.125 8.4840002 5.7199998
31.128 8.5869999 5.7259998
31.099001 8.6809998 5.7249999
31.131001 8.7919998 5.7360001
31.125 8.8940001 5.7410002
31.145 9.0030003 5.75
31.157 9.1099997 5.757
31.148001 9.2110004 5.7610002
31.143 9.3140001 5.7659998
31.184999 9.4309998 5.7789998
31.24 9.5530005 5.7950001
31.216 9.651 5.796
31.219999 9.7580004 5.803
31.165001 9.8459997 5.7979999
31.268999 9.9849997 5.823
31.204 10.071 5.8169999
31.278999 10.309 5.8429999
31.238001 10.403 5.842
31.249001 10.839 5.868
31.25 10.948 5.875
31.299 11.074 5.8909998
26.417999 -10.744 4.7690001
26.424 -10.667 4.7690001
26.422001 -10.586 4.7670002
26.414 -10.503 4.7639999
26.421 -10.425 4.7639999
26.413 -10.342 4.7620001
26.405001 -10.259 4.7589998
26.468 -10.204 4.7690001
26.469999 -10.124 4.7680001
26.482 -10.049 4.7690001
26.471001 -9.9650002 4.7659998
26.458 -9.8800001 4.763
26.473 -9.8059998 4.7639999
26.507 -9.7390003 4.7690001
26.518 -9.6630001 4.77
26.535 -9.5889997 4.7719998
26.518 -9.5030003 4.7680001
26.540001 -9.4309998 4.77
26.559999 -9.3579998 4.7719998
26.534 -9.2690001 4.7670002
26.624001 -9.2200003 4.7820001
26.653999 -9.1499996 4.7859998
11.668 -2.3340001 2.0680001
11.555 -2.2780001 2.0469999
11.585 -2.2490001 2.052
11.744 -2.2449999 2.079
9.0120001 -1.245 1.587
8.8540001 -1.197 1.559
8.8140001 -1.165 1.551
8.8179998 -1.14 1.552
8.8330002 -1.1160001 1.554
8.8610001 -1.0930001 1.558
8.8909998 -1.071 1.563
8.967 -1.054 1.576
30.979 3.1400001 5.5500002
30.983999 3.2079999 5.553
31.040001 3.2809999 5.5650001
30.952 3.3399999 5.5510001
30.943001 3.408 5.552
30.933001 3.477 5.552
31.031 3.5580001 5.572
30.954 3.6199999 5.5609999
30.941 3.6900001 5.5609999
30.958 3.7639999 5.566
30.957001 3.8369999 5.5689998
30.966 3.911 5.573
30.99 3.9879999 5.5799999
30.941999 4.0560002 5.5739999
30.952 4.132 5.579
30.941999 4.2059999 5.5799999
30.931 4.2810001 5.5809999
30.955 4.3610001 5.5879998
30.931 4.434 5.5869999
30.937 4.513 5.5910001
30.941999 4.592 5.5949998
30.955 4.6729999 5.6009998
30.940001 4.75 5.6009998
30.951 4.8319998 5.6069999
30.954 4.9130001 5.6110001
30.952 4.994 5.6139998
30.952999 5.0760002 5.618
30.966 5.1599998 5.6240001
30.950001 5.2410002 5.6240001
30.976 5.3280001 5.6329999
30.971001 5.4120002 5.6360002
30.955 5.493 5.6370001
30.975 5.5819998 5.645
30.972 5.6669998 5.6479998
30.957001 5.75 5.6490002
30.955999 5.8369999 5.6529999
30.98 5.9289999 5.6620002
30.987 6.0180001 5.6680002
30.973 6.1030002 5.6700001
30.986 6.1950002 5.6760001
30.996 6.2859998 5.6830001
30.997999 6.3769999 5.6880002
31.002001 6.4679999 5.6929998
30.997999 6.5580001 5.697
30.983 6.6469998 5.6989999
31.033001 6.75 5.7129998
31.033001 6.842 5.7179999
31.044001 6.9380002 5.7249999
31.037001 7.0300002 5.7290001
31.028999 7.1230001 5.7329998
31.003 7.2119999 5.7329998
30.999001 7.3060002 5.7379999
31.011 7.4039998 5.7449999
31.059 7.5120001 5.7589998
31.047001 7.6059999 5.763
31.030001 7.6989999 5.7649999
31.025 7.796 5.77
31.035 7.8969998 5.777
31.084 8.0080004 5.7919998
31.056999 8.1009998 5.7930002
31.040001 8.1969995 5.796
31.040001 8.2969999 5.8010001
31.089001 8.4110003 5.8169999
31.120001 8.5209999 5.8280001
31.101999 8.618 5.8309999
31.061001 8.71 5.8299999
31.091 8.8210001 5.842
31.094999 8.9259996 5.849
31.089001 9.0279999 5.8540001
31.103001 9.1370001 5.8629999
31.089001 9.2379999 5.8670001
31.141001 9.3599997 5.8839998
31.138 9.4650002 5.8899999
31.146999 9.5749998 5.8979998
31.131001 9.677 5.902
31.153999 9.7919998 5.9130001
31.165001 9.9040003 5.9219999
31.145 10.006 5.9260001
31.135 10.113 5.9310002
31.159 10.23 5.9429998
31.177999 10.347 5.9530001
31.139999 10.445 5.954
31.184 10.571 5.9689999
31.191 10.686 5.9780002
31.209 10.804 5.9889998
31.191999 10.911 5.993
31.183001 11.022 5.9990001
31.214001 11.147 6.013
31.191999 11.253 6.0170002
31.250999 11.622 6.052
31.254 11.74 6.0609999
31.334 11.887 6.085
31.323 12.001 6.0910001
31.297001 12.11 6.0939999
26.490999 -11.674 4.823
26.493 -11.557 4.8200002
26.524 -11.454 4.823
26.483999 -11.321 4.8130002
26.465 -11.197 4.8070002
26.471001 -11.086 4.8060002
26.472 -10.973 4.803
26.433001 -10.845 4.7930002
26.535999 -10.444 4.802
26.521 -10.329 4.7969999
26.514 -10.218 4.7930002
26.533001 -10.118 4.7940001
26.530001 -10.011 4.7909999
26.587999 -9.9259996 4.7989998
26.547001 -9.8059998 4.789
26.554001 -9.7040005 4.7880001
26.549 -9.5979996 4.7849998
26.608 -9.5170002 4.7940001
26.604 -9.4130001 4.7909999
26.594 -9.3070002 4.7870002
26.618 -9.2150002 4.789
26.610001 -9.1110001 4.7849998
26.635 -9.0200005 4.7880001
26.673 -8.9329996 4.7919998
26.657 -8.8290005 4.7870002
26.768 -6.092 4.7550001
26.753 -6.0079999 4.7509999
26.768999 -5.9310002 4.7519999
26.83 -5.8649998 4.7620001
9.0880003 -1.248 1.602
8.8889999 -1.199 1.567
8.8339996 -1.17 1.557
8.8310003 -1.148 1.556
8.8210001 -1.126 1.554
8.8360004 -1.1059999 1.557
8.8529997 -1.087 1.559
8.8809996 -1.0700001 1.564
8.9130001 -1.053 1.5700001
8.9390001 -1.035 1.574
9.0030003 -1.021 1.585
30.931 2.3859999 5.6290002
30.914 2.4560001 5.6269999
30.875 2.5250001 5.6209998
30.871 2.598 5.6220002
30.868999 2.671 5.6220002
30.879 2.7449999 5.6259999
30.847 2.8169999 5.6209998
30.886999 2.895 5.6300001
30.882 2.97 5.631
30.872 3.0450001 5.631
30.872999 3.1210001 5.632
30.854 3.1960001 5.631
30.851999 3.2739999 5.632
30.867001 3.3529999 5.6370001
30.846001 3.4289999 5.6350002
30.85 3.5079999 5.638
30.870001 3.5899999 5.6430001
30.898001 3.6730001 5.651
30.854 3.7479999 5.645
30.875 3.832 5.651
30.862 3.9119999 5.651
30.861 3.993 5.6529999
30.886 4.079 5.6599998
30.851999 4.1570001 5.6560001
30.867001 4.2420001 5.6620002
30.896 4.3299999 5.6700001
30.878 4.4120002 5.6690001
30.881001 4.4970002 5.6719999
30.898001 4.585 5.678
30.864 4.665 5.6750002
30.886 4.7550001 5.6820002
30.862 4.8369999 5.6799998
30.907 4.9310002 5.6919999
30.902 5.0180001 5.6939998
30.924 5.1090002 5.7010002
30.896999 5.1929998 5.6989999
30.908001 5.2839999 5.7049999
30.914 5.3740001 5.7090001
30.914 5.4629998 5.7119999
30.938 5.5580001 5.7199998
30.936001 5.6479998 5.724
30.952999 5.7420001 5.73
30.950001 5.8330002 5.7329998
30.975 5.9289999 5.7410002
30.957001 6.0180001 5.7420001
30.974001 6.1139998 5.7490001
30.965 6.2049999 5.7509999
30.978001 6.3010001 5.757
30.958 6.3899999 5.7579999
30.987 6.4910002 5.7670002
30.986 6.585 5.7709999
31.006001 6.684 5.7789998
31.018999 6.783 5.7859998
31.013 6.8769999 5.789
31.01 6.9720001 5.7919998
31.014999 7.0700002 5.7979999
31.035999 7.1719999 5.8060002
31.061001 7.2750001 5.8150001
31.021 7.3629999 5.8119998
31.040001 7.4660001 5.8210001
31.042999 7.5650001 5.8260002
31.040001 7.6630001 5.8299999
31.048 7.7639999 5.836
31.052 7.8639998 5.842
31.068001 7.9679999 5.8499999
31.098 8.0760002 5.8610001
31.089001 8.1750002 5.8639998
31.135 8.2880001 5.8779998
31.114 8.3830004 5.8790002
31.093 8.4790001 5.8800001
31.101 8.5830002 5.8870001
31.077 8.6789999 5.888
31.076 8.7810001 5.8930001
31.112 8.8940001 5.9050002
31.156 9.3219995 5.9359999
31.152 9.4250002 5.941
31.205 9.5459995 5.9569998
26.256001 -12.28 4.8870001
26.215 -12.181 4.8779998
26.236 -12.111 4.881
26.249001 -12.037 4.882
26.268 -11.966 4.8839998
26.240999 -11.874 4.8779998
26.250999 -11.798 4.8790002
26.294001 -11.738 4.8860002
26.25 -11.638 4.8759999
26.287001 -11.575 4.882
26.26 -11.483 4.8759999
26.318001 -11.428 4.8860002
26.434 -11.398 4.9060001
26.334 -11.275 4.8860002
26.327 -11.192 4.8839998
26.32 -11.109 4.881
26.336 -11.036 4.8829999
26.367001 -10.969 4.8870001
26.372 -10.891 4.8870001
26.382999 -10.816 4.888
26.382 -10.735 4.8860002
26.409 -10.666 4.8899999
26.427 -10.593 4.8920002
26.388 -10.498 4.8839998
26.393 -10.42 4.8839998
26.408001 -10.346 4.8850002
26.386999 -10.258 4.8800001
26.485001 -10.215 4.8969998
26.482 -10.054 4.8940001
26.481001 -9.974 4.8930001
26.51 -9.9040003 4.8969998
26.504999 -9.823 4.8940001
26.485001 -9.7349997 4.8899999
26.516001 -9.6660004 4.8940001
26.52 -9.5880003 4.8930001
26.507999 -9.5030003 4.8899999
26.618999 -9.4630003 4.9089999
26.617001 -9.382 4.9070001
26.555 -9.2799997 4.895
26.556999 -9.2010002 4.8940001
26.566999 -9.1239996 4.8940001
26.594 -9.0530005 4.8979998
26.580999 -8.9689999 4.895
26.57 -8.8850002 4.8909998
26.605 -8.8170004 4.8959999
26.614 -8.7399998 4.8969998
26.607 -8.658 4.8940001
26.638 -8.5880003 4.8990002
26.778 -6.6300001 4.8909998
26.757999 -6.546 4.8860002
26.728001 -6.4590001 4.8790002
26.732 -6.3800001 4.8790002
26.723 -6.2989998 4.8759999
26.740999 -6.223 4.8779998
26.798 -6.1570001 4.8870001
26.771999 -6.072 4.881
26.764999 -5.9899998 4.8779998
26.787001 -5.9159999 4.881
26.767 -5.8319998 4.875
26.843 -5.7690001 4.888
9.0640001 -1.251 1.638
8.8739996 -1.199 1.603
8.8219995 -1.166 1.5930001
8.8249998 -1.14 1.5930001
8.8430004 -1.117 1.596
8.8780003 -1.095 1.602
8.941 -1.076 1.613
8.9989996 -1.057 1.623
30.986 3.2780001 5.7150002
31.014999 3.3499999 5.7220001
30.982 3.415 5.7189999
30.992001 3.4860001 5.723
30.914 3.5469999 5.711
30.947001 3.622 5.7189999
30.919001 3.6900001 5.7160001
30.924999 3.7620001 5.7199998
30.936001 3.836 5.7249999
30.966999 3.9130001 5.7329998
30.997999 3.9909999 5.7420001
30.962 4.0609999 5.7379999
30.965 4.1360002 5.7410002
30.927999 4.2069998 5.737
30.952 4.2859998 5.7449999
30.961 4.3639998 5.75
30.959 4.441 5.7519999
30.929001 4.5149999 5.75
30.938999 4.5939999 5.7550001
30.947001 4.6750002 5.7600002
30.952999 4.7550001 5.7649999
30.969999 4.8379998 5.7709999
30.940001 4.914 5.7690001
30.976 5.0009999 5.7800002
30.969 5.0809999 5.7820001
30.969 5.164 5.7859998
30.962 5.2449999 5.789
30.959999 5.3280001 5.7919998
30.993999 5.4180002 5.802
31.017 5.507 5.8109999
30.988001 5.5869999 5.8099999
30.961 5.6680002 5.809
31.011 5.763 5.822
31.007 5.849 5.8260002
31.032 5.9419999 5.835
30.989 6.0209999 5.8309999
31.018 6.1149998 5.8410001
30.99 6.1989999 5.8410001
31.018 6.2940001 5.8509998
31.013 6.3829999 5.8540001
31.034 6.4780002 5.8629999
31.004 6.5630002 5.862
31.017 6.6570001 5.8699999
30.997 6.7449999 5.8709998
31.004 6.8390002 5.8769999
31.016001 6.9349999 5.8850002
31.041 7.0339999 5.895
31.028999 7.1259999 5.8979998
31.018999 7.2179999 5.901
31.033001 7.3169999 5.9099998
31.059999 7.4190001 5.9200001
31.042999 7.5120001 5.9219999
31.056 7.612 5.9310002
31.039 7.7049999 5.9330001
31.033001 7.802 5.9380002
31.063 7.908 5.9489999
31.111 8.0190001 5.9640002
31.058001 8.1049995 5.96
31.033001 8.198 5.961
31.056999 8.3050003 5.9720001
31.052999 8.4049997 5.9780002
31.059999 8.5080004 5.9850001
31.075001 8.6149998 5.994
31.072001 8.7159996 6
31.122999 8.8339996 6.0170002
31.056 8.9189997 6.0100002
31.091 9.033 6.0240002
31.091 9.1379995 6.0300002
31.254 9.6110001 6.0890002
31.093 9.6689997 6.0650001
31.142 9.7919998 6.0819998
31.121 10.112 6.0999999
31.162001 10.235 6.1149998
31.184 10.353 6.1269999
31.190001 10.466 6.1360002
31.238001 10.594 6.1529999
26.334 -12.084 4.9299998
26.343 -11.967 4.928
26.336 -11.845 4.9239998
26.341 -11.728 4.9219999
26.355 -11.616 4.9219999
26.381001 -11.511 4.9239998
26.395 -11.4 4.9239998
26.447001 -11.307 4.9310002
26.42 -11.181 4.9229999
26.448999 -11.079 4.9250002
26.452999 -10.967 4.9229999
26.41 -10.838 4.9130001
26.462 -10.747 4.9200001
26.495001 -10.649 4.9229999
26.475 -10.531 4.9169998
26.5 -10.432 4.9190001
26.504999 -10.325 4.9169998
26.504 -10.217 4.915
26.546 -10.125 4.9200001
26.513 -10.006 4.9120002
26.566999 -9.9209995 4.9190001
26.620001 -9.835 4.9260001
26.59 -9.7189999 4.9180002
26.607 -9.6210003 4.9190001
26.561001 -9.5019999 4.9089999
26.551001 -9.3959999 4.9039998
26.541 -9.29 4.9000001
26.587 -9.2049999 4.9070001
26.59 -9.1059999 4.9050002
26.584 -9.0039997 4.902
26.638 -8.9230003 4.9089999
26.599001 -8.8120003 4.9000001
26.611 -8.7180004 4.9000001
26.608999 -8.6199999 4.8979998
26.622 -8.5270004 4.8979998
26.643999 -8.4379997 4.9000001
26.708 -8.3629999 4.9099998
26.736 -7.1810002 4.8909998
26.690001 -7.0809999 4.881
26.714001 -7.0009999 4.8839998
26.745001 -6.9219999 4.888
26.742001 -6.836 4.8860002
26.709 -6.7420001 4.8779998
26.711 -6.658 4.8769999
26.698999 -6.5710001 4.8730001
26.704 -6.4879999 4.8730001
26.694 -6.4029999 4.869
26.714001 -6.3249998 4.8720002
26.702999 -6.2399998 4.868
26.705999 -6.1589999 4.8670001
26.705999 -6.0780001 4.8660002
26.735001 -6.0040002 4.8699999
26.798 -5.9380002 4.8800001
9.0819998 -1.247 1.642
8.9069996 -1.201 1.61
8.8649998 -1.173 1.603
8.8590002 -1.151 1.601
8.8620005 -1.13 1.602
8.8649998 -1.109 1.602
