# .PCD v0.7 - Point Cloud Data file format
VERSION 0.7
FIELDS x y z
SIZE 4 4 4
TYPE F F F
COUNT 1 1 1
WIDTH 1810
HEIGHT 1
VIEWPOINT 0 0 0 1 0 0 0
POINTS 1810
DATA ascii
14.49 -2.605 0.75800002
14.526 -2.569 0.75999999
14.579 -2.5369999 0.76200002
14.524 -2.4849999 0.759
14.775 -2.358 0.77200001
14.705 -2.3050001 0.76800001
14.756 -2.27 0.77100003
14.896 -2.2490001 0.778
14.872 -2.2030001 0.77700001
14.925 -2.1670001 0.77899998
11.551 -0.91500002 0.60000002
11.412 -0.87099999 0.59299999
11.372 -0.83600003 0.59100002
11.372 -0.80299997 0.59100002
11.377 -0.77100003 0.59100002
11.458 -0.74299997 0.59500003
11.475 -0.57999998 0.59500003
11.462 -0.54699999 0.59399998
11.47 -0.514 0.59500003
11.538 -0.484 0.59799999
12.884 0.23199999 0.66500002
12.826 0.26800001 0.66100001
12.811 0.30399999 0.66100001
12.809 0.34099999 0.66000003
12.814 0.37799999 0.66000003
12.807 0.414 0.66000003
12.813 0.45100001 0.66000003
12.825 0.48800001 0.66100001
12.822 0.52499998 0.66000003
12.823 0.56099999 0.66000003
12.825 0.59799999 0.66000003
12.823 0.63499999 0.66000003
12.823 0.67199999 0.66000003
12.836 0.70899999 0.66000003
12.85 0.74699998 0.66100001
12.86 0.78399998 0.66100001
12.874 0.82200003 0.662
12.876 0.85900003 0.662
12.86 0.89499998 0.66100001
12.656 0.12 0.56699997
12.641 0.131 0.56599998
12.652 0.14300001 0.56599998
12.643 0.155 0.56599998
12.643 0.167 0.565
12.652 0.18000001 0.565
12.651 0.193 0.565
12.639 0.206 0.56400001
12.64 0.22 0.56400001
12.642 0.234 0.56400001
12.654 0.249 0.56400001
12.651 0.26300001 0.56400001
12.65 0.278 0.56300002
12.651 0.29300001 0.56300002
12.656 0.30899999 0.56300002
12.647 0.32499999 0.56199998
12.649 0.34099999 0.56199998
12.654 0.35800001 0.56199998
12.653 0.37400001 0.56199998
12.653 0.391 0.56199998
12.664 0.40900001 0.56199998
12.667 0.42699999 0.56199998
12.649 0.44400001 0.56099999
12.649 0.463 0.56099999
12.663 0.48199999 0.56099999
12.668 0.50099999 0.56199998
12.66 0.51999998 0.56099999
12.675 0.54000002 0.56099999
12.665 0.55900002 0.56099999
12.667 0.579 0.56099999
12.672 0.60000002 0.56099999
12.668 0.62099999 0.56099999
12.683 0.64200002 0.56099999
12.708 0.66500002 0.56199998
12.763 0.68900001 0.565
12.87 0.71700001 0.56900001
12.894 0.741 0.56999999
12.892 0.764 0.56999999
12.882 0.78600001 0.56900001
12.878 0.80900002 0.56900001
12.882 0.833 0.56900001
12.863 0.85500002 0.56800002
12.825 0.87699997 0.56699997
12.819 0.90100002 0.56599998
12.813 0.92500001 0.56599998
12.814 0.94999999 0.56599998
12.8 0.97399998 0.565
12.812 1 0.56599998
12.814 1.025 0.56599998
12.818 1.052 0.56599998
12.831 1.079 0.56699997
12.848 1.107 0.56800002
12.879 1.136 0.56900001
12.888 1.164 0.56900001
12.893 1.192 0.56999999
12.933 1.223 0.57099998
12.363 1.196 0.546
12.228 1.209 0.54000002
12.175 1.2309999 0.53799999
12.133 1.253 0.53600001
12.12 1.279 0.53600001
12.109 1.3049999 0.53500003
12.095 1.331 0.53500003
12.073 1.3559999 0.53399998
11.98 1.374 0.52999997
11.916 1.3940001 0.52700001
11.891 1.419 0.52600002
11.882 1.446 0.52600002
11.879 1.474 0.52600002
11.91 1.507 0.52700001
11.981 1.545 0.53100002
12.213 1.604 0.54100001
19.500999 2.562 0.86400002
19.413 2.598 0.86000001
19.473 2.654 0.86299998
19.518999 2.7090001 0.86500001
19.606001 2.7709999 0.87
13.027 1.874 0.57800001
19.747 2.8410001 0.87599999
13.103 1.918 0.58099997
19.635 2.875 0.87099999
19.669001 2.9300001 0.87300003
19.795 3 0.87900001
19.780001 3.049 0.87900001
19.813 3.1059999 0.88
19.827999 3.161 0.88099998
19.799 3.2090001 0.88
19.849001 3.27 0.88300002
19.959999 3.342 0.88800001
20.264 3.448 0.90200001
20.374001 3.5220001 0.90700001
20.554001 3.609 0.91600001
21.879 4.7859998 0.98199999
21.684999 4.809 0.97399998
21.665001 4.8699999 0.97399998
21.708 4.9460001 0.97600001
19.761999 5.184 0.89499998
19.695999 5.2309999 0.89300001
19.632 5.277 0.89099997
19.608999 5.335 0.88999999
19.607 5.3990002 0.89099997
19.684 5.4850001 0.89499998
18.172001 5.2449999 0.82800001
17.971001 5.2470002 0.81999999
17.785999 5.2529998 0.81199998
17.655001 5.2740002 0.80699998
17.660999 5.336 0.80800003
14.931 5.744 0.69800001
14.724 5.7199998 0.68900001
14.665 5.7529998 0.68699998
14.703 5.823 0.68900001
14.606 5.8410001 0.68599999
9.2229996 4.4229999 0.44299999
9.073 4.388 0.43700001
9.0419998 4.4109998 0.43599999
9.0430002 4.4489999 0.43599999
9.0640001 4.4970002 0.43799999
9.0430002 4.5250001 0.43700001
9.0159998 4.5489998 0.43700001
9.0150003 4.5869999 0.43700001
9.0080004 4.6220002 0.43799999
8.9949999 4.6529999 0.43700001
8.9759998 4.6820002 0.43700001
8.993 4.73 0.43900001
8.9919996 4.7680001 0.43900001
9.0019999 4.8119998 0.44
9.0649996 4.8850002 0.44400001
9.0930004 4.9400001 0.44600001
9.2580004 5.0700002 0.45500001
11.002 6.9710002 0.55599999
10.866 6.9369998 0.55000001
10.832 6.9660001 0.55000001
10.79 6.9889998 0.54799998
10.753 7.0159998 0.54699999
10.738 7.0570002 0.54699999
10.715 7.0929999 0.54699999
10.7 7.1339998 0.54699999
10.669 7.165 0.54699999
10.641 7.197 0.546
10.608 7.2259998 0.54500002
10.583 7.2600002 0.54500002
10.561 7.296 0.54500002
10.54 7.3330002 0.54500002
10.504 7.3590002 0.54400003
10.497 7.4050002 0.54400003
10.465 7.434 0.54400003
10.442 7.4689999 0.54299998
10.393 7.4850001 0.542
9.7939997 -6.434 0.55199999
9.8570004 -6.414 0.55500001
9.915 -6.3909998 0.55800003
9.9499998 -6.3520002 0.55900002
9.9890003 -6.316 0.56099999
10.033 -6.283 0.56300002
10.06 -6.2410002 0.56400001
10.107 -6.21 0.56599998
10.146 -6.1739998 0.56800002
10.162 -6.125 0.56900001
10.191 -6.0840001 0.56999999
10.213 -6.039 0.57099998
10.247 -6.0009999 0.57200003
10.274 -5.9590001 0.57300001
10.32 -5.928 0.57499999
10.337 -5.881 0.57599998
10.36 -5.8369999 0.57700002
10.406 -5.8070002 0.579
10.45 -5.7750001 0.58099997
10.544 -5.7709999 0.58600003
10.581 -5.7360001 0.588
10.527 -5.651 0.58399999
10.566 -5.6170001 0.58600003
10.602 -5.5819998 0.588
10.632 -5.5430002 0.58899999
10.665 -5.506 0.58999997
10.703 -5.4720001 0.59200001
10.724 -5.4289999 0.59299999
10.777 -5.4029999 0.59600002
10.805 -5.3629999 0.597
10.823 -5.3200002 0.597
10.843 -5.277 0.59799999
10.92 -5.2620001 0.602
10.945 -5.2220001 0.60299999
10.958 -5.177 0.60399997
11.005 -5.1469998 0.60600001
11.035 -5.1100001 0.60699999
11.057 -5.0689998 0.60799998
11.088 -5.0320001 0.60900003
11.133 -5.0019999 0.61199999
11.166 -4.967 0.61299998
11.207 -4.9349999 0.61500001
11.225 -4.8930001 0.616
11.259 -4.8579998 0.61699998
11.314 -4.8319998 0.62
11.35 -4.7979999 0.62199998
11.355 -4.7509999 0.62199998
11.399 -4.7210002 0.62400001
11.438 -4.6880002 0.62599999
11.486 -4.6599998 0.62800002
11.509 -4.6199999 0.62900001
11.555 -4.5910001 0.63099998
11.586 -4.5549998 0.63300002
11.647 -4.5310001 0.63599998
11.737 -4.5190001 0.63999999
11.748 -4.4759998 0.64099997
11.767 -4.4349999 0.64099997
11.804 -4.402 0.64300001
11.839 -4.368 0.64499998
11.879 -4.3369999 0.64700001
11.934 -4.3099999 0.64999998
11.986 -4.2820001 0.65200001
11.975 -4.2319999 0.65100002
12.028 -4.2049999 0.65399998
12.104 -4.1859999 0.65799999
12.281 -4.1999998 0.667
12.235 -4.1389999 0.66399997
12.383 -4.1420002 0.67199999
12.53 -4.145 0.68000001
10.828 -3.085 0.58499998
10.77 -3.0320001 0.58200002
10.805 -3.006 0.58399999
10.975 -3.017 0.59299999
10.565 -2.8 0.56999999
10.49 -2.7460001 0.56599998
10.506 -2.7160001 0.56699997
10.63 -2.714 0.57300001
13.833 -3.4879999 0.74599999
13.866 -3.4530001 0.74699998
13.959 -3.3889999 0.75199997
13.901 -3.332 0.74900001
13.944 -3.299 0.75099999
14.031 -3.276 0.755
14.001 -3.227 0.75400001
14.023 -3.1900001 0.755
14.056 -3.155 0.75599998
14.119 -3.1270001 0.75999999
14.169 -3.096 0.76200002
14.206 -3.062 0.764
14.271 -3.0339999 0.76700002
14.308 -3.0009999 0.76899999
14.369 -2.9719999 0.77200001
14.472 -2.9519999 0.778
14.447 -2.905 0.77600002
14.484 -2.872 0.778
14.612 -2.8150001 0.78500003
14.646 -2.7809999 0.78600001
14.589 -2.7290001 0.78299999
14.654 -2.701 0.787
14.659 -2.6619999 0.787
14.73 -2.635 0.79000002
14.764 -2.602 0.792
14.842 -2.575 0.796
14.978 -2.402 0.80299997
14.977 -2.3629999 0.80299997
15.113 -2.346 0.81
11.475 -0.773 0.61400002
11.421 -0.74699998 0.611
11.392 -0.72299999 0.60900003
11.375 -0.699 0.60900003
11.367 -0.67699999 0.60799998
11.383 -0.65600002 0.60900003
11.391 -0.63499999 0.60900003
11.487 -0.61900002 0.61500001
11.569 -0.51700002 0.61900002
11.488 -0.493 0.61500001
11.462 -0.47099999 0.61299998
11.457 -0.45100001 0.61299998
11.473 -0.43099999 0.61400002
11.525 -0.41299999 0.61699998
11.613 -0.396 0.62199998
12.9 0.082000002 0.69300002
12.845 0.098999999 0.69
12.823 0.117 0.68900001
12.829 0.134 0.68900001
12.83 0.152 0.68900001
12.842 0.169 0.69
12.857 0.186 0.69099998
12.859 0.20299999 0.69099998
12.871 0.22 0.69199997
12.87 0.237 0.69199997
12.878 0.25299999 0.69300002
12.888 0.27000001 0.69300002
12.894 0.28600001 0.69400001
12.899 0.30199999 0.69400001
12.929 0.31799999 0.69599998
12.948 0.33500001 0.69700003
12.986 0.35100001 0.699
13.012 0.36700001 0.70099998
13.056 0.384 0.70300001
13.071 0.40000001 0.704
13.14 0.417 0.708
13.159 0.433 0.70899999
12.627 0.18000001 0.59899998
12.645 0.20299999 0.60000002
12.65 0.226 0.60000002
12.646 0.249 0.59899998
12.654 0.27200001 0.59899998
12.658 0.296 0.59899998
12.648 0.31900001 0.59899998
12.666 0.34400001 0.59899998
12.659 0.368 0.59899998
12.66 0.39300001 0.59899998
12.662 0.41800001 0.59899998
12.66 0.44299999 0.59899998
12.671 0.46799999 0.59899998
12.666 0.49399999 0.59899998
12.674 0.51999998 0.59899998
12.671 0.546 0.59899998
12.66 0.57200003 0.59799999
12.67 0.59899998 0.59799999
12.684 0.62699997 0.59899998
12.679 0.65399998 0.59899998
12.706 0.68300003 0.60000002
12.763 0.71399999 0.602
12.869 0.74800003 0.60699999
12.887 0.778 0.60799998
12.876 0.80599999 0.60699999
12.874 0.83499998 0.60699999
12.857 0.86299998 0.60600001
12.84 0.89099997 0.60600001
12.804 0.91799998 0.60399997
12.787 0.94700003 0.60299999
12.783 0.977 0.60299999
12.765 1.005 0.602
12.768 1.036 0.602
12.785 1.068 0.60299999
12.788 1.099 0.60299999
12.797 1.131 0.60299999
12.812 1.164 0.60399997
12.854 1.199 0.60600001
12.896 1.235 0.60799998
12.907 1.2690001 0.60900003
12.919 1.302 0.60900003
12.281 1.2690001 0.579
12.17 1.289 0.574
12.124 1.3150001 0.57200003
12.094 1.3430001 0.57099998
12.075 1.372 0.56999999
12.057 1.402 0.56900001
11.979 1.424 0.565
11.923 1.449 0.56300002
11.876 1.475 0.56099999
11.881 1.507 0.56099999
11.877 1.538 0.56099999
11.92 1.576 0.56300002
12.098 1.633 0.57200003
19.988001 2.698 0.94499999
19.754 2.72 0.93400002
19.875 2.7909999 0.94
19.902 2.8499999 0.94099998
13.123 1.915 0.62099999
20.079 2.931 0.94999999
13.016 1.936 0.616
19.976 2.9719999 0.94499999
19.947001 3.023 0.94400001
20.041 3.0940001 0.949
20.028 3.1489999 0.94800001
20.02 3.204 0.94800001
20.445999 3.3310001 0.96899998
20.433001 3.388 0.96799999
20.444 3.448 0.96899998
20.443001 3.507 0.96899998
20.448 3.5680001 0.97000003
20.566999 3.6489999 0.97600001
21.684 4.1680002 1.031
21.674 4.2309999 1.031
21.681999 4.2979999 1.031
21.761999 4.3800001 1.036
21.895 4.473 1.0420001
22.069 4.5760002 1.051
21.893999 4.6739998 1.044
21.775999 4.7160001 1.038
21.731001 4.7729998 1.0369999
21.705 4.835 1.036
21.709999 4.9039998 1.0369999
19.726 5.0819998 0.94700003
19.664 5.1300001 0.94400001
19.621 5.1820002 0.94300002
19.598 5.2399998 0.94199997
19.570999 5.2969999 0.94199997
19.639 5.3790002 0.94499999
19.792 5.4860001 0.95300001
18.099001 5.1370001 0.87300003
17.892 5.1370001 0.86299998
17.743999 5.1539998 0.85699999
17.624001 5.177 0.85100001
17.587999 5.2249999 0.85000002
17.695 5.3169999 0.85600001
15.091 5.7839999 0.74299997
14.826 5.7350001 0.73100001
14.803 5.7779999 0.73000002
14.878 5.8600001 0.73500001
14.87 5.9099998 0.73500001
9.1569996 4.4330001 0.463
9.0699997 4.4239998 0.45899999
9.0279999 4.4359999 0.45699999
9.026 4.4689999 0.458
9.0340004 4.5050001 0.45899999
9.0299997 4.5359998 0.45899999
9.0109997 4.5599999 0.458
8.9919996 4.5830002 0.458
8.993 4.6160002 0.45899999
8.9829998 4.6440001 0.458
8.9759998 4.6729999 0.45899999
8.9680004 4.7020001 0.45899999
8.9700003 4.7360001 0.45899999
8.9790001 4.7729998 0.46000001
8.9940004 4.8140001 0.46200001
9.0220003 4.862 0.46399999
9.0609999 4.9159999 0.46599999
9.1590004 5.0019999 0.472
10.936 7.2199998 0.58499998
10.785 7.1570001 0.57800001
10.745 7.1680002 0.57700002
10.716 7.184 0.57599998
10.688 7.2020001 0.57499999
10.671 7.2259998 0.57499999
10.667 7.2589998 0.57499999
10.643 7.2779999 0.57499999
10.631 7.3060002 0.57499999
10.617 7.3309999 0.57499999
10.589 7.3460002 0.574
10.569 7.3670001 0.574
10.563 7.3969998 0.574
10.552 7.4239998 0.574
10.526 7.4400001 0.574
10.522 7.4710002 0.574
10.516 7.5 0.57499999
10.508 7.5279999 0.57499999
10.49 7.5469999 0.57499999
10.486 7.5770001 0.57499999
10.454 7.5869999 0.574
10.456 7.6209998 0.57499999
10.69 -6.3460002 0.61900002
10.713 -6.329 0.62
10.709 -6.296 0.62
10.743 -6.2839999 0.62199998
10.769 -6.2690001 0.62300003
10.796 -6.2540002 0.625
10.783 -6.2150002 0.62400001
10.795 -6.1900001 0.62400001
10.826 -6.1760001 0.62599999
10.81 -6.1360002 0.625
10.873 -6.1409998 0.62900001
10.85 -6.0960002 0.62699997
10.854 -6.0669999 0.62800002
10.839 -6.027 0.62699997
10.878 -6.0170002 0.62900001
10.892 -5.993 0.63
10.886 -5.9580002 0.62900001
10.902 -5.9349999 0.63
10.944 -5.9260001 0.63200003
10.944 -5.8940001 0.63200003
10.963 -5.8730001 0.63300002
10.992 -5.8559999 0.63499999
11.128 -5.7979999 0.64300001
11.053 -5.7270002 0.63800001
11.058 -5.697 0.63800001
11.085 -5.6789999 0.63999999
11.077 -5.6420002 0.639
11.114 -5.6290002 0.64099997
11.129 -5.6040001 0.64200002
11.155 -5.5840001 0.64399999
11.188 -5.5679998 0.64600003
11.197 -5.54 0.64600003
11.207 -5.5120001 0.64600003
11.215 -5.4829998 0.64700001
11.244 -5.4640002 0.648
11.284 -5.4499998 0.65100002
11.279 -5.415 0.64999998
11.305 -5.3940001 0.65200001
11.331 -5.3730001 0.653
11.309 -5.3299999 0.65200001
11.349 -5.316 0.65399998
11.375 -5.2940001 0.65499997
11.385 -5.2659998 0.65600002
11.403 -5.2399998 0.65700001
11.433 -5.2210002 0.65899998
11.464 -5.2010002 0.66000003
11.471 -5.171 0.66100001
11.524 -5.1609998 0.66399997
11.52 -5.125 0.66299999
11.535 -5.098 0.66399997
11.573 -5.0809999 0.66600001
11.612 -5.0640001 0.66799998
11.641 -5.0430002 0.67000002
11.635 -5.006 0.66900003
11.659 -4.9819999 0.671
11.682 -4.9580002 0.67199999
11.705 -4.9330001 0.67299998
11.742 -4.914 0.67500001
11.733 -4.8759999 0.67500001
11.775 -4.8590002 0.67699999
11.809 -4.8379998 0.67900002
11.836 -4.8140001 0.68000001
11.898 -4.8049998 0.68400002
11.925 -4.7810001 0.685
11.96 -4.7600002 0.68699998
12.079 -4.7719998 0.69400001
12.076 -4.7350001 0.69400001
12.14 -4.7249999 0.69700003
12.089 -4.6690001 0.69400001
12.152 -4.658 0.69800001
12.187 -4.6360002 0.69999999
12.251 -4.6240001 0.70300001
12.275 -4.5970001 0.704
12.289 -4.5669999 0.70499998
12.356 -4.5549998 0.70899999
12.345 -4.5149999 0.708
12.442 -4.5139999 0.71399999
12.575 -4.526 0.72100002
12.665 -4.5209999 0.72600001
12.643 -4.4759998 0.72500002
12.72 -4.4660001 0.72899997
12.721 -4.4289999 0.72899997
12.791 -4.4159999 0.73299998
12.845 -4.3969998 0.736
12.843 -4.3590002 0.736
12.965 -4.3629999 0.74299997
13.027 -4.3460002 0.74599999
13.119 -4.3000002 0.75099999
13.136 -4.2670002 0.75199997
13.485 -4.066 0.77100003
13.446 -4.0149999 0.76899999
13.517 -3.997 0.773
13.548 -3.9660001 0.77399999
13.53 -3.9219999 0.773
10.833 -3.0769999 0.61900002
10.772 -3.0280001 0.61500001
10.776 -2.9979999 0.61500001
10.808 -2.9760001 0.61699998
10.951 -2.983 0.625
13.83 -3.727 0.78899997
13.851 -3.6919999 0.79000002
10.601 -2.7950001 0.60500002
10.496 -2.737 0.59899998
10.483 -2.7030001 0.59799999
10.519 -2.6819999 0.60000002
10.681 -2.6919999 0.60900003
14.016 -3.4920001 0.79900002
13.997 -3.447 0.79799998
14.118 -3.4360001 0.80400002
14.201 -3.3740001 0.80900002
14.19 -3.3299999 0.80800003
14.199 -3.2909999 0.80800003
14.173 -3.244 0.80699998
14.31 -3.234 0.815
14.328 -3.1960001 0.815
14.302 -3.1489999 0.81400001
14.389 -3.1270001 0.81900001
14.475 -3.1040001 0.82300001
14.468 -3.0599999 0.82300001
14.595 -2.918 0.829
14.586 -2.8740001 0.829
14.635 -2.842 0.83099997
14.704 -2.813 0.83499998
14.747 -2.7780001 0.83700001
14.76 -2.7379999 0.838
14.816 -2.7060001 0.84100002
14.927 -2.6830001 0.847
11.452 -0.87300003 0.64499998
11.382 -0.83499998 0.64099997
11.357 -0.801 0.639
11.346 -0.76800001 0.639
11.363 -0.736 0.63999999
11.422 -0.70700002 0.64300001
11.572 -0.61699998 0.65100002
11.461 -0.57800001 0.64399999
11.43 -0.54400003 0.64200002
11.458 -0.51200002 0.64399999
11.504 -0.48199999 0.64600003
12.929 0.235 0.72299999
12.841 0.27000001 0.71799999
12.819 0.30700001 0.71600002
12.824 0.34400001 0.71600002
12.827 0.38 0.71600002
12.838 0.417 0.71700001
12.842 0.454 0.71700001
12.849 0.491 0.71700001
12.864 0.52899998 0.71799999
12.859 0.565 0.71700001
12.868 0.60299999 0.71799999
12.874 0.63999999 0.71799999
12.89 0.67799997 0.71899998
12.905 0.71499997 0.71899998
12.916 0.75300002 0.72000003
12.927 0.79100001 0.72000003
12.941 0.829 0.72100002
12.951 0.86699998 0.72100002
12.935 0.903 0.72000003
12.644 0.123 0.62599999
12.655 0.134 0.62699997
12.647 0.146 0.62599999
12.644 0.15800001 0.625
12.644 0.17 0.625
12.653 0.183 0.625
12.655 0.19599999 0.625
12.636 0.20900001 0.62400001
12.652 0.223 0.62400001
12.643 0.237 0.62400001
12.646 0.25099999 0.62300003
12.645 0.26499999 0.62300003
12.641 0.28 0.62300003
12.639 0.29499999 0.62199998
12.64 0.31099999 0.62199998
12.64 0.32699999 0.62199998
12.637 0.34299999 0.62099999
12.646 0.36000001 0.62199998
12.648 0.37599999 0.62199998
12.65 0.39399999 0.62199998
12.66 0.41100001 0.62199998
12.662 0.42899999 0.62199998
12.645 0.44600001 0.62099999
12.663 0.465 0.62099999
12.651 0.48300001 0.62099999
12.65 0.50199997 0.62
12.664 0.52200001 0.62099999
12.669 0.542 0.62099999
12.668 0.56099999 0.62099999
12.677 0.58200002 0.62099999
12.676 0.602 0.62099999
12.674 0.62300003 0.62099999
12.679 0.64399999 0.62099999
12.691 0.66600001 0.62099999
12.716 0.68800002 0.62300003
12.775 0.71399999 0.625
12.879 0.74199998 0.63
12.891 0.76499999 0.63099998
12.9 0.78899997 0.63099998
12.889 0.81099999 0.63099998
12.86 0.833 0.62900001
12.832 0.85500002 0.62800002
12.792 0.87599999 0.62599999
12.758 0.898 0.62400001
12.716 0.91900003 0.62199998
12.709 0.94300002 0.62199998
12.713 0.96799999 0.62199998
12.726 0.99400002 0.62300003
12.721 1.0190001 0.62199998
12.733 1.046 0.62300003
12.752 1.074 0.62400001
12.757 1.1 0.62400001
12.775 1.128 0.625
12.803 1.1569999 0.62599999
12.85 1.189 0.62900001
12.905 1.222 0.63200003
12.942 1.253 0.63300002
12.93 1.28 0.63300002
12.294 1.244 0.602
12.196 1.261 0.597
12.125 1.281 0.59399998
12.095 1.3049999 0.59200001
12.058 1.3279999 0.59100002
12.005 1.35 0.588
11.957 1.372 0.58600003
11.913 1.395 0.58399999
11.877 1.418 0.58200002
11.868 1.4450001 0.58200002
11.86 1.473 0.58200002
11.886 1.5039999 0.583
11.942 1.54 0.58600003
12.149 1.597 0.59600002
20.837999 2.7390001 1.023
20.684 2.77 1.016
20.683001 2.8210001 1.016
20.618 2.8629999 1.013
20.625999 2.9159999 1.0140001
20.728001 2.983 1.0190001
20.919001 3.0639999 1.029
20.830999 3.1040001 1.025
20.783001 3.151 1.023
20.804001 3.2079999 1.024
20.834999 3.2679999 1.026
20.775 3.313 1.024
20.707001 3.3570001 1.021
20.649 3.4030001 1.018
20.684 3.464 1.021
20.726 3.527 1.023
21.916 3.789 1.082
21.657 3.8039999 1.0700001
21.754 3.881 1.075
21.728001 3.937 1.075
21.674 3.987 1.072
21.632 4.0409999 1.071
21.695 4.1129999 1.075
21.711 4.178 1.076
21.782 4.2540002 1.08
21.860001 4.3319998 1.084
21.957001 4.415 1.09
22.034 4.4949999 1.094
22.054001 4.5630002 1.096
22.183001 4.6550002 1.103
22.173 4.7189999 1.103
22.084 4.7649999 1.099
21.955999 4.8039999 1.094
21.934 4.8649998 1.0930001
21.834999 4.9089999 1.089
19.652 5.1560001 0.98799998
19.603001 5.2059999 0.98699999
19.577999 5.263 0.986
19.566999 5.3239999 0.986
19.575001 5.3899999 0.98799998
19.722 5.4959998 0.99599999
18.096001 5.1630001 0.91500002
17.903 5.1669998 0.90600002
17.76 5.1859999 0.89999998
17.632999 5.2080002 0.89399999
17.562 5.2470002 0.89099997
17.591 5.3150001 0.89300001
14.961 5.7550001 0.77700001
14.831 5.7610002 0.77100003
9.2209997 4.421 0.493
9.0760002 4.3889999 0.486
9.0509996 4.415 0.48500001
9.0439997 4.4499998 0.486
9.0430002 4.487 0.486
9.0270004 4.5170002 0.486
9.0109997 4.5469999 0.486
8.9989996 4.579 0.486
8.9960003 4.6149998 0.486
8.9799995 4.6459999 0.486
8.967 4.677 0.486
8.9820004 4.724 0.48800001
8.9989996 4.7709999 0.48899999
8.9960003 4.809 0.49000001
9.0349998 4.869 0.493
9.0889997 4.9380002 0.49599999
10.916 6.9679999 0.616
10.856 6.9809999 0.61400002
10.812 7.0040002 0.61199999
10.786 7.0380001 0.61199999
10.775 7.0819998 0.61199999
10.747 7.1149998 0.61199999
10.745 7.165 0.61299998
10.699 7.1849999 0.611
10.665 7.2140002 0.61000001
10.649 7.2540002 0.61000001
10.622 7.2870002 0.61000001
10.603 7.3260002 0.61000001
10.579 7.3600001 0.60900003
10.55 7.3920002 0.60900003
10.536 7.4330001 0.60900003
10.507 7.4640002 0.60799998
10.476 7.494 0.60799998
10.437 7.5170002 0.60699999
10.166 -6.678 0.62099999
10.216 -6.6459999 0.62300003
10.27 -6.618 0.62599999
10.319 -6.586 0.62800002
10.351 -6.5440001 0.63
10.379 -6.4990001 0.63099998
10.424 -6.4650002 0.63300002
10.459 -6.4250002 0.63499999
10.501 -6.3889999 0.63700002
10.524 -6.342 0.63800001
10.545 -6.2940001 0.639
10.579 -6.2529998 0.63999999
10.618 -6.2160001 0.64200002
10.644 -6.1719999 0.64300001
10.669 -6.1269999 0.64399999
10.72 -6.098 0.64700001
10.736 -6.0479999 0.64700001
10.787 -6.0180001 0.64999998
10.843 -5.9910002 0.653
10.899 -5.9640002 0.65600002
10.93 -5.9229999 0.65700001
10.928 -5.8649998 0.65700001
10.946 -5.8179998 0.65700001
10.973 -5.7750001 0.65799999
10.996 -5.7309999 0.65899998
11.026 -5.691 0.66100001
11.064 -5.6550002 0.66299999
11.117 -5.6269999 0.66500002
11.132 -5.5799999 0.66600001
11.169 -5.5430002 0.66799998
11.195 -5.5009999 0.66900003
11.243 -5.4710002 0.671
11.245 -5.4180002 0.671
11.31 -5.395 0.67500001
11.343 -5.3579998 0.676
11.365 -5.3150001 0.67699999
11.398 -5.277 0.67900002
11.405 -5.2280002 0.67900002
11.448 -5.1950002 0.68099999
11.482 -5.158 0.68300003
11.525 -5.1259999 0.685
11.564 -5.0910001 0.68699998
11.585 -5.0489998 0.68800002
11.664 -5.0320001 0.69199997
11.683 -4.9889998 0.69300002
11.709 -4.9489999 0.69400001
11.77 -4.9239998 0.69700003
11.795 -4.8839998 0.699
11.84 -4.8530002 0.70099998
11.861 -4.8109999 0.70200002
11.918 -4.7839999 0.70499998
12.004 -4.7690001 0.70999998
12.108 -4.7600002 0.71600002
12.164 -4.7319999 0.71899998
12.203 -4.698 0.72100002
12.282 -4.678 0.72500002
12.314 -4.6409998 0.72600001
12.439 -4.6389999 0.73400003
12.495 -4.6100001 0.73699999
12.511 -4.5669999 0.73699999
12.572 -4.54 0.741
12.657 -4.5219998 0.745
12.823 -4.5320001 0.755
12.824 -4.4829998 0.755
12.912 -4.4650002 0.759
12.979 -4.4390001 0.76300001
13.096 -4.4299998 0.76999998
13.041 -4.362 0.76599997
13.188 -4.3629999 0.77499998
13.405 -4.3850002 0.787
13.614 -4.1609998 0.79799998
13.582 -4.1030002 0.796
13.58 -4.0549998 0.79500002
13.624 -4.0209999 0.79799998
13.661 -3.9849999 0.79900002
13.819 -3.984 0.80800003
10.809 -3.0799999 0.63200003
10.766 -3.0309999 0.62900001
10.781 -2.9990001 0.63
10.904 -2.997 0.63700002
10.633 -2.8529999 0.62099999
10.487 -2.779 0.61199999
10.461 -2.7379999 0.611
10.536 -2.724 0.61500001
14.182 -3.576 0.82700002
14.183 -3.5320001 0.82700002
14.238 -3.5009999 0.82999998
14.33 -3.4790001 0.83499998
14.682 -3.2520001 0.85399997
14.733 -3.2190001 0.85699999
11.623 -0.78299999 0.67199999
11.468 -0.75 0.66299999
11.404 -0.72299999 0.66000003
11.379 -0.69999999 0.65799999
11.365 -0.67699999 0.65700001
11.366 -0.65499997 0.65700001
11.359 -0.634 0.65700001
11.365 -0.61299998 0.65700001
11.385 -0.59200001 0.65899998
11.454 -0.57499999 0.66299999
11.52 -0.51499999 0.66600001
11.476 -0.49200001 0.66399997
11.462 -0.47099999 0.66299999
11.462 -0.45100001 0.66299999
11.457 -0.43099999 0.66299999
11.486 -0.412 0.66500002
11.549 -0.39399999 0.66799998
13.052 -0.40000001 0.75599998
12.926 -0.375 0.74800003
12.88 -0.352 0.74599999
12.845 -0.329 0.74400002
12.838 -0.308 0.74299997
12.827 -0.287 0.74299997
12.816 -0.26499999 0.74199998
12.82 -0.245 0.74199998
12.786 -0.22400001 0.741
12.756 -0.20299999 0.73900002
12.749 -0.183 0.73900002
12.764 -0.163 0.74000001
12.821 -0.14399999 0.74299997
12.934 -0.125 0.75
13.185 0.12 0.76499999
13.113 0.13699999 0.76099998
12.623 0.182 0.65799999
12.636 0.205 0.65899998
12.653 0.228 0.66000003
12.65 0.25099999 0.65899998
12.657 0.27399999 0.65899998
12.657 0.29800001 0.65899998
12.663 0.32100001 0.65899998
12.659 0.345 0.65899998
12.661 0.37 0.65899998
12.673 0.39500001 0.65899998
12.668 0.419 0.65899998
12.662 0.44400001 0.65899998
12.668 0.47 0.65899998
12.667 0.49599999 0.65899998
12.684 0.52200001 0.65899998
12.684 0.54799998 0.65899998
12.678 0.57499999 0.65899998
12.691 0.602 0.65899998
12.708 0.63 0.66000003
12.712 0.65700001 0.66000003
12.768 0.68699998 0.66299999
12.854 0.72000003 0.66799998
12.891 0.75099999 0.66900003
12.886 0.77899998 0.66900003
12.873 0.80699998 0.66799998
12.819 0.83200002 0.66600001
12.802 0.86000001 0.66500002
12.75 0.88599998 0.662
12.716 0.91299999 0.66000003
12.687 0.94099998 0.65899998
12.695 0.97100002 0.65899998
12.708 1.002 0.66000003
12.704 1.0319999 0.65899998
12.733 1.0650001 0.66100001
12.742 1.096 0.662
12.77 1.13 0.66299999
12.791 1.163 0.66399997
12.835 1.199 0.66600001
12.913 1.238 0.671
12.953 1.274 0.67299998
12.965 1.308 0.67299998
12.519 1.295 0.64999998
12.218 1.295 0.63499999
12.118 1.3150001 0.63
12.076 1.342 0.62699997
12.028 1.368 0.625
11.972 1.392 0.62199998
11.916 1.4170001 0.61900002
11.874 1.444 0.61699998
11.855 1.473 0.616
11.861 1.505 0.61699998
11.887 1.54 0.61799997
11.989 1.586 0.62400001
20.854 2.816 1.086
20.833 2.8699999 1.085
20.818001 2.925 1.084
20.872999 2.99 1.087
21.042999 3.073 1.097
21.063 3.135 1.098
20.948 3.1760001 1.092
20.884001 3.2249999 1.089
20.909 3.2880001 1.091
21.801001 3.8050001 1.14
21.816 3.8710001 1.141
21.891001 3.9489999 1.145
21.893999 4.0139999 1.146
21.809 4.0630002 1.142
21.908001 4.1459999 1.147
21.947001 4.2189999 1.15
21.986 4.2930002 1.152
22.049 4.3720002 1.156
22.127001 4.454 1.161
22.256001 4.5469999 1.168
22.344999 4.6339998 1.173
22.343 4.7020001 1.174
22.34 4.7690001 1.174
22.323 4.835 1.174
22.473 4.9369998 1.182
19.671 5.132 1.0420001
19.627001 5.184 1.04
19.6 5.2410002 1.04
19.584 5.3010001 1.039
19.599001 5.369 1.041
19.719 5.4660001 1.048
18.156 5.1529999 0.96600002
17.941999 5.152 0.95499998
17.805 5.171 0.949
17.686001 5.1960001 0.94300002
17.605 5.2309999 0.93900001
17.608999 5.2909999 0.94
9.2950001 4.5 0.51999998
9.1079998 4.4419999 0.50999999
9.0430002 4.4439998 0.50700003
9.0229998 4.467 0.50599998
9.0290003 4.5029998 0.50700003
9.0209999 4.5320001 0.50700003
8.9949999 4.552 0.50599998
8.9890003 4.5819998 0.50700003
8.9820004 4.6110001 0.50700003
8.9820004 4.6440001 0.50700003
8.9720001 4.671 0.50700003
8.9619999 4.6989999 0.50700003
8.9709997 4.7360001 0.50800002
8.9870005 4.777 0.50999999
8.9899998 4.8119998 0.51099998
9.0080004 4.8540001 0.51200002
9.0559998 4.914 0.51599997
9.1700001 5.0079999 0.523
11.067 -6.5749998 0.69199997
11.077 -6.5500002 0.69199997
11.102 -6.5320001 0.69400001
11.129 -6.5159998 0.69499999
11.14 -6.4260001 0.69599998
11.197 -6.4260001 0.699
11.266 -6.4330001 0.70300001
11.255 -6.3940001 0.70300001
11.25 -6.3579998 0.70200002
11.265 -6.3340001 0.70300001
11.224 -6.2779999 0.70099998
11.244 -6.257 0.70200002
11.254 -6.23 0.70200002
11.265 -6.2030001 0.70300001
11.274 -6.1750002 0.70300001
11.279 -6.145 0.704
11.306 -6.1259999 0.70499998
11.356 -6.1209998 0.708
11.464 -6.1459999 0.71499997
11.436 -6.0300002 0.713
11.478 -6.0190001 0.71600002
11.482 -5.987 0.71600002
11.453 -5.9390001 0.71399999
11.448 -5.9029999 0.713
11.48 -5.8850002 0.71499997
11.486 -5.855 0.71600002
11.516 -5.836 0.71700001
11.534 -5.8119998 0.71799999
11.562 -5.7919998 0.72000003
11.582 -5.7680001 0.72100002
11.632 -5.7589998 0.72399998
11.636 -5.7270002 0.72399998
11.613 -5.6810002 0.72299999
11.653 -5.6669998 0.72500002
11.677 -5.6440001 0.727
11.682 -5.612 0.727
11.737 -5.6040001 0.73000002
11.725 -5.5640001 0.72899997
11.758 -5.5450001 0.73100001
11.764 -5.513 0.73199999
11.811 -5.5009999 0.73400003
11.839 -5.4790001 0.736
11.855 -5.4520001 0.73699999
11.871 -5.4239998 0.73799998
11.935 -5.4180002 0.74199998
11.957 -5.3930001 0.74299997
12.005 -5.3800001 0.74599999
11.994 -5.3400002 0.745
12.08 -5.342 0.75
12.058 -5.2969999 0.74900001
12.107 -5.283 0.75199997
12.178 -5.2779999 0.75599998
12.188 -5.2470002 0.75700003
12.199 -5.2150002 0.75700003
12.324 -5.2329998 0.76499999
12.241 -5.1620002 0.75999999
12.3 -5.1500001 0.76300001
12.349 -5.1350002 0.76599997
12.323 -5.0869999 0.764
12.383 -5.0760002 0.76800001
12.413 -5.052 0.76999998
12.502 -5.0510001 0.77499998
12.488 -5.0089998 0.77399999
12.625 -5.027 0.78299999
12.599 -4.98 0.78100002
12.614 -4.9489999 0.78200001
12.993 -4.9829998 0.80500001
12.822 -4.8800001 0.79400003
12.803 -4.835 0.79299998
12.905 -4.836 0.79900002
13.063 -4.8569999 0.80900002
13.073 -4.822 0.80900002
13.08 -4.7859998 0.80900002
13.118 -4.7620001 0.81199998
13.158 -4.7379999 0.81400001
13.402 -4.5120001 0.82800001
13.468 -4.4949999 0.83200002
13.514 -4.4699998 0.83499998
13.577 -4.4510002 0.838
13.58 -4.4130001 0.838
13.626 -4.388 0.84100002
13.59 -4.3369999 0.83899999
13.683 -4.3260002 0.84399998
13.848 -4.177 0.85399997
13.756 -4.1090002 0.84799999
13.821 -4.0879998 0.852
13.858 -4.0580001 0.85399997
13.936 -4.0409999 0.85900003
14.024 -4.0250001 0.86400002
10.979 -3.119 0.676
10.791 -3.0339999 0.66399997
10.754 -2.993 0.662
10.776 -2.967 0.66299999
10.816 -2.947 0.66600001
10.953 -2.9530001 0.67400002
10.565 -2.786 0.64999998
10.488 -2.7360001 0.64499998
10.481 -2.7030001 0.64399999
10.518 -2.6819999 0.64600003
10.678 -2.6919999 0.65600002
14.508 -3.5320001 0.89099997
14.491 -3.4849999 0.88999999
14.538 -3.454 0.89300001
14.647 -3.438 0.89899999
14.68 -3.3599999 0.90100002
14.742 -3.332 0.90499997
14.881 -3.3199999 0.91299999
11.525 -0.87800002 0.69999999
11.403 -0.83600003 0.69199997
11.366 -0.80000001 0.69
11.339 -0.76599997 0.68800002
11.339 -0.73299998 0.68800002
11.329 -0.69999999 0.68699998
11.385 -0.671 0.69
11.509 -0.64499998 0.69800001
11.478 -0.611 0.69499999
11.434 -0.57599998 0.69300002
11.451 -0.54400003 0.69300002
11.443 -0.50999999 0.69300002
11.495 -0.47999999 0.69599998
12.939 -0.50300002 0.78299999
12.85 -0.463 0.778
12.761 -0.42300001 0.77200001
12.72 -0.38499999 0.76899999
12.707 -0.34799999 0.76800001
12.687 -0.31099999 0.76700002
12.678 -0.27500001 0.76599997
12.671 -0.23800001 0.76599997
12.683 -0.20200001 0.76599997
12.692 -0.16599999 0.76700002
12.711 -0.13 0.76700002
12.801 -0.093999997 0.773
12.724 0.126 0.69099998
12.725 0.138 0.69
12.727 0.149 0.69
12.722 0.161 0.68900001
12.716 0.17399999 0.68900001
12.723 0.18700001 0.68900001
12.73 0.2 0.68900001
12.724 0.213 0.68800002
12.729 0.227 0.68800002
12.732 0.241 0.68800002
12.741 0.255 0.68800002
12.726 0.27000001 0.68699998
12.744 0.285 0.68800002
12.74 0.30000001 0.68699998
12.739 0.31600001 0.68699998
12.749 0.33199999 0.68699998
12.744 0.34799999 0.68699998
12.735 0.36399999 0.68599999
12.74 0.38100001 0.68599999
12.752 0.39899999 0.68699998
12.76 0.417 0.68699998
12.767 0.435 0.68699998
12.774 0.45300001 0.68699998
12.782 0.472 0.68699998
12.777 0.49000001 0.68699998
12.773 0.509 0.68699998
12.807 0.52999997 0.68800002
12.791 0.54900002 0.68699998
12.815 0.56999999 0.68800002
12.808 0.58999997 0.68800002
12.81 0.61000001 0.68800002
12.826 0.63200003 0.68900001
12.838 0.65399998 0.68900001
12.896 0.67799997 0.69199997
12.904 0.69999999 0.69300002
12.901 0.722 0.69199997
12.907 0.745 0.69300002
12.907 0.76800001 0.69300002
12.9 0.79000002 0.69199997
12.873 0.81199998 0.69099998
12.851 0.83399999 0.68900001
12.814 0.85500002 0.68699998
12.773 0.87599999 0.685
12.731 0.89700001 0.68300003
12.716 0.921 0.68199998
12.699 0.94400001 0.68099999
12.71 0.97000003 0.68199998
12.728 0.99599999 0.68300003
12.741 1.022 0.68400002
12.76 1.05 0.685
12.774 1.077 0.685
12.806 1.1059999 0.68699998
12.831 1.1339999 0.68900001
12.885 1.166 0.69199997
12.899 1.1950001 0.69199997
12.913 1.224 0.69300002
12.935 1.253 0.69400001
12.933 1.281 0.69400001
12.304 1.2460001 0.66100001
12.166 1.2589999 0.653
12.083 1.277 0.64899999
12.029 1.299 0.64600003
11.972 1.3200001 0.64300001
11.918 1.341 0.64099997
11.894 1.3660001 0.639
11.879 1.392 0.639
11.862 1.4170001 0.63800001
11.855 1.4450001 0.63800001
11.882 1.476 0.639
11.937 1.512 0.64300001
12.103 1.562 0.65200001
21.940001 2.832 1.182
21.847 2.8729999 1.177
21.860001 2.9289999 1.178
21.823999 2.9779999 1.177
21.83 3.033 1.177
21.752001 3.0769999 1.174
21.655001 3.118 1.169
22.229 3.257 1.2
22.17 3.3050001 1.197
22.187 3.365 1.199
22.23 3.4289999 1.202
22.257999 3.4920001 1.204
22.278999 3.5539999 1.205
22.284 3.6140001 1.206
22.264999 3.6700001 1.206
22.289 3.734 1.207
22.186001 3.777 1.202
22.101999 3.823 1.198
22.098 3.8829999 1.199
22.125999 3.948 1.201
22.186001 4.0209999 1.205
22.226 4.0900002 1.2079999
22.285 4.1630001 1.211
22.323999 4.2340002 1.214
22.312 4.2950001 1.214
22.23 4.3429999 1.21
22.455 4.4510002 1.223
22.483 4.5219998 1.226
22.495001 4.5890002 1.227
22.488001 4.6539998 1.227
22.472 4.717 1.227
22.426001 4.7729998 1.225
22.541 4.8649998 1.233
19.733999 5.178 1.091
19.658001 5.2210002 1.087
19.607 5.2709999 1.085
19.594 5.3319998 1.085
19.635 5.4070001 1.089
18.235001 5.2020001 1.0140001
17.974001 5.1880002 1
17.827999 5.2059999 0.99299997
17.719999 5.2340002 0.98799998
17.660999 5.276 0.98500001
17.766001 5.368 0.99199998
17.695999 5.5910001 0.99199998
17.497 5.5890002 0.98100001
17.346001 5.6009998 0.97399998
17.379999 5.6729999 0.977
17.441 5.7550001 0.98100001
17.308001 5.7719998 0.97500002
9.21 4.454 0.54299998
9.0670004 4.4229999 0.53500003
9.0209999 4.4380002 0.53299999
9.0179996 4.474 0.53399998
9.0159998 4.5110002 0.53500003
9.0019999 4.5419998 0.53399998
8.9910002 4.5749998 0.53500003
8.9870005 4.6110001 0.53500003
8.9750004 4.6430001 0.53500003
8.9750004 4.6810002 0.53600001
8.96 4.7119999 0.53600001
8.9750004 4.7589998 0.53799999
8.9799995 4.8010001 0.53899997
8.9919996 4.8460002 0.54000002
9.0310001 4.9060001 0.54299998
9.1090002 4.9889998 0.54900002
11.286 6.5310001 0.68699998
11.276 6.5760002 0.68800002
10.509 -6.901 0.69
10.557 -6.8660002 0.69300002
10.591 -6.823 0.69499999
10.641 -6.79 0.69700003
10.688 -6.7550001 0.69999999
10.722 -6.7119999 0.70200002
10.78 -6.6849999 0.70499998
10.812 -6.6399999 0.70599997
10.843 -6.5960002 0.708
10.879 -6.5539999 0.70999998
10.904 -6.506 0.71100003
10.944 -6.4679999 0.713
10.975 -6.4239998 0.71399999
11.012 -6.3839998 0.71600002
11.034 -6.336 0.71700001
11.066 -6.2930002 0.71899998
11.101 -6.2529998 0.72000003
11.154 -6.2220001 0.72299999
11.232 -6.2049999 0.72799999
11.272 -6.1669998 0.73000002
11.273 -6.1079998 0.72899997
11.292 -6.0599999 0.73000002
11.326 -6.0190001 0.73199999
11.366 -5.9809999 0.73400003
11.373 -5.927 0.73400003
11.417 -5.8920002 0.736
11.454 -5.8540001 0.73799998
11.499 -5.8200002 0.741
11.528 -5.777 0.74199998
11.576 -5.744 0.745
11.615 -5.7069998 0.74699998
11.632 -5.6589999 0.74800003
11.643 -5.6090002 0.74800003
11.696 -5.579 0.75099999
11.756 -5.552 0.75400001
11.767 -5.5019999 0.755
11.805 -5.4650002 0.75700003
11.89 -5.4489999 0.76200002
11.93 -5.4130001 0.764
11.975 -5.3790002 0.76599997
12.034 -5.3509998 0.76999998
12.066 -5.3119998 0.77100003
12.103 -5.2740002 0.773
12.186 -5.257 0.778
12.218 -5.217 0.77999997
12.317 -5.2059999 0.78600001
12.343 -5.1630001 0.787
12.399 -5.1339998 0.79000002
12.432 -5.0939999 0.792
12.483 -5.0630002 0.79500002
12.543 -5.0349998 0.79799998
12.581 -4.9970002 0.80000001
12.64 -4.9689999 0.80400002
12.768 -4.967 0.81199998
12.885 -4.96 0.81900001
12.995 -4.9499998 0.82499999
13.04 -4.915 0.82800001
13.102 -4.8860002 0.83099997
13.087 -4.8280001 0.82999998
13.226 -4.8270001 0.838
13.288 -4.7979999 0.84200001
13.293 -4.7480001 0.84200001
13.321 -4.7069998 0.84299999
13.5 -4.7189999 0.85399997
13.648 -4.7189999 0.86400002
13.694 -4.6830001 0.866
13.736 -4.6459999 0.86799997
13.654 -4.5669999 0.86299998
13.603 -4.5 0.85900003
13.684 -4.4759998 0.86400002
13.764 -4.4520001 0.86900002
13.753 -4.3990002 0.86799997
13.751 -4.349 0.86799997
13.851 -4.3309999 0.87400001
13.937 -4.21 0.87800002
13.957 -4.1680002 0.87900001
14.053 -4.1479998 0.88499999
14.101 -4.1129999 0.88800001
10.81 -3.0799999 0.68000001
10.749 -3.026 0.676
10.774 -2.997 0.67699999
10.826 -2.9760001 0.68000001
10.496 -2.816 0.65899998
10.454 -2.77 0.65600002
10.493 -2.747 0.65899998
10.64 -2.7509999 0.66799998
14.771 -3.586 0.926
14.928 -3.5780001 0.93599999
11.495 -0.75199997 0.71499997
11.407 -0.72399998 0.70899999
11.381 -0.69999999 0.708
11.361 -0.67699999 0.70599997
11.348 -0.65499997 0.70599997
11.347 -0.63300002 0.70599997
11.351 -0.61199999 0.70599997
11.342 -0.58999997 0.70499998
11.352 -0.56999999 0.70599997
11.374 -0.55000001 0.70700002
11.414 -0.53100002 0.70999998
11.433 -0.51099998 0.71100003
11.465 -0.49200001 0.713
11.465 -0.47099999 0.713
11.445 -0.44999999 0.71200001
11.455 -0.43099999 0.713
11.476 -0.41100001 0.71399999
11.511 -0.39300001 0.71600002
11.604 -0.37599999 0.722
12.849 -0.39399999 0.79900002
12.749 -0.37 0.79299998
12.699 -0.347 0.79000002
12.655 -0.32499999 0.78799999
12.643 -0.303 0.787
12.642 -0.28299999 0.787
12.627 -0.26199999 0.78600001
12.639 -0.241 0.787
12.631 -0.221 0.78600001
12.637 -0.20100001 0.787
12.637 -0.18099999 0.787
12.638 -0.161 0.787
12.656 -0.142 0.78799999
12.682 -0.123 0.79000002
12.718 -0.104 0.792
12.836 -0.085000001 0.80000001
12.699 0.185 0.722
12.73 0.208 0.72399998
12.736 0.23100001 0.72399998
12.732 0.25400001 0.72399998
12.739 0.278 0.72399998
12.75 0.301 0.72399998
12.755 0.32600001 0.72399998
12.767 0.34999999 0.72500002
12.766 0.375 0.72500002
12.781 0.40000001 0.72500002
12.78 0.42500001 0.72500002
12.793 0.45100001 0.72600001
12.784 0.47600001 0.72500002
12.809 0.50300002 0.72600001
12.829 0.52999997 0.727
12.84 0.55699998 0.72799999
12.824 0.583 0.727
12.838 0.61000001 0.72799999
12.87 0.639 0.72899997
12.892 0.66799998 0.73100001
12.915 0.69700003 0.73199999
12.924 0.72600001 0.73199999
12.9 0.75199997 0.73100001
12.895 0.78100002 0.73100001
12.89 0.80900002 0.73000002
12.858 0.83600003 0.72799999
12.823 0.86299998 0.72600001
12.788 0.88999999 0.72399998
12.738 0.91600001 0.722
12.712 0.94400001 0.72000003
12.71 0.97299999 0.72000003
12.715 1.0039999 0.72000003
12.736 1.036 0.722
12.747 1.067 0.722
12.779 1.101 0.72399998
12.808 1.1339999 0.72600001
12.842 1.169 0.72799999
12.878 1.204 0.73000002
12.887 1.2359999 0.73000002
12.909 1.271 0.73199999
12.938 1.306 0.73299998
12.932 1.3380001 0.73299998
12.209 1.295 0.69199997
12.091 1.313 0.68599999
12.016 1.336 0.68199998
11.959 1.3609999 0.67799997
11.909 1.386 0.676
11.873 1.413 0.67400002
11.862 1.443 0.67299998
11.852 1.473 0.67299998
11.855 1.505 0.67299998
11.905 1.543 0.676
12.084 1.599 0.68699998
21.957001 2.9059999 1.248
21.871 2.954 1.243
21.844999 3.01 1.242
21.844 3.0699999 1.242
21.812 3.1259999 1.2410001
21.858999 3.1930001 1.244
22.118 3.293 1.2589999
22.142 3.358 1.261
22.174 3.4260001 1.263
22.223 3.4960001 1.266
22.273001 3.5669999 1.27
22.349001 3.6429999 1.274
22.379999 3.7119999 1.277
22.353001 3.7720001 1.276
22.296 3.8269999 1.273
22.268 3.8870001 1.272
22.209 3.9419999 1.2690001
22.236 4.0120001 1.271
22.259001 4.0819998 1.273
22.341999 4.1630001 1.278
22.422001 4.2449999 1.283
22.518 4.3299999 1.289
22.535 4.401 1.291
22.542 4.4699998 1.2920001
22.562 4.5419998 1.293
22.593 4.6170001 1.296
22.636 4.6950002 1.299
19.820999 5.171 1.148
19.629999 5.1849999 1.138
19.632999 5.25 1.1390001
19.587999 5.302 1.137
18.094 5.1950002 1.054
18.027 5.2360001 1.05
17.648001 5.4809999 1.033
17.455 5.48 1.022
17.375 5.5139999 1.018
17.288 5.5450001 1.0140001
17.315001 5.6129999 1.017
17.42 5.7059999 1.023
17.289 5.723 1.017
17.257999 5.7719998 1.016
17.243 5.8260002 1.016
9.2559996 4.4809999 0.56699997
9.0830002 4.4299998 0.55699998
9.0229998 4.434 0.55400002
8.9820004 4.447 0.55199999
8.9659996 4.4720001 0.55199999
8.9840002 4.513 0.55299997
8.9849997 4.5469999 0.55400002
8.9820004 4.5780001 0.55500001
8.9630003 4.6009998 0.55400002
8.967 4.6360002 0.55500001
8.967 4.6690001 0.55599999
8.9610004 4.698 0.55599999
8.9549999 4.7280002 0.55599999
8.9659996 4.7659998 0.55800003
8.9720001 4.802 0.55900002
8.974 4.836 0.55900002
8.9919996 4.8790002 0.56099999
9.0249996 4.9299998 0.56400001
9.1370001 5.0240002 0.57200003
11.187 6.5570002 0.70899999
11.12 6.5580001 0.70499998
11.091 6.5809999 0.704
11.044 6.5929999 0.70200002
11.032 6.625 0.70200002
10.992 6.6409998 0.70099998
10.969 6.6659999 0.69999999
10.967 6.704 0.70099998
10.942 6.7270002 0.69999999
10.962 6.7789998 0.70200002
10.993 6.8369999 0.70499998
11.993 -6.2579999 0.80199999
12.006 -6.2290001 0.80299997
12.007 -6.1950002 0.80299997
12.044 -6.1789999 0.80500001
12.096 -6.1700001 0.80900002
12.079 -6.1259999 0.80800003
12.085 -6.0929999 0.80800003
12.102 -6.066 0.80900002
12.145 -6.053 0.81199998
12.145 -6.0170002 0.81199998
12.189 -6.0029998 0.81400001
12.174 -5.96 0.81300002
12.229 -5.9510002 0.81699997
12.223 -5.9120002 0.81599998
12.248 -5.888 0.81800002
12.268 -5.862 0.81900001
12.298 -5.8400002 0.82099998
12.35 -5.8280001 0.824
12.377 -5.8039999 0.82599998
12.372 -5.7659998 0.82599998
12.405 -5.744 0.82800001
12.42 -5.7150002 0.829
12.45 -5.6919999 0.82999998
12.472 -5.665 0.83200002
12.486 -5.6350002 0.833
12.521 -5.6139998 0.83499998
12.579 -5.6030002 0.83899999
12.59 -5.5710001 0.83899999
12.619 -5.5469999 0.84100002
12.67 -5.5320001 0.84399998
12.724 -5.5180001 0.84799999
12.814 -5.5190001 0.85399997
12.749 -5.454 0.84899998
12.765 -5.4229999 0.85000002
12.869 -5.4289999 0.85699999
12.905 -5.4070001 0.85900003
13.022 -5.3790002 0.86699998
12.99 -5.3280001 0.86400002
13.693 -5.0929999 0.90899998
13.62 -5.026 0.90399998
13.679 -5.0079999 0.90799999
13.688 -4.9710002 0.90899998
13.676 -4.9260001 0.90799999
13.678 -4.8870001 0.90799999
13.684 -4.849 0.90799999
13.712 -4.8189998 0.91000003
13.75 -4.7919998 0.912
13.813 -4.7729998 0.91600001
13.793 -4.7259998 0.91399997
13.797 -4.6869998 0.91500002
13.93 -4.691 0.92299998
13.918 -4.6469998 0.92199999
13.951 -4.6170001 0.92400002
14.041 -4.4819999 0.93000001
13.957 -4.415 0.92400002
14.013 -4.3909998 0.92699999
14.008 -4.349 0.92699999
14.089 -4.3330002 0.93199998
14.179 -4.1950002 0.93699998
14.357 -4.2059999 0.949
10.892 -3.0639999 0.71899998
10.771 -2.9979999 0.71100003
10.758 -2.9630001 0.70999998
10.758 -2.9319999 0.70999998
10.8 -2.9119999 0.713
10.786 -2.8770001 0.71200001
10.521 -2.776 0.69400001
10.473 -2.7320001 0.69099998
10.465 -2.7 0.69
10.491 -2.6760001 0.69199997
10.652 -2.6860001 0.70200002
11.472 -0.87300003 0.74599999
11.377 -0.833 0.74000001
11.344 -0.79799998 0.73799998
11.316 -0.76300001 0.736
11.326 -0.73100001 0.736
11.322 -0.699 0.736
11.325 -0.66600001 0.736
11.383 -0.63700002 0.73900002
11.418 -0.60600001 0.74199998
11.441 -0.57499999 0.74299997
11.43 -0.54100001 0.74199998
11.453 -0.509 0.74299997
11.554 -0.48100001 0.75
12.816 -0.49700001 0.83099997
12.698 -0.456 0.82300001
12.668 -0.41800001 0.82099998
12.646 -0.38100001 0.81999999
12.638 -0.345 0.81900001
12.624 -0.308 0.81800002
12.619 -0.27200001 0.81699997
12.634 -0.236 0.81800002
12.65 -0.2 0.81900001
12.665 -0.164 0.81999999
12.702 -0.12800001 0.82200003
12.818 -0.092 0.829
13.039 0.132 0.76899999
13.003 0.14399999 0.76700002
13.042 0.156 0.76899999
12.997 0.168 0.76599997
13.028 0.18099999 0.76700002
12.994 0.193 0.76499999
12.969 0.206 0.76300001
12.99 0.22 0.764
12.99 0.234 0.76300001
12.981 0.248 0.76300001
12.971 0.26199999 0.76200002
12.955 0.27700001 0.75999999
12.967 0.292 0.76099998
12.958 0.308 0.75999999
12.957 0.32300001 0.75999999
12.943 0.33899999 0.759
12.947 0.35600001 0.759
12.944 0.373 0.75800002
12.935 0.389 0.75800002
12.94 0.40700001 0.75800002
12.948 0.42500001 0.75800002
12.958 0.44299999 0.75800002
12.978 0.46200001 0.759
12.961 0.47999999 0.75800002
12.975 0.5 0.759
12.974 0.51899999 0.75800002
12.979 0.53899997 0.759
12.969 0.55800003 0.75800002
12.977 0.579 0.75800002
12.985 0.60000002 0.759
12.985 0.62 0.75800002
13 0.64200002 0.759
12.996 0.66399997 0.759
12.998 0.685 0.759
12.985 0.70700002 0.75800002
12.984 0.72899997 0.75800002
12.956 0.75 0.75599998
12.944 0.77200001 0.75599998
12.952 0.79500002 0.75599998
12.937 0.81800002 0.755
12.898 0.83899999 0.75300002
12.892 0.86199999 0.75199997
12.871 0.88499999 0.75099999
12.85 0.90700001 0.75
12.859 0.93199998 0.75
12.866 0.958 0.75099999
12.874 0.98299998 0.75099999
12.872 1.0089999 0.75099999
12.879 1.035 0.75199997
12.891 1.062 0.75199997
12.887 1.0880001 0.75199997
12.889 1.114 0.75300002
12.924 1.1440001 0.755
12.921 1.171 0.755
12.903 1.196 0.75400001
12.917 1.225 0.75400001
12.951 1.256 0.75700003
12.099 1.2 0.70700002
12.117 1.228 0.708
12.09 1.252 0.70700002
12.058 1.276 0.70499998
11.99 1.295 0.70099998
11.928 1.316 0.69800001
11.894 1.339 0.69599998
11.873 1.364 0.69499999
11.861 1.39 0.69400001
11.849 1.4170001 0.69400001
11.849 1.4450001 0.69400001
11.864 1.475 0.69499999
11.914 1.51 0.69800001
12.052 1.556 0.70599997
22.282 2.878 1.307
22.156 2.915 1.299
22.054001 2.9560001 1.294
22.042999 3.0090001 1.294
22.069 3.0680001 1.296
22.128 3.131 1.3
22.212999 3.2 1.3049999
22.23 3.2590001 1.307
22.224001 3.3150001 1.307
22.242001 3.375 1.308
22.278 3.438 1.311
22.372 3.5109999 1.317
22.443001 3.5810001 1.322
22.624001 3.6700001 1.3329999
22.664 3.737 1.336
22.695 3.803 1.339
22.688 3.8629999 1.339
22.476999 3.8889999 1.327
22.379 3.9330001 1.322
22.364 3.9920001 1.322
22.361 4.053 1.322
22.354 4.1149998 1.323
22.535999 4.211 1.334
22.611 4.289 1.339
22.584999 4.348 1.339
22.558001 4.408 1.3380001
22.593 4.4790001 1.341
22.615 4.5489998 1.3430001
22.636 4.619 1.345
22.694 4.697 1.349
17.500999 5.5300002 1.069
17.400999 5.5580001 1.064
17.378 5.612 1.064
17.361 5.6669998 1.064
17.539 5.7870002 1.076
17.355 5.7880001 1.066
17.195 5.796 1.057
17.193001 5.8559999 1.058
9.2110004 4.4169998 0.59200001
9.0600004 4.382 0.583
9.0109997 4.3959999 0.58099997
8.9899998 4.4229999 0.57999998
8.9919996 4.461 0.58099997
8.9980001 4.5019999 0.58200002
8.9860001 4.5339999 0.58200002
8.9700003 4.5640001 0.58200002
8.9709997 4.6030002 0.583
8.9750004 4.6430001 0.58399999
8.9700003 4.6789999 0.58499998
8.9680004 4.7160001 0.58600003
8.9750004 4.7589998 0.58700001
8.9809999 4.8010001 0.588
8.9910002 4.8449998 0.58999997
9.0240002 4.902 0.59299999
9.1499996 5.0110002 0.602
11.34 6.2600002 0.74699998
11.256 6.263 0.74299997
11.222 6.2940001 0.74199998
11.19 6.3260002 0.741
11.169 6.3639998 0.741
11.139 6.3969998 0.74000001
11.159 6.4580002 0.74199998
11.173 6.5170002 0.745
10.911 -7.164 0.76800001
10.988 -7.145 0.77200001
11.048 -7.1160002 0.77600002
11.061 -7.0570002 0.77600002
11.135 -7.0370002 0.78100002
11.159 -6.9850001 0.78200001
11.205 -6.9460001 0.78399998
11.248 -6.9060001 0.787
11.285 -6.8629999 0.78899997
11.305 -6.8099999 0.79000002
11.371 -6.7839999 0.79400003
11.412 -6.743 0.796
11.427 -6.6880002 0.796
11.47 -6.6490002 0.79900002
11.519 -6.6129999 0.80199999
11.583 -6.586 0.80500001
11.619 -6.5430002 0.80699998
11.683 -6.5159998 0.81099999
11.717 -6.4720001 0.81300002
11.827 -6.4699998 0.81999999
11.785 -6.3850002 0.81699997
11.788 -6.3239999 0.81599998
11.871 -6.3070002 0.82099998
11.872 -6.2470002 0.82099998
11.906 -6.204 0.82300001
11.924 -6.1529999 0.824
11.978 -6.1199999 0.82700002
12.018 -6.0809999 0.829
12.064 -6.0450001 0.83200002
12.089 -5.9980001 0.833
12.159 -5.974 0.83700001
12.179 -5.9239998 0.838
12.205 -5.8790002 0.83899999
12.222 -5.829 0.83999997
12.304 -5.8099999 0.84500003
12.348 -5.7729998 0.84799999
12.386 -5.7329998 0.85000002
12.413 -5.6890001 0.85100001
12.468 -5.6560001 0.85500002
12.493 -5.6110001 0.85600001
12.527 -5.5700002 0.85799998
12.586 -5.54 0.861
12.622 -5.5 0.86299998
12.681 -5.4689999 0.86699998
12.727 -5.4330001 0.87
12.788 -5.4039998 0.87300003
12.873 -5.3850002 0.87900001
