# .PCD v0.7 - Point Cloud Data file format
VERSION 0.7
FIELDS x y z
SIZE 4 4 4
TYPE F F F
COUNT 1 1 1
WIDTH 1816
HEIGHT 1
VIEWPOINT 0 0 0 1 0 0 0
POINTS 1816
DATA ascii
10.988 1.447 -0.13
11.019 1.4809999 -0.131
11.03 1.513 -0.131
11.044 1.546 -0.131
11.09 1.5829999 -0.132
11.091 1.614 -0.133
11.117 1.649 -0.133
11.13 1.682 -0.134
11.161 1.719 -0.134
11.158 1.75 -0.13500001
11.21 1.79 -0.13500001
11.216 1.824 -0.13600001
11.261 1.863 -0.13699999
11.316 1.905 -0.138
11.335 1.941 -0.138
11.373 1.9809999 -0.139
11.397 2.0190001 -0.14
11.4 2.053 -0.14
11.457 2.0969999 -0.141
11.459 2.132 -0.141
11.489 2.1719999 -0.142
11.555 2.2190001 -0.14300001
11.564 2.256 -0.14399999
11.601 2.2980001 -0.14399999
11.63 2.339 -0.145
11.668 2.382 -0.146
11.701 2.425 -0.147
11.736 2.4679999 -0.147
11.749 2.507 -0.148
11.774 2.549 -0.149
11.803 2.592 -0.149
11.817 2.632 -0.15000001
11.797 2.665 -0.15000001
11.801 2.7030001 -0.15000001
11.853 2.7520001 -0.15099999
11.932 2.8080001 -0.153
11.964 2.8529999 -0.153
11.989 2.898 -0.154
12.007 2.9400001 -0.155
12.025 2.983 -0.155
12.071 3.0339999 -0.156
12.097 3.079 -0.15700001
12.141 3.1300001 -0.15800001
12.144 3.1700001 -0.15800001
12.16 3.214 -0.15899999
12.182 3.2590001 -0.16
12.187 3.3010001 -0.16
12.211 3.3469999 -0.161
12.225 3.391 -0.161
12.24 3.4360001 -0.162
12.261 3.483 -0.163
12.288 3.5309999 -0.163
12.3 3.576 -0.164
12.326 3.6240001 -0.16500001
12.358 3.675 -0.16599999
12.378 3.723 -0.16599999
12.389 3.7679999 -0.167
12.401 3.813 -0.167
12.406 3.8570001 -0.168
12.423 3.904 -0.169
12.429 3.9489999 -0.169
12.456 4 -0.17
12.476 4.0489998 -0.171
12.488 4.0949998 -0.171
12.509 4.145 -0.17200001
12.52 4.1919999 -0.17299999
12.546 4.244 -0.17299999
12.541 4.2859998 -0.17399999
12.551 4.3330002 -0.17399999
12.572 4.3829999 -0.175
12.575 4.428 -0.176
12.603 4.4819999 -0.176
12.612 4.5289998 -0.177
12.637 4.5830002 -0.178
12.671 4.6389999 -0.17900001
12.707 4.697 -0.18000001
12.774 4.7670002 -0.18099999
12.788 4.8169999 -0.182
12.815 4.8730001 -0.183
12.839 4.927 -0.184
12.87 4.9850001 -0.185
12.934 5.0560002 -0.186
12.959 5.1110001 -0.18700001
12.964 5.1599998 -0.18700001
12.998 5.2199998 -0.18799999
12.982 5.2589998 -0.189
13.011 5.3179998 -0.19
13.014 5.3660002 -0.19
13.039 5.4229999 -0.191
13.055 5.4759998 -0.192
13.07 5.5289998 -0.192
13.112 5.5949998 -0.19400001
13.149 5.658 -0.19499999
13.196 5.7259998 -0.19599999
13.252 5.7979999 -0.197
13.267 5.8520002 -0.198
13.271 5.902 -0.199
13.278 5.954 -0.199
13.323 6.0219998 -0.20100001
13.331 6.0739999 -0.20100001
13.37 6.1399999 -0.20200001
13.379 6.1929998 -0.20299999
13.378 6.2410002 -0.204
13.4 6.3000002 -0.204
13.434 6.3649998 -0.206
13.446 6.4200001 -0.206
13.483 6.487 -0.207
13.477 6.533 -0.208
13.506 6.5960002 -0.20900001
12.462 6.223 -0.19400001
12.221 6.1469998 -0.191
12.218 6.191 -0.192
12.204 6.2729998 -0.192
12.234 6.3330002 -0.193
12.259 6.3909998 -0.19400001
12.088 6.3449998 -0.192
12.027 6.3569999 -0.192
12.064 6.421 -0.193
12.153 6.513 -0.19499999
12.125 6.5419998 -0.19499999
12.183 6.618 -0.19599999
12.171 6.6560001 -0.197
12.208 6.7199998 -0.198
10.675 6.1479998 -0.176
10.507 6.0890002 -0.17399999
10.423 6.0780001 -0.17299999
10.384 6.092 -0.17299999
10.321 6.0929999 -0.17299999
10.263 6.0949998 -0.17200001
10.199 6.0939999 -0.171
10.154 6.1030002 -0.171
10.089 6.0999999 -0.171
10.05 6.1129999 -0.17
9.9969997 6.1160002 -0.17
9.9549999 6.125 -0.17
9.9219999 6.1399999 -0.17
9.9180002 6.1729999 -0.17
9.9540005 6.23 -0.171
10.156 6.3920002 -0.175
9.6540003 6.763 -0.177
9.6169996 6.7680001 -0.176
9.5609999 6.7600002 -0.176
9.5200005 6.7610002 -0.176
9.5129995 6.7859998 -0.176
9.4849997 6.796 -0.176
9.4989996 6.836 -0.177
9.493 6.8610001 -0.177
9.5080004 6.901 -0.178
9.5089998 6.9310002 -0.178
7.3390002 -4.3150001 0.013
7.349 -4.3000002 0.013
7.3499999 -4.2800002 0.013
7.3569999 -4.263 0.013
7.3730001 -4.2509999 0.013
7.3899999 -4.2399998 0.013
7.3909998 -4.2199998 0.013
7.402 -4.2049999 0.013
7.4120002 -4.1900001 0.013
7.4310002 -4.1789999 0.013
7.4349999 -4.1609998 0.013
7.4359999 -4.1399999 0.013
7.447 -4.125 0.014
7.4569998 -4.1090002 0.014
7.4689999 -4.0939999 0.014
7.487 -4.0830002 0.014
7.5 -4.0679998 0.014
7.5110002 -4.053 0.014
7.5180001 -4.0349998 0.014
7.527 -4.0180001 0.014
7.5380001 -4.0029998 0.014
7.5370002 -3.9809999 0.014
7.5479999 -3.9649999 0.014
7.5430002 -3.941 0.014
7.539 -3.9170001 0.014
7.5770001 -3.915 0.015
7.5970001 -3.904 0.015
7.5929999 -3.8789999 0.015
7.612 -3.868 0.015
7.6279998 -3.8540001 0.015
7.6259999 -3.8310001 0.015
7.6409998 -3.816 0.015
7.6500001 -3.799 0.015
7.6700001 -3.786 0.015
7.6729999 -3.766 0.015
7.6950002 -3.7550001 0.015
7.6890001 -3.73 0.016000001
7.7129998 -3.7190001 0.016000001
7.7290001 -3.7049999 0.016000001
7.73 -3.6830001 0.016000001
7.7519999 -3.671 0.016000001
7.7519999 -3.648 0.016000001
7.777 -3.638 0.016000001
7.7820001 -3.618 0.016000001
7.796 -3.602 0.016000001
7.8140001 -3.5880001 0.016000001
7.8249998 -3.5699999 0.016000001
7.8249998 -3.5469999 0.017000001
7.8509998 -3.536 0.017000001
7.8660002 -3.5209999 0.017000001
7.8759999 -3.5020001 0.017000001
7.8860002 -3.484 0.017000001
7.901 -3.4679999 0.017000001
7.9229999 -3.454 0.017000001
7.928 -3.434 0.017000001
7.9530001 -3.421 0.017000001
7.9619999 -3.402 0.017000001
7.9809999 -3.388 0.017000001
7.9949999 -3.3699999 0.017999999
8.0010004 -3.3499999 0.017999999
8.0120001 -3.3310001 0.017999999
8.0360003 -3.3180001 0.017999999
8.0559998 -3.303 0.017999999
8.0559998 -3.28 0.017999999
8.0690002 -3.2620001 0.017999999
8.099 -3.25 0.017999999
8.1029997 -3.2279999 0.017999999
8.1300001 -3.2149999 0.017999999
8.1429996 -3.197 0.018999999
8.1540003 -3.178 0.018999999
8.1730003 -3.1619999 0.018999999
8.2019997 -3.1489999 0.018999999
8.217 -3.131 0.018999999
8.2360001 -3.115 0.018999999
8.2639999 -3.1010001 0.018999999
8.2670002 -3.079 0.018999999
8.2679996 -3.0550001 0.018999999
8.29 -3.039 0.018999999
8.2969999 -3.0179999 0.02
8.3120003 -2.9990001 0.02
8.3249998 -2.98 0.02
8.3409996 -2.9619999 0.02
8.3540001 -2.9419999 0.02
8.375 -2.925 0.02
8.3859997 -2.905 0.02
8.3970003 -2.8840001 0.02
8.4230003 -2.869 0.02
8.4169998 -2.8429999 0.02
8.4639997 -2.8340001 0.021
8.4860001 -2.8169999 0.021
8.4879999 -2.793 0.021
8.5080004 -2.7750001 0.021
8.5220003 -2.7550001 0.021
8.5450001 -2.7379999 0.021
8.5620003 -2.7190001 0.021
8.5780001 -2.6989999 0.021
8.5950003 -2.6800001 0.021
8.6199999 -2.6630001 0.022
8.6440001 -2.645 0.022
8.6719999 -2.6289999 0.022
8.6689997 -2.6029999 0.022
8.6929998 -2.585 0.022
8.7089996 -2.5650001 0.022
8.7130003 -2.5409999 0.022
8.7589998 -2.529 0.022
8.7639999 -2.506 0.022
8.7810001 -2.4849999 0.023
8.8199997 -2.471 0.023
8.8500004 -2.454 0.023
8.8710003 -2.434 0.023
8.8800001 -2.411 0.023
8.901 -2.391 0.023
8.9200001 -2.3710001 0.023
8.9399996 -2.3499999 0.023
8.9440002 -2.326 0.024
8.9940004 -2.313 0.024
9.0059996 -2.29 0.024
9.0059996 -2.2639999 0.024
9.0369997 -2.2460001 0.024
9.0459995 -2.223 0.024
9.0799999 -2.2049999 0.024
9.1029997 -2.184 0.024
9.1140003 -2.161 0.025
9.1309996 -2.1389999 0.025
9.1400003 -2.115 0.025
9.1639996 -2.0940001 0.025
9.2110004 -2.0780001 0.025
9.2399998 -2.0580001 0.025
9.2519999 -2.0350001 0.025
9.2729998 -2.0120001 0.025
9.29 -1.99 0.026000001
9.3149996 -1.9680001 0.026000001
9.3439999 -1.948 0.026000001
9.375 -1.927 0.026000001
9.3830004 -1.902 0.026000001
9.4309998 -1.885 0.026000001
9.4619999 -1.864 0.026000001
9.4680004 -1.8380001 0.027000001
9.5139999 -1.8200001 0.027000001
9.5450001 -1.799 0.027000001
9.5760002 -1.777 0.027000001
9.6049995 -1.755 0.027000001
9.6269999 -1.732 0.027000001
9.6490002 -1.7079999 0.027000001
9.6549997 -1.681 0.028000001
9.7040005 -1.6619999 0.028000001
9.7250004 -1.638 0.028000001
9.7419996 -1.613 0.028000001
9.7880001 -1.5930001 0.028000001
9.849 -1.575 0.028000001
9.9399996 -1.561 0.028999999
9.8850002 -1.524 0.028999999
9.8979998 -1.498 0.028999999
9.9420004 -1.476 0.028999999
9.9820004 -1.454 0.028999999
10.024 -1.431 0.028999999
10.053 -1.4069999 0.029999999
10.094 -1.3839999 0.029999999
10.124 -1.359 0.029999999
10.16 -1.335 0.029999999
10.227 -1.3150001 0.029999999
10.209 -1.283 0.029999999
10.255 -1.26 0.030999999
10.312 -1.238 0.030999999
10.312 -1.2079999 0.030999999
10.402 -1.189 0.030999999
10.424 -1.1619999 0.030999999
10.487 -1.1390001 0.032000002
10.531 -1.114 0.032000002
10.605 -1.092 0.032000002
10.663 -1.067 0.032000002
10.696 -1.04 0.033
10.729 -1.013 0.033
10.73 -0.98299998 0.033
10.763 -0.95499998 0.033
10.807 -0.92799997 0.033
10.91 -0.90600002 0.034000002
10.979 -0.88099998 0.034000002
10.981 -0.85000002 0.034000002
11.019 -0.82099998 0.034000002
11.094 -0.79500002 0.034000002
11.087 -0.76300001 0.034000002
11.14 -0.73500001 0.035
11.304 0.28 -0.097999997
11.247 0.294 -0.097000003
11.171 0.30700001 -0.097000003
11.212 0.324 -0.097000003
11.068 0.33500001 -0.096000001
11.056 0.34999999 -0.096000001
11.088 0.368 -0.097000003
11.06 0.38299999 -0.097000003
11.06 0.40000001 -0.097000003
11.018 0.41499999 -0.097000003
11.024 0.43200001 -0.097000003
10.963 0.447 -0.096000001
10.962 0.46399999 -0.097000003
10.946 0.48100001 -0.097000003
10.97 0.5 -0.097000003
10.968 0.51800001 -0.097000003
10.985 0.53799999 -0.097000003
10.978 0.55599999 -0.097999997
10.996 0.57599998 -0.097999997
10.98 0.59399998 -0.097999997
10.979 0.61400002 -0.097999997
10.981 0.63300002 -0.097999997
10.997 0.65399998 -0.098999999
11.004 0.67500001 -0.098999999
10.988 0.69400001 -0.098999999
10.988 0.71499997 -0.098999999
10.973 0.73500001 -0.098999999
10.984 0.75599998 -0.1
11.025 0.78100002 -0.1
11.017 0.80199999 -0.1
11.024 0.824 -0.1
11.021 0.84600002 -0.101
11.037 0.86900002 -0.101
11.065 0.89399999 -0.101
11.057 0.91600001 -0.102
11.072 0.94099998 -0.102
11.052 0.96200001 -0.102
11.065 0.98699999 -0.102
11.088 1.012 -0.103
11.1 1.0369999 -0.103
11.106 1.062 -0.103
11.122 1.0880001 -0.104
11.131 1.114 -0.104
11.166 1.142 -0.105
11.18 1.169 -0.105
11.178 1.194 -0.105
11.192 1.221 -0.106
11.184 1.2460001 -0.106
11.238 1.279 -0.106
11.261 1.308 -0.107
11.244 1.332 -0.107
11.264 1.362 -0.107
11.288 1.392 -0.108
11.305 1.421 -0.108
11.311 1.45 -0.109
11.325 1.479 -0.109
11.342 1.51 -0.109
11.359 1.54 -0.11
11.395 1.574 -0.11
11.402 1.604 -0.111
11.412 1.6339999 -0.111
11.443 1.668 -0.112
11.468 1.702 -0.112
11.502 1.7359999 -0.113
11.522 1.77 -0.113
11.544 1.804 -0.114
11.562 1.837 -0.114
11.598 1.874 -0.115
11.647 1.913 -0.116
11.659 1.947 -0.116
11.669 1.98 -0.116
11.697 2.017 -0.117
11.717 2.053 -0.117
11.733 2.0880001 -0.118
11.747 2.1240001 -0.118
11.78 2.1630001 -0.119
11.801 2.2 -0.119
11.839 2.24 -0.12
11.865 2.279 -0.121
11.885 2.3169999 -0.121
11.923 2.359 -0.122
11.942 2.398 -0.122
11.968 2.438 -0.123
11.983 2.4760001 -0.123
11.998 2.5150001 -0.124
12.01 2.553 -0.124
12.014 2.5899999 -0.125
11.968 2.6159999 -0.125
11.881 2.6329999 -0.124
11.786 2.648 -0.123
11.764 2.6789999 -0.123
11.782 2.7190001 -0.124
11.934 2.7909999 -0.126
12.213 2.8940001 -0.12899999
12.228 2.9360001 -0.13
12.246 2.9790001 -0.13
12.28 3.026 -0.131
12.276 3.0639999 -0.131
12.287 3.1059999 -0.132
12.317 3.152 -0.132
12.319 3.1930001 -0.133
12.312 3.2309999 -0.133
12.333 3.276 -0.134
12.343 3.319 -0.134
12.372 3.3670001 -0.13500001
12.387 3.4119999 -0.13500001
12.417 3.4619999 -0.13600001
12.42 3.5039999 -0.13600001
12.449 3.5539999 -0.13699999
12.467 3.5999999 -0.138
12.506 3.654 -0.138
12.492 3.6919999 -0.139
12.498 3.7360001 -0.139
12.521 3.786 -0.14
12.52 3.829 -0.14
12.547 3.8800001 -0.141
12.564 3.9289999 -0.141
12.575 3.9760001 -0.142
12.597 4.027 -0.14300001
12.621 4.079 -0.14300001
12.631 4.1269999 -0.14399999
12.646 4.1760001 -0.14399999
12.663 4.2270002 -0.145
12.704 4.2859998 -0.146
12.736 4.342 -0.147
12.746 4.3920002 -0.147
12.743 4.4369998 -0.148
12.763 4.4899998 -0.148
12.8 4.5500002 -0.149
12.827 4.6059999 -0.15000001
12.848 4.6609998 -0.15099999
12.908 4.7309999 -0.152
12.98 4.8049998 -0.153
13.019 4.868 -0.154
13.038 4.9239998 -0.155
13.068 4.9840002 -0.155
13.123 5.0539999 -0.15700001
13.17 5.1230001 -0.15800001
13.204 5.1859999 -0.15800001
13.23 5.2470002 -0.15899999
13.274 5.3150001 -0.16
13.26 5.3600001 -0.161
13.272 5.4159999 -0.161
13.282 5.4720001 -0.162
13.347 5.5500002 -0.163
13.362 5.6090002 -0.164
13.421 5.6859999 -0.16500001
13.418 5.7379999 -0.16500001
13.455 5.8070002 -0.16599999
13.496 5.8779998 -0.167
13.525 5.9439998 -0.168
13.596 6.0300002 -0.17
13.625 6.0970001 -0.171
13.605 6.1430001 -0.171
13.63 6.2090001 -0.17200001
13.631 6.2649999 -0.17200001
13.645 6.3270001 -0.17299999
13.64 6.3800001 -0.17299999
13.664 6.448 -0.17399999
13.675 6.5089998 -0.175
13.711 6.5830002 -0.176
13.773 6.6700001 -0.177
12.499 6.2090001 -0.162
12.252 6.138 -0.16
12.207 6.1669998 -0.15899999
12.162 6.2480001 -0.16
12.247 6.3439999 -0.161
12.219 6.382 -0.162
12.051 6.3460002 -0.16
12.037 6.3899999 -0.16
12.088 6.4699998 -0.161
12.109 6.5339999 -0.162
12.226 6.6500001 -0.164
12.18 6.678 -0.164
12.152 6.7160001 -0.164
10.706 6.2030001 -0.147
10.545 6.1570001 -0.146
10.419 6.1300001 -0.14399999
10.361 6.1430001 -0.14399999
10.293 6.1490002 -0.14399999
10.233 6.1599998 -0.14300001
10.171 6.1690001 -0.14300001
10.102 6.1739998 -0.142
10.051 6.1890001 -0.142
9.9940004 6.1999998 -0.142
9.9379997 6.211 -0.141
9.8859997 6.2249999 -0.141
9.8479996 6.2470002 -0.141
9.8549995 6.2969999 -0.141
9.9219999 6.3860002 -0.14300001
10.12 6.5619998 -0.146
9.6949997 6.8920002 -0.146
9.573 6.8530002 -0.145
9.5229998 6.8639998 -0.145
7.0289998 -4.6360002 0.028999999
7.0580001 -4.6100001 0.028999999
7.0900002 -4.5869999 0.028999999
7.1199999 -4.5619998 0.029999999
7.1399999 -4.5310001 0.029999999
7.1700001 -4.507 0.029999999
7.1989999 -4.4819999 0.029999999
7.2189999 -4.4510002 0.029999999
7.2280002 -4.414 0.029999999
7.257 -4.3889999 0.029999999
7.2729998 -4.3569999 0.030999999
7.2989998 -4.3299999 0.030999999
7.3239999 -4.3039999 0.030999999
7.3400002 -4.2709999 0.030999999
7.3610001 -4.2420001 0.030999999
7.3870001 -4.2160001 0.030999999
7.4060001 -4.1859999 0.030999999
7.427 -4.158 0.030999999
7.4460001 -4.1279998 0.032000002
7.46 -4.0960002 0.032000002
7.467 -4.0599999 0.032000002
7.4699998 -4.0219998 0.032000002
7.5120001 -4.006 0.032000002
7.5469999 -3.9849999 0.032000002
7.5710001 -3.9590001 0.032000002
7.573 -3.921 0.032000002
7.605 -3.8989999 0.033
7.6259999 -3.872 0.033
7.645 -3.8429999 0.033
7.6570001 -3.8110001 0.033
7.6750002 -3.783 0.033
7.6999998 -3.7579999 0.033
7.7179999 -3.7290001 0.033
7.7449999 -3.7049999 0.034000002
7.756 -3.674 0.034000002
7.7919998 -3.654 0.034000002
7.8119998 -3.6259999 0.034000002
7.8280001 -3.598 0.034000002
7.8470001 -3.5699999 0.034000002
7.8720002 -3.546 0.034000002
7.8930001 -3.5190001 0.035
7.8979998 -3.4860001 0.035
7.9299998 -3.4649999 0.035
7.9460001 -3.4360001 0.035
7.9840002 -3.418 0.035
8.0220003 -3.3989999 0.035
8.04 -3.372 0.035
8.0450001 -3.339 0.035999998
8.0670004 -3.3139999 0.035999998
8.1049995 -3.2950001 0.035999998
8.1239996 -3.2690001 0.035999998
8.1470003 -3.244 0.035999998
8.1700001 -3.2190001 0.035999998
8.1850004 -3.191 0.035999998
8.2180004 -3.1700001 0.037
8.2489996 -3.148 0.037
8.283 -3.128 0.037
8.3030005 -3.102 0.037
8.3129997 -3.073 0.037
8.3430004 -3.0510001 0.037
8.3559999 -3.023 0.037999999
8.3640003 -2.993 0.037999999
8.3889999 -2.97 0.037999999
8.4130001 -2.9460001 0.037999999
8.4420004 -2.924 0.037999999
8.4809999 -2.905 0.037999999
8.5100002 -2.8829999 0.037999999
8.5310001 -2.858 0.039000001
8.5439997 -2.8310001 0.039000001
8.5790005 -2.8110001 0.039000001
8.6029997 -2.7869999 0.039000001
8.6370001 -2.767 0.039000001
8.6359997 -2.7349999 0.039000001
8.6700001 -2.7149999 0.039999999
8.7250004 -2.701 0.039999999
8.7790003 -2.6860001 0.039999999
8.7620001 -2.6500001 0.039999999
8.7709999 -2.622 0.039999999
8.8039999 -2.6010001 0.039999999
8.842 -2.582 0.041000001
8.875 -2.5610001 0.041000001
8.9219999 -2.5439999 0.041000001
8.9720001 -2.5280001 0.041000001
8.9879999 -2.503 0.041999999
8.993 -2.474 0.041999999
9.0179996 -2.451 0.041999999
9.04 -2.427 0.041999999
9.0500002 -2.4000001 0.041999999
9.0810003 -2.3789999 0.041999999
9.1129999 -2.358 0.041999999
9.1379995 -2.335 0.043000001
9.1789999 -2.316 0.043000001
9.2069998 -2.2939999 0.043000001
9.2399998 -2.273 0.043000001
9.2279997 -2.2409999 0.043000001
9.2410002 -2.2149999 0.043000001
9.2880001 -2.198 0.044
9.2910004 -2.1700001 0.044
9.3570004 -2.1570001 0.044
9.3870001 -2.135 0.044
9.4029999 -2.1110001 0.044
9.4309998 -2.0880001 0.045000002
9.4689999 -2.069 0.045000002
9.5 -2.0469999 0.045000002
9.5010004 -2.02 0.045000002
9.5450001 -2.0009999 0.045000002
9.5699997 -1.979 0.045000002
9.6090002 -1.959 0.046
9.6479998 -1.939 0.046
9.6569996 -1.914 0.046
9.698 -1.8940001 0.046
9.717 -1.8710001 0.046
9.7670002 -1.853 0.046999998
9.7600002 -1.825 0.046999998
9.8079996 -1.807 0.046999998
9.816 -1.781 0.046999998
9.8389997 -1.7589999 0.046999998
9.8780003 -1.739 0.048
9.8979998 -1.716 0.048
9.9230003 -1.693 0.048
9.9510002 -1.6720001 0.048
9.9949999 -1.653 0.048
10.015 -1.63 0.048
10.092 -1.6160001 0.048999999
10.156 -1.6 0.048999999
10.148 -1.573 0.048999999
10.137 -1.545 0.048999999
10.146 -1.521 0.048999999
10.167 -1.498 0.050000001
10.211 -1.479 0.050000001
10.273 -1.4630001 0.050000001
10.286 -1.439 0.050000001
10.318 -1.418 0.050999999
10.326 -1.3940001 0.050999999
10.356 -1.373 0.050999999
10.395 -1.353 0.050999999
10.413 -1.331 0.050999999
10.45 -1.3099999 0.050999999
10.475 -1.289 0.052000001
10.507 -1.268 0.052000001
10.561 -1.25 0.052000001
10.582 -1.228 0.052000001
10.606 -1.206 0.052999999
10.63 -1.1849999 0.052999999
10.65 -1.163 0.052999999
10.702 -1.1440001 0.052999999
10.727 -1.123 0.052999999
10.743 -1.101 0.052999999
10.76 -1.079 0.054000001
10.794 -1.058 0.054000001
10.821 -1.0369999 0.054000001
10.838 -1.016 0.054000001
10.84 -0.99199998 0.054000001
10.877 -0.97299999 0.054000001
10.894 -0.95099998 0.055
10.89 -0.92799997 0.055
10.938 -0.90899998 0.055
10.942 -0.88599998 0.055
10.973 -0.866 0.055
11.009 -0.84600002 0.056000002
11.013 -0.824 0.056000002
11.074 -0.80699998 0.056000002
11.136 -0.78899997 0.056000002
11.131 -0.76599997 0.056000002
11.159 -0.74599999 0.057
11.177 -0.72500002 0.057
11.202 -0.70499998 0.057
11.287 -0.68800002 0.057
11.295 -0.667 0.057999998
10.889 0.138 -0.063000001
10.874 0.15700001 -0.063000001
10.875 0.177 -0.063000001
10.899 0.197 -0.063000001
10.877 0.21699999 -0.064000003
10.919 0.23899999 -0.064000003
10.927 0.25999999 -0.064000003
10.92 0.28 -0.064000003
10.913 0.30199999 -0.064000003
10.946 0.324 -0.064999998
10.93 0.345 -0.064999998
10.936 0.36700001 -0.064999998
10.934 0.38999999 -0.064999998
10.899 0.41100001 -0.064999998
10.891 0.433 -0.064999998
10.906 0.456 -0.066
10.914 0.47999999 -0.066
10.93 0.50400001 -0.066
10.954 0.528 -0.067000002
10.946 0.55199999 -0.067000002
10.986 0.57800001 -0.067000002
10.955 0.60000002 -0.067000002
10.965 0.625 -0.067000002
10.988 0.65100002 -0.068000004
10.976 0.67500001 -0.068000004
10.998 0.70200002 -0.068000004
10.987 0.72600001 -0.068000004
10.977 0.75099999 -0.068999998
11.007 0.77899998 -0.068999998
11.02 0.80500001 -0.068999998
11.037 0.833 -0.07
11.046 0.86000001 -0.07
11.059 0.88700002 -0.07
11.095 0.917 -0.071000002
11.087 0.94400001 -0.071000002
11.115 0.97299999 -0.071000002
11.109 1 -0.071000002
11.104 1.027 -0.071000002
11.126 1.057 -0.071999997
11.152 1.0880001 -0.071999997
11.174 1.118 -0.072999999
11.2 1.15 -0.072999999
11.216 1.1799999 -0.072999999
11.233 1.211 -0.074000001
11.245 1.2410001 -0.074000001
11.272 1.274 -0.074000001
11.284 1.3049999 -0.075000003
11.325 1.34 -0.075000003
11.319 1.369 -0.075000003
11.336 1.401 -0.075999998
11.347 1.433 -0.075999998
11.382 1.4680001 -0.077
11.425 1.505 -0.077
11.454 1.54 -0.078000002
11.454 1.572 -0.078000002
11.49 1.608 -0.078000002
11.509 1.643 -0.079000004
11.538 1.679 -0.079000004
11.561 1.715 -0.079999998
11.629 1.758 -0.079999998
11.649 1.794 -0.081
11.678 1.832 -0.081
11.688 1.867 -0.081
11.745 1.91 -0.082000002
11.784 1.95 -0.082999997
11.799 1.987 -0.082999997
11.841 2.0280001 -0.083999999
11.879 2.0699999 -0.083999999
11.904 2.109 -0.085000001
11.926 2.148 -0.085000001
11.929 2.184 -0.085000001
11.99 2.2309999 -0.086000003
12.01 2.27 -0.086999997
12.046 2.313 -0.086999997
12.076 2.355 -0.088
12.104 2.398 -0.088
12.105 2.4349999 -0.088
12.074 2.4649999 -0.088
12.071 2.5009999 -0.089000002
12.095 2.5439999 -0.089000002
12.099 2.582 -0.090000004
11.999 2.598 -0.089000002
11.865 2.6059999 -0.088
11.773 2.622 -0.088
11.736 2.651 -0.088
11.719 2.6830001 -0.088
11.887 2.7590001 -0.090000004
12.404 2.9189999 -0.093999997
12.395 2.9560001 -0.093999997
12.41 2.9990001 -0.094999999
12.454 3.05 -0.094999999
12.453 3.089 -0.096000001
12.47 3.1340001 -0.096000001
12.501 3.1819999 -0.097000003
12.524 3.2279999 -0.097000003
12.554 3.276 -0.097999997
12.574 3.323 -0.097999997
12.598 3.3699999 -0.098999999
12.622 3.418 -0.098999999
12.624 3.46 -0.1
12.66 3.5120001 -0.1
12.664 3.5539999 -0.101
12.707 3.609 -0.101
12.713 3.6530001 -0.102
12.696 3.6900001 -0.102
12.679 3.7279999 -0.102
12.694 3.7739999 -0.103
12.721 3.825 -0.103
12.753 3.878 -0.104
12.792 3.9330001 -0.105
12.831 3.9879999 -0.105
12.833 4.033 -0.106
12.87 4.0879998 -0.106
12.866 4.131 -0.107
12.912 4.1890001 -0.107
12.914 4.2340002 -0.108
12.989 4.303 -0.109
13.04 4.3649998 -0.11
13.079 4.4239998 -0.11
13.088 4.4720001 -0.111
13.103 4.5219998 -0.111
13.111 4.5710001 -0.112
13.162 4.6339998 -0.113
13.213 4.698 -0.113
13.281 4.7690001 -0.114
13.317 4.8280001 -0.115
13.357 4.8899999 -0.116
13.385 4.947 -0.117
13.445 5.0159998 -0.117
13.488 5.0799999 -0.118
13.54 5.1479998 -0.119
13.579 5.21 -0.12
13.615 5.2719998 -0.121
13.65 5.3340001 -0.121
13.681 5.395 -0.122
13.772 5.48 -0.123
13.8 5.54 -0.124
13.811 5.5939999 -0.125
13.81 5.6430001 -0.125
13.86 5.7129998 -0.126
13.917 5.7870002 -0.127
13.898 5.829 -0.127
13.909 5.8829999 -0.12800001
13.95 5.9510002 -0.12899999
13.955 6.0029998 -0.12899999
14.017 6.0799999 -0.13
14.065 6.152 -0.131
14.077 6.2080002 -0.132
14.021 6.2340002 -0.132
13.866 6.2160001 -0.131
13.825 6.2470002 -0.131
12.222 6.1469998 -0.121
12.172 6.1659999 -0.121
12.155 6.2459998 -0.122
12.109 6.2670002 -0.122
12.111 6.3119998 -0.122
12.102 6.3520002 -0.123
12.06 6.3740001 -0.123
12.053 6.414 -0.123
12.099 6.4829998 -0.124
12.107 6.5310001 -0.124
12.237 6.6459999 -0.126
10.634 6.1609998 -0.114
10.521 6.1339998 -0.113
10.411 6.1069999 -0.112
10.358 6.1129999 -0.112
10.299 6.1149998 -0.112
10.254 6.125 -0.111
10.199 6.1290002 -0.111
10.137 6.1279998 -0.111
10.101 6.1420002 -0.111
10.062 6.1539998 -0.111
10.02 6.165 -0.111
9.9910002 6.1820002 -0.111
9.9729996 6.2059999 -0.111
9.993 6.2540002 -0.112
10.117 6.3670001 -0.113
7.5100002 -4.4190001 0.048999999
7.506 -4.395 0.048999999
7.5149999 -4.3790002 0.048999999
7.5310001 -4.3670001 0.048999999
7.5409999 -4.3509998 0.048999999
7.5510001 -4.336 0.048999999
7.559 -4.3189998 0.048999999
7.5799999 -4.309 0.048999999
7.5960002 -4.2969999 0.050000001
7.6040001 -4.2800002 0.050000001
7.6149998 -4.2639999 0.050000001
7.612 -4.2410002 0.050000001
7.618 -4.223 0.050000001
7.6350002 -4.21 0.050000001
7.6440001 -4.1939998 0.050000001
7.6529999 -4.1760001 0.050000001
7.665 -4.1609998 0.050999999
7.671 -4.1420002 0.050999999
7.6890001 -4.1300001 0.050999999
7.698 -4.1129999 0.050999999
7.7010002 -4.0929999 0.050999999
7.71 -4.0749998 0.050999999
7.7280002 -4.0619998 0.050999999
7.7470002 -4.0500002 0.050999999
7.7620001 -4.0359998 0.052000001
7.7820001 -4.0240002 0.052000001
7.7680001 -3.994 0.052000001
7.776 -3.9760001 0.052000001
7.7930002 -3.9619999 0.052000001
7.7989998 -3.9430001 0.052000001
7.8140001 -3.928 0.052000001
7.8319998 -3.914 0.052999999
7.8579998 -3.905 0.052999999
7.8569999 -3.881 0.052999999
7.8660002 -3.8629999 0.052999999
7.8930001 -3.8540001 0.052999999
7.8899999 -3.8299999 0.052999999
7.914 -3.819 0.052999999
7.9349999 -3.806 0.054000001
7.914 -3.773 0.052999999
7.9549999 -3.7690001 0.054000001
7.961 -3.7490001 0.054000001
7.954 -3.723 0.054000001
7.9920001 -3.7179999 0.054000001
7.9990001 -3.698 0.054000001
8.0229998 -3.6860001 0.055
8.0240002 -3.6630001 0.055
8.0469999 -3.6500001 0.055
8.0609999 -3.6329999 0.055
8.0579996 -3.609 0.055
8.0799999 -3.595 0.055
8.0930004 -3.5769999 0.055
8.1120005 -3.562 0.056000002
8.132 -3.5480001 0.056000002
8.1450005 -3.53 0.056000002
8.1569996 -3.5109999 0.056000002
8.1689997 -3.493 0.056000002
8.1660004 -3.4679999 0.056000002
8.1999998 -3.4579999 0.056000002
8.2159996 -3.441 0.057
8.2220001 -3.4200001 0.057
8.2390003 -3.4030001 0.057
8.2629995 -3.3889999 0.057
8.2889996 -3.3759999 0.057
8.2880001 -3.352 0.057
8.2969999 -3.332 0.057999998
8.3210001 -3.3169999 0.057999998
8.3459997 -3.303 0.057999998
8.3570004 -3.283 0.057999998
8.3690004 -3.2639999 0.057999998
8.3640003 -3.237 0.057999998
8.4160004 -3.233 0.059
8.4189997 -3.21 0.059
8.4320002 -3.1900001 0.059
8.4589996 -3.1760001 0.059
8.4729996 -3.1570001 0.059
8.4820004 -3.1359999 0.059
8.5010004 -3.118 0.059999999
8.5109997 -3.0969999 0.059999999
8.5109997 -3.072 0.059999999
8.5389996 -3.0580001 0.059999999
8.5609999 -3.0409999 0.059999999
8.5710001 -3.02 0.059999999
8.5909996 -3.0020001 0.061000001
8.6000004 -2.9809999 0.061000001
8.6079998 -2.9579999 0.061000001
8.6409998 -2.9449999 0.061000001
8.6470003 -2.9219999 0.061000001
8.6850004 -2.9089999 0.061999999
8.6920004 -2.8870001 0.061999999
8.7030001 -2.865 0.061999999
8.7069998 -2.842 0.061999999
8.7270002 -2.823 0.061999999
8.7620001 -2.809 0.061999999
8.7840004 -2.79 0.063000001
8.8079996 -2.773 0.063000001
8.8240004 -2.7520001 0.063000001
8.8629999 -2.7390001 0.063000001
8.9069996 -2.727 0.064000003
8.8940001 -2.697 0.064000003
8.9180002 -2.6789999 0.064000003
8.9350004 -2.658 0.064000003
8.9469995 -2.6359999 0.064000003
8.9709997 -2.6170001 0.064000003
8.9879999 -2.596 0.064999998
9.0150003 -2.5780001 0.064999998
9.0530005 -2.563 0.064999998
9.0769997 -2.5439999 0.064999998
9.1079998 -2.526 0.066
9.1239996 -2.5039999 0.066
9.1289997 -2.48 0.066
9.1479998 -2.4579999 0.066
9.1540003 -2.434 0.066
9.1899996 -2.4170001 0.067000002
9.191 -2.391 0.067000002
9.2460003 -2.378 0.067000002
9.2580004 -2.355 0.067000002
9.2629995 -2.329 0.067000002
9.2889996 -2.309 0.068000004
9.29 -2.283 0.068000004
9.3450003 -2.27 0.068000004
9.3780003 -2.2509999 0.068000004
9.3990002 -2.2290001 0.068999998
9.4049997 -2.2030001 0.068999998
9.4370003 -2.184 0.068999998
9.4569998 -2.161 0.068999998
9.4919996 -2.142 0.068999998
9.5310001 -2.1229999 0.07
9.5530005 -2.1010001 0.07
9.5790005 -2.079 0.07
9.6210003 -2.0610001 0.071000002
9.632 -2.036 0.071000002
9.6700001 -2.016 0.071000002
9.6990004 -1.994 0.071000002
9.7309999 -1.973 0.071999997
9.7589998 -1.951 0.071999997
9.7939997 -1.9299999 0.071999997
9.7939997 -1.902 0.071999997
9.8319998 -1.881 0.072999999
9.8610001 -1.858 0.072999999
9.8950005 -1.836 0.072999999
9.9180002 -1.812 0.072999999
9.9350004 -1.7869999 0.074000001
9.9779997 -1.766 0.074000001
10.013 -1.744 0.074000001
10.033 -1.719 0.075000003
10.076 -1.697 0.075000003
10.113 -1.675 0.075000003
10.177 -1.656 0.075999998
10.188 -1.6289999 0.075999998
10.275 -1.613 0.077
10.298 -1.587 0.077
10.271 -1.554 0.077
10.32 -1.5319999 0.077
10.345 -1.506 0.077
10.401 -1.485 0.078000002
10.398 -1.455 0.078000002
10.447 -1.432 0.078000002
10.49 -1.408 0.079000004
10.526 -1.383 0.079000004
10.592 -1.3609999 0.079999998
10.643 -1.337 0.079999998
10.666 -1.3099999 0.079999998
10.707 -1.284 0.081
10.735 -1.257 0.081
10.762 -1.23 0.081
10.811 -1.205 0.082000002
10.85 -1.178 0.082000002
10.875 -1.15 0.082000002
10.89 -1.12 0.082000002
10.908 -1.091 0.082999997
10.948 -1.064 0.082999997
10.97 -1.035 0.082999997
11.039 -1.01 0.083999999
11.069 -0.98100001 0.083999999
11.125 -0.95499998 0.083999999
11.155 -0.926 0.085000001
11.263 -0.90200001 0.086000003
11.288 -0.87199998 0.086000003
11.303 -0.84100002 0.086000003
11.401 -0.81599998 0.086999997
11.509 -0.79100001 0.088
11.758 0.375 -0.044
11.704 0.38999999 -0.044
11.718 0.40799999 -0.044
11.685 0.42399999 -0.044
11.658 0.44100001 -0.044
11.642 0.458 -0.044
11.614 0.47499999 -0.044
11.637 0.495 -0.045000002
11.573 0.51099998 -0.045000002
11.558 0.52899998 -0.045000002
11.553 0.54799998 -0.045000002
11.55 0.56699997 -0.045000002
11.506 0.58499998 -0.045000002
11.509 0.60500002 -0.045000002
11.506 0.625 -0.046
11.508 0.64499998 -0.046
11.498 0.66500002 -0.046
11.509 0.68599999 -0.046
11.5 0.70700002 -0.046
11.501 0.72799999 -0.046
11.49 0.74900001 -0.046999998
11.522 0.773 -0.046999998
11.5 0.79400003 -0.046999998
11.521 0.81699997 -0.046999998
11.546 0.84200001 -0.048
11.538 0.86400002 -0.048
11.575 0.88999999 -0.048
11.56 0.912 -0.048
11.572 0.93599999 -0.048
11.587 0.96100003 -0.048999999
11.593 0.986 -0.048999999
11.595 1.011 -0.048999999
11.602 1.036 -0.048999999
11.629 1.063 -0.050000001
11.636 1.089 -0.050000001
11.627 1.113 -0.050000001
11.662 1.142 -0.050000001
11.659 1.168 -0.050999999
11.665 1.1950001 -0.050999999
11.698 1.224 -0.050999999
11.665 1.247 -0.050999999
11.726 1.281 -0.052000001
11.754 1.311 -0.052000001
11.785 1.342 -0.052000001
11.778 1.369 -0.052999999
11.782 1.397 -0.052999999
11.758 1.4220001 -0.052999999
11.802 1.456 -0.052999999
11.825 1.488 -0.054000001
11.835 1.518 -0.054000001
11.862 1.55 -0.054000001
11.902 1.585 -0.055
11.947 1.6210001 -0.055
11.933 1.649 -0.055
11.985 1.687 -0.056000002
12.021 1.722 -0.056000002
12.033 1.755 -0.057
12.053 1.789 -0.057
12.061 1.821 -0.057
12.084 1.857 -0.057999998
12.092 1.89 -0.057999998
12.11 1.925 -0.057999998
12.154 1.964 -0.059
12.182 2.0009999 -0.059
12.193 2.036 -0.059
12.212 2.073 -0.059999999
12.253 2.1129999 -0.059999999
12.269 2.1500001 -0.059999999
12.29 2.188 -0.061000001
12.319 2.227 -0.061000001
12.348 2.267 -0.061999999
12.351 2.303 -0.061999999
12.378 2.3429999 -0.061999999
12.406 2.3840001 -0.063000001
12.4 2.418 -0.063000001
12.416 2.457 -0.063000001
12.414 2.493 -0.063000001
12.399 2.526 -0.064000003
12.2 2.5209999 -0.063000001
12.144 2.546 -0.063000001
12.13 2.579 -0.063000001
12.086 2.6059999 -0.063000001
11.968 2.6159999 -0.063000001
11.867 2.6300001 -0.061999999
11.795 2.6500001 -0.061999999
11.775 2.681 -0.061999999
11.777 2.7179999 -0.063000001
11.838 2.7690001 -0.063000001
12.628 2.993 -0.068000004
12.622 3.0309999 -0.068000004
12.641 3.075 -0.068999998
12.663 3.1199999 -0.068999998
12.66 3.1589999 -0.068999998
12.684 3.2060001 -0.07
12.708 3.2520001 -0.07
12.729 3.299 -0.07
12.745 3.3440001 -0.071000002
12.767 3.391 -0.071000002
12.783 3.437 -0.071999997
12.806 3.4849999 -0.071999997
12.817 3.53 -0.072999999
12.867 3.5869999 -0.072999999
12.861 3.628 -0.072999999
12.867 3.6719999 -0.074000001
12.904 3.7260001 -0.074000001
12.915 3.773 -0.075000003
12.912 3.816 -0.075000003
12.94 3.868 -0.075000003
12.948 3.915 -0.075999998
13.014 3.9790001 -0.075999998
13.061 4.039 -0.077
13.086 4.092 -0.078000002
13.134 4.152 -0.078000002
13.137 4.1989999 -0.079000004
13.181 4.2589998 -0.079000004
13.21 4.3150001 -0.079999998
13.265 4.3800001 -0.079999998
13.289 4.4349999 -0.081
13.291 4.4829998 -0.081
13.339 4.5469999 -0.082000002
13.389 4.6129999 -0.082000002
13.448 4.6810002 -0.082999997
13.495 4.7470002 -0.083999999
13.528 4.8080001 -0.083999999
13.543 4.862 -0.085000001
13.587 4.928 -0.085000001
13.641 4.9980001 -0.086000003
13.738 5.085 -0.086999997
13.76 5.1440001 -0.088
13.806 5.2129998 -0.088
13.803 5.263 -0.089000002
13.889 5.348 -0.090000004
13.912 5.4099998 -0.090000004
13.992 5.494 -0.090999998
14.074 5.5799999 -0.092
14.112 5.6490002 -0.093000002
14.088 5.6939998 -0.093000002
14.131 5.7659998 -0.093000002
14.137 5.823 -0.093999997
14.17 5.8909998 -0.094999999
14.181 5.9510002 -0.094999999
14.219 6.0229998 -0.096000001
14.267 6.099 -0.096000001
14.3 6.1700001 -0.097000003
14.358 6.2519999 -0.097999997
14.364 6.3119998 -0.097999997
13.877 6.1529999 -0.094999999
12.291 6.105 -0.089000002
12.195 6.1079998 -0.089000002
12.295 6.211 -0.090000004
12.168 6.198 -0.089000002
12.084 6.2069998 -0.089000002
12.092 6.2620001 -0.090000004
12.093 6.3140001 -0.090000004
12.069 6.3540001 -0.090000004
12.108 6.427 -0.090999998
12.127 6.4889998 -0.090999998
12.228 6.5970001 -0.092
10.648 6.1680002 -0.083999999
10.541 6.1529999 -0.082999997
10.404 6.1199999 -0.082000002
10.337 6.1279998 -0.082000002
10.273 6.1360002 -0.082000002
10.216 6.1490002 -0.082000002
10.162 6.1630001 -0.082000002
10.115 6.1810002 -0.082000002
10.062 6.1950002 -0.082000002
10.016 6.2119999 -0.082000002
9.9820004 6.2379999 -0.082000002
9.9530001 6.2659998 -0.082000002
9.9700003 6.323 -0.082000002
10.116 6.4629998 -0.083999999
7.1859999 -4.737 0.064000003
7.2249999 -4.717 0.064999998
7.2379999 -4.6799998 0.064999998
7.2719998 -4.658 0.064999998
7.2930002 -4.6259999 0.064999998
7.3179998 -4.598 0.066
7.355 -4.5770001 0.066
7.3759999 -4.546 0.066
7.395 -4.5139999 0.066
7.4200001 -4.4860001 0.067000002
7.4419999 -4.4559999 0.067000002
7.4580002 -4.4229999 0.067000002
7.4759998 -4.3909998 0.067000002
7.5050001 -4.3649998 0.067000002
7.526 -4.335 0.068000004
7.5409999 -4.303 0.068000004
7.5700002 -4.2779999 0.068000004
7.572 -4.237 0.068000004
7.6020002 -4.2129998 0.068000004
7.6199999 -4.1820002 0.068999998
7.6409998 -4.1529999 0.068999998
7.677 -4.132 0.068999998
7.6939998 -4.1009998 0.068999998
7.7069998 -4.0679998 0.068999998
7.7220001 -4.0359998 0.068999998
7.7490001 -4.0110002 0.07
7.7649999 -3.98 0.07
7.796 -3.9560001 0.07
7.822 -3.931 0.07
7.8330002 -3.898 0.071000002
7.8590002 -3.872 0.071000002
7.8870001 -3.8469999 0.071000002
7.8969998 -3.8139999 0.071000002
7.9190001 -3.7869999 0.071000002
7.9450002 -3.7620001 0.071999997
7.9650002 -3.734 0.071999997
8.0059996 -3.7160001 0.071999997
8.0229998 -3.6860001 0.071999997
8.0290003 -3.652 0.072999999
8.0620003 -3.6300001 0.072999999
8.0810003 -3.602 0.072999999
8.1000004 -3.5739999 0.072999999
8.1289997 -3.5510001 0.074000001
8.1540003 -3.5250001 0.074000001
8.1759996 -3.4990001 0.074000001
8.2049999 -3.4760001 0.074000001
8.2250004 -3.448 0.074000001
8.2390003 -3.4189999 0.075000003
8.2700005 -3.3959999 0.075000003
8.3100004 -3.3770001 0.075000003
8.3149996 -3.3440001 0.075000003
8.3459997 -3.322 0.075999998
8.3739996 -3.2980001 0.075999998
8.3870001 -3.2690001 0.075999998
8.4180002 -3.2460001 0.075999998
8.4390001 -3.221 0.077
8.4759998 -3.2 0.077
8.4980001 -3.175 0.077
8.5270004 -3.152 0.078000002
8.552 -3.1270001 0.078000002
8.5830002 -3.1040001 0.078000002
8.5869999 -3.072 0.078000002
8.6260004 -3.053 0.079000004
8.6450005 -3.026 0.079000004
8.6750002 -3.0039999 0.079000004
8.6929998 -2.977 0.079000004
8.71 -2.95 0.079000004
8.7510004 -2.931 0.079999998
8.7779999 -2.908 0.079999998
8.8120003 -2.8870001 0.079999998
8.8330002 -2.8610001 0.081
8.8570004 -2.8369999 0.081
8.9060001 -2.8199999 0.081
8.9440002 -2.8 0.082000002
8.9879999 -2.7820001 0.082000002
8.993 -2.7509999 0.082000002
9.0209999 -2.7279999 0.082999997
9.0609999 -2.7079999 0.082999997
9.1040001 -2.6900001 0.082999997
9.1280003 -2.665 0.083999999
9.151 -2.641 0.083999999
9.1940002 -2.622 0.083999999
9.2010002 -2.5929999 0.083999999
9.2270002 -2.569 0.085000001
9.2779999 -2.552 0.085000001
9.2939997 -2.526 0.085000001
9.3140001 -2.5 0.086000003
9.3389997 -2.477 0.086000003
9.382 -2.457 0.086000003
9.4139996 -2.4349999 0.086999997
9.434 -2.4100001 0.086999997
9.4700003 -2.3889999 0.086999997
9.5120001 -2.3699999 0.088
9.5570002 -2.3510001 0.088
9.6020002 -2.332 0.089000002
9.6190004 -2.306 0.089000002
9.6789999 -2.29 0.089000002
9.6820002 -2.2609999 0.089000002
9.7449999 -2.2460001 0.090000004
9.7679996 -2.2219999 0.090000004
9.7889996 -2.197 0.090999998
9.816 -2.174 0.090999998
9.8409996 -2.1500001 0.090999998
9.8699999 -2.1270001 0.090999998
9.8970003 -2.1040001 0.092
9.927 -2.0810001 0.092
9.9790001 -2.063 0.093000002
9.9820004 -2.0350001 0.093000002
9.993 -2.0090001 0.093000002
10.052 -1.992 0.093000002
10.061 -1.965 0.093000002
10.075 -1.9400001 0.093999997
10.115 -1.919 0.093999997
10.127 -1.893 0.093999997
10.219 -1.882 0.094999999
10.224 -1.855 0.094999999
10.242 -1.831 0.094999999
10.273 -1.809 0.096000001
10.312 -1.788 0.096000001
10.327 -1.763 0.096000001
10.336 -1.737 0.096000001
10.371 -1.715 0.097000003
10.398 -1.693 0.097000003
10.456 -1.675 0.097999997
10.491 -1.653 0.097999997
10.486 -1.625 0.097999997
10.471 -1.596 0.097999997
10.514 -1.576 0.097999997
10.572 -1.558 0.098999999
10.602 -1.536 0.098999999
10.636 -1.515 0.1
10.66 -1.492 0.1
10.681 -1.469 0.1
10.699 -1.4450001 0.1
10.74 -1.424 0.101
10.748 -1.4 0.101
10.782 -1.378 0.101
10.794 -1.354 0.102
10.836 -1.334 0.102
10.848 -1.3099999 0.102
10.865 -1.286 0.102
10.898 -1.265 0.103
10.925 -1.243 0.103
10.96 -1.222 0.103
10.97 -1.198 0.104
10.999 -1.177 0.104
11.034 -1.156 0.104
11.054 -1.133 0.105
11.084 -1.112 0.105
11.08 -1.087 0.105
11.094 -1.064 0.105
11.13 -1.044 0.105
11.143 -1.021 0.106
11.151 -0.99800003 0.106
11.18 -0.977 0.106
11.228 -0.95700002 0.107
11.269 -0.93699998 0.107
11.315 -0.917 0.108
11.314 -0.89399999 0.108
11.4 -0.87699997 0.108
11.411 -0.85500002 0.109
11.434 -0.833 0.109
11.449 -0.81199998 0.109
11.512 -0.79299998 0.11
11.577 -0.77499998 0.11
11.604 -0.75400001 0.111
11.613 -0.73199999 0.111
11.737 -0.71700001 0.112
11.503 0.147 -0.0089999996
11.535 0.168 -0.0099999998
11.56 0.19 -0.0099999998
11.574 0.211 -0.0099999998
11.598 0.233 -0.0099999998
11.624 0.25600001 -0.0099999998
11.633 0.278 -0.011
11.612 0.30000001 -0.011
11.647 0.32300001 -0.011
11.621 0.34599999 -0.011
11.64 0.36899999 -0.011
11.66 0.39300001 -0.011
11.661 0.417 -0.012
11.669 0.44100001 -0.012
11.662 0.465 -0.012
11.628 0.48800001 -0.012
11.637 0.51300001 -0.012
11.633 0.537 -0.013
11.665 0.56400001 -0.013
11.622 0.58700001 -0.013
11.623 0.61199999 -0.013
11.619 0.63800001 -0.013
11.668 0.66600001 -0.014
11.628 0.69 -0.014
11.667 0.71899998 -0.014
11.664 0.745 -0.014
11.658 0.77200001 -0.014
11.675 0.80000001 -0.015
11.703 0.829 -0.015
11.713 0.85699999 -0.015
11.722 0.88599998 -0.015
11.732 0.91399997 -0.016000001
11.707 0.94 -0.016000001
11.739 0.97100002 -0.016000001
11.747 1.001 -0.016000001
11.791 1.033 -0.016000001
11.793 1.063 -0.017000001
11.79 1.092 -0.017000001
11.817 1.124 -0.017000001
11.832 1.155 -0.017000001
11.853 1.187 -0.017999999
11.891 1.221 -0.017999999
11.898 1.252 -0.017999999
11.9 1.283 -0.017999999
11.918 1.316 -0.018999999
11.944 1.35 -0.018999999
11.97 1.385 -0.018999999
12.023 1.423 -0.018999999
12.037 1.456 -0.02
12.009 1.485 -0.02
12.048 1.522 -0.02
12.055 1.556 -0.02
12.092 1.5930001 -0.021
12.08 1.625 -0.021
12.138 1.666 -0.021
12.161 1.7029999 -0.021
12.198 1.742 -0.022
12.195 1.775 -0.022
12.231 1.8150001 -0.022
12.25 1.852 -0.022
12.258 1.888 -0.023
12.269 1.925 -0.023
12.308 1.966 -0.023
12.344 2.007 -0.024
12.354 2.0450001 -0.024
12.392 2.0869999 -0.024
12.43 2.1289999 -0.025
12.448 2.1689999 -0.025
12.459 2.207 -0.025
12.506 2.253 -0.025
12.52 2.2920001 -0.026000001
12.553 2.336 -0.026000001
12.57 2.3759999 -0.026000001
12.58 2.4159999 -0.027000001
12.597 2.457 -0.027000001
12.609 2.4979999 -0.027000001
12.641 2.5420001 -0.027000001
12.624 2.5769999 -0.028000001
12.567 2.6040001 -0.028000001
12.242 2.5739999 -0.027000001
12.129 2.5880001 -0.027000001
12.006 2.599 -0.027000001
11.86 2.6040001 -0.027000001
11.785 2.6240001 -0.027000001
11.769 2.658 -0.027000001
11.824 2.707 -0.028000001
12.771 2.964 -0.029999999
12.788 3.0090001 -0.030999999
12.817 3.056 -0.030999999
12.835 3.1010001 -0.030999999
12.86 3.148 -0.032000002
12.863 3.1900001 -0.032000002
12.878 3.2360001 -0.032000002
12.907 3.2850001 -0.033
12.938 3.3340001 -0.033
12.944 3.378 -0.033
12.997 3.434 -0.034000002
12.999 3.477 -0.034000002
13.035 3.529 -0.034000002
13.061 3.579 -0.035
13.097 3.632 -0.035
13.111 3.6789999 -0.035
13.134 3.7290001 -0.035999998
13.181 3.7869999 -0.035999998
13.225 3.8429999 -0.037
13.241 3.892 -0.037
13.311 3.957 -0.037
13.375 4.0209999 -0.037999999
13.395 4.072 -0.037999999
13.417 4.1240001 -0.039000001
13.44 4.177 -0.039000001
13.496 4.2399998 -0.039999999
13.494 4.2849998 -0.039999999
13.549 4.349 -0.039999999
13.562 4.3990002 -0.041000001
13.566 4.447 -0.041000001
13.583 4.5 -0.041000001
13.603 4.553 -0.041999999
13.718 4.6389999 -0.041999999
13.749 4.697 -0.043000001
13.735 4.7389998 -0.043000001
13.776 4.8010001 -0.044
13.827 4.8670001 -0.044
13.867 4.9299998 -0.044
13.92 4.9970002 -0.045000002
13.946 5.0549998 -0.045000002
14.013 5.1290002 -0.046
14.073 5.1999998 -0.046999998
14.11 5.263 -0.046999998
14.198 5.3460002 -0.048
14.204 5.3990002 -0.048
14.268 5.474 -0.048999999
14.303 5.5380001 -0.048999999
14.335 5.6009998 -0.048999999
14.396 5.6760001 -0.050000001
14.467 5.756 -0.050999999
14.545 5.8379998 -0.050999999
14.551 5.8930001 -0.052000001
14.569 5.9520001 -0.052000001
14.627 6.0279999 -0.052999999
14.625 6.0799999 -0.052999999
14.605 6.1240001 -0.052999999
14.587 6.1690001 -0.054000001
14.571 6.2150002 -0.054000001
14.65 6.3010001 -0.055
12.344 6.026 -0.050999999
12.244 6.0229998 -0.050999999
12.189 6.04 -0.050999999
12.203 6.092 -0.050999999
12.182 6.125 -0.052000001
12.175 6.1659999 -0.052000001
12.11 6.2220001 -0.052000001
12.084 6.2529998 -0.052999999
12.135 6.323 -0.052999999
12.114 6.3569999 -0.052999999
12.049 6.3660002 -0.052999999
12.057 6.415 -0.054000001
12.116 6.4910002 -0.054000001
12.113 6.533 -0.055
12.156 6.5999999 -0.055
12.207 6.6729999 -0.056000002
10.75 6.2270002 -0.052000001
10.542 6.145 -0.050999999
10.44 6.1230001 -0.050999999
10.385 6.1279998 -0.050999999
10.351 6.1459999 -0.050999999
10.332 6.171 -0.050999999
10.32 6.2010002 -0.050999999
10.335 6.2470002 -0.052000001
10.373 6.3070002 -0.052000001
10.475 6.4060001 -0.052999999
10.069 6.6500001 -0.055
9.8920002 6.5669999 -0.055
9.8479996 6.5710001 -0.055
9.8339996 6.5949998 -0.055
9.8830004 6.6609998 -0.055
7.6799998 -4.5219998 0.086000003
7.6869998 -4.5050001 0.086000003
7.7119999 -4.4980001 0.086999997
7.7199998 -4.48 0.086999997
7.723 -4.46 0.086999997
7.7290001 -4.441 0.086999997
7.7490001 -4.4310002 0.086999997
7.7600002 -4.415 0.086999997
7.7729998 -4.4000001 0.088
7.777 -4.381 0.088
7.8010001 -4.3720002 0.088
7.8010001 -4.3499999 0.088
7.8150001 -4.335 0.088
7.8169999 -4.3140001 0.088
7.8309999 -4.2989998 0.089000002
7.849 -4.2859998 0.089000002
7.8559999 -4.2680001 0.089000002
7.868 -4.2519999 0.089000002
7.881 -4.2360001 0.089000002
7.8839998 -4.2150002 0.089000002
7.902 -4.2020001 0.090000004
7.9060001 -4.1820002 0.090000004
7.928 -4.1700001 0.090000004
7.9489999 -4.1589999 0.090000004
7.9390001 -4.1300001 0.090000004
7.954 -4.1160002 0.090000004
7.9520001 -4.092 0.090000004
7.9749999 -4.0799999 0.090999998
7.9949999 -4.0679998 0.090999998
8.0010004 -4.0479999 0.090999998
8.0139999 -4.0310001 0.090999998
8.0229998 -4.013 0.092
8.0459995 -4.0009999 0.092
8.0530005 -3.9809999 0.092
8.0819998 -3.9719999 0.092
8.0860004 -3.951 0.092
8.099 -3.934 0.093000002
8.1160002 -3.9189999 0.093000002
8.1420002 -3.9070001 0.093000002
8.1459999 -3.8859999 0.093000002
8.165 -3.8710001 0.093999997
8.1660004 -3.848 0.093999997
8.1829996 -3.832 0.093999997
8.1969995 -3.816 0.093999997
8.2200003 -3.802 0.093999997
8.2349997 -3.786 0.094999999
8.2349997 -3.7620001 0.094999999
8.2530003 -3.7460001 0.094999999
8.2700005 -3.73 0.094999999
8.2919998 -3.7160001 0.094999999
8.3009996 -3.6960001 0.096000001
8.3079996 -3.675 0.096000001
8.3310003 -3.661 0.096000001
8.3540001 -3.6459999 0.096000001
8.3559999 -3.6229999 0.096000001
8.3590002 -3.5999999 0.097000003
8.3859997 -3.5869999 0.097000003
8.3889999 -3.5650001 0.097000003
8.4219999 -3.5539999 0.097000003
8.4309998 -3.5339999 0.097999997
8.4560003 -3.5190001 0.097999997
8.46 -3.497 0.097999997
8.4849997 -3.4820001 0.097999997
8.5019999 -3.4649999 0.098999999
8.5240002 -3.4489999 0.098999999
8.5179996 -3.4219999 0.098999999
8.5380001 -3.405 0.098999999
8.5410004 -3.382 0.098999999
8.5600004 -3.365 0.098999999
8.5699997 -3.3429999 0.1
8.5780001 -3.322 0.1
8.592 -3.302 0.1
8.6169996 -3.2869999 0.1
8.6689997 -3.2820001 0.101
8.6639996 -3.2550001 0.101
8.6800003 -3.2360001 0.101
8.7049999 -3.22 0.101
8.7309999 -3.204 0.102
8.717 -3.174 0.102
8.7340002 -3.154 0.102
8.7530003 -3.1359999 0.102
8.7749996 -3.119 0.103
8.8059998 -3.1040001 0.103
8.8210001 -3.0840001 0.103
8.8269997 -3.0610001 0.103
8.849 -3.043 0.104
8.868 -3.023 0.104
8.8789997 -3.0009999 0.104
8.8970003 -2.9820001 0.104
8.9230003 -2.9649999 0.105
8.9549999 -2.9489999 0.105
8.9650002 -2.927 0.105
9.0059996 -2.914 0.106
9.0290003 -2.895 0.106
9.0530005 -2.8770001 0.106
9.0699997 -2.8559999 0.107
9.0959997 -2.8380001 0.107
9.1389999 -2.825 0.107
9.1680002 -2.8080001 0.108
9.165 -2.78 0.108
9.2069998 -2.767 0.108
9.2139997 -2.7420001 0.109
9.2580004 -2.7290001 0.109
9.2550001 -2.701 0.109
9.2810001 -2.6819999 0.109
9.3109999 -2.664 0.11
9.342 -2.6459999 0.11
9.3430004 -2.619 0.11
9.3760004 -2.6010001 0.111
9.3920002 -2.579 0.111
9.3929996 -2.552 0.111
9.4449997 -2.539 0.112
9.4589996 -2.5150001 0.112
9.4980001 -2.4979999 0.112
9.5100002 -2.474 0.113
9.5769997 -2.464 0.113
9.5819998 -2.438 0.114
9.5959997 -2.414 0.114
9.6149998 -2.391 0.114
9.6389999 -2.369 0.114
9.6689997 -2.349 0.115
9.7299995 -2.336 0.116
9.7600002 -2.3150001 0.116
9.809 -2.2980001 0.117
9.8339996 -2.276 0.117
9.8400002 -2.2490001 0.117
9.8699999 -2.2279999 0.117
9.9029999 -2.2060001 0.118
9.915 -2.181 0.118
9.9350004 -2.1570001 0.118
9.9549999 -2.132 0.119
9.9700003 -2.1070001 0.119
10.031 -2.0910001 0.12
10.047 -2.066 0.12
10.082 -2.0439999 0.12
10.101 -2.0190001 0.121
10.146 -1.999 0.121
10.172 -1.975 0.121
10.195 -1.95 0.122
10.221 -1.926 0.122
10.255 -1.903 0.123
10.287 -1.88 0.123
10.325 -1.857 0.124
10.344 -1.831 0.124
10.359 -1.804 0.124
10.396 -1.781 0.125
10.44 -1.758 0.125
10.476 -1.734 0.126
10.52 -1.712 0.126
10.525 -1.682 0.126
10.576 -1.66 0.127
10.625 -1.638 0.12800001
10.613 -1.605 0.127
10.665 -1.5829999 0.12800001
10.705 -1.558 0.12899999
10.751 -1.534 0.12899999
10.8 -1.51 0.13
10.805 -1.48 0.13
10.835 -1.454 0.13
10.859 -1.426 0.131
10.894 -1.399 0.131
10.939 -1.374 0.132
10.958 -1.345 0.132
10.983 -1.317 0.132
11.049 -1.293 0.133
11.088 -1.266 0.134
11.118 -1.238 0.134
11.155 -1.21 0.13500001
11.17 -1.1799999 0.13500001
11.219 -1.153 0.13500001
11.271 -1.127 0.13600001
11.308 -1.098 0.13699999
11.356 -1.071 0.13699999
11.43 -1.045 0.138
11.532 -1.021 0.139
11.569 -0.99199998 0.14
11.626 -0.96399999 0.141
11.634 -0.93099999 0.141
11.718 -0.90499997 0.142
12.164 0.373 0.014
12.26 0.39300001 0.014
12.206 0.40900001 0.013
12.219 0.428 0.013
12.185 0.44499999 0.013
12.204 0.46399999 0.013
12.169 0.48100001 0.013
12.138 0.49900001 0.012
12.156 0.51899999 0.012
12.171 0.53899997 0.012
12.187 0.56 0.012
12.144 0.57800001 0.012
12.204 0.60100001 0.011
12.182 0.62099999 0.011
12.186 0.64200002 0.011
12.2 0.66399997 0.011
12.18 0.68400002 0.011
12.191 0.70700002 0.011
12.2 0.72899997 0.0099999998
12.188 0.75099999 0.0099999998
12.185 0.773 0.0099999998
12.233 0.79900002 0.0099999998
12.212 0.82099998 0.0099999998
12.225 0.84500003 0.0089999996
12.232 0.86900002 0.0089999996
12.24 0.89399999 0.0089999996
12.245 0.91799998 0.0089999996
12.241 0.94199997 0.0089999996
12.259 0.96899998 0.0089999996
12.254 0.99299997 0.0080000004
12.273 1.02 0.0080000004
12.297 1.0470001 0.0080000004
12.302 1.074 0.0080000004
12.325 1.102 0.0080000004
12.336 1.1289999 0.0070000002
12.33 1.155 0.0070000002
12.367 1.1849999 0.0070000002
12.354 1.211 0.0070000002
12.352 1.238 0.0070000002
12.362 1.267 0.0070000002
12.368 1.295 0.0060000001
12.373 1.324 0.0060000001
12.409 1.3559999 0.0060000001
12.442 1.3890001 0.0060000001
12.46 1.42 0.0060000001
12.432 1.446 0.0049999999
12.438 1.476 0.0049999999
12.459 1.508 0.0049999999
12.47 1.539 0.0049999999
12.483 1.571 0.0049999999
12.504 1.604 0.0040000002
12.514 1.636 0.0040000002
12.534 1.67 0.0040000002
12.559 1.705 0.0040000002
12.577 1.739 0.0040000002
12.602 1.774 0.003
12.594 1.8049999 0.003
12.596 1.8380001 0.003
12.615 1.873 0.003
12.624 1.9069999 0.003
12.661 1.946 0.0020000001
12.685 1.983 0.0020000001
12.693 2.0179999 0.0020000001
12.723 2.0569999 0.0020000001
12.721 2.0899999 0.0020000001
12.733 2.1270001 0.001
12.751 2.165 0.001
