# .PCD v0.7 - Point Cloud Data file format
VERSION 0.7
FIELDS x y z
SIZE 4 4 4
TYPE F F F
COUNT 1 1 1
WIDTH 1774
HEIGHT 1
VIEWPOINT 0 0 0 1 0 0 0
POINTS 1774
DATA ascii
9.7180004 2.0450001 -0.38
9.7110004 2.0739999 -0.38
9.7309999 2.108 -0.38100001
9.7519999 2.1429999 -0.382
9.757 2.175 -0.38299999
9.7919998 2.2130001 -0.38499999
9.7910004 2.244 -0.38499999
9.802 2.277 -0.38600001
9.8179998 2.312 -0.38800001
9.8360004 2.348 -0.389
9.8690004 2.3870001 -0.391
9.8839998 2.4230001 -0.39199999
9.9099998 2.461 -0.39300001
9.9280005 2.497 -0.39500001
9.9460001 2.5339999 -0.396
9.9530001 2.5680001 -0.39700001
9.9650002 2.6040001 -0.398
9.9770002 2.6389999 -0.39899999
9.9750004 2.6719999 -0.39899999
9.9709997 2.7030001 -0.40000001
9.9829998 2.7390001 -0.40099999
10.017 2.7820001 -0.403
10.048 2.8239999 -0.405
10.049 2.8570001 -0.405
10.051 2.891 -0.40599999
10.071 2.931 -0.40700001
10.1 2.973 -0.40900001
10.118 3.0120001 -0.41100001
10.147 3.0550001 -0.412
10.144 3.0880001 -0.41299999
10.13 3.119 -0.41299999
10.136 3.155 -0.414
10.16 3.197 -0.41600001
10.184 3.2390001 -0.417
10.206 3.2809999 -0.419
10.235 3.325 -0.421
10.217 3.3540001 -0.421
10.216 3.3900001 -0.421
10.215 3.424 -0.42199999
10.213 3.4590001 -0.42199999
10.253 3.5079999 -0.42500001
10.24 3.539 -0.42500001
10.265 3.5840001 -0.42699999
10.316 3.6370001 -0.42899999
10.331 3.6789999 -0.43099999
10.357 3.724 -0.433
10.368 3.7639999 -0.43399999
10.372 3.802 -0.435
10.363 3.835 -0.435
10.359 3.8710001 -0.43599999
10.368 3.911 -0.43700001
10.405 3.961 -0.43900001
10.41 4 -0.44
10.457 4.0549998 -0.44299999
10.468 4.0970001 -0.44400001
10.503 4.1479998 -0.44600001
10.508 4.1869998 -0.447
10.539 4.2379999 -0.449
10.537 4.2750001 -0.44999999
10.574 4.3270001 -0.45199999
10.615 4.382 -0.45500001
10.63 4.427 -0.456
10.658 4.4770002 -0.458
10.689 4.5279999 -0.461
10.719 4.579 -0.463
10.721 4.619 -0.46399999
10.744 4.6680002 -0.465
10.754 4.711 -0.46700001
10.797 4.7690001 -0.46900001
10.838 4.8260002 -0.472
10.855 4.8730001 -0.47400001
10.87 4.9200001 -0.47499999
10.911 4.9780002 -0.47799999
10.939 5.0300002 -0.47999999
10.964 5.0819998 -0.48199999
11.003 5.1399999 -0.48500001
11.029 5.1919999 -0.48699999
11.043 5.2389998 -0.48800001
11.065 5.29 -0.49000001
11.083 5.3390002 -0.49200001
11.091 5.3829999 -0.493
11.113 5.4349999 -0.495
11.121 5.4790001 -0.49599999
11.141 5.5300002 -0.498
11.15 5.5749998 -0.49900001
11.167 5.6240001 -0.50099999
11.187 5.6750002 -0.50300002
11.208 5.7270002 -0.505
11.226 5.777 -0.50700003
11.25 5.8309999 -0.509
11.26 5.8769999 -0.50999999
11.274 5.9260001 -0.51200002
11.28 5.9699998 -0.51300001
11.299 6.0209999 -0.51499999
11.323 6.0760002 -0.51700002
11.325 6.118 -0.51800001
11.355 6.1760001 -0.52100003
7.1890001 3.9360001 -0.33000001
11.431 6.2579999 -0.52499998
7.0960002 3.911 -0.32600001
7.0409999 3.9059999 -0.324
7.0289998 3.925 -0.32499999
7.006 3.938 -0.324
7.0120001 3.967 -0.32499999
7.0250001 4 -0.32600001
7.0819998 4.0580001 -0.33000001
11.533 6.6079998 -0.537
7.2909999 4.204 -0.34
11.463 6.6100001 -0.53500003
11.458 6.6479998 -0.53600001
11.472 6.697 -0.537
7.0760002 4.1570001 -0.33199999
11.544 6.7810001 -0.542
6.9450002 4.1040001 -0.32600001
6.9070001 4.1069999 -0.32499999
6.868 4.1079998 -0.324
6.8590002 4.1279998 -0.324
6.8509998 4.1469998 -0.32499999
6.8509998 4.1719999 -0.32499999
6.8530002 4.198 -0.32600001
6.888 4.243 -0.32800001
6.967 4.316 -0.333
9.7270002 6.6950002 -0.484
9.632 6.6609998 -0.47999999
9.6120005 6.678 -0.47999999
9.6210003 6.7160001 -0.48199999
9.6379995 6.7589998 -0.484
9.6809998 6.8200002 -0.48699999
9.6389999 6.9130001 -0.48899999
9.6239996 6.9320002 -0.48899999
9.599 6.9439998 -0.48899999
4.6630001 -2.73 -0.104
4.6300001 -2.698 -0.103
4.6220002 -2.681 -0.103
4.6110001 -2.661 -0.102
4.5970001 -2.6400001 -0.102
4.598 -2.628 -0.102
4.5960002 -2.6140001 -0.102
4.6009998 -2.6040001 -0.102
4.6009998 -2.5910001 -0.102
4.6069999 -2.5810001 -0.102
4.6069999 -2.5680001 -0.102
4.605 -2.5539999 -0.102
4.6079998 -2.543 -0.102
4.6160002 -2.5339999 -0.102
4.6220002 -2.5239999 -0.102
4.6339998 -2.5179999 -0.102
4.651 -2.5139999 -0.102
4.664 -2.5079999 -0.102
4.6760001 -2.5009999 -0.103
4.6939998 -2.497 -0.103
4.711 -2.4920001 -0.103
4.744 -2.497 -0.104
4.8200002 -2.523 -0.106
6.802 -3.5409999 -0.149
6.8039999 -3.523 -0.149
6.7909999 -3.497 -0.149
6.7989998 -3.4820001 -0.149
6.8070002 -3.4660001 -0.149
6.823 -3.4549999 -0.149
6.823 -3.4349999 -0.149
6.8379998 -3.4230001 -0.149
6.8460002 -3.408 -0.149
6.8559999 -3.3929999 -0.149
6.8670001 -3.3789999 -0.15000001
6.8740001 -3.3629999 -0.15000001
6.8909998 -3.352 -0.15000001
6.9029999 -3.3380001 -0.15000001
6.908 -3.3199999 -0.15000001
6.914 -3.303 -0.15000001
6.9330001 -3.2920001 -0.15000001
6.9320002 -3.2720001 -0.15000001
6.948 -3.26 -0.15000001
6.9580002 -3.2449999 -0.15099999
6.9689999 -3.23 -0.15099999
6.9780002 -3.214 -0.15099999
6.9860001 -3.198 -0.15099999
6.9920001 -3.1800001 -0.15099999
7.0120001 -3.1689999 -0.15099999
7.033 -3.1589999 -0.152
7.0279999 -3.1359999 -0.15099999
7.0380001 -3.1199999 -0.152
7.0430002 -3.102 -0.152
7.0580001 -3.089 -0.152
7.0650001 -3.072 -0.152
7.092 -3.063 -0.152
7.0970001 -3.0450001 -0.152
7.1129999 -3.0309999 -0.153
7.1170001 -3.0120001 -0.152
7.1110001 -2.9890001 -0.152
7.1290002 -2.977 -0.153
7.1560001 -2.967 -0.153
7.1620002 -2.9489999 -0.153
7.1700001 -2.9319999 -0.153
7.1810002 -2.915 -0.153
7.1919999 -2.9000001 -0.153
7.198 -2.881 -0.153
7.2259998 -2.872 -0.154
7.2290001 -2.852 -0.154
7.2220001 -2.8280001 -0.154
7.2529998 -2.8199999 -0.154
7.257 -2.8010001 -0.154
7.2820001 -2.789 -0.155
7.2820001 -2.7679999 -0.154
7.2810001 -2.747 -0.154
7.2880001 -2.7290001 -0.154
7.3179998 -2.7190001 -0.155
7.316 -2.697 -0.155
7.3449998 -2.687 -0.155
7.3429999 -2.665 -0.155
7.3639998 -2.651 -0.155
7.362 -2.6300001 -0.155
7.3759999 -2.6129999 -0.155
7.382 -2.5940001 -0.155
7.3889999 -2.575 -0.156
7.4099998 -2.5610001 -0.156
7.427 -2.546 -0.156
7.4359999 -2.5280001 -0.156
7.4580002 -2.5139999 -0.15700001
7.4699998 -2.4960001 -0.15700001
7.4889998 -2.4809999 -0.15700001
7.5 -2.4630001 -0.15700001
7.5159998 -2.447 -0.15700001
7.527 -2.4289999 -0.15700001
7.5549998 -2.4159999 -0.15800001
7.5619998 -2.3970001 -0.15800001
7.5710001 -2.378 -0.15800001
7.5819998 -2.3599999 -0.15800001
7.598 -2.3429999 -0.15800001
7.6100001 -2.325 -0.15800001
7.6339998 -2.3099999 -0.15899999
7.6370001 -2.289 -0.15899999
7.631 -2.266 -0.15899999
7.6630001 -2.253 -0.15899999
7.658 -2.23 -0.15899999
7.691 -2.2179999 -0.16
7.7199998 -2.204 -0.16
7.723 -2.1830001 -0.16
7.7329998 -2.1630001 -0.16
7.7420001 -2.1429999 -0.16
7.7529998 -2.1240001 -0.16
7.7810001 -2.1099999 -0.161
7.8010001 -2.0929999 -0.161
7.8119998 -2.0739999 -0.161
7.8330002 -2.0569999 -0.161
7.8379998 -2.036 -0.161
7.855 -2.0179999 -0.162
7.849 -1.994 -0.161
7.8800001 -1.979 -0.162
7.8800001 -1.956 -0.162
7.9200001 -1.944 -0.163
7.954 -1.9299999 -0.163
7.9510002 -1.906 -0.163
7.96 -1.885 -0.163
7.9720001 -1.8660001 -0.163
8.0010004 -1.85 -0.164
8.0179996 -1.831 -0.164
8.0319996 -1.811 -0.164
8.059 -1.794 -0.164
8.0760002 -1.775 -0.16500001
8.0950003 -1.756 -0.16500001
8.0909996 -1.732 -0.16500001
8.1260004 -1.716 -0.16500001
8.1540003 -1.699 -0.16599999
8.1619997 -1.677 -0.16599999
8.1890001 -1.66 -0.16599999
8.2010002 -1.6390001 -0.16599999
8.2049999 -1.6160001 -0.16599999
8.2200003 -1.596 -0.167
8.2480001 -1.5779999 -0.167
8.2819996 -1.561 -0.168
8.2980003 -1.54 -0.168
8.3179998 -1.52 -0.168
8.3369999 -1.5 -0.168
8.3579998 -1.48 -0.169
8.3590002 -1.456 -0.168
8.3760004 -1.4349999 -0.169
8.4300003 -1.421 -0.17
8.4239998 -1.396 -0.169
8.4370003 -1.374 -0.17
8.4560003 -1.353 -0.17
8.4860001 -1.334 -0.17
8.5050001 -1.313 -0.171
8.5500002 -1.295 -0.171
8.5710001 -1.274 -0.17200001
8.6020002 -1.2539999 -0.17200001
8.6090002 -1.2309999 -0.17200001
8.6289997 -1.209 -0.17200001
8.6569996 -1.189 -0.17299999
8.6719999 -1.166 -0.17299999
8.6820002 -1.143 -0.17299999
8.6969995 -1.12 -0.17299999
8.7320004 -1.1 -0.17399999
8.7620001 -1.079 -0.17399999
8.7679996 -1.0549999 -0.17399999
8.7889996 -1.0319999 -0.175
8.8269997 -1.012 -0.175
8.8389997 -0.98799998 -0.175
8.8769999 -0.96700001 -0.176
8.9069996 -0.94499999 -0.176
8.9390001 -0.92299998 -0.177
8.9490004 -0.89899999 -0.177
8.974 -0.87599999 -0.177
9.0030003 -0.85399997 -0.178
9.0340004 -0.83099997 -0.178
9.059 -0.80699998 -0.17900001
9.0740004 -0.78299999 -0.17900001
9.1049995 -0.75999999 -0.17900001
9.1230001 -0.736 -0.17900001
9.1669998 -0.713 -0.18000001
9.1680002 -0.68699998 -0.18000001
9.2130003 -0.66500002 -0.18099999
9.2299995 -0.63999999 -0.18099999
9.2819996 -0.61699998 -0.182
9.3079996 -0.59299999 -0.182
9.3559999 -0.56900001 -0.183
9.368 -0.54299998 -0.183
9.3879995 -0.51800001 -0.183
9.467 -0.49599999 -0.185
9.5010004 -0.47099999 -0.185
9.2620001 0.149 -0.31400001
9.2910004 0.161 -0.315
9.3520002 0.17299999 -0.317
9.2700005 0.183 -0.31400001
9.2489996 0.19499999 -0.31400001
9.2489996 0.207 -0.31400001
9.2270002 0.21799999 -0.31299999
9.257 0.23199999 -0.31400001
9.2410002 0.244 -0.31400001
9.2060003 0.25600001 -0.31299999
9.1809998 0.26800001 -0.31200001
9.1809998 0.28200001 -0.31200001
9.1669998 0.29499999 -0.31200001
9.1520004 0.308 -0.31200001
9.1630001 0.322 -0.31200001
9.1599998 0.336 -0.31200001
9.1719999 0.35100001 -0.31299999
9.1619997 0.36500001 -0.31299999
9.1590004 0.38 -0.31299999
9.1739998 0.39500001 -0.31299999
9.1630001 0.41 -0.31299999
9.165 0.42500001 -0.31299999
9.1709995 0.44100001 -0.31400001
9.1709995 0.45699999 -0.31400001
9.1780005 0.47299999 -0.31400001
9.177 0.48899999 -0.315
9.1850004 0.50599998 -0.315
9.1850004 0.523 -0.315
9.1929998 0.54000002 -0.31600001
9.2060003 0.55800003 -0.31600001
9.1969995 0.574 -0.31600001
9.2189999 0.59299999 -0.317
9.2279997 0.611 -0.31799999
9.2290001 0.62900001 -0.31799999
9.2419996 0.648 -0.31900001
9.2329998 0.66600001 -0.31900001
9.2399998 0.685 -0.31900001
9.2449999 0.704 -0.31999999
9.2609997 0.72399998 -0.31999999
9.2620001 0.74299997 -0.32100001
9.2849998 0.764 -0.322
9.2869997 0.78399998 -0.322
9.2910004 0.80400002 -0.32300001
9.3000002 0.824 -0.32300001
9.309 0.84500003 -0.324
9.3330002 0.86699998 -0.32499999
9.3479996 0.889 -0.32600001
9.342 0.90899998 -0.32600001
9.3640003 0.93300003 -0.32699999
9.3789997 0.95499998 -0.32800001
9.3739996 0.97600001 -0.32800001
9.4020004 1 -0.329
9.3940001 1.021 -0.329
9.4099998 1.045 -0.33000001
9.415 1.067 -0.331
9.4320002 1.092 -0.331
9.4399996 1.115 -0.33199999
9.4469995 1.1390001 -0.333
9.4709997 1.164 -0.33399999
9.4890003 1.1900001 -0.33500001
9.4829998 1.212 -0.33500001
9.5030003 1.238 -0.336
9.507 1.263 -0.33700001
9.5270004 1.289 -0.338
9.5410004 1.3150001 -0.338
9.5539999 1.341 -0.33899999
9.5609999 1.367 -0.34
9.5869999 1.395 -0.34099999
9.6059999 1.423 -0.34200001
9.6190004 1.45 -0.34299999
9.6280003 1.477 -0.34400001
9.6350002 1.503 -0.345
9.6610003 1.533 -0.34599999
9.6800003 1.562 -0.347
9.7010002 1.592 -0.34799999
9.71 1.62 -0.34900001
9.7390003 1.651 -0.34999999
9.7489996 1.6799999 -0.35100001
9.7559996 1.7079999 -0.352
9.7779999 1.739 -0.35299999
9.7950001 1.77 -0.354
9.8100004 1.8 -0.35499999
9.823 1.83 -0.35600001
9.8319998 1.86 -0.35699999
9.8479996 1.891 -0.35800001
9.8649998 1.923 -0.359
9.8719997 1.9529999 -0.36000001
9.8839998 1.984 -0.361
9.8940001 2.0150001 -0.36199999
9.9119997 2.0480001 -0.36300001
9.9350004 2.0829999 -0.36399999
9.941 2.1140001 -0.36500001
9.9370003 2.1429999 -0.36500001
9.9560003 2.177 -0.366
9.9540005 2.207 -0.36700001
9.9779997 2.2420001 -0.368
10.006 2.279 -0.37
10.007 2.3099999 -0.37
10.022 2.345 -0.37200001
10.035 2.3789999 -0.373
10.065 2.418 -0.37400001
10.088 2.4549999 -0.37599999
10.094 2.4879999 -0.37599999
10.105 2.523 -0.377
10.118 2.559 -0.37799999
10.144 2.598 -0.38
10.143 2.6300001 -0.38100001
10.164 2.6689999 -0.382
10.19 2.7090001 -0.384
10.222 2.7509999 -0.38499999
10.245 2.79 -0.38699999
10.275 2.8329999 -0.389
10.277 2.8670001 -0.389
10.311 2.911 -0.391
10.322 2.9489999 -0.39199999
10.339 2.9879999 -0.39399999
10.342 3.0239999 -0.39399999
10.358 3.0639999 -0.396
10.369 3.1029999 -0.39700001
10.365 3.1370001 -0.39700001
10.349 3.168 -0.39700001
10.403 3.22 -0.40000001
10.41 3.2579999 -0.40099999
10.416 3.2969999 -0.40200001
10.443 3.342 -0.40400001
10.432 3.375 -0.40400001
10.436 3.4130001 -0.405
10.438 3.451 -0.405
10.43 3.4849999 -0.40599999
10.434 3.5239999 -0.40700001
10.439 3.563 -0.40799999
10.472 3.612 -0.41
10.493 3.6570001 -0.41100001
10.512 3.7019999 -0.41299999
10.524 3.7449999 -0.414
10.535 3.7869999 -0.41499999
10.52 3.8210001 -0.41499999
10.544 3.869 -0.417
10.548 3.9089999 -0.41800001
10.557 3.9519999 -0.419
10.59 4.0040002 -0.421
10.616 4.0539999 -0.42300001
10.627 4.098 -0.42399999
10.658 4.1500001 -0.426
10.687 4.2020001 -0.428
10.686 4.243 -0.42899999
10.697 4.2880001 -0.43000001
10.72 4.3379998 -0.43200001
10.731 4.3850002 -0.433
10.768 4.441 -0.43599999
10.782 4.4889998 -0.43700001
10.825 4.5489998 -0.44
10.839 4.598 -0.44100001
10.872 4.6539998 -0.44299999
10.905 4.7119999 -0.44499999
10.934 4.7680001 -0.44800001
10.94 4.8140001 -0.449
10.981 4.8759999 -0.45100001
11 4.9289999 -0.45300001
11.029 4.9860001 -0.45500001
11.046 5.039 -0.45699999
11.085 5.1009998 -0.45899999
11.11 5.158 -0.461
11.131 5.2140002 -0.463
11.148 5.2670002 -0.465
11.16 5.3189998 -0.46599999
11.185 5.3769999 -0.46799999
11.189 5.4260001 -0.46900001
11.229 5.4920001 -0.472
11.222 5.5349998 -0.47299999
11.219 5.5809999 -0.47400001
11.267 5.652 -0.477
11.267 5.6999998 -0.47799999
11.299 5.7639999 -0.47999999
11.314 5.8200002 -0.48199999
11.315 5.869 -0.48300001
11.337 5.9289999 -0.48500001
11.341 5.98 -0.486
11.348 6.033 -0.48699999
11.359 6.0869999 -0.48899999
11.381 6.1490002 -0.491
11.371 6.1929998 -0.49200001
11.401 6.2589998 -0.49399999
7.158 3.961 -0.31099999
11.521 6.3759999 -0.5
7.066 3.9419999 -0.30700001
7.0289998 3.9519999 -0.30599999
7.0029998 3.9690001 -0.30599999
6.9850001 3.9890001 -0.30599999
6.9959998 4.027 -0.30700001
7.0349998 4.0809999 -0.30899999
7.1360002 4.171 -0.315
11.476 6.7090001 -0.50599998
11.451 6.7459998 -0.50599998
11.47 6.809 -0.50800002
7.0489998 4.2160001 -0.31299999
11.526 6.895 -0.51200002
6.9169998 4.1690001 -0.308
6.8649998 4.1690001 -0.30599999
6.8319998 4.1810002 -0.30500001
6.8179998 4.2030001 -0.30500001
6.8049998 4.2270002 -0.30500001
6.802 4.257 -0.30599999
6.816 4.2969999 -0.30700001
6.8530002 4.3520002 -0.31
6.9650002 4.4559999 -0.31600001
9.8030005 6.6440001 -0.45300001
9.7349997 6.645 -0.45100001
9.7229996 6.684 -0.45100001
9.71 6.7220001 -0.45199999
9.8120003 6.8400002 -0.458
9.6409998 6.9099998 -0.454
9.5430002 6.8870001 -0.45100001
4.4580002 -2.947 -0.090000004
4.461 -2.9200001 -0.090000004
4.461 -2.8929999 -0.090000004
4.4619999 -2.865 -0.089000002
4.461 -2.8380001 -0.089000002
4.4689999 -2.8150001 -0.089000002
4.4749999 -2.7920001 -0.089000002
4.48 -2.7690001 -0.089000002
4.4889998 -2.7479999 -0.089000002
4.5040002 -2.73 -0.089000002
4.5120001 -2.7090001 -0.089000002
4.5209999 -2.688 -0.090000004
4.5190001 -2.661 -0.089000002
4.5359998 -2.645 -0.090000004
4.5549998 -2.6300001 -0.090000004
4.579 -2.619 -0.090000004
4.6009998 -2.6059999 -0.090999998
4.619 -2.5910001 -0.090999998
4.6350002 -2.575 -0.090999998
4.677 -2.573 -0.092
4.77 -2.598 -0.093000002
6.723 -3.6270001 -0.132
6.7340002 -3.598 -0.132
6.7490001 -3.5699999 -0.132
6.7540002 -3.5380001 -0.132
6.77 -3.5120001 -0.132
6.7839999 -3.4849999 -0.132
6.8049998 -3.461 -0.132
6.8280001 -3.4389999 -0.132
6.8429999 -3.4130001 -0.133
6.8629999 -3.3889999 -0.133
6.8759999 -3.362 -0.133
6.9029999 -3.3410001 -0.133
6.9120002 -3.313 -0.133
6.921 -3.2839999 -0.133
6.941 -3.26 -0.134
6.9650002 -3.2390001 -0.134
6.9819999 -3.214 -0.134
7.0019999 -3.191 -0.134
7.0100002 -3.1619999 -0.134
7.0240002 -3.1370001 -0.134
7.052 -3.1170001 -0.13500001
7.0770001 -3.0969999 -0.13500001
7.0890002 -3.0699999 -0.13500001
7.0999999 -3.0439999 -0.13500001
7.1230001 -3.023 -0.13600001
7.1430001 -3 -0.13600001
7.1570001 -2.9749999 -0.13600001
7.1750002 -2.951 -0.13600001
7.2090001 -2.9349999 -0.13699999
7.2179999 -2.908 -0.13699999
7.243 -2.888 -0.13699999
7.25 -2.8599999 -0.13699999
7.277 -2.8410001 -0.13699999
7.2940001 -2.8169999 -0.13699999
7.309 -2.7939999 -0.138
7.3330002 -2.773 -0.138
7.3460002 -2.7479999 -0.138
7.3610001 -2.724 -0.138
7.375 -2.7 -0.138
7.3990002 -2.6800001 -0.139
7.4219999 -2.6589999 -0.139
7.4310002 -2.6340001 -0.139
7.4439998 -2.6099999 -0.139
7.4759998 -2.592 -0.139
7.4809999 -2.566 -0.139
7.5190001 -2.55 -0.14
7.5310001 -2.526 -0.14
7.5539999 -2.5050001 -0.14
7.5700002 -2.483 -0.141
7.5900002 -2.461 -0.141
7.6230001 -2.444 -0.141
7.632 -2.4189999 -0.141
7.645 -2.3959999 -0.141
7.6810002 -2.3800001 -0.142
7.6939998 -2.3559999 -0.142
7.7090001 -2.3329999 -0.142
7.7270002 -2.312 -0.142
7.7379999 -2.2880001 -0.14300001
7.7789998 -2.273 -0.14300001
7.7779999 -2.2460001 -0.14300001
7.8070002 -2.2279999 -0.14300001
7.8239999 -2.2060001 -0.14399999
7.8309999 -2.1819999 -0.14399999
7.8829999 -2.1700001 -0.14399999
7.895 -2.1470001 -0.145
7.9029999 -2.1229999 -0.145
7.9299998 -2.1040001 -0.145
7.9359999 -2.0799999 -0.145
7.9569998 -2.059 -0.145
7.9720001 -2.0380001 -0.145
8.0039997 -2.02 -0.146
8.0349998 -2.0020001 -0.146
8.0419998 -1.979 -0.146
8.0710001 -1.961 -0.147
8.0830002 -1.938 -0.147
8.118 -1.921 -0.147
8.1199999 -1.897 -0.147
8.1429996 -1.877 -0.148
8.1610003 -1.8559999 -0.148
8.1859999 -1.8380001 -0.148
8.1940002 -1.8150001 -0.148
8.2370005 -1.799 -0.149
8.2519999 -1.778 -0.149
8.2709999 -1.758 -0.149
8.2819996 -1.7359999 -0.149
8.302 -1.716 -0.15000001
8.3109999 -1.694 -0.15000001
8.3260002 -1.673 -0.15000001
8.3660002 -1.6569999 -0.15000001
8.3870001 -1.638 -0.15099999
8.4160004 -1.619 -0.15099999
8.4189997 -1.597 -0.15099999
8.4540005 -1.58 -0.152
8.4580002 -1.557 -0.152
8.4639997 -1.535 -0.152
8.4870005 -1.516 -0.152
8.4960003 -1.494 -0.152
8.5150003 -1.475 -0.152
8.5469999 -1.457 -0.153
8.573 -1.439 -0.153
8.5839996 -1.418 -0.153
8.6020002 -1.399 -0.153
8.6049995 -1.377 -0.153
8.6230001 -1.357 -0.154
8.665 -1.341 -0.154
8.6859999 -1.322 -0.154
8.6719999 -1.298 -0.154
8.7130003 -1.2819999 -0.155
8.7080002 -1.26 -0.155
8.7399998 -1.243 -0.155
8.7670002 -1.225 -0.155
8.776 -1.204 -0.156
8.7790003 -1.183 -0.155
8.7959995 -1.164 -0.156
8.8290005 -1.147 -0.156
8.8439999 -1.128 -0.156
8.8459997 -1.107 -0.156
8.8760004 -1.09 -0.15700001
8.8970003 -1.071 -0.15700001
8.9040003 -1.051 -0.15700001
8.9200001 -1.0319999 -0.15700001
8.9300003 -1.013 -0.15700001
8.9680004 -0.99699998 -0.15800001
8.9650002 -0.97600001 -0.15800001
9.0050001 -0.95999998 -0.15800001
9.0310001 -0.94300002 -0.15899999
9.04 -0.92299998 -0.15899999
9.0570002 -0.90499997 -0.15899999
9.0699997 -0.88599998 -0.15899999
9.0880003 -0.86799997 -0.16
9.1040001 -0.85000002 -0.16
9.1000004 -0.82999998 -0.16
9.1370001 -0.81400001 -0.16
9.1689997 -0.79699999 -0.161
9.1890001 -0.77899998 -0.161
9.2139997 -0.76200002 -0.161
9.2150002 -0.74299997 -0.161
9.2320004 -0.72500002 -0.161
9.2510004 -0.708 -0.162
9.2519999 -0.68900001 -0.162
9.2779999 -0.67199999 -0.162
9.2939997 -0.65399998 -0.162
9.3079996 -0.63700002 -0.162
9.323 -0.61900002 -0.163
9.3439999 -0.602 -0.163
9.3479996 -0.58399999 -0.163
9.3850002 -0.56800002 -0.163
9.408 -0.55199999 -0.164
9.4180002 -0.53399998 -0.164
9.448 -0.51800001 -0.164
9.5039997 -0.50300002 -0.16500001
9.552 -0.48800001 -0.16599999
9.5489998 -0.47 -0.16599999
9.6049995 -0.45500001 -0.167
9.6029997 -0.43700001 -0.167
9.5649996 -0.41800001 -0.16599999
9.7250004 -0.38999999 -0.169
9.7019997 -0.37200001 -0.168
9.7790003 -0.35699999 -0.169
9.0970001 0.108 -0.28400001
9.1129999 0.125 -0.28400001
9.1549997 0.142 -0.28600001
9.1689997 0.15899999 -0.28600001
9.1739998 0.177 -0.287
9.184 0.19400001 -0.287
9.1809998 0.212 -0.287
9.1700001 0.229 -0.287
9.1859999 0.248 -0.28799999
9.1660004 0.266 -0.287
9.1870003 0.285 -0.28799999
9.1920004 0.303 -0.28799999
9.2040005 0.322 -0.289
9.2180004 0.34200001 -0.28999999
9.2110004 0.361 -0.28999999
9.2049999 0.38 -0.28999999
9.2030001 0.39899999 -0.28999999
9.2259998 0.41999999 -0.29100001
9.21 0.43900001 -0.28999999
9.2390003 0.461 -0.292
9.2379999 0.48100001 -0.292
9.25 0.50199997 -0.292
9.2550001 0.523 -0.29300001
9.2629995 0.54500002 -0.29300001
9.276 0.56599998 -0.294
9.2930002 0.58899999 -0.29499999
9.3009996 0.611 -0.29499999
9.2980003 0.63200003 -0.29499999
9.316 0.65499997 -0.296
9.3219995 0.67799997 -0.29699999
9.3269997 0.69999999 -0.29699999
9.3339996 0.72299999 -0.29699999
9.342 0.74599999 -0.29800001
9.3450003 0.76899999 -0.29800001
9.3660002 0.79400003 -0.29899999
9.382 0.81900001 -0.30000001
9.3909998 0.84299999 -0.301
9.4049997 0.86699998 -0.301
9.4130001 0.89200002 -0.30199999
9.4239998 0.917 -0.303
9.4370003 0.94199997 -0.303
9.4610004 0.96899998 -0.30399999
9.474 0.99400002 -0.30500001
9.4820004 1.02 -0.30599999
9.5059996 1.0470001 -0.30700001
9.5159998 1.073 -0.30700001
9.5279999 1.1 -0.308
9.5389996 1.126 -0.30899999
9.5450001 1.153 -0.30899999
9.5629997 1.1799999 -0.31
9.5760002 1.2079999 -0.31099999
9.5869999 1.235 -0.31200001
9.5930004 1.262 -0.31200001
9.6000004 1.29 -0.31299999
9.6210003 1.319 -0.31400001
9.6459999 1.349 -0.315
9.658 1.378 -0.31600001
9.6829996 1.409 -0.317
9.691 1.437 -0.31799999
9.7150002 1.4680001 -0.31900001
9.7340002 1.498 -0.31999999
9.7510004 1.529 -0.32100001
9.7729998 1.561 -0.322
9.7840004 1.59 -0.32300001
9.8199997 1.625 -0.324
9.8190002 1.653 -0.32499999
9.8520002 1.687 -0.32600001
9.8529997 1.717 -0.32600001
9.8660002 1.748 -0.32699999
9.882 1.78 -0.32800001
9.9139996 1.8150001 -0.33000001
9.927 1.847 -0.331
9.9379997 1.8789999 -0.331
9.9549999 1.9119999 -0.33199999
9.9890003 1.949 -0.33399999
9.9940004 1.98 -0.33500001
10.011 2.0139999 -0.336
10.018 2.046 -0.336
10.03 2.079 -0.33700001
10.053 2.115 -0.338
10.086 2.1530001 -0.34
10.093 2.1860001 -0.34099999
10.085 2.2160001 -0.34099999
10.096 2.25 -0.34200001
10.125 2.2880001 -0.34299999
10.145 2.325 -0.34400001
10.16 2.3599999 -0.345
10.186 2.3989999 -0.347
10.198 2.434 -0.34799999
10.209 2.4690001 -0.34900001
10.227 2.506 -0.34999999
10.241 2.5420001 -0.35100001
10.244 2.576 -0.35100001
10.259 2.6129999 -0.352
10.283 2.6530001 -0.354
10.31 2.6930001 -0.35499999
10.359 2.74 -0.35800001
10.358 2.773 -0.35800001
10.397 2.8180001 -0.36000001
10.416 2.8570001 -0.361
10.445 2.9000001 -0.36300001
10.461 2.9389999 -0.36399999
10.484 2.98 -0.36500001
10.487 3.016 -0.366
10.515 3.059 -0.36700001
10.539 3.102 -0.36899999
10.551 3.1400001 -0.37
10.563 3.1800001 -0.37099999
10.533 3.2060001 -0.37
10.581 3.257 -0.373
10.587 3.2939999 -0.37400001
10.58 3.3280001 -0.37400001
10.602 3.3710001 -0.375
10.617 3.4119999 -0.377
10.638 3.4549999 -0.37799999
10.64 3.493 -0.37900001
10.642 3.53 -0.37900001
10.644 3.5669999 -0.38
10.62 3.596 -0.38
10.662 3.6470001 -0.382
10.64 3.6760001 -0.382
10.676 3.7260001 -0.384
10.668 3.76 -0.384
10.686 3.8039999 -0.38499999
10.667 3.8340001 -0.38499999
10.688 3.8800001 -0.38699999
10.72 3.9289999 -0.389
10.717 3.9649999 -0.389
10.753 4.0170002 -0.391
10.756 4.0560002 -0.39199999
10.77 4.099 -0.39300001
10.792 4.1459999 -0.39500001
10.796 4.1849999 -0.396
10.829 4.237 -0.398
10.866 4.29 -0.40000001
10.871 4.3309999 -0.40099999
10.87 4.369 -0.40099999
10.888 4.4159999 -0.403
10.926 4.4699998 -0.405
10.922 4.507 -0.405
10.965 4.5650001 -0.40799999
10.993 4.6160002 -0.41
11.028 4.6700001 -0.412
11.051 4.7199998 -0.41299999
11.079 4.7719998 -0.41499999
11.106 4.8239999 -0.417
11.138 4.8779998 -0.419
11.167 4.9310002 -0.421
11.197 4.9850001 -0.42300001
11.209 5.0310001 -0.42399999
11.224 5.0780001 -0.42500001
11.246 5.1290002 -0.42699999
11.259 5.1760001 -0.428
11.286 5.23 -0.43000001
11.307 5.2800002 -0.43200001
11.314 5.3249998 -0.433
11.34 5.3779998 -0.435
11.37 5.434 -0.43700001
11.392 5.4860001 -0.43799999
11.405 5.5339999 -0.44
11.417 5.5819998 -0.44100001
11.438 5.6339998 -0.44299999
11.449 5.6810002 -0.44400001
11.473 5.7350001 -0.44600001
11.475 5.7779999 -0.447
11.501 5.8330002 -0.449
11.527 5.888 -0.45100001
11.528 5.9310002 -0.45199999
11.529 5.974 -0.45199999
11.544 6.0240002 -0.454
11.572 6.0809999 -0.456
11.587 6.131 -0.458
11.588 6.1739998 -0.458
11.616 6.2309999 -0.46000001
11.639 6.2859998 -0.46200001
11.662 6.3410001 -0.46399999
11.657 6.381 -0.465
11.693 6.4429998 -0.46700001
7.1409998 3.961 -0.28600001
7.0539999 3.938 -0.28299999
7.0180001 3.944 -0.28200001
7.0019999 3.96 -0.28200001
6.9780002 3.9719999 -0.28200001
6.9860001 4.0009999 -0.28200001
7.0100002 4.0409999 -0.28400001
7.0599999 4.0949998 -0.287
12.04 6.9840002 -0.48899999
7.1950002 4.1989999 -0.29300001
11.866 6.9250002 -0.48300001
11.894 6.9850001 -0.48500001
7.1059999 4.1989999 -0.28999999
11.952 7.0619998 -0.48899999
6.9679999 4.1420002 -0.285
6.8829999 4.1160002 -0.28200001
6.8639998 4.1290002 -0.28200001
6.8439999 4.1420002 -0.28200001
6.8299999 4.158 -0.28200001
6.8309999 4.1830001 -0.28299999
6.8280001 4.2049999 -0.28299999
6.8559999 4.2459998 -0.285
6.9109998 4.3049998 -0.28799999
7.0890002 4.441 -0.296
9.8170004 6.7870002 -0.426
9.7110004 6.7449999 -0.42300001
9.6899996 6.763 -0.42300001
9.651 6.7659998 -0.42199999
9.6490002 6.796 -0.42300001
9.6000004 6.7919998 -0.421
9.5620003 6.796 -0.421
9.5059996 6.7859998 -0.419
9.4890003 6.8039999 -0.419
9.4580002 6.8109999 -0.419
9.4510002 6.835 -0.419
9.4469995 6.862 -0.41999999
9.4379997 6.8839998 -0.41999999
4.6240001 -2.71 -0.079999998
4.6139998 -2.691 -0.079999998
4.6040001 -2.6719999 -0.079999998
4.592 -2.652 -0.079000004
4.5970001 -2.642 -0.079999998
4.5970001 -2.6289999 -0.079000004
4.5970001 -2.6170001 -0.079000004
4.6009998 -2.6059999 -0.079000004
4.5939999 -2.589 -0.079000004
4.6069999 -2.5829999 -0.079000004
4.599 -2.566 -0.079000004
4.599 -2.553 -0.079000004
4.6040001 -2.543 -0.079000004
4.6100001 -2.533 -0.079000004
4.6220002 -2.526 -0.079000004
4.6209998 -2.5120001 -0.079000004
4.6350002 -2.507 -0.079000004
4.638 -2.4949999 -0.079000004
4.6570001 -2.4920001 -0.079999998
4.6750002 -2.4879999 -0.079999998
4.6999998 -2.4879999 -0.079999998
4.717 -2.484 -0.081
4.7659998 -2.497 -0.081
4.8309999 -2.516 -0.082000002
6.9400001 -3.596 -0.118
6.9239998 -3.5680001 -0.118
6.9390001 -3.556 -0.118
6.947 -3.54 -0.118
6.9429998 -3.5179999 -0.118
6.948 -3.5009999 -0.118
6.9530001 -3.483 -0.118
6.9720001 -3.473 -0.118
6.987 -3.461 -0.119
6.9829998 -3.438 -0.118
7.0009999 -3.427 -0.119
7.0170002 -3.415 -0.119
7.0219998 -3.3970001 -0.119
7.039 -3.385 -0.119
7.0549998 -3.3729999 -0.119
7.0710001 -3.3599999 -0.119
7.0760002 -3.342 -0.119
7.0910001 -3.329 -0.119
7.099 -3.312 -0.119
7.099 -3.2920001 -0.119
7.118 -3.28 -0.12
7.1279998 -3.2650001 -0.12
7.1459999 -3.2520001 -0.12
7.1570001 -3.237 -0.12
7.1589999 -3.217 -0.12
7.1869998 -3.2090001 -0.12
7.1880002 -3.1889999 -0.12
7.198 -3.1730001 -0.12
7.1960001 -3.151 -0.12
7.2090001 -3.1359999 -0.12
7.2270002 -3.1229999 -0.121
7.2309999 -3.1040001 -0.12
7.2540002 -3.0929999 -0.121
7.2459998 -3.069 -0.121
7.2540002 -3.0510001 -0.121
7.2810001 -3.0409999 -0.121
7.289 -3.0239999 -0.121
7.309 -3.0109999 -0.121
7.323 -2.9960001 -0.121
7.3470001 -2.9849999 -0.122
7.3569999 -2.9679999 -0.122
7.3590002 -2.947 -0.122
7.3800001 -2.934 -0.122
7.3730001 -2.9100001 -0.122
7.3940001 -2.8970001 -0.122
7.4200001 -2.8859999 -0.122
7.4289999 -2.868 -0.122
7.448 -2.8540001 -0.123
7.441 -2.8299999 -0.122
7.4320002 -2.8050001 -0.122
7.4710002 -2.799 -0.123
7.4819999 -2.7809999 -0.123
7.494 -2.7639999 -0.123
7.5100002 -2.7479999 -0.123
7.5170002 -2.7290001 -0.123
7.5430002 -2.717 -0.123
7.5580001 -2.701 -0.123
7.566 -2.6819999 -0.123
7.579 -2.664 -0.124
7.5879998 -2.6459999 -0.124
7.6170001 -2.6340001 -0.124
7.619 -2.6129999 -0.124
7.625 -2.5929999 -0.124
7.6459999 -2.5780001 -0.124
7.6440001 -2.556 -0.124
7.6729999 -2.543 -0.124
7.6799998 -2.5239999 -0.124
7.7030001 -2.5090001 -0.125
7.7189999 -2.4920001 -0.125
7.7270002 -2.473 -0.125
7.7309999 -2.4519999 -0.125
7.7659998 -2.4400001 -0.125
7.7719998 -2.4200001 -0.125
7.8070002 -2.408 -0.126
7.8060002 -2.3859999 -0.126
7.8200002 -2.3670001 -0.126
7.8260002 -2.3469999 -0.126
7.8449998 -2.3299999 -0.126
7.8649998 -2.3139999 -0.126
7.8769999 -2.2939999 -0.126
7.8969998 -2.277 -0.126
7.9109998 -2.2590001 -0.127
7.9239998 -2.24 -0.127
7.9429998 -2.223 -0.127
7.961 -2.2049999 -0.127
7.9720001 -2.1849999 -0.127
7.9959998 -2.1689999 -0.127
7.9990001 -2.1470001 -0.127
8.0340004 -2.1329999 -0.12800001
8.04 -2.112 -0.12800001
8.0600004 -2.0940001 -0.12800001
8.0790005 -2.076 -0.12800001
8.0830002 -2.053 -0.12800001
8.0909996 -2.0320001 -0.12800001
8.1099997 -2.0139999 -0.12800001
8.1370001 -1.997 -0.12899999
8.1680002 -1.982 -0.12899999
8.1800003 -1.961 -0.12899999
8.1940002 -1.941 -0.12899999
8.2069998 -1.921 -0.12899999
8.2379999 -1.905 -0.13
8.2580004 -1.886 -0.13
8.2749996 -1.8660001 -0.13
8.2889996 -1.846 -0.13
8.2939997 -1.823 -0.13
8.2910004 -1.799 -0.13
8.3330002 -1.784 -0.131
8.3590002 -1.766 -0.131
8.3769999 -1.7460001 -0.131
8.4029999 -1.727 -0.131
8.4230003 -1.707 -0.132
8.4189997 -1.682 -0.131
8.4350004 -1.6619999 -0.132
8.4630003 -1.643 -0.132
8.4879999 -1.624 -0.132
8.5159998 -1.605 -0.132
8.54 -1.585 -0.133
8.5369997 -1.5599999 -0.133
8.5410004 -1.5369999 -0.133
8.566 -1.517 -0.133
8.5909996 -1.497 -0.133
8.6190004 -1.477 -0.133
8.6440001 -1.457 -0.134
8.6680002 -1.436 -0.134
8.6850004 -1.414 -0.134
8.7119999 -1.3940001 -0.134
8.7279997 -1.372 -0.13500001
8.7370005 -1.348 -0.13500001
8.7650003 -1.3279999 -0.13500001
8.7989998 -1.308 -0.13500001
8.8219995 -1.286 -0.13600001
8.8529997 -1.266 -0.13600001
8.8529997 -1.24 -0.13600001
8.8599997 -1.216 -0.13600001
8.9069996 -1.197 -0.13600001
8.9230003 -1.174 -0.13600001
8.9560003 -1.153 -0.13699999
8.9689999 -1.1289999 -0.13699999
9.0039997 -1.108 -0.13699999
9.0150003 -1.084 -0.13699999
9.04 -1.061 -0.138
9.085 -1.041 -0.138
9.1000004 -1.017 -0.138
9.1339998 -0.995 -0.139
9.1590004 -0.97100002 -0.139
9.1680002 -0.94599998 -0.139
9.191 -0.92299998 -0.139
9.224 -0.89999998 -0.14
9.2620001 -0.87699997 -0.14
9.2779999 -0.85299999 -0.14
9.3079996 -0.829 -0.141
9.3260002 -0.80400002 -0.141
9.349 -0.77999997 -0.141
9.3719997 -0.755 -0.141
9.3990002 -0.73100001 -0.141
9.4189997 -0.70499998 -0.142
9.4359999 -0.68000001 -0.142
9.4790001 -0.65600002 -0.142
9.5679998 -0.63499999 -0.14399999
9.5930004 -0.61000001 -0.14399999
9.6260004 -0.58499998 -0.14399999
9.6450005 -0.55900002 -0.14399999
9.7089996 -0.53500003 -0.145
9.7469997 -0.509 -0.146
9.7410002 -0.48100001 -0.145
9.8149996 -0.45699999 -0.146
9.6110001 0.169 -0.27599999
9.5909996 0.18000001 -0.27599999
9.5939999 0.192 -0.27599999
9.5749998 0.204 -0.27500001
9.5900002 0.21699999 -0.27599999
9.526 0.228 -0.27399999
9.5200005 0.23999999 -0.27399999
9.5190001 0.25299999 -0.27399999
9.5080004 0.266 -0.27399999
9.4940004 0.28 -0.27399999
9.4729996 0.29300001 -0.273
9.4860001 0.30700001 -0.27399999
9.4870005 0.32100001 -0.27399999
9.4779997 0.33500001 -0.27399999
9.4770002 0.34999999 -0.27399999
9.4650002 0.36399999 -0.27399999
9.4770002 0.37900001 -0.27500001
9.4720001 0.39399999 -0.27500001
9.4659996 0.40900001 -0.27500001
9.4680004 0.42500001 -0.27500001
9.4610004 0.44100001 -0.27500001
9.4729996 0.45699999 -0.27500001
9.4700003 0.47299999 -0.27500001
9.4680004 0.49000001 -0.27599999
9.4700003 0.50599998 -0.27599999
9.493 0.52499998 -0.27700001
9.4960003 0.542 -0.27700001
9.5220003 0.56099999 -0.278
9.5139999 0.57800001 -0.278
9.5340004 0.597 -0.27900001
9.5360003 0.61500001 -0.27900001
9.5310001 0.63300002 -0.27900001
9.5579996 0.653 -0.28
9.5649996 0.67199999 -0.28099999
9.5670004 0.69099998 -0.28099999
9.5749998 0.71100003 -0.28099999
9.5909996 0.73100001 -0.28200001
9.5979996 0.75099999 -0.28200001
9.6020002 0.77100003 -0.28299999
9.6140003 0.792 -0.28299999
9.6289997 0.81400001 -0.28400001
9.6099997 0.83200002 -0.28400001
9.6230001 0.85399997 -0.285
9.6359997 0.87599999 -0.285
9.6470003 0.898 -0.28600001
9.6639996 0.92000002 -0.287
9.6689997 0.94199997 -0.287
9.6929998 0.96600002 -0.28799999
9.6920004 0.98799998 -0.28799999
9.717 1.012 -0.289
9.7309999 1.036 -0.28999999
9.7390003 1.059 -0.29100001
9.7530003 1.084 -0.29100001
9.743 1.105 -0.29100001
9.7460003 1.1289999 -0.292
9.7460003 1.152 -0.292
9.7670002 1.178 -0.29300001
9.7790003 1.2029999 -0.294
9.7880001 1.228 -0.294
9.7930002 1.253 -0.29499999
9.809 1.279 -0.296
9.8199997 1.3049999 -0.296
9.835 1.331 -0.29699999
9.8529997 1.359 -0.29800001
9.8699999 1.386 -0.29899999
9.8739996 1.4119999 -0.29899999
9.8979998 1.441 -0.30000001
9.8920002 1.466 -0.301
9.9090004 1.494 -0.301
9.9259996 1.523 -0.30199999
9.9370003 1.551 -0.303
9.9499998 1.58 -0.30399999
9.9750004 1.61 -0.30500001
9.9890003 1.6390001 -0.30599999
9.9860001 1.666 -0.30599999
9.9870005 1.694 -0.30700001
10.009 1.725 -0.308
10.01 1.753 -0.308
10.023 1.783 -0.30899999
10.057 1.817 -0.31
10.057 1.845 -0.31099999
10.085 1.8789999 -0.31200001
10.079 1.9069999 -0.31200001
10.098 1.939 -0.31299999
10.118 1.973 -0.31400001
10.157 2.01 -0.31600001
10.166 2.0409999 -0.317
10.184 2.075 -0.31799999
10.208 2.1099999 -0.31900001
10.202 2.1389999 -0.31900001
10.231 2.175 -0.32100001
10.235 2.207 -0.32100001
10.246 2.24 -0.322
10.275 2.2780001 -0.324
10.277 2.309 -0.324
10.308 2.348 -0.32600001
10.322 2.3829999 -0.32699999
10.324 2.415 -0.32699999
10.338 2.451 -0.32800001
10.335 2.4820001 -0.329
10.357 2.52 -0.33000001
10.379 2.5580001 -0.331
10.365 2.5880001 -0.331
10.382 2.625 -0.33199999
10.408 2.665 -0.333
10.431 2.7049999 -0.33500001
10.45 2.743 -0.336
10.488 2.7869999 -0.338
10.512 2.8280001 -0.33899999
10.504 2.8599999 -0.33899999
10.532 2.9030001 -0.34099999
10.561 2.9460001 -0.34200001
10.585 2.9879999 -0.34400001
10.593 3.026 -0.345
10.616 3.0680001 -0.34599999
10.656 3.115 -0.34799999
10.686 3.1600001 -0.34900001
10.701 3.201 -0.34999999
10.695 3.2360001 -0.35100001
10.716 3.279 -0.352
10.735 3.322 -0.35299999
10.77 3.3699999 -0.35499999
10.795 3.4159999 -0.35699999
10.814 3.46 -0.35800001
10.806 3.4949999 -0.35800001
10.831 3.5420001 -0.36000001
10.846 3.585 -0.361
10.868 3.631 -0.36199999
10.878 3.6730001 -0.36300001
10.85 3.7030001 -0.36300001
10.864 3.7460001 -0.36399999
10.862 3.7850001 -0.36500001
10.838 3.816 -0.36500001
10.857 3.862 -0.366
10.893 3.915 -0.368
10.914 3.9630001 -0.36899999
10.913 4.0029998 -0.37
10.926 4.0479999 -0.37099999
10.937 4.0929999 -0.37200001
10.947 4.138 -0.373
10.966 4.1859999 -0.375
10.974 4.2309999 -0.37599999
11.031 4.2940001 -0.37799999
11.05 4.3439999 -0.38
11.105 4.408 -0.382
11.119 4.4559999 -0.384
11.111 4.4959998 -0.384
11.136 4.5489998 -0.38600001
11.182 4.6110001 -0.38800001
11.246 4.6810002 -0.391
11.269 4.7350001 -0.39300001
11.304 4.7940001 -0.39500001
11.313 4.842 -0.396
11.329 4.8940001 -0.39700001
11.377 4.96 -0.40000001
11.385 5.0079999 -0.40099999
11.422 5.0700002 -0.403
11.438 5.1230001 -0.40400001
11.457 5.178 -0.40599999
11.48 5.2350001 -0.40799999
11.484 5.283 -0.40900001
11.529 5.3509998 -0.41100001
11.536 5.401 -0.412
11.561 5.461 -0.414
11.575 5.5149999 -0.41499999
11.574 5.5630002 -0.41600001
11.618 5.632 -0.419
11.664 5.7030001 -0.421
11.656 5.7480001 -0.42199999
11.676 5.8070002 -0.42399999
11.673 5.8540001 -0.42399999
11.691 5.9130001 -0.426
11.711 5.973 -0.428
11.736 6.0349998 -0.43000001
11.751 6.0929999 -0.43099999
11.758 6.1469998 -0.43200001
11.78 6.2090001 -0.43399999
11.823 6.283 -0.43700001
11.839 6.3429999 -0.43799999
11.862 6.4070001 -0.44
11.882 6.4689999 -0.442
7.2670002 3.9890001 -0.271
11.976 6.573 -0.44600001
7.105 3.931 -0.26499999
7.0370002 3.924 -0.26300001
7.013 3.9419999 -0.26300001
6.9860001 3.9579999 -0.26300001
6.9860001 3.9890001 -0.26300001
7.0019999 4.0289998 -0.264
7.0599999 4.0939999 -0.26699999
12.132 7.0359998 -0.45899999
7.2350001 4.2280002 -0.27399999
12.046 7.04 -0.45699999
7.2319999 4.2589998 -0.27500001
12.046 7.0939999 -0.458
6.9949999 4.151 -0.26699999
6.9060001 4.1300001 -0.264
6.862 4.1350002 -0.26300001
6.835 4.1500001 -0.26199999
6.8179998 4.171 -0.26199999
6.8200002 4.2030001 -0.26300001
6.816 4.2319999 -0.26300001
6.8369999 4.277 -0.26499999
6.9039998 4.3509998 -0.26800001
9.9770002 6.6170001 -0.39399999
9.8520002 6.5809999 -0.38999999
9.8290005 6.612 -0.38999999
9.724 6.9190001 -0.39399999
9.5679998 6.8559999 -0.389
9.5050001 6.8569999 -0.38699999
4.4120002 -2.915 -0.067000002
4.4369998 -2.904 -0.067000002
4.4390001 -2.8770001 -0.067000002
4.4390001 -2.849 -0.067000002
4.4549999 -2.832 -0.067000002
4.4640002 -2.8110001 -0.067000002
4.4689999 -2.7869999 -0.067000002
4.4749999 -2.7639999 -0.067000002
4.487 -2.7449999 -0.067000002
4.4970002 -2.724 -0.067000002
4.5100002 -2.7060001 -0.067000002
4.5219998 -2.687 -0.067000002
4.5229998 -2.6619999 -0.067000002
4.5370002 -2.645 -0.068000004
4.5580001 -2.631 -0.068000004
4.572 -2.6140001 -0.068000004
4.5900002 -2.599 -0.068000004
4.6100001 -2.585 -0.068000004
4.6490002 -2.582 -0.068999998
4.697 -2.5829999 -0.068999998
4.783 -2.6040001 -0.07
6.8530002 -3.6949999 -0.101
6.8520002 -3.6589999 -0.101
6.875 -3.635 -0.101
6.8889999 -3.608 -0.101
6.9039998 -3.5799999 -0.101
6.9180002 -3.552 -0.101
6.9359999 -3.526 -0.101
6.9650002 -3.506 -0.102
6.9790001 -3.4790001 -0.102
6.9990001 -3.454 -0.102
7.0219998 -3.4319999 -0.102
7.052 -3.4119999 -0.102
7.0650001 -3.3840001 -0.102
7.0749998 -3.3559999 -0.102
7.1100001 -3.3380001 -0.103
7.1069999 -3.3039999 -0.103
7.1230001 -3.2780001 -0.103
7.1479998 -3.256 -0.103
7.1739998 -3.2349999 -0.103
7.2049999 -3.217 -0.103
7.2129998 -3.188 -0.103
7.23 -3.1630001 -0.104
7.2410002 -3.135 -0.104
7.2589998 -3.1110001 -0.104
7.283 -3.0899999 -0.104
7.2930002 -3.062 -0.104
7.3200002 -3.0420001 -0.104
7.3449998 -3.0209999 -0.104
7.3600001 -2.9960001 -0.105
7.3850002 -2.974 -0.105
7.401 -2.95 -0.105
7.414 -2.924 -0.105
7.4450002 -2.905 -0.105
7.4439998 -2.875 -0.105
7.473 -2.855 -0.105
7.4910002 -2.832 -0.106
7.5110002 -2.809 -0.106
7.5339999 -2.7880001 -0.106
7.5669999 -2.77 -0.106
7.573 -2.7420001 -0.106
7.605 -2.724 -0.107
7.6139998 -2.698 -0.107
7.6430001 -2.6789999 -0.107
7.6760001 -2.661 -0.107
7.6869998 -2.6359999 -0.107
7.7129998 -2.615 -0.107
7.7049999 -2.5840001 -0.107
7.7340002 -2.5639999 -0.107
7.7610002 -2.5450001 -0.108
7.7849998 -2.5239999 -0.108
7.8039999 -2.5009999 -0.108
7.816 -2.477 -0.108
7.8509998 -2.46 -0.109
7.875 -2.4389999 -0.109
7.8940001 -2.4170001 -0.109
7.9130001 -2.395 -0.109
7.9239998 -2.3699999 -0.109
7.9460001 -2.349 -0.109
7.9790001 -2.3310001 -0.11
7.994 -2.3080001 -0.11
8.0190001 -2.2880001 -0.11
8.0500002 -2.27 -0.11
8.0570002 -2.244 -0.11
8.0889997 -2.2260001 -0.111
8.099 -2.2019999 -0.111
8.1079998 -2.178 -0.111
8.1389999 -2.1589999 -0.111
8.1490002 -2.135 -0.111
8.1870003 -2.119 -0.111
8.2069998 -2.0969999 -0.112
8.2220001 -2.075 -0.112
8.2410002 -2.053 -0.112
8.2609997 -2.0320001 -0.112
8.2849998 -2.0120001 -0.112
8.3219995 -1.995 -0.113
8.3190002 -1.969 -0.112
8.3610001 -1.9529999 -0.113
8.3809996 -1.932 -0.113
8.3769999 -1.906 -0.113
8.4119997 -1.888 -0.113
8.4239998 -1.865 -0.113
8.4449997 -1.845 -0.114
8.4619999 -1.824 -0.114
8.4829998 -1.803 -0.114
8.5159998 -1.785 -0.114
8.5319996 -1.7640001 -0.114
8.5459995 -1.742 -0.114
8.559 -1.72 -0.115
8.5939999 -1.702 -0.115
8.6160002 -1.682 -0.115
8.6309996 -1.661 -0.115
8.6529999 -1.641 -0.115
8.6639996 -1.619 -0.115
8.6829996 -1.599 -0.116
8.658 -1.5700001 -0.115
8.7159996 -1.557 -0.116
8.7250004 -1.535 -0.116
8.7410002 -1.5140001 -0.116
8.7679996 -1.495 -0.116
8.7849998 -1.475 -0.116
8.7969999 -1.454 -0.117
8.8360004 -1.437 -0.117
8.8280001 -1.413 -0.117
8.8590002 -1.395 -0.117
8.8950005 -1.377 -0.117
8.9029999 -1.3559999 -0.117
8.9180002 -1.335 -0.118
8.9399996 -1.316 -0.118
8.9440002 -1.294 -0.118
8.9610004 -1.274 -0.118
8.9790001 -1.255 -0.118
9.0170002 -1.238 -0.118
9.0109997 -1.215 -0.118
9.0509996 -1.198 -0.119
9.0539999 -1.177 -0.119
9.0880003 -1.159 -0.119
9.0950003 -1.1390001 -0.119
9.1199999 -1.12 -0.119
9.1470003 -1.102 -0.12
9.1549997 -1.082 -0.12
9.1850004 -1.064 -0.12
9.2159996 -1.046 -0.12
9.2250004 -1.026 -0.12
9.2370005 -1.006 -0.12
9.257 -0.98799998 -0.121
9.2639999 -0.96799999 -0.121
9.2690001 -0.94700003 -0.121
9.3009996 -0.93000001 -0.121
9.3120003 -0.91100001 -0.121
9.3319998 -0.89200002 -0.121
9.3479996 -0.87300003 -0.121
9.3640003 -0.85500002 -0.121
9.3730001 -0.83499998 -0.121
9.3999996 -0.81800002 -0.122
9.4119997 -0.79900002 -0.122
9.434 -0.78100002 -0.122
9.4659996 -0.764 -0.122
9.4759998 -0.745 -0.122
9.5159998 -0.72899997 -0.123
9.5410004 -0.71100003 -0.123
9.5349998 -0.69099998 -0.123
9.5509996 -0.67299998 -0.123
9.5880003 -0.65700001 -0.124
9.6040001 -0.639 -0.124
9.6350002 -0.62199998 -0.124
9.6450005 -0.60399997 -0.124
9.6730003 -0.58700001 -0.124
9.6929998 -0.56900001 -0.125
9.7030001 -0.551 -0.125
9.7480001 -0.53500003 -0.125
9.7639999 -0.51800001 -0.125
9.8050003 -0.50199997 -0.126
9.8290005 -0.484 -0.126
9.908 -0.47 -0.127
9.9809999 -0.45500001 -0.12800001
9.9099998 -0.43399999 -0.127
9.3339996 0.112 -0.243
9.3940001 0.13 -0.245
9.3970003 0.147 -0.245
9.415 0.16500001 -0.245
9.4139996 0.183 -0.24600001
9.401 0.2 -0.245
9.4099998 0.21799999 -0.24600001
9.4130001 0.237 -0.24600001
9.4130001 0.255 -0.24600001
9.4239998 0.27399999 -0.24699999
9.4259996 0.29300001 -0.24699999
9.4110003 0.31200001 -0.24699999
9.4130001 0.331 -0.24699999
9.4300003 0.35100001 -0.248
9.4239998 0.37 -0.248
9.4350004 0.391 -0.248
9.4250002 0.41 -0.248
9.4359999 0.43099999 -0.249
9.4320002 0.45100001 -0.249
9.4449997 0.472 -0.249
9.4499998 0.493 -0.25
9.4530001 0.514 -0.25
9.4720001 0.53600001 -0.25099999
9.4890003 0.55900002 -0.25099999
9.4779997 0.57999998 -0.25099999
9.5050001 0.60299999 -0.252
9.5039997 0.625 -0.252
9.5310001 0.64899999 -0.25299999
9.5419998 0.67199999 -0.25400001
9.5530005 0.69499999 -0.25400001
9.559 0.71799999 -0.255
9.5749998 0.74299997 -0.255
9.5620003 0.76499999 -0.255
9.5819998 0.78899997 -0.25600001
9.6059999 0.815 -0.257
9.6309996 0.84100002 -0.25799999
9.6429996 0.866 -0.259
9.6300001 0.889 -0.25799999
9.6389999 0.91399997 -0.259
9.6459999 0.93900001 -0.259
9.6680002 0.96499997 -0.25999999
9.691 0.99299997 -0.26100001
9.7069998 1.0190001 -0.26199999
9.7279997 1.0470001 -0.26300001
9.7320004 1.072 -0.26300001
9.7700005 1.102 -0.26499999
9.7670002 1.128 -0.26499999
9.7849998 1.156 -0.266
9.7950001 1.183 -0.266
9.7880001 1.2079999 -0.266
9.8149996 1.238 -0.26699999
9.8369999 1.268 -0.26800001
9.835 1.294 -0.26899999
9.8450003 1.323 -0.26899999
9.8710003 1.353 -0.27000001
9.8800001 1.382 -0.271
9.9119997 1.414 -0.27200001
9.9259996 1.444 -0.273
9.9549999 1.476 -0.27399999
9.9560003 1.5039999 -0.27399999
9.967 1.534 -0.27500001
9.9899998 1.566 -0.27599999
10.012 1.599 -0.27700001
10.034 1.631 -0.278
10.053 1.663 -0.27900001
10.064 1.694 -0.27900001
10.073 1.725 -0.28
10.092 1.758 -0.28099999
10.119 1.793 -0.28200001
10.134 1.825 -0.28299999
10.154 1.859 -0.28400001
10.174 1.893 -0.285
10.213 1.931 -0.28600001
10.225 1.964 -0.287
10.26 2.0020001 -0.289
10.286 2.0380001 -0.28999999
10.307 2.073 -0.29100001
10.322 2.108 -0.292
10.35 2.1459999 -0.29300001
10.36 2.1789999 -0.29300001
10.388 2.2179999 -0.29499999
10.414 2.2550001 -0.296
10.428 2.2909999 -0.29699999
10.47 2.3329999 -0.29800001
10.475 2.3670001 -0.29899999
10.508 2.4070001 -0.30000001
10.522 2.444 -0.301
10.534 2.48 -0.30199999
10.54 2.5150001 -0.303
10.549 2.5510001 -0.303
10.568 2.589 -0.30399999
10.58 2.6259999 -0.30500001
10.616 2.6689999 -0.30700001
10.628 2.707 -0.308
10.667 2.7509999 -0.30899999
10.713 2.7980001 -0.31099999
10.74 2.8399999 -0.31200001
10.772 2.8840001 -0.31400001
10.782 2.9219999 -0.315
10.802 2.9630001 -0.31600001
10.82 3.003 -0.317
10.825 3.0409999 -0.317
10.855 3.085 -0.31900001
10.88 3.128 -0.31999999
10.909 3.1730001 -0.322
10.922 3.2130001 -0.32300001
10.943 3.256 -0.324
10.984 3.306 -0.32499999
10.989 3.3440001 -0.32600001
11.018 3.3900001 -0.32800001
11.054 3.4389999 -0.329
11.095 3.4890001 -0.331
11.118 3.5339999 -0.33199999
11.137 3.5780001 -0.333
11.149 3.6199999 -0.33399999
11.142 3.6559999 -0.33500001
11.159 3.7 -0.336
11.16 3.7390001 -0.33700001
11.171 3.7809999 -0.33700001
11.193 3.8280001 -0.33899999
11.2 3.869 -0.34
11.206 3.9100001 -0.34
11.21 3.95 -0.34099999
11.226 3.9949999 -0.34200001
11.226 4.0339999 -0.34299999
11.247 4.0809999 -0.34400001
11.239 4.118 -0.345
11.266 4.1680002 -0.34599999
11.294 4.2179999 -0.34799999
11.309 4.263 -0.34900001
11.361 4.323 -0.35100001
11.372 4.368 -0.352
11.382 4.4120002 -0.35299999
11.422 4.4679999 -0.35499999
11.447 4.5180001 -0.35600001
11.469 4.5679998 -0.35800001
11.483 4.6139998 -0.359
11.502 4.6630001 -0.36000001
11.563 4.7290001 -0.36300001
11.612 4.7909999 -0.36500001
11.609 4.8309999 -0.366
11.638 4.8850002 -0.36700001
11.637 4.927 -0.368
11.661 4.9790001 -0.36899999
11.675 5.027 -0.37
11.723 5.0900002 -0.373
11.745 5.1420002 -0.37400001
11.753 5.1880002 -0.375
11.775 5.2410002 -0.377
11.791 5.2909999 -0.37799999
11.805 5.3400002 -0.37900001
11.826 5.3920002 -0.38100001
11.812 5.4289999 -0.38100001
11.832 5.4809999 -0.382
11.864 5.539 -0.384
11.879 5.5890002 -0.38499999
11.895 5.6399999 -0.38699999
11.898 5.6849999 -0.38800001
11.922 5.7399998 -0.389
11.932 5.7880001 -0.38999999
11.95 5.8400002 -0.39199999
11.934 5.8769999 -0.39199999
11.971 5.9390001 -0.39399999
11.991 5.9920001 -0.39500001
12.006 6.0440001 -0.39700001
12.028 6.098 -0.398
12.026 6.1420002 -0.39899999
12.057 6.2020001 -0.40099999
12.068 6.2509999 -0.40200001
12.109 6.3169999 -0.40400001
12.171 6.3940001 -0.40700001
12.134 6.4190001 -0.40700001
12.198 6.4970002 -0.41
12.19 6.5370002 -0.41
12.185 6.579 -0.41100001
12.22 6.6430001 -0.41299999
12.26 6.7090001 -0.41499999
7.2309999 3.983 -0.245
12.364 6.8109999 -0.41999999
7.0910001 3.9319999 -0.241
7.0359998 3.927 -0.23999999
7.0149999 3.941 -0.23999999
6.9980001 3.9560001 -0.23899999
6.9850001 3.9749999 -0.23999999
6.987 4.0009999 -0.23999999
7.02 4.0450001 -0.242
7.072 4.1009998 -0.244
7.2049999 4.204 -0.249
7.0780001 4.1550002 -0.245
6.9510002 4.1059999 -0.241
6.8959999 4.098 -0.23999999
6.8639998 4.1040001 -0.23899999
6.8499999 4.1199999 -0.23999999
6.8379998 4.1370001 -0.23999999
6.8260002 4.1539998 -0.23999999
6.8200002 4.1750002 -0.23999999
6.8449998 4.2150002 -0.241
6.8730001 4.256 -0.243
6.9970002 4.3579998 -0.248
9.6090002 6.7670002 -0.359
9.5609999 6.7639999 -0.35800001
9.5019999 6.7519999 -0.35699999
9.4689999 6.7589998 -0.35600001
9.4460001 6.7709999 -0.35600001
9.4189997 6.7820001 -0.35600001
9.401 6.7979999 -0.35600001
9.3940001 6.822 -0.35600001
9.368 6.8309999 -0.35600001
4.6490002 -2.7260001 -0.057999998
4.6240001 -2.6989999 -0.057999998
4.6040001 -2.674 -0.057
4.598 -2.658 -0.057
4.5970001 -2.6440001 -0.057
4.5879998 -2.6259999 -0.057
4.5890002 -2.6140001 -0.057
4.5890002 -2.6010001 -0.057
4.5879998 -2.5869999 -0.057
4.5929999 -2.5769999 -0.057
4.5879998 -2.562 -0.057
4.585 -2.5469999 -0.057
4.5879998 -2.5350001 -0.057
4.6040001 -2.5309999 -0.057
4.6079998 -2.52 -0.057
4.618 -2.513 -0.057
4.619 -2.5 -0.057
4.631 -2.494 -0.057
4.6500001 -2.49 -0.057
4.6669998 -2.4860001 -0.057
4.691 -2.4860001 -0.057999998
4.7420001 -2.4990001 -0.057999998
4.7690001 -2.5 -0.057999998
4.7969999 -2.5009999 -0.059
4.9180002 -2.55 -0.059999999
7.0700002 -3.6459999 -0.086999997
7.079 -3.6300001 -0.086999997
7.0710001 -3.605 -0.086000003
7.085 -3.592 -0.086999997
7.1040001 -3.582 -0.086999997
7.1139998 -3.566 -0.086999997
7.138 -3.5580001 -0.086999997
7.1529999 -3.5450001 -0.086999997
7.1680002 -3.5320001 -0.086999997
7.1900001 -3.5220001 -0.086999997
7.1900001 -3.5009999 -0.086999997
7.1989999 -3.4849999 -0.086999997
7.1919999 -3.461 -0.086999997
7.2119999 -3.45 -0.086999997
7.223 -3.4349999 -0.086999997
7.2280002 -3.4159999 -0.086999997
7.2459998 -3.404 -0.086999997
7.2519999 -3.3859999 -0.086999997
7.2680001 -3.3729999 -0.086999997
7.2950001 -3.3640001 -0.088
7.2969999 -3.3440001 -0.088
7.3049998 -3.3269999 -0.088
7.3189998 -3.312 -0.088
7.335 -3.2980001 -0.088
7.348 -3.283 -0.088
7.3670001 -3.27 -0.088
7.3769999 -3.253 -0.088
7.3709998 -3.23 -0.088
7.3930001 -3.2179999 -0.088
7.414 -3.2060001 -0.088
7.4070001 -3.181 -0.088
7.4359999 -3.1719999 -0.088
7.441 -3.1530001 -0.088
7.4320002 -3.128 -0.088
7.4590001 -3.1170001 -0.088
7.473 -3.102 -0.088
