# .PCD v0.7 - Point Cloud Data file format
VERSION 0.7
FIELDS x y z
SIZE 4 4 4
TYPE F F F
COUNT 1 1 1
WIDTH 1653
HEIGHT 1
VIEWPOINT 0 0 0 1 0 0 0
POINTS 1653
DATA ascii
6.184 -2.9960001 -0.317
6.1859999 -2.9790001 -0.317
6.1900001 -2.964 -0.317
6.1919999 -2.947 -0.317
6.2059999 -2.9360001 -0.317
6.2059999 -2.9189999 -0.317
6.2259998 -2.9100001 -0.31799999
6.217 -2.888 -0.317
6.2329998 -2.878 -0.31799999
6.2490001 -2.868 -0.31900001
6.2589998 -2.8540001 -0.31900001
6.2670002 -2.8399999 -0.31900001
6.2709999 -2.8239999 -0.31999999
6.2859998 -2.813 -0.31999999
6.29 -2.7969999 -0.31999999
6.3109999 -2.7880001 -0.32100001
6.3200002 -2.7739999 -0.32100001
6.3319998 -2.7609999 -0.322
6.3520002 -2.7520001 -0.32300001
6.3590002 -2.737 -0.32300001
6.3720002 -2.724 -0.32300001
6.3860002 -2.7119999 -0.324
6.3899999 -2.6960001 -0.324
6.4109998 -2.6860001 -0.32499999
6.4120002 -2.668 -0.32499999
6.4239998 -2.655 -0.32499999
6.4239998 -2.6370001 -0.32499999
6.4450002 -2.6270001 -0.32600001
6.4499998 -2.6110001 -0.32600001
6.4660001 -2.599 -0.32699999
6.4699998 -2.582 -0.32699999
6.4829998 -2.569 -0.32800001
6.487 -2.552 -0.32800001
6.5079999 -2.5409999 -0.32800001
6.5120001 -2.5239999 -0.32800001
6.5349998 -2.5139999 -0.33000001
6.5409999 -2.4979999 -0.33000001
6.5440001 -2.4809999 -0.33000001
6.5469999 -2.4630001 -0.33000001
6.5580001 -2.4489999 -0.33000001
6.573 -2.4349999 -0.331
6.5650001 -2.414 -0.33000001
6.5830002 -2.401 -0.331
6.6090002 -2.392 -0.33199999
6.6079998 -2.3729999 -0.33199999
6.6170001 -2.3570001 -0.33199999
6.6290002 -2.342 -0.333
6.6269999 -2.323 -0.33199999
6.6529999 -2.313 -0.333
6.6440001 -2.2909999 -0.333
6.6589999 -2.277 -0.333
6.6700001 -2.2620001 -0.33399999
6.6760001 -2.2449999 -0.33399999
6.6900001 -2.2309999 -0.33500001
6.6919999 -2.2119999 -0.33399999
6.7020001 -2.1960001 -0.33500001
6.7059999 -2.1789999 -0.33500001
6.724 -2.165 -0.336
6.7319999 -2.148 -0.336
6.7270002 -2.128 -0.33500001
6.743 -2.1129999 -0.336
6.7550001 -2.098 -0.33700001
6.7709999 -2.0840001 -0.33700001
6.7789998 -2.0669999 -0.33700001
6.7849998 -2.049 -0.33700001
6.7969999 -2.033 -0.338
6.816 -2.02 -0.33899999
6.836 -2.006 -0.34
6.8330002 -1.9859999 -0.33899999
6.8400002 -1.9680001 -0.33899999
6.8429999 -1.95 -0.33899999
6.8559999 -1.934 -0.34
6.8730001 -1.919 -0.34099999
6.8800001 -1.902 -0.34099999
6.8909998 -1.885 -0.34099999
6.9089999 -1.87 -0.34200001
6.9130001 -1.852 -0.34200001
6.9260001 -1.836 -0.34200001
6.9320002 -1.817 -0.34299999
6.928 -1.7970001 -0.34200001
6.9749999 -1.789 -0.34400001
6.9809999 -1.771 -0.34400001
6.9679999 -1.748 -0.34400001
7.0029998 -1.737 -0.345
7.0110002 -1.719 -0.345
7.027 -1.7029999 -0.34599999
7.039 -1.686 -0.34599999
7.0549998 -1.669 -0.347
7.0609999 -1.651 -0.347
7.0770001 -1.6339999 -0.34799999
7.098 -1.619 -0.34900001
7.105 -1.601 -0.34900001
7.1209998 -1.584 -0.34900001
7.131 -1.566 -0.34999999
7.1570001 -1.551 -0.35100001
7.1539998 -1.53 -0.35100001
7.177 -1.515 -0.352
7.1929998 -1.498 -0.352
7.2080002 -1.4809999 -0.35299999
7.217 -1.462 -0.35299999
7.2309999 -1.444 -0.35299999
7.256 -1.429 -0.35499999
7.2579999 -1.409 -0.354
7.277 -1.392 -0.35499999
7.2950001 -1.375 -0.35600001
7.3200002 -1.359 -0.35699999
7.3210001 -1.3380001 -0.35699999
7.3369999 -1.3200001 -0.35699999
7.3509998 -1.302 -0.35800001
7.3610001 -1.283 -0.35800001
7.3730001 -1.2640001 -0.359
7.3909998 -1.2460001 -0.359
7.408 -1.228 -0.36000001
7.434 -1.212 -0.361
7.4530001 -1.194 -0.36199999
7.4530001 -1.173 -0.36199999
7.461 -1.153 -0.36199999
7.4920001 -1.136 -0.36300001
7.506 -1.117 -0.36399999
7.5370002 -1.101 -0.36500001
7.5539999 -1.082 -0.366
7.5630002 -1.062 -0.366
7.5710001 -1.041 -0.366
7.598 -1.024 -0.36700001
7.6230001 -1.005 -0.368
7.625 -0.98400003 -0.368
7.6370001 -0.96399999 -0.36899999
7.6490002 -0.94400001 -0.36899999
7.6830001 -0.92699999 -0.37
7.7069998 -0.90799999 -0.37099999
7.7090001 -0.88599998 -0.37099999
7.7179999 -0.866 -0.37099999
7.7280002 -0.84500003 -0.37200001
7.7670002 -0.82700002 -0.373
7.7750001 -0.80599999 -0.37400001
7.7989998 -0.787 -0.375
7.822 -0.76700002 -0.37599999
7.8439999 -0.74699998 -0.37599999
7.8769999 -0.72799999 -0.37799999
7.8930001 -0.70700002 -0.37799999
7.9380002 -0.68900001 -0.38
7.9330001 -0.66600001 -0.38
7.9320002 -0.64399999 -0.38
7.9640002 -0.62400001 -0.38100001
8.0109997 -0.60500002 -0.38299999
8.0179996 -0.583 -0.38299999
8.0649996 -0.56400001 -0.38499999
8.0699997 -0.54100001 -0.38499999
8.0740004 -0.51899999 -0.38499999
8.1059999 -0.498 -0.38699999
8.1459999 -0.47799999 -0.38800001
8.1669998 -0.456 -0.389
8.1929998 -0.43399999 -0.38999999
8.2510004 -0.414 -0.39300001
8.2919998 -0.39300001 -0.39399999
8.2810001 -0.36899999 -0.39399999
8.1569996 0.204 -0.53600001
8.0760002 0.214 -0.53100002
8.0319996 0.22400001 -0.528
8.0279999 0.236 -0.528
7.9920001 0.24699999 -0.52600002
7.9759998 0.25799999 -0.52499998
8.007 0.271 -0.52700001
7.9510002 0.28200001 -0.52399999
7.9640002 0.29499999 -0.52499998
7.9510002 0.30700001 -0.52399999
7.9629998 0.32100001 -0.52499998
7.9559999 0.33399999 -0.52499998
7.9530001 0.347 -0.52499998
7.9510002 0.36000001 -0.52499998
7.9330001 0.373 -0.52399999
7.9320002 0.38699999 -0.52399999
7.9320002 0.40099999 -0.52399999
7.9239998 0.414 -0.52399999
7.9310002 0.42899999 -0.52499998
7.9380002 0.44400001 -0.52499998
7.9320002 0.458 -0.52499998
7.9419999 0.47400001 -0.52600002
7.9180002 0.48699999 -0.52499998
7.9260001 0.50300002 -0.52600002
7.927 0.51800001 -0.52600002
7.9380002 0.53399998 -0.52700001
7.9250002 0.54900002 -0.52600002
7.9400001 0.56599998 -0.528
7.9289999 0.58099997 -0.52700001
7.9400001 0.59799999 -0.528
7.9380002 0.61400002 -0.528
7.9250002 0.63 -0.528
7.9219999 0.64600003 -0.528
7.9349999 0.66399997 -0.52899998
7.927 0.68000001 -0.52899998
7.947 0.699 -0.53100002
7.9369998 0.71499997 -0.52999997
7.9400001 0.73299998 -0.53100002
7.9450002 0.75099999 -0.53200001
7.9320002 0.76700002 -0.53100002
7.941 0.78600001 -0.53200001
7.9429998 0.80400002 -0.53299999
7.9380002 0.82200003 -0.53299999
7.9510002 0.84200001 -0.53399998
7.9369998 0.85900003 -0.53299999
7.9489999 0.87900001 -0.53500003
7.947 0.89700001 -0.53500003
7.948 0.91600001 -0.53500003
7.9530001 0.93599999 -0.53600001
7.967 0.95700002 -0.53799999
7.9619999 0.97600001 -0.53799999
7.9619999 0.995 -0.53799999
7.9759998 1.017 -0.53899997
7.9549999 1.034 -0.53899997
7.9549999 1.054 -0.53899997
7.9710002 1.076 -0.54100001
7.9759998 1.097 -0.54100001
7.9879999 1.119 -0.54299998
7.9819999 1.1390001 -0.54299998
7.98 1.159 -0.54299998
7.9879999 1.181 -0.54400003
7.9949999 1.2029999 -0.54500002
8.0089998 1.227 -0.54699999
8.0200005 1.25 -0.54799998
7.9990001 1.268 -0.54699999
8.0019999 1.29 -0.54799998
7.9990001 1.311 -0.54799998
7.901 1.317 -0.542
7.7309999 1.3099999 -0.53100002
7.6659999 1.3200001 -0.52700001
7.6360002 1.336 -0.52499998
7.6259999 1.3559999 -0.52499998
7.6459999 1.381 -0.52700001
7.6890001 1.41 -0.53100002
7.915 1.474 -0.54699999
8.0719995 1.527 -0.55800003
8.0799999 1.552 -0.56
8.085 1.576 -0.56099999
8.0869999 1.6 -0.56099999
8.1049995 1.628 -0.56300002
8.0880003 1.648 -0.56300002
7.9759998 1.649 -0.55500001
7.7199998 1.619 -0.53799999
7.6490002 1.627 -0.53399998
7.632 1.646 -0.53299999
7.599 1.6619999 -0.53200001
7.6009998 1.686 -0.53299999
7.599 1.709 -0.53299999
7.618 1.7359999 -0.53500003
7.6799998 1.774 -0.54000002
7.9000001 1.85 -0.55599999
8.217 1.95 -0.579
8.2360001 1.98 -0.58099997
8.2530003 2.01 -0.583
8.2440004 2.0339999 -0.583
8.2489996 2.062 -0.58399999
8.2659998 2.0929999 -0.58600003
8.2860003 2.1240001 -0.58899999
8.283 2.1500001 -0.58899999
8.2980003 2.181 -0.59100002
8.2980003 2.2090001 -0.59200001
8.3120003 2.2390001 -0.59399998
8.3120003 2.267 -0.59399998
8.3170004 2.296 -0.59600002
8.3290005 2.3269999 -0.597
8.335 2.3559999 -0.59899998
8.3599997 2.392 -0.60100001
8.3789997 2.425 -0.60299999
8.3610001 2.4489999 -0.60299999
8.3889999 2.4849999 -0.60600001
8.3940001 2.516 -0.60699999
8.3990002 2.546 -0.60799998
8.3979998 2.575 -0.60900003
8.4300003 2.6140001 -0.61199999
8.4200001 2.6400001 -0.61299998
8.4219999 2.6700001 -0.61400002
8.4429998 2.7060001 -0.616
8.4429998 2.7360001 -0.61699998
8.4639997 2.773 -0.61900002
8.4680004 2.8039999 -0.62099999
8.4750004 2.8369999 -0.62199998
8.4949999 2.8740001 -0.625
8.5080004 2.9089999 -0.62699997
8.526 2.9460001 -0.62900001
8.5369997 2.9809999 -0.63099998
8.5530005 3.0179999 -0.63300002
8.5699997 3.0550001 -0.63499999
8.5719995 3.0880001 -0.63599998
8.5830002 3.1229999 -0.63800001
8.6020002 3.1619999 -0.64099997
8.6049995 3.1949999 -0.64200002
8.6260004 3.2349999 -0.64399999
8.6260004 3.2679999 -0.64499998
8.6289997 3.3010001 -0.64700001
8.6440001 3.3399999 -0.64899999
8.665 3.381 -0.65200001
8.691 3.424 -0.65499997
8.677 3.4519999 -0.65499997
8.6999998 3.494 -0.65799999
8.7189999 3.536 -0.66000003
8.7250004 3.572 -0.662
8.7449999 3.6140001 -0.66399997
8.7460003 3.6489999 -0.66600001
8.7720003 3.694 -0.66900003
8.7959995 3.7390001 -0.67199999
8.7919998 3.7720001 -0.67299998
8.809 3.8139999 -0.67500001
8.8240004 3.8559999 -0.67699999
8.8149996 3.8870001 -0.67799997
8.8579998 3.9419999 -0.68199998
8.8769999 3.9860001 -0.685
8.9049997 4.0339999 -0.68900001
8.8929996 4.0650001 -0.68900001
8.8850002 4.0970001 -0.68900001
8.8900003 4.1360002 -0.69099998
8.9110003 4.1830001 -0.69400001
8.9090004 4.2179999 -0.69499999
8.9320002 4.2659998 -0.69800001
8.9530001 4.3130002 -0.70099998
8.9519997 4.3499999 -0.70200002
8.9490004 4.3860002 -0.704
8.9530001 4.4260001 -0.70499998
8.9680004 4.4710002 -0.708
8.9799995 4.5149999 -0.70999998
8.9980001 4.5619998 -0.713
9.0159998 4.6090002 -0.71600002
9.0220003 4.651 -0.71700001
9.0279999 4.6929998 -0.71899998
9.0249996 4.73 -0.72000003
9.0410004 4.777 -0.72299999
9.0480003 4.8200002 -0.72500002
9.0500002 4.8600001 -0.727
9.0489998 4.9000001 -0.72799999
9.0649996 4.948 -0.73100001
9.0719995 4.9910002 -0.73299998
9.1059999 5.0500002 -0.73699999
9.1339998 5.1059999 -0.741
9.1169996 5.1370001 -0.741
9.1020002 5.1690001 -0.741
9.0979996 5.2080002 -0.74199998
9.0979996 5.2480001 -0.74400002
9.0979996 5.289 -0.745
9.0889997 5.3249998 -0.74599999
9.1009998 5.3730001 -0.74900001
9.1140003 5.4219999 -0.75099999
9.1169996 5.4650002 -0.75300002
9.1239996 5.5120001 -0.755
9.1260004 5.5549998 -0.75700003
9.1219997 5.5939999 -0.75800002
9.1260004 5.6389999 -0.75999999
9.1529999 5.698 -0.764
9.1339998 5.7290001 -0.764
9.1379995 5.7740002 -0.76599997
9.1569996 5.8280001 -0.76899999
9.151 5.8670001 -0.76999998
9.165 5.9200001 -0.773
9.158 5.9580002 -0.77399999
9.1569996 6.0009999 -0.77600002
9.1809998 6.0599999 -0.77999997
9.1370001 6.0749998 -0.778
9.151 6.1269999 -0.78100002
9.1599998 6.178 -0.78299999
9.1420002 6.21 -0.78299999
9.1370001 6.25 -0.78500003
9.1309996 6.2909999 -0.78600001
9.1269999 6.3319998 -0.787
9.1230001 6.3740001 -0.78899997
9.0959997 6.3990002 -0.78799999
9.1090002 6.4530001 -0.79100001
9.066 6.467 -0.78899997
9.0649996 6.5100002 -0.79100001
9.0120001 6.5170002 -0.78799999
5.6030002 -3.7160001 -0.28200001
5.625 -3.6949999 -0.28299999
5.6479998 -3.675 -0.28400001
5.6680002 -3.652 -0.28400001
5.6729999 -3.6210001 -0.28400001
5.7140002 -3.6110001 -0.28600001
5.737 -3.5910001 -0.287
5.7449999 -3.5610001 -0.287
5.7579999 -3.536 -0.287
5.7750001 -3.5120001 -0.28799999
5.796 -3.4909999 -0.28799999
5.8179998 -3.47 -0.289
5.8280001 -3.4419999 -0.289
5.8299999 -3.4100001 -0.289
5.862 -3.3959999 -0.28999999
5.8740001 -3.3699999 -0.29100001
5.8870001 -3.345 -0.29100001
5.9039998 -3.322 -0.29100001
5.9159999 -3.296 -0.292
5.9229999 -3.2679999 -0.292
5.9380002 -3.244 -0.292
5.9549999 -3.2219999 -0.29300001
5.9770002 -3.2019999 -0.294
5.9879999 -3.177 -0.294
6.0029998 -3.154 -0.294
6.0279999 -3.1359999 -0.29499999
6.046 -3.1140001 -0.296
6.066 -3.0940001 -0.296
6.0809999 -3.0710001 -0.29699999
6.1100001 -3.0550001 -0.29800001
6.1149998 -3.027 -0.29800001
6.132 -3.0050001 -0.29800001
6.145 -2.9820001 -0.29899999
6.1690001 -2.964 -0.30000001
6.1820002 -2.9400001 -0.30000001
6.1929998 -2.9159999 -0.30000001
6.2160001 -2.8970001 -0.301
6.2280002 -2.8740001 -0.301
6.2329998 -2.848 -0.301
6.2490001 -2.826 -0.30199999
6.2729998 -2.8080001 -0.303
6.2979999 -2.7909999 -0.30399999
6.3140001 -2.7690001 -0.30399999
6.348 -2.756 -0.30599999
6.3559999 -2.7309999 -0.30599999
6.3779998 -2.7119999 -0.30700001
6.3930001 -2.691 -0.30700001
6.4109998 -2.671 -0.308
6.4289999 -2.6500001 -0.308
6.4439998 -2.6289999 -0.30899999
6.4590001 -2.608 -0.30899999
6.4780002 -2.5880001 -0.31
6.4980001 -2.569 -0.31099999
6.513 -2.5480001 -0.31099999
6.5300002 -2.527 -0.31200001
6.552 -2.5090001 -0.31299999
6.5570002 -2.484 -0.31200001
6.5840001 -2.4679999 -0.31400001
6.5929999 -2.4449999 -0.31400001
6.6069999 -2.4230001 -0.31400001
6.6240001 -2.4030001 -0.315
6.6290002 -2.3789999 -0.315
6.6669998 -2.3670001 -0.31600001
6.665 -2.3399999 -0.31600001
6.6620002 -2.3139999 -0.31600001
6.691 -2.2980001 -0.317
6.7010002 -2.276 -0.317
6.7189999 -2.257 -0.31799999
6.7410002 -2.2390001 -0.31900001
6.7410002 -2.214 -0.31799999
6.763 -2.1960001 -0.31900001
6.7690001 -2.1730001 -0.31900001
6.783 -2.1530001 -0.31999999
6.803 -2.135 -0.31999999
6.8109999 -2.1129999 -0.32100001
6.8379998 -2.0969999 -0.322
6.8449998 -2.0739999 -0.322
6.8730001 -2.059 -0.32300001
6.8769999 -2.036 -0.32300001
6.8720002 -2.01 -0.322
6.8990002 -1.994 -0.32300001
6.9120002 -1.974 -0.324
6.9250002 -1.955 -0.324
6.941 -1.936 -0.32499999
6.9650002 -1.919 -0.32600001
6.9770002 -1.899 -0.32600001
6.9819999 -1.877 -0.32600001
7.0019999 -1.859 -0.32699999
7.0229998 -1.842 -0.32800001
7.0349998 -1.822 -0.32800001
7.04 -1.801 -0.32800001
7.0599999 -1.783 -0.329
7.0770001 -1.765 -0.329
7.0960002 -1.747 -0.33000001
7.1100001 -1.728 -0.331
7.138 -1.712 -0.33199999
7.1620002 -1.696 -0.333
7.1810002 -1.678 -0.333
7.1939998 -1.659 -0.33399999
7.1900001 -1.636 -0.333
7.224 -1.622 -0.33500001
7.243 -1.604 -0.336
7.2480001 -1.5829999 -0.336
7.2379999 -1.5599999 -0.33500001
7.283 -1.548 -0.33700001
7.2909999 -1.528 -0.33700001
7.316 -1.512 -0.338
7.2969999 -1.487 -0.33700001
7.3319998 -1.473 -0.33899999
7.3460002 -1.455 -0.33899999
7.3730001 -1.439 -0.34
7.3769999 -1.419 -0.34
7.3800001 -1.399 -0.34
7.4029999 -1.382 -0.34099999
7.427 -1.3660001 -0.34200001
7.4330001 -1.347 -0.34200001
7.434 -1.327 -0.34200001
7.461 -1.311 -0.34299999
7.4809999 -1.294 -0.34400001
7.4819999 -1.274 -0.34400001
7.4980001 -1.257 -0.34400001
7.513 -1.24 -0.345
7.533 -1.223 -0.34599999
7.5370002 -1.204 -0.34599999
7.5539999 -1.187 -0.34599999
7.579 -1.171 -0.347
7.5890002 -1.153 -0.34799999
7.598 -1.135 -0.34799999
7.6110001 -1.118 -0.34799999
7.625 -1.101 -0.34900001
7.6430001 -1.084 -0.34999999
7.6490002 -1.066 -0.34999999
7.6620002 -1.049 -0.34999999
7.6630001 -1.03 -0.34999999
7.6799998 -1.0140001 -0.35100001
7.6960001 -0.99699998 -0.35100001
7.71 -0.98000002 -0.352
7.723 -0.963 -0.352
7.7389998 -0.94700003 -0.35299999
7.7420001 -0.92900002 -0.35299999
7.7519999 -0.912 -0.35299999
7.763 -0.89499998 -0.354
7.79 -0.88 -0.35499999
7.7820001 -0.861 -0.354
7.802 -0.84600002 -0.35499999
7.8210001 -0.82999998 -0.35600001
7.8260002 -0.81300002 -0.35600001
7.8429999 -0.79699999 -0.35699999
7.842 -0.77999997 -0.35600001
7.8670001 -0.76499999 -0.35800001
7.881 -0.74900001 -0.35800001
7.9000001 -0.73299998 -0.359
7.9089999 -0.71700001 -0.359
7.9289999 -0.70200002 -0.36000001
7.9460001 -0.68599999 -0.361
7.9590001 -0.671 -0.361
7.954 -0.653 -0.361
7.9920001 -0.63999999 -0.36199999
8.0039997 -0.62400001 -0.36300001
8.0170002 -0.60900003 -0.36300001
8.0880003 -0.597 -0.366
8.0819998 -0.57999998 -0.366
8.0570002 -0.56199998 -0.36500001
8.073 -0.54699999 -0.36500001
8.0810003 -0.53200001 -0.366
8.0760002 -0.51499999 -0.36500001
8.1090002 -0.50099999 -0.36700001
8.1409998 -0.48800001 -0.368
8.1330004 -0.47099999 -0.368
8.1630001 -0.45699999 -0.36899999
8.1759996 -0.44299999 -0.37
8.1800003 -0.42699999 -0.37
8.1960001 -0.41299999 -0.37
8.2159996 -0.398 -0.37099999
8.2259998 -0.384 -0.37200001
8.2819996 -0.37099999 -0.37400001
8.2609997 -0.35499999 -0.373
8.2980003 -0.34099999 -0.375
8.3280001 -0.32800001 -0.37599999
8.3999996 -0.315 -0.37900001
8.4130001 -0.301 -0.37900001
8.3950005 -0.28600001 -0.37900001
8.4440002 -0.273 -0.38100001
8.552 -0.26100001 -0.38600001
7.9510002 0.086999997 -0.50199997
7.9840002 0.102 -0.50400001
8.0109997 0.117 -0.50599998
7.9959998 0.132 -0.505
8.0080004 0.148 -0.50599998
8.007 0.163 -0.50599998
8.0039997 0.178 -0.50599998
7.994 0.19400001 -0.505
7.9889998 0.20900001 -0.505
7.994 0.226 -0.50599998
7.994 0.242 -0.50599998
7.9949999 0.25799999 -0.50599998
7.98 0.27399999 -0.505
7.9860001 0.29100001 -0.50599998
8.0050001 0.308 -0.50800002
7.9899998 0.32499999 -0.50700003
7.9990001 0.34200001 -0.50800002
8.0039997 0.36000001 -0.50800002
7.9899998 0.37599999 -0.50800002
7.9899998 0.39399999 -0.50800002
7.9840002 0.41100001 -0.50800002
8.0010004 0.43000001 -0.509
8.0089998 0.449 -0.50999999
8.0129995 0.46700001 -0.50999999
8.007 0.48500001 -0.50999999
8.0080004 0.50400001 -0.51099998
8.0089998 0.52200001 -0.51099998
8.0229998 0.542 -0.51200002
8.0139999 0.56 -0.51200002
8.0290003 0.57999998 -0.51300001
8.0279999 0.59899998 -0.51300001
8.0419998 0.62 -0.51499999
8.0410004 0.639 -0.51499999
8.0469999 0.66000003 -0.51599997
8.0340004 0.67799997 -0.51499999
8.0530005 0.69999999 -0.51700002
8.0489998 0.72000003 -0.51700002
8.0579996 0.741 -0.51800001
8.0649996 0.76200002 -0.51800001
8.0719995 0.78299999 -0.51899999
8.052 0.80199999 -0.51800001
8.0649996 0.824 -0.51999998
8.0489998 0.84299999 -0.51899999
8.0550003 0.86400002 -0.51999998
8.0559998 0.88599998 -0.51999998
8.0600004 0.90700001 -0.52100003
8.0539999 0.92799997 -0.52100003
8.0670004 0.95099998 -0.52200001
8.0609999 0.972 -0.52200001
8.073 0.995 -0.523
8.0740004 1.017 -0.52399999
8.0880003 1.041 -0.52499998
8.0909996 1.064 -0.52600002
8.0970001 1.087 -0.52700001
8.0950003 1.109 -0.52700001
8.0950003 1.132 -0.52700001
8.0930004 1.154 -0.528
8.1000004 1.178 -0.52899998
8.1059999 1.202 -0.52999997
8.1020002 1.224 -0.52999997
8.1070004 1.248 -0.53100002
8.1300001 1.275 -0.53299999
8.1049995 1.294 -0.53200001
8.1169996 1.3200001 -0.53299999
8.0930004 1.339 -0.53200001
7.8860002 1.3279999 -0.51899999
7.71 1.321 -0.50800002
7.6469998 1.3329999 -0.50400001
7.6209998 1.351 -0.50300002
7.6350002 1.376 -0.50400001
7.664 1.404 -0.50700003
7.7969999 1.452 -0.51599997
8.1809998 1.548 -0.542
8.1960001 1.576 -0.54299998
8.2040005 1.602 -0.54500002
8.2019997 1.627 -0.54500002
8.2150002 1.654 -0.546
8.1920004 1.675 -0.546
7.9229999 1.6440001 -0.528
7.7059999 1.623 -0.514
7.6399999 1.633 -0.50999999
7.618 1.652 -0.50999999
7.5999999 1.6720001 -0.509
7.6069999 1.697 -0.50999999
7.6279998 1.726 -0.51200002
7.7020001 1.767 -0.51800001
8.2799997 1.926 -0.55699998
8.2869997 1.954 -0.55800003
8.309 1.9859999 -0.56
8.3319998 2.0179999 -0.56300002
8.335 2.0450001 -0.56300002
8.3430004 2.0739999 -0.565
8.3479996 2.1029999 -0.56599998
8.3559999 2.132 -0.56699997
8.3769999 2.164 -0.56900001
8.3760004 2.191 -0.56999999
8.3809996 2.22 -0.57099998
8.3920002 2.2509999 -0.57200003
8.3940001 2.279 -0.57300001
8.4169998 2.313 -0.57499999
8.4189997 2.3410001 -0.57599998
8.4440002 2.3759999 -0.579
8.4560003 2.408 -0.57999998
8.4549999 2.4360001 -0.58099997
8.4639997 2.467 -0.58200002
8.4569998 2.493 -0.583
8.4919996 2.5320001 -0.58600003
8.4700003 2.5539999 -0.58499998
8.4820004 2.5869999 -0.58700001
8.4829998 2.615 -0.588
8.4919996 2.6470001 -0.58899999
8.4969997 2.678 -0.58999997
8.5109997 2.711 -0.59200001
8.5120001 2.7409999 -0.59299999
8.5270004 2.7750001 -0.59500003
8.5319996 2.806 -0.59600002
8.5450001 2.8399999 -0.59799999
8.559 2.8740001 -0.59899998
8.5780001 2.9100001 -0.602
8.5839996 2.9419999 -0.60299999
8.5880003 2.973 -0.60399997
8.6020002 3.0079999 -0.60600001
8.6300001 3.0480001 -0.60900003
8.6420002 3.082 -0.61000001
8.658 3.119 -0.61299998
8.6560001 3.148 -0.61299998
8.6750002 3.1860001 -0.616
8.6960001 3.224 -0.61799997
8.6859999 3.2509999 -0.61799997
8.6999998 3.2869999 -0.62
8.7019997 3.319 -0.62099999
8.7200003 3.3559999 -0.62300003
8.7180004 3.3870001 -0.62400001
8.7309999 3.4230001 -0.62599999
8.75 3.461 -0.62800002
8.7670002 3.4990001 -0.63099998
8.7860003 3.539 -0.63300002
8.7819996 3.5680001 -0.634
8.7959995 3.6059999 -0.63599998
8.8149996 3.645 -0.63800001
8.8339996 3.6849999 -0.63999999
8.8500004 3.724 -0.64300001
8.8470001 3.7539999 -0.64300001
8.8769999 3.799 -0.64700001
8.8889999 3.836 -0.648
8.8999996 3.8729999 -0.64999998
8.9300003 3.918 -0.653
8.9390001 3.9549999 -0.65499997
8.9429998 3.9890001 -0.65700001
8.9549999 4.027 -0.65899998
8.9659996 4.0650001 -0.66000003
8.9940004 4.1100001 -0.66399997
8.9919996 4.1420002 -0.66500002
8.993 4.1750002 -0.66600001
9.0019999 4.2119999 -0.667
9.007 4.2470002 -0.66900003
9.0179996 4.2859998 -0.671
9.0509996 4.335 -0.67400002
9.0640001 4.3740001 -0.67699999
9.0600004 4.4050002 -0.67699999
9.1070004 4.461 -0.68199998
9.1009998 4.4920001 -0.68300003
9.1149998 4.5320001 -0.685
9.1199999 4.5679998 -0.68699998
9.1420002 4.612 -0.68900001
9.1330004 4.6409998 -0.69
9.1529999 4.6849999 -0.69300002
9.1669998 4.7259998 -0.69499999
9.1789999 4.7649999 -0.69700003
9.191 4.8060002 -0.699
9.2189999 4.8540001 -0.70200002
9.2299995 4.8930001 -0.704
9.2390003 4.9320002 -0.70599997
9.2480001 4.9710002 -0.708
9.2709999 5.0170002 -0.71100003
9.2729998 5.052 -0.713
9.2980003 5.099 -0.71600002
9.316 5.1430001 -0.71899998
9.3319998 5.1859999 -0.72100002
9.3780003 5.2459998 -0.72600001
9.3559999 5.2680001 -0.72500002
9.3640003 5.3060002 -0.727
9.3730001 5.3449998 -0.72899997
9.3879995 5.388 -0.73199999
9.3959999 5.427 -0.73400003
9.4130001 5.4710002 -0.736
9.4309998 5.5149999 -0.73900002
9.4449997 5.5580001 -0.74199998
9.4680004 5.605 -0.745
9.4820004 5.6469998 -0.74699998
9.5030003 5.6939998 -0.75
9.5010004 5.7270002 -0.75199997
9.5039997 5.763 -0.75300002
9.5209999 5.8070002 -0.75599998
9.5430002 5.8540001 -0.759
9.5299997 5.881 -0.759
9.5480003 5.9260001 -0.76200002
9.5579996 5.9650002 -0.764
9.5839996 6.0149999 -0.76800001
9.5959997 6.0570002 -0.76999998
9.5880003 6.085 -0.77100003
9.6090002 6.132 -0.77399999
9.6210003 6.1729999 -0.77600002
9.6110001 6.2010002 -0.77700001
9.6230001 6.2420001 -0.77999997
9.6549997 6.296 -0.78399998
9.6529999 6.3280001 -0.78500003
9.6709995 6.3730001 -0.78799999
9.6610003 6.4000001 -0.78799999
9.6709995 6.4390001 -0.79100001
9.6920004 6.4860001 -0.79400003
9.6949997 6.5209999 -0.796
9.6870003 6.5479999 -0.796
9.7159996 6.5999999 -0.80000001
9.7040005 6.6240001 -0.801
9.7229996 6.6700001 -0.80400002
9.7299995 6.7069998 -0.80599999
9.7370005 6.744 -0.80800003
9.75 6.7849998 -0.81099999
9.7519999 6.8169999 -0.81199998
9.7840004 6.8709998 -0.81599998
9.8039999 6.9169998 -0.81999999
5.9770002 -3.4860001 -0.28099999
5.9949999 -3.48 -0.28099999
5.9959998 -3.464 -0.28099999
6.0139999 -3.4579999 -0.28200001
6.0170002 -3.4419999 -0.28200001
6.0180001 -3.4260001 -0.28200001
6.0219998 -3.4119999 -0.28200001
6.0370002 -3.404 -0.28299999
6.0500002 -3.3940001 -0.28299999
6.0409999 -3.372 -0.28299999
6.0469999 -3.358 -0.28299999
6.0419998 -3.339 -0.28200001
6.0359998 -3.319 -0.28200001
6.0679998 -3.319 -0.28299999
6.0749998 -3.306 -0.28400001
6.0949998 -3.299 -0.28400001
6.0869999 -3.2780001 -0.28400001
6.098 -3.267 -0.28400001
6.1110001 -3.257 -0.285
6.1240001 -3.2460001 -0.285
6.1370001 -3.2360001 -0.28600001
6.138 -3.2190001 -0.28600001
6.1459999 -3.2060001 -0.28600001
6.152 -3.1919999 -0.28600001
6.1599998 -3.178 -0.28600001
6.1739998 -3.168 -0.287
6.171 -3.1489999 -0.287
6.1939998 -3.1440001 -0.287
6.198 -3.128 -0.287
6.2210002 -3.122 -0.28799999
6.2119999 -3.0999999 -0.28799999
6.2220001 -3.0869999 -0.28799999
6.2350001 -3.076 -0.289
6.2420001 -3.062 -0.289
6.256 -3.0510001 -0.289
6.2610002 -3.0350001 -0.28999999
6.276 -3.0250001 -0.28999999
6.289 -3.013 -0.29100001
6.2880001 -2.9949999 -0.28999999
6.2969999 -2.9809999 -0.29100001
6.3070002 -2.9679999 -0.29100001
6.316 -2.954 -0.29100001
6.3369999 -2.9460001 -0.292
6.3509998 -2.934 -0.29300001
6.3439999 -2.9130001 -0.292
6.3540001 -2.9000001 -0.292
6.3639998 -2.8859999 -0.29300001
6.3779998 -2.8740001 -0.29300001
6.3889999 -2.8610001 -0.294
6.3979998 -2.8469999 -0.294
6.4099998 -2.8340001 -0.294
6.4250002 -2.822 -0.29499999
6.4380002 -2.809 -0.29499999
6.4380002 -2.7909999 -0.29499999
6.4450002 -2.776 -0.29499999
6.4520001 -2.76 -0.296
6.4720001 -2.75 -0.296
6.4920001 -2.74 -0.29699999
6.494 -2.723 -0.29699999
6.5110002 -2.711 -0.29800001
6.5089998 -2.6919999 -0.29800001
6.5310001 -2.6819999 -0.29800001
6.5370002 -2.6659999 -0.29899999
6.5580001 -2.6559999 -0.29899999
6.5500002 -2.6340001 -0.29899999
6.5840001 -2.6289999 -0.30000001
6.5900002 -2.612 -0.30000001
6.5890002 -2.5929999 -0.30000001
6.5970001 -2.5769999 -0.30000001
6.6100001 -2.5639999 -0.301
6.6129999 -2.546 -0.301
6.6290002 -2.533 -0.301
6.6420002 -2.5190001 -0.30199999
6.6750002 -2.5120001 -0.303
6.6529999 -2.4849999 -0.30199999
6.6750002 -2.474 -0.303
6.6810002 -2.457 -0.303
6.6859999 -2.4400001 -0.303
6.6950002 -2.424 -0.303
6.691 -2.404 -0.303
6.717 -2.3940001 -0.30399999
6.724 -2.3770001 -0.30399999
6.724 -2.358 -0.30399999
6.7280002 -2.3399999 -0.30399999
6.7550001 -2.3299999 -0.30500001
6.77 -2.316 -0.30599999
6.7880001 -2.303 -0.30599999
6.7800002 -2.2809999 -0.30599999
6.7909999 -2.2650001 -0.30599999
6.7969999 -2.2479999 -0.30599999
6.8000002 -2.2290001 -0.30599999
6.816 -2.2149999 -0.30700001
6.823 -2.198 -0.30700001
6.8309999 -2.181 -0.30700001
6.8410001 -2.165 -0.308
6.8610001 -2.151 -0.308
6.8649998 -2.1329999 -0.308
6.8779998 -2.1170001 -0.30899999
6.8930001 -2.102 -0.30899999
6.8889999 -2.0810001 -0.30899999
6.914 -2.069 -0.31
6.9190001 -2.0510001 -0.31
6.9320002 -2.0350001 -0.31
6.947 -2.02 -0.31099999
6.9429998 -1.999 -0.31099999
6.9580002 -1.983 -0.31099999
6.9660001 -1.966 -0.31099999
6.9790001 -1.95 -0.31200001
6.987 -1.932 -0.31200001
7.0029998 -1.916 -0.31299999
7.0180001 -1.9 -0.31299999
7.0339999 -1.885 -0.31400001
7.0450001 -1.868 -0.31400001
7.0469999 -1.848 -0.31400001
7.0539999 -1.83 -0.31400001
7.0970001 -1.821 -0.31600001
7.099 -1.801 -0.31600001
7.1100001 -1.784 -0.31600001
7.1269999 -1.768 -0.317
7.1420002 -1.751 -0.317
7.1609998 -1.7359999 -0.31799999
7.1929998 -1.723 -0.31900001
7.191 -1.702 -0.31900001
7.2069998 -1.6849999 -0.31900001
7.2350001 -1.671 -0.31999999
7.2319999 -1.65 -0.31999999
7.244 -1.632 -0.32100001
7.2610002 -1.615 -0.32100001
7.289 -1.601 -0.322
7.2919998 -1.581 -0.322
7.3109999 -1.564 -0.32300001
7.342 -1.55 -0.324
7.3400002 -1.529 -0.324
7.348 -1.51 -0.324
7.3540001 -1.49 -0.324
7.3649998 -1.471 -0.324
7.3839998 -1.454 -0.32499999
7.408 -1.438 -0.32600001
7.4109998 -1.418 -0.32600001
7.4299998 -1.4 -0.32699999
7.4400001 -1.381 -0.32699999
7.473 -1.3660001 -0.32800001
7.4850001 -1.347 -0.329
7.487 -1.326 -0.32800001
7.507 -1.308 -0.329
7.526 -1.29 -0.33000001
7.5409999 -1.272 -0.33000001
7.572 -1.255 -0.331
7.5749998 -1.234 -0.331
7.5869999 -1.215 -0.33199999
7.6079998 -1.197 -0.333
7.6269999 -1.178 -0.333
7.6389999 -1.158 -0.33399999
7.6589999 -1.14 -0.33399999
7.6659999 -1.119 -0.33399999
7.6869998 -1.1 -0.33500001
7.7080002 -1.082 -0.336
7.717 -1.061 -0.336
7.7399998 -1.043 -0.33700001
7.7449999 -1.021 -0.33700001
7.7779999 -1.0039999 -0.338
7.7800002 -0.98199999 -0.338
7.796 -0.96200001 -0.33899999
7.8340001 -0.94499999 -0.34
7.8299999 -0.92199999 -0.34
7.8590002 -0.903 -0.34099999
7.8709998 -0.88200003 -0.34099999
7.8860002 -0.86199999 -0.34200001
7.9070001 -0.84200001 -0.34200001
7.934 -0.82200003 -0.34299999
7.9510002 -0.80199999 -0.34400001
7.967 -0.78100002 -0.34400001
8.0120001 -0.76200002 -0.34599999
8.0139999 -0.74000001 -0.34599999
8.0299997 -0.71899998 -0.347
8.0620003 -0.699 -0.34799999
8.1330004 -0.68199998 -0.35100001
8.1160002 -0.65799999 -0.34999999
8.1219997 -0.63599998 -0.34999999
8.1619997 -0.616 -0.35100001
8.1689997 -0.59299999 -0.352
8.1929998 -0.57200003 -0.352
8.2089996 -0.55000001 -0.35299999
8.2379999 -0.52899998 -0.354
8.2480001 -0.50599998 -0.354
8.2709999 -0.484 -0.35499999
8.3079996 -0.463 -0.35600001
8.3360004 -0.44100001 -0.35699999
8.3579998 -0.419 -0.35800001
8.3970003 -0.39700001 -0.36000001
8.4040003 -0.37400001 -0.36000001
8.4560003 -0.352 -0.36199999
8.4639997 -0.32800001 -0.36199999
8.658 -0.31200001 -0.37
8.5819998 -0.285 -0.366
8.2950001 0.18700001 -0.5
8.2980003 0.198 -0.5
8.2559996 0.20900001 -0.498
8.2419996 0.22 -0.49700001
8.2489996 0.23199999 -0.498
8.217 0.243 -0.49599999
8.2069998 0.255 -0.49599999
8.1859999 0.26699999 -0.49399999
8.1759996 0.27900001 -0.49399999
8.1850004 0.292 -0.495
8.1789999 0.30500001 -0.495
8.165 0.317 -0.49399999
8.165 0.331 -0.49399999
8.1680002 0.34400001 -0.49399999
8.1639996 0.35800001 -0.49399999
8.1689997 0.37200001 -0.495
8.1719999 0.38600001 -0.495
8.1739998 0.40000001 -0.49599999
8.1619997 0.414 -0.495
8.1789999 0.42899999 -0.49599999
8.1680002 0.44299999 -0.49599999
8.1809998 0.45899999 -0.49700001
8.177 0.47400001 -0.49700001
8.1750002 0.48899999 -0.49700001
8.1809998 0.505 -0.498
8.1700001 0.51999998 -0.49700001
8.1719999 0.53500003 -0.498
8.165 0.551 -0.49700001
8.177 0.56800002 -0.498
8.184 0.58499998 -0.49900001
8.1920004 0.602 -0.5
8.1879997 0.61799997 -0.5
8.2010002 0.63599998 -0.50099999
8.1940002 0.65200001 -0.50099999
8.2049999 0.67000002 -0.50199997
8.2019997 0.68699998 -0.50199997
8.2220001 0.70599997 -0.50400001
8.2119999 0.72299999 -0.50400001
8.2139997 0.741 -0.50400001
8.2229996 0.75999999 -0.505
8.2189999 0.778 -0.505
8.2220001 0.796 -0.50599998
8.2329998 0.81599998 -0.50700003
8.243 0.83600003 -0.50800002
8.2360001 0.85399997 -0.50700003
8.2360001 0.87300003 -0.50800002
8.2349997 0.89200002 -0.50800002
8.2360001 0.91100001 -0.509
8.2469997 0.93199998 -0.50999999
8.2449999 0.95099998 -0.50999999
8.2530003 0.972 -0.51099998
8.2609997 0.99299997 -0.51200002
8.2510004 1.012 -0.51200002
8.2749996 1.035 -0.514
8.2729998 1.0549999 -0.514
8.2700005 1.075 -0.514
8.2670002 1.096 -0.51499999
8.2650003 1.1160001 -0.51499999
8.2740002 1.138 -0.51599997
8.2729998 1.159 -0.51599997
8.2819996 1.182 -0.51700002
8.29 1.205 -0.51800001
8.29 1.226 -0.51899999
8.2869997 1.248 -0.51899999
8.3039999 1.272 -0.52100003
8.2930002 1.293 -0.52100003
8.2959995 1.3150001 -0.52100003
7.8449998 1.265 -0.493
7.7249999 1.267 -0.486
7.6490002 1.275 -0.48199999
7.6329999 1.293 -0.48100001
7.6479998 1.317 -0.48300001
7.665 1.341 -0.48500001
7.71 1.3710001 -0.48800001
7.8990002 1.427 -0.5
8.3430004 1.53 -0.52899998
8.3540001 1.556 -0.52999997
8.349 1.579 -0.53100002
8.3620005 1.6059999 -0.53200001
8.3579998 1.6289999 -0.53299999
8.3629999 1.655 -0.53299999
8.3339996 1.674 -0.53200001
7.8179998 1.5930001 -0.5
7.6869998 1.589 -0.49200001
7.6290002 1.6 -0.48899999
7.6100001 1.619 -0.48800001
7.6269999 1.645 -0.49000001
7.6220002 1.6670001 -0.49000001
7.6750002 1.702 -0.49399999
7.9770002 1.794 -0.514
8.4350004 1.9220001 -0.54500002
8.4440002 1.951 -0.546
8.4499998 1.978 -0.54699999
8.4499998 2.0050001 -0.54799998
8.4659996 2.0350001 -0.54900002
8.4720001 2.063 -0.55000001
8.4840002 2.0929999 -0.55199999
8.4919996 2.122 -0.55299997
8.4849997 2.148 -0.55299997
8.5249996 2.1849999 -0.55699998
8.5089998 2.2090001 -0.55599999
8.5150003 2.2379999 -0.55800003
8.5190001 2.267 -0.55900002
8.5340004 2.299 -0.56
8.5450001 2.3299999 -0.56199998
8.5609999 2.3629999 -0.56400001
8.5570002 2.3900001 -0.56400001
8.5889997 2.428 -0.56699997
8.5900002 2.457 -0.56800002
8.585 2.484 -0.56900001
8.6129999 2.5209999 -0.57099998
8.6149998 2.552 -0.57200003
8.6140003 2.5810001 -0.57300001
8.6190004 2.612 -0.574
8.6110001 2.6389999 -0.574
8.6149998 2.6700001 -0.57599998
8.6379995 2.707 -0.57800001
8.6230001 2.733 -0.57800001
8.6370001 2.7679999 -0.57999998
8.665 2.8069999 -0.58200002
8.6610003 2.8369999 -0.583
8.6809998 2.8740001 -0.58499998
8.7019997 2.9119999 -0.588
8.7220001 2.95 -0.58999997
8.7270002 2.983 -0.59100002
8.7399998 3.0190001 -0.59299999
8.75 3.0539999 -0.59500003
8.7620001 3.0910001 -0.59600002
8.7749996 3.1270001 -0.59799999
8.7869997 3.164 -0.60000002
8.802 3.2019999 -0.602
8.802 3.2349999 -0.60299999
8.8109999 3.2709999 -0.60500002
8.8260002 3.309 -0.60699999
8.8269997 3.3429999 -0.60799998
8.835 3.3789999 -0.60900003
8.8439999 3.4159999 -0.611
8.8649998 3.4579999 -0.61299998
8.8660002 3.4920001 -0.61400002
8.8920002 3.536 -0.61699998
8.9250002 3.5829999 -0.62099999
8.9099998 3.612 -0.62099999
8.9259996 3.6530001 -0.62300003
8.948 3.697 -0.62599999
8.9700003 3.7409999 -0.62800002
8.9849997 3.7820001 -0.63
8.9969997 3.823 -0.63200003
9.0129995 3.865 -0.63499999
9.0209999 3.904 -0.63599998
9.0489998 3.9530001 -0.639
9.0740004 4 -0.64200002
9.085 4.0409999 -0.64399999
9.1110001 4.0890002 -0.64700001
9.1049995 4.1230001 -0.648
9.118 4.1659999 -0.64999998
9.132 4.21 -0.65200001
9.1330004 4.2470002 -0.65399998
9.1529999 4.2940001 -0.65600002
9.151 4.3309999 -0.65700001
9.1820002 4.3839998 -0.66100001
9.2030001 4.4320002 -0.66399997
9.2010002 4.4689999 -0.66500002
9.224 4.5190001 -0.66799998
9.2299995 4.5609999 -0.66900003
9.2650003 4.6170001 -0.67299998
9.2580004 4.652 -0.67400002
9.2360001 4.6810002 -0.67400002
9.2679996 4.7360001 -0.67699999
9.2799997 4.7820001 -0.67900002
9.2939997 4.829 -0.68199998
9.3050003 4.8740001 -0.68400002
9.3299999 4.928 -0.68699998
9.3400002 4.974 -0.68900001
9.3579998 5.0240002 -0.69199997
9.3549995 5.0630002 -0.69300002
9.3719997 5.1129999 -0.69599998
9.3780003 5.158 -0.69800001
9.4069996 5.2150002 -0.70099998
9.4130001 5.2600002 -0.70300001
9.4530001 5.3239999 -0.708
9.4510002 5.3649998 -0.70899999
9.4569998 5.4109998 -0.71100003
9.4530001 5.4510002 -0.71200001
9.4530001 5.493 -0.713
9.4610004 5.5409999 -0.71499997
9.4750004 5.592 -0.71799999
9.4820004 5.6389999 -0.72000003
9.4860001 5.684 -0.722
9.4910002 5.7309999 -0.72399998
9.5 5.7800002 -0.72600001
9.5129995 5.8319998 -0.72899997
9.5209999 5.8800001 -0.73100001
9.5270004 5.928 -0.73299998
9.5349998 5.9770002 -0.73500001
9.5459995 6.0289998 -0.73699999
9.5310001 6.0640001 -0.73799998
9.5509996 6.1209998 -0.741
9.5500002 6.165 -0.74199998
9.5530005 6.2119999 -0.74400002
9.552 6.257 -0.74599999
9.5530005 6.303 -0.74800003
9.5620003 6.355 -0.75
9.5509996 6.3930001 -0.75099999
9.5480003 6.4369998 -0.75199997
9.5419998 6.4790001 -0.75300002
9.5200005 6.5100002 -0.75300002
9.5389996 6.5689998 -0.75599998
9.5209999 6.6030002 -0.75700003
9.5030003 6.6360002 -0.75700003
9.5129995 6.6900001 -0.759
9.4980001 6.7249999 -0.75999999
9.493 6.7690001 -0.76099998
9.4750004 6.803 -0.76200002
9.4370003 6.822 -0.75999999
5.717 -3.79 -0.259
5.7470002 -3.773 -0.25999999
5.7639999 -3.7479999 -0.25999999
5.7800002 -3.723 -0.26100001
5.7909999 -3.6930001 -0.26100001
5.7979999 -3.6619999 -0.26100001
5.8049998 -3.632 -0.26100001
5.829 -3.612 -0.26100001
5.8540001 -3.592 -0.26199999
5.875 -3.5710001 -0.26300001
5.8979998 -3.55 -0.264
5.9190001 -3.5280001 -0.264
5.9169998 -3.493 -0.264
5.947 -3.477 -0.26499999
5.9749999 -3.4590001 -0.266
5.9899998 -3.4349999 -0.266
6.0040002 -3.4089999 -0.26699999
6.013 -3.381 -0.26699999
6.0320001 -3.359 -0.26699999
6.059 -3.3410001 -0.26800001
6.0679998 -3.3139999 -0.26800001
6.086 -3.2909999 -0.26899999
6.105 -3.2690001 -0.26899999
6.118 -3.244 -0.27000001
6.1370001 -3.223 -0.27000001
6.1560001 -3.201 -0.271
6.1700001 -3.177 -0.271
6.1869998 -3.154 -0.27200001
6.2010002 -3.1300001 -0.27200001
6.2270002 -3.112 -0.273
6.2340002 -3.0840001 -0.273
6.2509999 -3.062 -0.273
6.2789998 -3.046 -0.27399999
6.2950001 -3.023 -0.27500001
6.3000002 -2.9949999 -0.27500001
6.3070002 -2.9690001 -0.27500001
6.335 -2.9519999 -0.27599999
6.348 -2.928 -0.27599999
6.3649998 -2.9059999 -0.27599999
6.388 -2.8870001 -0.27700001
6.4039998 -2.8659999 -0.278
6.4169998 -2.842 -0.278
6.447 -2.8269999 -0.27900001
6.4580002 -2.802 -0.27900001
6.474 -2.7809999 -0.28
6.4840002 -2.756 -0.28
6.5079999 -2.7379999 -0.28099999
6.5180001 -2.714 -0.28099999
6.5359998 -2.6930001 -0.28099999
6.5510001 -2.6719999 -0.28200001
6.5840001 -2.6570001 -0.28299999
6.5840001 -2.6289999 -0.28299999
6.6139998 -2.6140001 -0.28400001
6.6230001 -2.5899999 -0.28400001
6.6370001 -2.5680001 -0.28400001
6.6609998 -2.55 -0.285
6.6830001 -2.5309999 -0.28600001
6.6890001 -2.506 -0.28600001
6.7010002 -2.484 -0.28600001
6.7179999 -2.4630001 -0.287
6.7249999 -2.4389999 -0.287
6.7329998 -2.4159999 -0.287
6.763 -2.4000001 -0.28799999
6.777 -2.3789999 -0.28799999
6.7709999 -2.3510001 -0.28799999
6.8060002 -2.3369999 -0.289
6.8080001 -2.312 -0.289
6.8169999 -2.289 -0.289
6.8309999 -2.2679999 -0.28999999
6.8509998 -2.2490001 -0.28999999
6.8520002 -2.2249999 -0.28999999
6.8720002 -2.2060001 -0.29100001
6.8959999 -2.188 -0.292
6.9070001 -2.1670001 -0.292
6.928 -2.1489999 -0.29300001
6.934 -2.1259999 -0.29300001
6.9559999 -2.108 -0.29300001
6.96 -2.0840001 -0.29300001
6.9699998 -2.063 -0.294
6.9809999 -2.0420001 -0.294
7.0019999 -2.0239999 -0.29499999
7.0089998 -2.0020001 -0.29499999
7.0289998 -1.984 -0.29499999
7.0489998 -1.966 -0.296
7.0650001 -1.946 -0.296
7.0700002 -1.924 -0.29699999
7.0890002 -1.905 -0.29699999
7.0999999 -1.885 -0.29699999
7.1209998 -1.867 -0.29800001
7.1409998 -1.849 -0.29899999
7.1659999 -1.832 -0.30000001
7.1939998 -1.817 -0.301
7.2090001 -1.7970001 -0.301
7.224 -1.778 -0.30199999
7.2379999 -1.7589999 -0.30199999
7.2420001 -1.737 -0.30199999
7.2670002 -1.72 -0.303
7.2940001 -1.704 -0.30399999
7.2989998 -1.683 -0.30399999
7.309 -1.663 -0.30399999
7.322 -1.6440001 -0.30399999
7.342 -1.626 -0.30500001
7.3530002 -1.6059999 -0.30500001
7.3649998 -1.587 -0.30599999
7.362 -1.5650001 -0.30500001
7.4000001 -1.551 -0.30700001
7.4060001 -1.531 -0.30700001
7.4159999 -1.511 -0.30700001
7.4419999 -1.495 -0.308
7.4439998 -1.474 -0.308
7.46 -1.456 -0.30899999
7.4759998 -1.438 -0.30899999
7.4790001 -1.418 -0.30899999
7.5190001 -1.404 -0.31099999
7.54 -1.387 -0.31099999
7.5279999 -1.364 -0.31099999
7.559 -1.349 -0.31200001
7.5679998 -1.33 -0.31200001
7.5780001 -1.311 -0.31200001
7.5999999 -1.295 -0.31299999
7.612 -1.276 -0.31299999
7.632 -1.2589999 -0.31400001
7.6420002 -1.2410001 -0.31400001
7.651 -1.222 -0.315
7.665 -1.205 -0.315
7.6799998 -1.187 -0.31600001
7.6890001 -1.169 -0.31600001
7.7220001 -1.154 -0.317
7.7160001 -1.1339999 -0.317
7.7329998 -1.117 -0.317
7.7649999 -1.102 -0.31799999
7.7810001 -1.085 -0.31900001
7.777 -1.0650001 -0.31900001
7.7940001 -1.048 -0.31900001
7.8109999 -1.031 -0.31999999
7.8200002 -1.0140001 -0.31999999
7.8369999 -0.99699998 -0.32100001
7.842 -0.97899997 -0.32100001
7.8540001 -0.96200001 -0.32100001
7.8759999 -0.94599998 -0.322
7.8940001 -0.92900002 -0.32300001
7.8909998 -0.91100001 -0.322
7.908 -0.89399999 -0.32300001
7.908 -0.87599999 -0.32300001
7.9359999 -0.861 -0.324
7.9530001 -0.84500003 -0.324
7.9699998 -0.829 -0.32499999
7.9770002 -0.81099999 -0.32499999
7.9809999 -0.79400003 -0.32499999
8.0159998 -0.77999997 -0.32699999
8.0209999 -0.76300001 -0.32699999
8.0500002 -0.74800003 -0.32800001
8.0360003 -0.72899997 -0.32699999
8.0679998 -0.71499997 -0.32800001
8.0930004 -0.69999999 -0.329
8.0790005 -0.68099999 -0.329
8.1070004 -0.667 -0.33000001
8.1269999 -0.65100002 -0.33000001
8.1459999 -0.63599998 -0.331
8.1540003 -0.62 -0.331
8.1689997 -0.60399997 -0.33199999
8.1780005 -0.588 -0.33199999
8.2019997 -0.57300001 -0.333
8.2390003 -0.55900002 -0.33399999
8.2399998 -0.54299998 -0.33399999
8.2469997 -0.52700001 -0.33399999
8.2639999 -0.51200002 -0.33500001
8.2799997 -0.49700001 -0.336
8.3219995 -0.48300001 -0.33700001
8.3170004 -0.46700001 -0.33700001
8.3299999 -0.45199999 -0.33700001
8.3520002 -0.43700001 -0.338
8.382 -0.42300001 -0.33899999
8.3979998 -0.40799999 -0.34
8.4169998 -0.39399999 -0.34099999
8.4420004 -0.37900001 -0.34200001
8.467 -0.36500001 -0.34200001
8.4870005 -0.34999999 -0.34299999
8.4799995 -0.33500001 -0.34299999
8.5059996 -0.32100001 -0.34400001
8.5249996 -0.30599999 -0.345
8.618 -0.294 -0.34799999
8.6569996 -0.28099999 -0.34999999
8.6899996 -0.26699999 -0.35100001
8.717 -0.25299999 -0.352
8.1160002 0.090000004 -0.46799999
8.1339998 0.105 -0.46900001
8.1429996 0.121 -0.47
8.1359997 0.13600001 -0.46900001
8.1459999 0.15099999 -0.47
8.1350002 0.167 -0.47
8.151 0.183 -0.47099999
8.1280003 0.198 -0.47
8.1350002 0.214 -0.47
8.132 0.23 -0.47
8.1269999 0.24699999 -0.47
8.1330004 0.26300001 -0.47099999
8.1470003 0.28099999 -0.472
8.132 0.29699999 -0.47099999
8.132 0.31400001 -0.47099999
8.158 0.33199999 -0.47299999
8.1420002 0.34900001 -0.472
8.1560001 0.36700001 -0.47299999
8.1639996 0.38499999 -0.47400001
8.158 0.403 -0.47400001
8.1529999 0.421 -0.47400001
8.1490002 0.43900001 -0.47400001
8.1669998 0.458 -0.47499999
8.1719999 0.477 -0.47600001
8.1560001 0.495 -0.47499999
8.1809998 0.51499999 -0.477
8.1730003 0.53399998 -0.477
8.1809998 0.55299997 -0.477
8.1859999 0.57300001 -0.47799999
8.184 0.59200001 -0.47799999
8.184 0.61199999 -0.47799999
8.1899996 0.63200003 -0.479
8.2010002 0.653 -0.47999999
8.1879997 0.67199999 -0.47999999
8.2209997 0.69499999 -0.48199999
8.2220001 0.71499997 -0.48199999
8.2259998 0.736 -0.48300001
8.2259998 0.75599998 -0.48300001
8.2349997 0.778 -0.484
8.2299995 0.79900002 -0.484
8.2340002 0.81999999 -0.48500001
8.2469997 0.84299999 -0.486
8.2559996 0.86500001 -0.48699999
8.2580004 0.88700002 -0.48699999
8.2510004 0.90799999 -0.48699999
8.2620001 0.93000001 -0.48800001
8.2620001 0.95200002 -0.48899999
8.2709999 0.97500002 -0.49000001
8.29 1 -0.491
8.2810001 1.021 -0.491
8.2889996 1.045 -0.49200001
8.2959995 1.068 -0.493
8.3039999 1.092 -0.49399999
8.3009996 1.115 -0.49399999
8.3070002 1.138 -0.495
8.3280001 1.164 -0.49599999
8.3310003 1.188 -0.49700001
8.349 1.214 -0.49900001
8.3470001 1.238 -0.49900001
8.3620005 1.263 -0.5
8.3579998 1.2869999 -0.50099999
8.3610001 1.311 -0.50099999
8.3579998 1.335 -0.50199997
7.9920001 1.299 -0.47999999
7.7420001 1.281 -0.46599999
7.6620002 1.29 -0.461
7.6490002 1.311 -0.461
7.6550002 1.334 -0.46200001
7.678 1.3609999 -0.46399999
7.75 1.397 -0.46799999
8.0299997 1.471 -0.486
8.4379997 1.571 -0.51099998
8.4560003 1.6 -0.51300001
8.448 1.624 -0.51300001
8.4610004 1.652 -0.514
8.4770002 1.681 -0.51599997
8.4759998 1.707 -0.51599997
7.7979999 1.594 -0.47499999
7.678 1.5930001 -0.46900001
7.6469998 1.61 -0.46700001
7.6240001 1.6289999 -0.46599999
7.631 1.654 -0.46700001
7.6609998 1.6849999 -0.47
7.7839999 1.7359999 -0.47799999
8.5620003 1.937 -0.52600002
8.5799999 1.9680001 -0.528
8.5799999 1.995 -0.528
8.5900002 2.0250001 -0.52999997
8.5979996 2.0539999 -0.53100002
8.6099997 2.085 -0.53200001
8.6160002 2.1140001 -0.53299999
8.6239996 2.1440001 -0.53399998
8.6420002 2.1760001 -0.53600001
8.6450005 2.2049999 -0.537
8.6639996 2.2379999 -0.53899997
8.6739998 2.2690001 -0.54000002
8.691 2.302 -0.542
8.7010002 2.3329999 -0.54299998
8.7119999 2.3640001 -0.54500002
8.7440004 2.402 -0.54699999
8.7320004 2.428 -0.54699999
8.7460003 2.461 -0.54900002
8.7480001 2.49 -0.55000001
8.7659998 2.5250001 -0.55199999
8.7629995 2.553 -0.55199999
8.7969999 2.592 -0.55500001
8.8000002 2.6229999 -0.55599999
8.8079996 2.655 -0.55699998
8.8210001 2.6889999 -0.55900002
8.8310003 2.7219999 -0.56
8.8470001 2.757 -0.56199998
8.8409996 2.7850001 -0.56300002
8.8430004 2.816 -0.56300002
8.8549995 2.8499999 -0.565
8.8909998 2.892 -0.56800002
8.8739996 2.9170001 -0.56800002
8.8959999 2.9549999 -0.56999999
8.9119997 2.9909999 -0.57200003
8.9139996 3.023 -0.57300001
8.9049997 3.0510001 -0.57300001
8.9160004 3.085 -0.57499999
8.9230003 3.119 -0.57599998
8.9490004 3.1589999 -0.579
8.9510002 3.191 -0.579
8.9589996 3.2249999 -0.58099997
8.9879999 3.2679999 -0.58399999
8.9770002 3.2950001 -0.58399999
9.007 3.3380001 -0.58700001
9.0220003 3.375 -0.588
9.0170002 3.405 -0.58899999
9.026 3.441 -0.59100002
9.0450001 3.48 -0.59299999
9.0670004 3.5209999 -0.59500003
9.0679998 3.5539999 -0.59600002
9.0939999 3.596 -0.59899998
9.1099997 3.635 -0.60100001
9.1210003 3.6719999 -0.602
9.1269999 3.707 -0.60399997
9.1479998 3.7479999 -0.60600001
9.1800003 3.7950001 -0.60900003
9.1859999 3.8299999 -0.611
9.2089996 3.8729999 -0.61299998
9.2259998 3.9130001 -0.61500001
9.2299995 3.9489999 -0.616
9.2530003 3.9920001 -0.61900002
9.2639999 4.0300002 -0.62099999
9.2690001 4.066 -0.62199998
9.2690001 4.0999999 -0.62300003
9.2950001 4.145 -0.62599999
9.3100004 4.1859999 -0.62800002
9.3409996 4.2329998 -0.63099998
9.3450003 4.2690001 -0.63200003
9.3669996 4.3130002 -0.63499999
9.3839998 4.355 -0.63700002
9.3870001 4.3909998 -0.63800001
9.4040003 4.4330001 -0.64099997
9.3990002 4.4650002 -0.64099997
9.4130001 4.506 -0.64300001
9.4420004 4.5549998 -0.64700001
9.434 4.585 -0.64700001
9.4569998 4.631 -0.64999998
9.4709997 4.6729999 -0.65200001
9.4910002 4.717 -0.65399998
9.5 4.756 -0.65600002
9.5200005 4.8010001 -0.65899998
9.5279999 4.8400002 -0.66000003
9.5450001 4.8839998 -0.66299999
9.5550003 4.9239998 -0.66399997
9.5629997 4.9629998 -0.66600001
9.5740004 5.0040002 -0.66799998
9.5950003 5.0500002 -0.671
9.6169996 5.0970001 -0.67400002
9.6140003 5.1300001 -0.67500001
9.6569996 5.1880002 -0.67900002
9.6560001 5.223 -0.68000001
9.6719999 5.2670002 -0.68199998
9.684 5.309 -0.68400002
9.6949997 5.3509998 -0.68599999
9.7119999 5.395 -0.68900001
9.7229996 5.4369998 -0.69099998
9.7259998 5.474 -0.69199997
9.7209997 5.507 -0.69300002
9.7449999 5.5560002 -0.69599998
9.7449999 5.5910001 -0.69700003
9.7399998 5.6230001 -0.69800001
9.7620001 5.671 -0.70099998
9.7819996 5.7179999 -0.704
9.7980003 5.763 -0.70599997
9.8009996 5.8000002 -0.708
9.816 5.8439999 -0.70999998
9.8190002 5.881 -0.71200001
9.8439999 5.9320002 -0.71499997
9.8669996 5.9809999 -0.71799999
9.8620005 6.013 -0.71899998
9.8690004 6.052 -0.72100002
9.8629999 6.0840001 -0.722
9.8839998 6.132 -0.72399998
9.8800001 6.164 -0.72600001
9.8909998 6.2059999 -0.72799999
9.8950005 6.243 -0.72899997
9.9130001 6.289 -0.73199999
9.8990002 6.3150001 -0.73199999
9.9060001 6.3540001 -0.73400003
9.9440002 6.4130001 -0.73799998
9.9300003 6.4390001 -0.73900002
9.9689999 6.4980001 -0.74299997
9.9510002 6.5209999 -0.74299997
9.9809999 6.5749998 -0.74699998
9.9870005 6.6129999 -0.74900001
10.019 6.6690001 -0.75199997
9.9910002 6.684 -0.75199997
10.013 6.7319999 -0.755
10.01 6.7639999 -0.75599998
10.011 6.7979999 -0.75800002
10.016 6.835 -0.759
10.02 6.8709998 -0.76099998
10.031 6.9120002 -0.76300001
10.057 6.9629998 -0.76700002
10.105 7.0289998 -0.77200001
10.136 7.0840001 -0.77600002
10.121 7.1059999 -0.77600002
10.148 7.158 -0.77999997
6.0749998 -3.546 -0.255
6.0819998 -3.533 -0.255
6.0840001 -3.517 -0.255
6.0970001 -3.5079999 -0.255
6.1040001 -3.4949999 -0.25600001
6.1110001 -3.4820001 -0.25600001
6.119 -3.4690001 -0.25600001
6.1259999 -3.4560001 -0.25600001
6.1389999 -3.447 -0.257
6.1539998 -3.437 -0.257
6.1479998 -3.4170001 -0.257
6.1430001 -3.3970001 -0.25600001
6.1469998 -3.382 -0.25600001
6.1700001 -3.3770001 -0.257
6.1900001 -3.3710001 -0.25799999
6.1789999 -3.3469999 -0.257
6.1919999 -3.3369999 -0.25799999
6.1939998 -3.3199999 -0.25799999
6.1880002 -3.3 -0.25799999
6.2059999 -3.2920001 -0.25799999
6.2210002 -3.2820001 -0.259
6.2529998 -3.2820001 -0.25999999
6.2639999 -3.27 -0.25999999
6.2670002 -3.2539999 -0.25999999
6.263 -3.234 -0.25999999
6.27 -3.22 -0.25999999
6.283 -3.2079999 -0.25999999
6.3010001 -3.2 -0.26100001
6.3169999 -3.1900001 -0.26199999
6.316 -3.1719999 -0.26100001
6.3189998 -3.155 -0.26199999
6.335 -3.145 -0.26199999
6.348 -3.1340001 -0.26199999
6.3530002 -3.118 -0.26300001
6.3559999 -3.1010001 -0.26300001
6.3670001 -3.089 -0.26300001
6.3870001 -3.0799999 -0.264
6.3990002 -3.0680001 -0.264
6.3930001 -3.0469999 -0.264
6.401 -3.0320001 -0.264
6.408 -3.017 -0.264
6.428 -3.0090001 -0.26499999
6.4489999 -3 -0.26499999
6.461 -2.987 -0.266
6.4629998 -2.9690001 -0.266
6.4889998 -2.9630001 -0.26699999
6.4980001 -2.948 -0.26699999
6.5 -2.931 -0.26699999
6.4980001 -2.911 -0.26699999
6.513 -2.9000001 -0.26699999
6.5170002 -2.8829999 -0.26699999
6.5300002 -2.8699999 -0.26800001
6.5500002 -2.8599999 -0.26800001
6.5580001 -2.845 -0.26800001
6.5560002 -2.825 -0.26800001
6.5840001 -2.8180001 -0.26899999
6.5770001 -2.7969999 -0.26899999
6.598 -2.7869999 -0.27000001
6.6110001 -2.773 -0.27000001
6.6370001 -2.7650001 -0.271
6.6440001 -2.7490001 -0.271
6.6479998 -2.7320001 -0.271
6.6560001 -2.7160001 -0.271
