# .PCD v0.7 - Point Cloud Data file format
VERSION 0.7
FIELDS x y z
SIZE 4 4 4
TYPE F F F
COUNT 1 1 1
WIDTH 1912
HEIGHT 1
VIEWPOINT 0 0 0 1 0 0 0
POINTS 1912
DATA ascii
9.5080004 -2.369 0.088
9.5830002 -2.3570001 0.088
9.5790005 -2.326 0.088
9.632 -2.309 0.089000002
9.6700001 -2.2880001 0.089000002
9.7159996 -2.2690001 0.090000004
9.7510004 -2.2479999 0.090000004
9.7749996 -2.223 0.090000004
9.7930002 -2.198 0.090999998
9.8129997 -2.1730001 0.090999998
9.8249998 -2.1470001 0.090999998
9.8730001 -2.128 0.090999998
9.9060001 -2.1059999 0.092
9.9499998 -2.086 0.092
9.9469995 -2.0569999 0.092
9.9799995 -2.0350001 0.093000002
10 -2.01 0.093000002
10.037 -1.989 0.093000002
10.073 -1.9680001 0.093999997
10.072 -1.939 0.093999997
10.133 -1.923 0.093999997
10.135 -1.895 0.093999997
10.207 -1.88 0.094999999
10.225 -1.8559999 0.094999999
10.251 -1.832 0.096000001
10.285 -1.811 0.096000001
10.304 -1.786 0.096000001
10.314 -1.76 0.096000001
10.357 -1.74 0.097000003
10.383 -1.717 0.097000003
10.42 -1.696 0.097000003
10.444 -1.673 0.097999997
10.507 -1.656 0.097999997
10.489 -1.626 0.097999997
10.493 -1.6 0.097999997
10.526 -1.5779999 0.098999999
10.556 -1.556 0.098999999
10.587 -1.534 0.098999999
10.638 -1.515 0.1
10.671 -1.493 0.1
10.679 -1.4680001 0.1
10.705 -1.446 0.101
10.723 -1.4220001 0.101
10.766 -1.402 0.101
10.778 -1.378 0.101
10.817 -1.357 0.102
10.83 -1.3329999 0.102
10.865 -1.312 0.102
10.86 -1.286 0.102
10.887 -1.2640001 0.103
10.904 -1.2410001 0.103
10.957 -1.222 0.103
10.945 -1.196 0.103
10.995 -1.176 0.104
11.031 -1.155 0.104
11.043 -1.132 0.104
11.053 -1.109 0.105
11.075 -1.087 0.105
11.098 -1.0650001 0.105
11.106 -1.041 0.105
11.143 -1.021 0.106
11.158 -0.99800003 0.106
11.175 -0.97600001 0.106
11.228 -0.95700002 0.107
11.269 -0.93699998 0.107
11.309 -0.917 0.107
11.341 -0.89600003 0.108
11.4 -0.87699997 0.108
11.411 -0.85500002 0.109
11.443 -0.83399999 0.109
11.461 -0.81199998 0.109
11.505 -0.79299998 0.11
11.577 -0.77499998 0.11
11.578 -0.75199997 0.11
11.636 -0.73299998 0.111
11.653 -0.71200001 0.111
11.792 -0.69700003 0.113
11.636 -0.49399999 0.112
11.625 -0.472 0.112
11.482 0.147 -0.0089999996
11.547 0.168 -0.0099999998
11.587 0.19 -0.0099999998
11.586 0.211 -0.0099999998
11.606 0.233 -0.0099999998
11.618 0.255 -0.0099999998
11.624 0.278 -0.011
11.632 0.30000001 -0.011
11.667 0.324 -0.011
11.657 0.347 -0.011
11.655 0.37 -0.011
11.666 0.39300001 -0.011
11.67 0.417 -0.012
11.655 0.44100001 -0.012
11.672 0.465 -0.012
11.688 0.49000001 -0.012
11.664 0.514 -0.012
11.654 0.53799999 -0.013
11.646 0.56300002 -0.013
11.648 0.588 -0.013
11.646 0.61400002 -0.013
11.645 0.639 -0.013
11.661 0.66600001 -0.014
11.669 0.69300002 -0.014
11.653 0.71799999 -0.014
11.663 0.745 -0.014
11.685 0.773 -0.014
11.701 0.801 -0.015
11.708 0.829 -0.015
11.725 0.85799998 -0.015
11.726 0.88599998 -0.015
11.73 0.91399997 -0.016000001
11.74 0.94300002 -0.016000001
11.728 0.97000003 -0.016000001
11.764 1.002 -0.016000001
11.798 1.034 -0.016000001
11.787 1.062 -0.017000001
11.801 1.0930001 -0.017000001
11.822 1.124 -0.017000001
11.817 1.153 -0.017000001
11.85 1.187 -0.017999999
11.9 1.222 -0.017999999
11.895 1.252 -0.017999999
11.92 1.285 -0.017999999
11.936 1.318 -0.018999999
11.952 1.351 -0.018999999
11.985 1.386 -0.018999999
11.999 1.42 -0.018999999
12.02 1.454 -0.02
12.015 1.4859999 -0.02
12.03 1.52 -0.02
12.05 1.5549999 -0.02
12.09 1.5930001 -0.021
12.099 1.627 -0.021
12.135 1.665 -0.021
12.178 1.705 -0.021
12.189 1.74 -0.022
12.21 1.777 -0.022
12.252 1.818 -0.022
12.244 1.851 -0.022
12.258 1.888 -0.023
12.281 1.927 -0.023
12.33 1.97 -0.023
12.357 2.0090001 -0.024
12.357 2.0450001 -0.024
12.405 2.089 -0.024
12.442 2.131 -0.025
12.464 2.1719999 -0.025
12.483 2.2119999 -0.025
12.503 2.2520001 -0.025
12.542 2.296 -0.026000001
12.546 2.3340001 -0.026000001
12.59 2.3800001 -0.026000001
12.604 2.421 -0.027000001
12.611 2.46 -0.027000001
12.618 2.4990001 -0.027000001
12.623 2.539 -0.027000001
12.668 2.586 -0.028000001
12.673 2.6259999 -0.028000001
12.688 2.668 -0.028000001
12.696 2.7090001 -0.028999999
12.687 2.747 -0.028999999
12.707 2.79 -0.028999999
12.715 2.832 -0.028999999
12.736 2.8759999 -0.029999999
12.748 2.9189999 -0.029999999
12.772 2.9649999 -0.029999999
12.783 3.0079999 -0.030999999
12.818 3.0569999 -0.030999999
12.832 3.1010001 -0.030999999
12.866 3.1500001 -0.032000002
12.877 3.194 -0.032000002
12.888 3.2379999 -0.032000002
12.933 3.2909999 -0.033
12.928 3.332 -0.033
12.936 3.3759999 -0.033
12.987 3.431 -0.034000002
13.004 3.4779999 -0.034000002
13.038 3.53 -0.034000002
13.064 3.5799999 -0.035
13.103 3.6340001 -0.035
13.094 3.675 -0.035
13.12 3.7249999 -0.035999998
13.16 3.7809999 -0.035999998
13.237 3.8469999 -0.037
13.239 3.892 -0.037
13.308 3.9560001 -0.037
13.335 4.0089998 -0.037999999
13.403 4.0749998 -0.037999999
13.417 4.1240001 -0.039000001
13.427 4.1729999 -0.039000001
13.479 4.2350001 -0.039000001
13.497 4.2859998 -0.039999999
13.549 4.349 -0.039999999
13.587 4.408 -0.041000001
13.586 4.454 -0.041000001
13.612 4.5089998 -0.041000001
13.637 4.5640001 -0.041999999
13.682 4.6269999 -0.041999999
13.745 4.6960001 -0.043000001
13.739 4.7410002 -0.043000001
13.765 4.7979999 -0.044
13.843 4.8730001 -0.044
13.848 4.9229999 -0.044
13.903 4.9910002 -0.045000002
13.967 5.0630002 -0.045000002
14.002 5.125 -0.046
14.014 5.178 -0.046
14.098 5.2589998 -0.046999998
14.152 5.329 -0.046999998
14.209 5.401 -0.048
14.257 5.4689999 -0.048999999
14.305 5.5380001 -0.048999999
14.363 5.612 -0.050000001
14.383 5.671 -0.050000001
14.471 5.757 -0.050999999
14.556 5.8429999 -0.050999999
14.543 5.8899999 -0.052000001
14.591 5.961 -0.052000001
14.585 6.0110002 -0.052999999
14.619 6.0780001 -0.052999999
14.584 6.1149998 -0.052999999
14.575 6.164 -0.054000001
14.563 6.211 -0.054000001
14.627 6.2909999 -0.054000001
9.2299995 4.506 -0.037999999
9.0959997 4.474 -0.037999999
9.0530005 4.4860001 -0.037999999
9.033 4.5089998 -0.037999999
9.026 4.5380001 -0.037999999
9.0760002 4.5970001 -0.039000001
9.1549997 4.7030001 -0.039000001
8.9469995 4.6290002 -0.039000001
8.8669996 4.6199999 -0.039000001
8.842 4.6399999 -0.039000001
8.8290005 4.665 -0.039000001
8.8369999 4.7020001 -0.039000001
8.8850002 4.7589998 -0.039999999
12.148 6.552 -0.055
12.172 6.6090002 -0.055
12.223 6.6820002 -0.056000002
10.764 6.2360001 -0.052000001
10.54 6.1440001 -0.050999999
10.44 6.1230001 -0.050999999
10.385 6.1279998 -0.050999999
10.362 6.152 -0.050999999
10.338 6.1739998 -0.050999999
10.318 6.1999998 -0.050999999
10.327 6.2420001 -0.052000001
10.378 6.3099999 -0.052000001
10.039 6.6300001 -0.055
9.9090004 6.5780001 -0.055
9.8470001 6.5700002 -0.055
9.8439999 6.6009998 -0.055
9.9049997 6.6760001 -0.056000002
7.684 -4.5250001 0.086000003
7.7059999 -4.5159998 0.086000003
7.7129998 -4.4980001 0.086999997
7.7199998 -4.48 0.086999997
7.7350001 -4.467 0.086999997
7.7389998 -4.447 0.086999997
7.7480001 -4.4299998 0.086999997
7.763 -4.4169998 0.086999997
7.7800002 -4.4039998 0.088
7.7810001 -4.3829999 0.088
7.8119998 -4.3779998 0.088
7.8080001 -4.3540001 0.088
7.8200002 -4.3379998 0.088
7.8299999 -4.3210001 0.088
7.835 -4.3010001 0.089000002
7.8520002 -4.2880001 0.089000002
7.8740001 -4.2779999 0.089000002
7.8709998 -4.2540002 0.089000002
7.8959999 -4.2449999 0.089000002
7.902 -4.2249999 0.090000004
7.8979998 -4.1999998 0.090000004
7.914 -4.1859999 0.090000004
7.928 -4.1700001 0.090000004
7.9559999 -4.1620002 0.090000004
7.9549999 -4.1389999 0.090000004
7.9619999 -4.1199999 0.090999998
7.974 -4.1030002 0.090999998
7.9840002 -4.085 0.090999998
8.0030003 -4.072 0.090999998
8.007 -4.0510001 0.090999998
8.0209999 -4.0349998 0.090999998
8.0469999 -4.0240002 0.092
8.0559998 -4.006 0.092
8.0600004 -3.984 0.092
8.0740004 -3.9679999 0.092
8.0939999 -3.9549999 0.093000002
8.1040001 -3.9360001 0.093000002
8.132 -3.9260001 0.093000002
8.1409998 -3.9070001 0.093000002
8.158 -3.892 0.093000002
8.1780005 -3.878 0.093999997
8.1689997 -3.8499999 0.093999997
8.1800003 -3.8310001 0.093999997
8.2080002 -3.8210001 0.093999997
8.224 -3.8039999 0.093999997
8.2410002 -3.7880001 0.094999999
8.2489996 -3.7679999 0.094999999
8.2620001 -3.75 0.094999999
8.2670002 -3.7279999 0.094999999
8.2950001 -3.717 0.096000001
8.2930002 -3.6919999 0.096000001
8.3249998 -3.6819999 0.096000001
8.3280001 -3.6589999 0.096000001
8.3579998 -3.648 0.096000001
8.3590002 -3.6240001 0.096000001
8.3739996 -3.6070001 0.097000003
8.3959999 -3.592 0.097000003
8.3909998 -3.5650001 0.097000003
8.4329996 -3.559 0.097999997
8.4359999 -3.536 0.097999997
8.4370003 -3.5120001 0.097999997
8.467 -3.5 0.097999997
8.493 -3.4860001 0.097999997
8.507 -3.467 0.098999999
8.5120001 -3.444 0.098999999
8.5270004 -3.4260001 0.098999999
8.5360003 -3.404 0.098999999
8.5570002 -3.388 0.098999999
8.5600004 -3.365 0.098999999
8.5670004 -3.342 0.1
8.5889997 -3.326 0.1
8.6049995 -3.3069999 0.1
8.6269999 -3.2909999 0.1
8.658 -3.2780001 0.101
8.6759996 -3.2590001 0.101
8.6920004 -3.24 0.101
8.7049999 -3.22 0.101
8.7259998 -3.2019999 0.102
8.757 -3.188 0.102
8.7580004 -3.1630001 0.102
8.7770004 -3.145 0.103
8.7799997 -3.1199999 0.103
8.802 -3.1029999 0.103
8.8280001 -3.086 0.103
8.8240004 -3.0599999 0.103
8.8520002 -3.0439999 0.104
8.868 -3.023 0.104
8.8970003 -3.0079999 0.104
8.9180002 -2.9890001 0.105
8.9320002 -2.9679999 0.105
8.9659996 -2.9530001 0.105
8.9809999 -2.9319999 0.105
9.0010004 -2.9130001 0.106
9.0360003 -2.898 0.106
9.0509996 -2.8759999 0.106
9.073 -2.8570001 0.107
9.1079998 -2.842 0.107
9.1639996 -2.8329999 0.108
9.1569996 -2.8039999 0.108
9.1499996 -2.776 0.108
9.1999998 -2.7650001 0.108
9.2259998 -2.7460001 0.109
9.2519999 -2.727 0.109
9.2650003 -2.704 0.109
9.2749996 -2.6800001 0.109
9.3179998 -2.6659999 0.11
9.316 -2.638 0.11
9.3640003 -2.625 0.111
9.3669996 -2.599 0.111
9.3999996 -2.5810001 0.111
9.4189997 -2.559 0.111
9.448 -2.54 0.112
9.4779997 -2.52 0.112
9.4890003 -2.4960001 0.112
9.4960003 -2.47 0.112
9.5810003 -2.4649999 0.113
9.5930004 -2.441 0.114
9.599 -2.414 0.114
9.6169996 -2.391 0.114
9.6269999 -2.3659999 0.114
9.698 -2.3559999 0.115
9.7220001 -2.3340001 0.115
9.7629995 -2.3150001 0.116
9.8009996 -2.296 0.116
9.8330002 -2.276 0.117
9.8459997 -2.25 0.117
9.8719997 -2.2279999 0.117
9.8929996 -2.204 0.118
9.9209995 -2.1819999 0.118
9.9379997 -2.1570001 0.118
9.9610004 -2.1340001 0.119
10 -2.1129999 0.119
10.031 -2.0910001 0.12
10.075 -2.072 0.12
10.081 -2.0439999 0.12
10.111 -2.0209999 0.121
10.127 -1.995 0.121
10.178 -1.976 0.122
10.183 -1.948 0.122
10.227 -1.927 0.122
10.259 -1.904 0.123
10.286 -1.8789999 0.123
10.319 -1.8559999 0.123
10.347 -1.831 0.124
10.4 -1.811 0.125
10.407 -1.7819999 0.125
10.425 -1.756 0.125
10.477 -1.735 0.126
10.514 -1.711 0.126
10.567 -1.689 0.127
10.585 -1.6619999 0.127
10.604 -1.6339999 0.127
10.613 -1.605 0.127
10.677 -1.585 0.12800001
10.717 -1.5599999 0.12899999
10.763 -1.536 0.12899999
10.797 -1.51 0.13
10.798 -1.479 0.13
10.859 -1.457 0.131
10.88 -1.429 0.131
10.89 -1.399 0.131
10.93 -1.373 0.132
10.976 -1.347 0.132
11.001 -1.319 0.133
11.04 -1.2920001 0.133
11.064 -1.263 0.133
11.112 -1.237 0.134
11.172 -1.212 0.13500001
11.19 -1.182 0.13500001
11.215 -1.153 0.13500001
11.263 -1.126 0.13600001
11.305 -1.098 0.13699999
11.386 -1.073 0.138
11.434 -1.045 0.138
11.557 -1.024 0.14
11.58 -0.99299997 0.14
11.619 -0.963 0.141
11.696 -0.93599999 0.142
11.75 -0.90700001 0.142
11.649 -0.667 0.141
11.507 -0.62599999 0.14
11.538 -0.59500003 0.14
12.298 0.36000001 0.014
12.215 0.375 0.014
12.287 0.39399999 0.014
12.208 0.40900001 0.013
12.229 0.428 0.013
12.206 0.44600001 0.013
12.192 0.463 0.013
12.145 0.47999999 0.012
12.171 0.5 0.012
12.138 0.51800001 0.012
12.167 0.53899997 0.012
12.167 0.55900002 0.012
12.181 0.57999998 0.012
12.18 0.60000002 0.011
12.185 0.62099999 0.011
12.202 0.64300001 0.011
12.202 0.66399997 0.011
12.19 0.685 0.011
12.194 0.70700002 0.011
12.212 0.73000002 0.0099999998
12.198 0.75199997 0.0099999998
12.202 0.77399999 0.0099999998
12.209 0.79799998 0.0099999998
12.227 0.82200003 0.0099999998
12.227 0.84500003 0.0089999996
12.245 0.87 0.0089999996
12.234 0.89300001 0.0089999996
12.237 0.91799998 0.0089999996
12.26 0.94400001 0.0089999996
12.265 0.96899998 0.0089999996
12.277 0.995 0.0080000004
12.261 1.0190001 0.0080000004
12.286 1.046 0.0080000004
12.298 1.073 0.0080000004
12.322 1.101 0.0080000004
12.335 1.1289999 0.0070000002
12.325 1.154 0.0070000002
12.343 1.183 0.0070000002
12.325 1.2079999 0.0070000002
12.323 1.235 0.0070000002
12.266 1.257 0.0060000001
12.194 1.277 0.0060000001
12.151 1.3 0.0060000001
12.109 1.324 0.0060000001
12.115 1.352 0.0060000001
12.142 1.383 0.0049999999
12.14 1.4119999 0.0049999999
12.157 1.443 0.0049999999
12.166 1.473 0.0049999999
12.26 1.513 0.0049999999
12.436 1.5650001 0.0049999999
12.47 1.6 0.0040000002
12.526 1.638 0.0040000002
12.519 1.668 0.0040000002
12.569 1.706 0.0040000002
12.595 1.7410001 0.0040000002
12.611 1.775 0.003
12.598 1.806 0.003
12.625 1.842 0.003
12.612 1.873 0.003
12.642 1.91 0.003
12.671 1.947 0.0020000001
12.679 1.982 0.0020000001
12.71 2.0209999 0.0020000001
12.72 2.056 0.0020000001
12.727 2.0910001 0.0020000001
12.744 2.1289999 0.001
12.766 2.1670001 0.001
12.775 2.204 0.001
12.777 2.2390001 0.001
12.823 2.283 0.001
12.82 2.3180001 -0
12.807 2.352 -0
12.836 2.3929999 -0
12.84 2.431 -0
12.845 2.4679999 -0
12.865 2.5090001 -0
12.87 2.5469999 -0
12.89 2.589 -0
12.903 2.6289999 -0
12.918 2.6700001 -0.001
12.949 2.7149999 -0.001
12.938 2.7509999 -0.001
12.939 2.79 -0.001
12.943 2.829 -0.001
12.97 2.8740001 -0.0020000001
12.995 2.9189999 -0.0020000001
12.997 2.96 -0.0020000001
13.036 3.0079999 -0.0020000001
13.027 3.0469999 -0.003
13.064 3.096 -0.003
13.073 3.1389999 -0.003
13.138 3.1960001 -0.003
13.156 3.2409999 -0.003
13.126 3.2750001 -0.0040000002
13.165 3.3269999 -0.0040000002
13.213 3.381 -0.0040000002
13.247 3.4330001 -0.0040000002
13.277 3.483 -0.0049999999
13.29 3.53 -0.0049999999
13.311 3.579 -0.0049999999
13.369 3.638 -0.0049999999
13.39 3.688 -0.0060000001
13.411 3.7379999 -0.0060000001
13.416 3.7839999 -0.0060000001
13.482 3.8469999 -0.0060000001
13.542 3.9100001 -0.0070000002
13.573 3.9649999 -0.0070000002
13.602 4.0190001 -0.0070000002
13.652 4.0799999 -0.0080000004
13.693 4.1389999 -0.0080000004
13.724 4.1960001 -0.0080000004
13.733 4.2459998 -0.0080000004
13.772 4.3049998 -0.0089999996
13.796 4.3610001 -0.0089999996
13.819 4.4159999 -0.0089999996
13.848 4.474 -0.0089999996
13.897 4.539 -0.0099999998
13.898 4.5890002 -0.0099999998
13.912 4.6430001 -0.0099999998
13.971 4.7119999 -0.011
14.05 4.789 -0.011
14.08 4.8499999 -0.011
14.126 4.9169998 -0.011
14.124 4.967 -0.012
14.211 5.0500002 -0.012
14.273 5.1240001 -0.012
14.316 5.1919999 -0.013
14.421 5.283 -0.013
14.46 5.3509998 -0.013
14.532 5.4320002 -0.014
14.579 5.5040002 -0.014
14.623 5.5749998 -0.014
14.648 5.6399999 -0.015
14.666 5.7020001 -0.015
14.698 5.7709999 -0.015
14.751 5.8470001 -0.016000001
14.771 5.9120002 -0.016000001
14.768 5.9679999 -0.016000001
14.829 6.0489998 -0.017000001
14.878 6.1269999 -0.017000001
14.867 6.1799998 -0.017000001
14.747 6.1880002 -0.017000001
14.726 6.237 -0.017999999
9.1490002 4.467 -0.014
9.0629997 4.4629998 -0.014
9.0290003 4.4840002 -0.014
9.0249996 4.52 -0.014
9.059 4.5749998 -0.014
9.2139997 4.6919999 -0.015
9.1059999 4.6760001 -0.015
8.9259996 4.6220002 -0.015
8.8570004 4.6240001 -0.015
8.8369999 4.651 -0.015
8.8190002 4.6799998 -0.015
8.8479996 4.7340002 -0.015
8.9449997 4.8249998 -0.016000001
12.189 6.5739999 -0.022
12.131 6.5960002 -0.022
12.145 6.6560001 -0.022
12.269 6.7789998 -0.023
10.683 6.283 -0.021
10.489 6.217 -0.021
10.423 6.2249999 -0.021
10.386 6.25 -0.022
10.399 6.3049998 -0.022
10.431 6.3720002 -0.022
10.5 6.4629998 -0.022
9.8210001 6.7410002 -0.024
9.7250004 6.7220001 -0.024
9.6730003 6.7329998 -0.024
9.6540003 6.7670002 -0.025
9.6660004 6.822 -0.025
9.7150002 6.9039998 -0.025
9.7819996 7 -0.026000001
9.743 7.02 -0.026000001
7.3569999 -4.848 0.101
7.3959999 -4.8270001 0.102
7.4089999 -4.79 0.102
7.4559999 -4.7729998 0.103
7.4699998 -4.737 0.103
7.4889998 -4.704 0.103
7.5300002 -4.684 0.104
7.5450001 -4.6479998 0.104
7.5749998 -4.6220002 0.104
7.5879998 -4.586 0.104
7.6059999 -4.553 0.104
7.6389999 -4.5289998 0.105
7.6550002 -4.494 0.105
7.6750002 -4.4629998 0.105
7.7010002 -4.4349999 0.106
7.7259998 -4.4070001 0.106
7.7449999 -4.375 0.106
7.7519999 -4.3369999 0.106
7.783 -4.3119998 0.107
7.7989998 -4.2789998 0.107
7.8260002 -4.2519999 0.107
7.8569999 -4.2280002 0.108
7.8610001 -4.1890001 0.108
7.8530002 -4.1440001 0.108
7.9099998 -4.1329999 0.108
7.9369998 -4.1069999 0.109
7.954 -4.0760002 0.109
7.9790001 -4.0479999 0.109
7.994 -4.0159998 0.11
8.0290003 -3.994 0.11
8.0439997 -3.9619999 0.11
8.0790005 -3.9400001 0.111
8.0930004 -3.908 0.111
8.1300001 -3.8870001 0.111
8.151 -3.858 0.112
8.1739998 -3.8299999 0.112
8.2130003 -3.8099999 0.112
8.2139997 -3.773 0.112
8.2250004 -3.74 0.113
8.2679996 -3.7219999 0.113
8.2790003 -3.6889999 0.113
8.309 -3.665 0.114
8.3339996 -3.6389999 0.114
8.3579998 -3.6129999 0.114
8.3830004 -3.586 0.115
8.4029999 -3.559 0.115
8.4219999 -3.53 0.115
8.4399996 -3.5009999 0.116
8.4890003 -3.4849999 0.116
8.533 -3.467 0.117
8.5530005 -3.4389999 0.117
8.585 -3.4159999 0.118
8.5860004 -3.381 0.118
8.6070004 -3.3540001 0.118
8.6289997 -3.3269999 0.118
8.6610003 -3.3039999 0.119
8.684 -3.2780001 0.119
8.7200003 -3.257 0.119
8.7679996 -3.24 0.12
8.7779999 -3.2090001 0.12
8.8170004 -3.188 0.121
8.835 -3.161 0.121
8.8669996 -3.138 0.121
8.8870001 -3.1110001 0.122
8.9189997 -3.0880001 0.122
8.9530001 -3.066 0.123
8.9750004 -3.039 0.123
9.0209999 -3.0209999 0.124
9.0600004 -3.0009999 0.124
9.1070004 -2.983 0.125
9.1450005 -2.9619999 0.125
9.1809998 -2.9400001 0.126
9.2189999 -2.9189999 0.126
9.3649998 -2.931 0.12800001
9.3920002 -2.9059999 0.12899999
9.3500004 -2.8599999 0.12800001
9.3710003 -2.8340001 0.12899999
9.4029999 -2.8110001 0.12899999
9.4519997 -2.7920001 0.13
9.4989996 -2.773 0.13
9.5080004 -2.743 0.13
9.5469999 -2.7219999 0.131
9.5839996 -2.7 0.132
9.625 -2.6789999 0.132
9.6529999 -2.655 0.133
9.684 -2.631 0.133
9.7390003 -2.6140001 0.134
9.7860003 -2.595 0.134
9.8140001 -2.5699999 0.13500001
9.8479996 -2.5469999 0.13500001
9.875 -2.523 0.13600001
9.9029999 -2.4979999 0.13600001
9.9250002 -2.4719999 0.13600001
9.9440002 -2.4460001 0.13699999
10.007 -2.4300001 0.138
10.023 -2.402 0.138
10.03 -2.3729999 0.138
10.069 -2.3510001 0.139
10.072 -2.322 0.139
10.106 -2.299 0.139
10.132 -2.2739999 0.139
10.175 -2.253 0.14
10.199 -2.2279999 0.14
10.236 -2.2060001 0.141
10.251 -2.1789999 0.141
10.291 -2.158 0.142
10.31 -2.132 0.142
10.35 -2.1099999 0.14300001
10.379 -2.086 0.14300001
10.428 -2.0669999 0.14399999
10.458 -2.043 0.14399999
10.437 -2.01 0.14399999
10.486 -1.99 0.145
10.511 -1.965 0.145
10.538 -1.941 0.145
10.557 -1.916 0.146
10.592 -1.893 0.146
10.608 -1.868 0.147
10.655 -1.847 0.147
10.694 -1.826 0.148
10.716 -1.801 0.148
10.741 -1.777 0.149
10.775 -1.7539999 0.149
10.792 -1.729 0.149
10.811 -1.704 0.15000001
10.845 -1.681 0.15000001
10.882 -1.659 0.15099999
10.895 -1.6339999 0.15099999
10.948 -1.614 0.152
10.97 -1.59 0.152
10.96 -1.561 0.152
11.002 -1.54 0.152
11.014 -1.515 0.153
11.038 -1.4910001 0.153
11.034 -1.464 0.153
11.057 -1.4400001 0.153
11.091 -1.418 0.154
11.13 -1.397 0.155
11.147 -1.373 0.155
11.171 -1.349 0.155
11.214 -1.3279999 0.156
11.249 -1.306 0.156
11.284 -1.285 0.15700001
11.318 -1.263 0.15700001
11.318 -1.237 0.15700001
11.353 -1.215 0.15800001
11.389 -1.193 0.15800001
11.444 -1.174 0.15899999
11.453 -1.149 0.15899999
11.48 -1.127 0.16
11.504 -1.104 0.16
11.551 -1.084 0.161
11.598 -1.063 0.162
11.628 -1.041 0.162
11.653 -1.0190001 0.163
11.673 -0.99599999 0.163
11.786 -0.98100001 0.164
11.881 -0.96399999 0.16599999
12.002 -0.949 0.168
12.028 -0.85299999 0.168
12.083 -0.833 0.169
11.71 -0.54000002 0.164
11.541 -0.51099998 0.162
11.506 -0.48899999 0.162
11.501 -0.46799999 0.162
11.494 -0.44800001 0.162
11.546 -0.42899999 0.162
11.732 -0.41600001 0.16500001
11.348 -0.324 0.16
11.353 -0.30500001 0.16
11.967 0.155 0.048
12 0.177 0.048
12.061 0.2 0.048
12.062 0.222 0.048
12.066 0.244 0.048
12.089 0.26800001 0.048
12.074 0.28999999 0.048
12.079 0.31299999 0.048
12.087 0.33700001 0.046999998
12.075 0.361 0.046999998
12.073 0.384 0.046999998
12.117 0.41 0.046999998
12.106 0.43399999 0.046999998
12.096 0.45899999 0.046999998
12.101 0.484 0.046
12.117 0.50999999 0.046
12.144 0.53600001 0.046
12.157 0.56300002 0.046
12.165 0.58899999 0.046
12.163 0.616 0.046
12.153 0.64200002 0.045000002
12.184 0.67000002 0.045000002
12.185 0.69700003 0.045000002
12.193 0.72500002 0.045000002
12.206 0.75300002 0.045000002
12.223 0.78200001 0.045000002
12.221 0.81 0.045000002
12.247 0.83999997 0.044
12.244 0.86799997 0.044
12.255 0.898 0.044
12.258 0.92699999 0.044
12.259 0.95599997 0.044
12.284 0.98799998 0.044
12.3 1.0190001 0.043000001
12.306 1.049 0.043000001
12.318 1.08 0.043000001
12.34 1.113 0.043000001
12.343 1.1440001 0.043000001
12.349 1.175 0.043000001
12.355 1.207 0.041999999
12.376 1.24 0.041999999
12.358 1.27 0.041999999
12.25 1.29 0.041999999
12.163 1.312 0.041000001
12.106 1.3380001 0.041000001
12.09 1.367 0.039999999
12.107 1.401 0.039999999
12.103 1.433 0.039999999
12.085 1.4630001 0.039999999
12.135 1.501 0.039999999
12.218 1.544 0.039999999
12.526 1.617 0.041000001
12.599 1.661 0.041000001
12.625 1.698 0.041000001
12.665 1.739 0.041000001
12.693 1.777 0.039999999
12.713 1.816 0.039999999
12.727 1.853 0.039999999
12.736 1.89 0.039999999
12.758 1.929 0.039999999
12.777 1.9680001 0.039999999
12.794 2.007 0.039999999
12.822 2.0480001 0.039000001
12.822 2.085 0.039000001
12.853 2.1270001 0.039000001
12.867 2.1670001 0.039000001
12.875 2.2060001 0.039000001
12.91 2.2490001 0.039000001
12.919 2.289 0.037999999
12.953 2.3329999 0.037999999
12.959 2.3729999 0.037999999
12.967 2.4130001 0.037999999
13 2.4579999 0.037999999
13.017 2.5 0.037999999
13.047 2.5450001 0.037999999
13.062 2.5869999 0.037
13.08 2.631 0.037
13.102 2.675 0.037
13.144 2.724 0.037
13.171 2.77 0.037
13.191 2.8150001 0.037
13.221 2.862 0.037
13.234 2.9059999 0.035999998
13.262 2.9530001 0.035999998
13.274 2.9979999 0.035999998
13.294 3.0439999 0.035999998
13.326 3.0929999 0.035999998
13.37 3.1459999 0.035999998
13.391 3.1930001 0.035999998
13.468 3.2539999 0.035999998
13.458 3.2950001 0.035
13.48 3.3429999 0.035
13.491 3.3889999 0.035
13.559 3.45 0.035
13.624 3.5109999 0.035
13.657 3.5639999 0.035
13.703 3.6199999 0.035
13.713 3.668 0.034000002
13.746 3.721 0.034000002
13.777 3.7750001 0.034000002
13.805 3.8280001 0.034000002
13.86 3.8889999 0.034000002
13.902 3.947 0.034000002
13.956 4.0089998 0.034000002
13.96 4.0560002 0.033
13.983 4.1100001 0.033
14.001 4.1620002 0.033
14.028 4.217 0.033
14.094 4.2839999 0.033
14.108 4.336 0.033
14.167 4.402 0.032000002
14.231 4.4699998 0.032000002
14.254 4.526 0.032000002
14.27 4.5799999 0.032000002
14.3 4.638 0.032000002
14.33 4.697 0.032000002
14.388 4.7649999 0.030999999
14.416 4.8239999 0.030999999
14.443 4.8829999 0.030999999
14.479 4.9450002 0.030999999
14.591 5.0339999 0.030999999
14.718 5.1290002 0.030999999
14.702 5.1750002 0.030999999
14.76 5.2459998 0.029999999
14.813 5.3169999 0.029999999
14.84 5.3779998 0.029999999
14.831 5.427 0.029999999
14.962 5.5279999 0.029999999
15.022 5.6030002 0.029999999
15.2 5.723 0.029999999
15.271 5.803 0.029999999
15.253 5.8499999 0.028999999
15.266 5.9099998 0.028999999
15.256 5.96 0.028999999
15.246 6.0100002 0.028999999
15.27 6.0739999 0.028000001
15.345 6.158 0.028000001
15.417 6.2420001 0.028000001
15.385 6.2849998 0.028000001
15.457 6.369 0.028000001
15.53 6.4549999 0.027000001
9.1429996 4.4959998 0.012
9.0469999 4.4819999 0.012
8.9960003 4.4899998 0.012
8.9759998 4.5120001 0.012
8.9809999 4.5479999 0.012
9.0190001 4.5999999 0.011
9.1120005 4.6810002 0.011
9.0080004 4.6599998 0.011
8.8940001 4.6339998 0.011
8.842 4.6389999 0.011
8.8249998 4.6620002 0.0099999998
8.8109999 4.6869998 0.0099999998
8.8149996 4.7220001 0.0099999998
8.8500004 4.7729998 0.0099999998
7.8979998 -4.6539998 0.126
7.9219999 -4.6459999 0.126
7.9289999 -4.6279998 0.127
7.9330001 -4.6079998 0.127
7.941 -4.5890002 0.127
7.9650002 -4.5809999 0.127
7.9829998 -4.5679998 0.12800001
7.993 -4.5510001 0.12800001
7.9949999 -4.5300002 0.12800001
8.0100002 -4.5149999 0.12800001
8.0270004 -4.5019999 0.12800001
8.0299997 -4.4809999 0.12800001
8.0369997 -4.4619999 0.12899999
8.0489998 -4.4450002 0.12899999
8.0640001 -4.4310002 0.12899999
8.0819998 -4.4169998 0.12899999
8.0780001 -4.3920002 0.12899999
8.0959997 -4.3779998 0.13
8.1059999 -4.3600001 0.13
8.1239996 -4.3470001 0.13
8.1440001 -4.3340001 0.131
8.1610003 -4.3189998 0.131
8.177 -4.3039999 0.131
8.1669998 -4.276 0.131
8.1829996 -4.2600002 0.131
8.198 -4.2449999 0.132
8.2089996 -4.2270002 0.132
8.2320004 -4.2150002 0.132
8.2589998 -4.2049999 0.133
8.2740002 -4.1880002 0.133
8.2849998 -4.1700001 0.133
8.2840004 -4.1459999 0.133
8.3039999 -4.132 0.134
8.3140001 -4.1129999 0.134
8.3190002 -4.0910001 0.134
8.3459997 -4.0809999 0.13500001
8.3620005 -4.0640001 0.13500001
8.3789997 -4.0479999 0.13500001
8.3859997 -4.027 0.13500001
8.3990002 -4.0089998 0.13600001
8.4049997 -3.9879999 0.13600001
8.408 -3.9649999 0.13600001
8.4589996 -3.964 0.13699999
8.4610004 -3.941 0.13699999
8.4890003 -3.9289999 0.13699999
8.4849997 -3.9030001 0.13699999
8.5039997 -3.8870001 0.13699999
8.5220003 -3.8699999 0.138
8.5570002 -3.862 0.138
8.566 -3.8399999 0.139
8.5710001 -3.8180001 0.139
8.592 -3.803 0.139
8.599 -3.7809999 0.139
8.5939999 -3.7539999 0.139
8.6309996 -3.7449999 0.14
8.6409998 -3.724 0.14
8.6660004 -3.7090001 0.14
8.6789999 -3.6900001 0.141
8.6789999 -3.665 0.141
8.7049999 -3.6500001 0.141
8.7139997 -3.6289999 0.141
8.7510004 -3.619 0.142
8.7469997 -3.592 0.142
8.7659998 -3.5739999 0.142
8.7969999 -3.5610001 0.14300001
8.7969999 -3.536 0.14300001
8.8140001 -3.517 0.14300001
8.8319998 -3.4979999 0.14399999
8.8310003 -3.473 0.14399999
8.8590002 -3.4579999 0.14399999
8.8940001 -3.4460001 0.145
8.9020004 -3.4230001 0.145
8.9300003 -3.408 0.145
8.948 -3.3889999 0.146
8.9370003 -3.359 0.146
8.9790001 -3.349 0.146
9.0089998 -3.3340001 0.147
9.0089998 -3.3080001 0.147
9.0150003 -3.2839999 0.147
9.033 -3.2639999 0.147
9.0469999 -3.243 0.147
9.0790005 -3.2279999 0.148
9.0830002 -3.2030001 0.148
9.1049995 -3.1849999 0.149
9.1470003 -3.1730001 0.149
9.1920004 -3.1619999 0.15000001
9.1920004 -3.135 0.15000001
9.2360001 -3.1229999 0.15099999
9.2329998 -3.096 0.15099999
9.2550001 -3.076 0.15099999
9.3260002 -3.073 0.152
9.3430004 -3.052 0.153
9.3879995 -3.039 0.153
9.3809996 -3.01 0.153
9.4189997 -2.994 0.154
9.5489998 -3.0079999 0.156
9.6230001 -3.0039999 0.15700001
9.6389999 -2.9809999 0.15800001
9.5869999 -2.937 0.15700001
9.6059999 -2.915 0.15700001
9.6300001 -2.895 0.15800001
9.6239996 -2.865 0.15800001
9.6429996 -2.8429999 0.15800001
9.6709995 -2.823 0.15800001
9.7259998 -2.8110001 0.15899999
9.7419996 -2.7880001 0.16
9.7550001 -2.763 0.16
9.7709999 -2.74 0.16
9.7840004 -2.7149999 0.16
9.8179998 -2.6960001 0.161
9.8479996 -2.6760001 0.162
9.8669996 -2.6530001 0.162
9.8800001 -2.628 0.162
9.9119997 -2.608 0.163
9.9230003 -2.582 0.163
9.9610004 -2.563 0.164
9.9589996 -2.5339999 0.164
9.9949999 -2.5139999 0.164
10.014 -2.4909999 0.16500001
10.064 -2.474 0.16500001
10.062 -2.4449999 0.16500001
10.068 -2.4170001 0.16599999
10.098 -2.395 0.16599999
10.139 -2.3759999 0.167
10.146 -2.348 0.167
10.167 -2.3239999 0.167
10.198 -2.302 0.168
10.218 -2.277 0.168
10.256 -2.256 0.169
10.266 -2.2290001 0.169
10.294 -2.2049999 0.17
10.312 -2.1800001 0.17
10.353 -2.1589999 0.171
10.392 -2.1370001 0.171
10.397 -2.108 0.171
10.45 -2.089 0.17200001
10.462 -2.0610001 0.17200001
10.518 -2.0420001 0.17299999
10.542 -2.017 0.17399999
10.588 -1.995 0.175
10.597 -1.966 0.175
10.623 -1.941 0.175
10.654 -1.916 0.176
10.682 -1.89 0.176
10.723 -1.867 0.177
10.745 -1.84 0.177
10.782 -1.816 0.178
10.809 -1.789 0.178
10.823 -1.761 0.17900001
10.902 -1.742 0.18000001
10.897 -1.71 0.18000001
10.949 -1.687 0.18099999
10.971 -1.659 0.18099999
11.003 -1.633 0.182
11.047 -1.608 0.183
11.081 -1.581 0.183
11.115 -1.554 0.184
11.142 -1.526 0.184
11.174 -1.499 0.185
11.228 -1.474 0.186
11.253 -1.4450001 0.186
11.32 -1.421 0.18700001
11.353 -1.393 0.18799999
11.392 -1.365 0.189
11.454 -1.34 0.19
11.506 -1.313 0.191
11.599 -1.291 0.192
11.576 -1.255 0.192
11.647 -1.23 0.193
11.701 -1.202 0.19400001
11.786 -1.177 0.19499999
11.849 -1.15 0.19599999
11.905 -1.1210001 0.197
12.023 -1.098 0.199
12.026 -1.064 0.199
12.138 -1.04 0.20100001
12.139 -1.005 0.20100001
12.18 -0.97399998 0.20200001
11.533 -0.65899998 0.191
11.452 -0.62199998 0.19
11.465 -0.58999997 0.19
11.5 -0.55900002 0.191
11.349 -0.48699999 0.18799999
11.25 -0.45100001 0.18700001
11.292 -0.421 0.18799999
11.342 -0.38999999 0.18799999
12.681 0.40900001 0.075999998
12.586 0.42399999 0.075000003
12.634 0.44499999 0.075000003
12.676 0.465 0.075999998
12.614 0.48199999 0.075000003
12.643 0.50199997 0.075000003
12.602 0.51999998 0.075000003
12.612 0.54100001 0.074000001
12.623 0.56099999 0.074000001
12.599 0.58099997 0.074000001
12.592 0.60100001 0.074000001
12.587 0.62199998 0.074000001
12.599 0.64399999 0.072999999
12.594 0.66500002 0.072999999
12.599 0.68800002 0.072999999
12.567 0.708 0.072999999
12.593 0.73199999 0.072999999
12.593 0.755 0.072999999
12.59 0.77700001 0.071999997
12.592 0.801 0.071999997
12.612 0.82599998 0.071999997
12.608 0.84899998 0.071999997
12.6 0.87300003 0.071999997
12.552 0.89399999 0.071000002
12.455 0.91100001 0.071000002
12.414 0.93300003 0.07
12.389 0.95499998 0.07
12.379 0.97899997 0.07
12.365 1.003 0.068999998
12.356 1.028 0.068999998
12.332 1.052 0.068999998
12.306 1.075 0.068999998
12.32 1.103 0.068000004
12.358 1.132 0.068000004
12.44 1.1670001 0.068999998
12.649 1.214 0.07
12.826 1.2589999 0.071000002
12.769 1.281 0.07
12.181 1.25 0.067000002
12.098 1.268 0.066
12.058 1.291 0.066
12.04 1.317 0.064999998
12.023 1.3430001 0.064999998
12.011 1.37 0.064999998
12.007 1.397 0.064999998
12.01 1.426 0.064999998
12.037 1.4579999 0.064999998
12.122 1.497 0.064999998
13.085 1.648 0.07
12.987 1.6670001 0.068999998
12.947 1.694 0.068999998
12.969 1.729 0.068999998
12.986 1.763 0.068999998
13 1.798 0.068999998
12.986 1.829 0.068000004
13.001 1.864 0.068000004
13.036 1.902 0.068000004
13.058 1.939 0.068000004
13.07 1.975 0.068000004
13.11 2.016 0.068000004
13.107 2.05 0.068000004
13.125 2.0869999 0.068000004
13.159 2.128 0.068000004
13.186 2.168 0.068000004
13.209 2.207 0.068000004
13.2 2.2409999 0.068000004
13.224 2.2820001 0.068000004
13.244 2.322 0.068000004
13.257 2.3610001 0.068000004
13.279 2.401 0.067000002
13.317 2.4460001 0.067000002
13.331 2.4860001 0.067000002
13.374 2.5320001 0.067000002
13.391 2.573 0.067000002
13.408 2.615 0.067000002
13.408 2.654 0.067000002
13.445 2.7 0.067000002
13.456 2.7420001 0.067000002
13.502 2.7909999 0.067000002
13.516 2.8340001 0.067000002
13.552 2.881 0.067000002
13.597 2.9319999 0.067000002
13.582 2.9690001 0.067000002
13.607 3.016 0.067000002
13.622 3.0599999 0.067000002
13.671 3.1129999 0.067000002
13.7 3.1619999 0.067000002
13.717 3.2079999 0.067000002
13.746 3.257 0.067000002
13.802 3.3139999 0.067000002
13.81 3.359 0.067000002
13.861 3.415 0.067000002
13.892 3.4660001 0.067000002
13.91 3.5150001 0.067000002
13.949 3.569 0.067000002
13.953 3.615 0.066
13.995 3.671 0.067000002
14.022 3.724 0.066
14.071 3.783 0.067000002
14.101 3.8369999 0.067000002
14.149 3.8959999 0.067000002
14.169 3.9489999 0.067000002
14.215 4.0089998 0.067000002
14.245 4.0650001 0.067000002
14.291 4.1259999 0.067000002
14.298 4.1760001 0.066
14.333 4.2350001 0.066
14.355 4.29 0.066
14.41 4.3559999 0.066
14.499 4.4320002 0.067000002
14.497 4.4819999 0.066
14.538 4.5440001 0.067000002
14.627 4.6230001 0.067000002
14.612 4.6690001 0.067000002
14.668 4.7389998 0.067000002
14.691 4.7979999 0.067000002
14.784 4.8800001 0.067000002
14.856 4.9569998 0.067000002
14.899 5.0240002 0.067000002
14.96 5.099 0.067000002
15.011 5.1700001 0.067000002
15.157 5.2750001 0.068000004
15.156 5.3299999 0.067000002
15.196 5.3990002 0.067000002
15.272 5.4819999 0.068000004
15.228 5.5219998 0.067000002
15.256 5.5879998 0.067000002
15.395 5.6960001 0.068000004
15.416 5.7610002 0.067000002
15.48 5.8429999 0.068000004
15.487 5.9039998 0.067000002
15.538 5.9809999 0.067000002
15.544 6.0430002 0.067000002
15.596 6.1220002 0.067000002
15.659 6.2059999 0.067000002
15.698 6.2820001 0.067000002
15.751 6.3639998 0.068000004
15.777 6.4349999 0.067000002
15.812 6.5110002 0.067000002
9.1610003 4.4720001 0.037
9.0550003 4.4580002 0.035999998
8.9949999 4.4660001 0.035999998
8.9790001 4.4959998 0.035999998
8.9989996 4.5440001 0.035999998
9.0360003 4.6009998 0.035999998
9.026 4.6339998 0.035999998
8.9049997 4.6100001 0.035
8.8500004 4.6199999 0.035
8.8269997 4.645 0.035
8.8149996 4.677 0.034000002
8.8210001 4.7189999 0.034000002
8.8920002 4.7950001 0.035
9.9350004 6.8660002 0.035
9.8800001 6.8759999 0.035
7.5609999 -4.98 0.14
7.5929999 -4.954 0.141
7.6139998 -4.9200001 0.141
7.6490002 -4.895 0.142
7.6729999 -4.8629999 0.142
7.7030001 -4.836 0.14300001
7.7290001 -4.8060002 0.14300001
7.7579999 -4.7779999 0.14399999
7.79 -4.7519999 0.14399999
7.8099999 -4.7189999 0.14399999
7.8299999 -4.6849999 0.145
7.849 -4.651 0.145
7.8670001 -4.6170001 0.145
7.902 -4.5929999 0.146
7.9130001 -4.5560002 0.146
7.9400001 -4.527 0.146
7.9619999 -4.4959998 0.147
7.9910002 -4.4679999 0.147
8.007 -4.4349999 0.148
8.0489998 -4.415 0.148
8.0559998 -4.375 0.148
8.0790005 -4.3449998 0.149
8.0860004 -4.3070002 0.149
8.1190004 -4.283 0.149
8.1630001 -4.2639999 0.15000001
8.2060003 -4.2449999 0.15099999
8.2309999 -4.2160001 0.15099999
8.2530003 -4.1859999 0.152
8.2550001 -4.1459999 0.152
8.283 -4.119 0.152
8.3079996 -4.0910001 0.153
8.349 -4.0700002 0.153
8.3640003 -4.0370002 0.154
8.3719997 -4.0009999 0.154
8.4049997 -3.9779999 0.154
8.4379997 -3.9530001 0.155
8.4569998 -3.9230001 0.155
8.4940004 -3.901 0.156
8.5340004 -3.8789999 0.156
8.5459995 -3.846 0.15700001
8.5839996 -3.8239999 0.15700001
8.6110001 -3.7980001 0.15800001
8.6309996 -3.7679999 0.15800001
8.651 -3.7379999 0.15800001
8.665 -3.7060001 0.15899999
8.7130003 -3.6889999 0.16
8.7299995 -3.658 0.16
8.7580004 -3.632 0.16
8.7700005 -3.5999999 0.16
8.7980003 -3.5739999 0.161
8.8570004 -3.5610001 0.162
8.8559999 -3.523 0.162
8.9029999 -3.5050001 0.163
8.9259996 -3.4779999 0.163
8.967 -3.457 0.164
8.993 -3.4300001 0.164
9.0109997 -3.401 0.16500001
9.0240002 -3.3699999 0.16500001
9.0699997 -3.3510001 0.16599999
9.1239996 -3.335 0.167
9.1529999 -3.309 0.167
9.1730003 -3.2809999 0.168
9.2229996 -3.263 0.169
9.2460003 -3.2360001 0.169
9.2729998 -3.21 0.169
9.3249998 -3.1919999 0.17
9.375 -3.174 0.171
9.3999996 -3.148 0.17200001
9.4469995 -3.1289999 0.17299999
9.5089998 -3.1140001 0.17399999
9.5670004 -3.098 0.175
9.5640001 -3.062 0.175
9.6820002 -3.0650001 0.177
9.7119999 -3.04 0.177
9.7139997 -3.0050001 0.177
9.7180004 -2.9719999 0.177
9.7390003 -2.9449999 0.178
9.757 -2.9159999 0.178
9.7779999 -2.888 0.17900001
9.8240004 -2.868 0.17900001
9.8620005 -2.845 0.18000001
9.8760004 -2.816 0.18000001
9.9060001 -2.7909999 0.18099999
9.915 -2.76 0.18099999
9.9519997 -2.737 0.182
9.9799995 -2.7119999 0.182
10.018 -2.6889999 0.183
10.044 -2.6630001 0.183
10.071 -2.6370001 0.184
10.099 -2.612 0.184
10.145 -2.5910001 0.185
10.165 -2.5639999 0.186
10.189 -2.5380001 0.186
10.2 -2.5079999 0.186
10.239 -2.4860001 0.18700001
10.259 -2.4590001 0.18700001
10.292 -2.4349999 0.18799999
10.308 -2.4070001 0.18799999
10.345 -2.3840001 0.189
10.365 -2.358 0.189
10.399 -2.3340001 0.19
10.428 -2.309 0.19
10.453 -2.2839999 0.191
10.488 -2.26 0.192
10.501 -2.2320001 0.192
10.557 -2.214 0.193
10.566 -2.1849999 0.193
10.61 -2.1630001 0.19400001
10.632 -2.1370001 0.19400001
10.66 -2.1129999 0.19499999
10.711 -2.0929999 0.19599999
10.746 -2.069 0.19599999
10.758 -2.0409999 0.197
10.784 -2.017 0.197
10.823 -1.994 0.198
10.836 -1.967 0.198
10.885 -1.946 0.199
10.919 -1.923 0.2
10.942 -1.897 0.2
10.967 -1.872 0.20100001
11.005 -1.85 0.20100001
11.037 -1.826 0.20200001
11.07 -1.802 0.20299999
11.138 -1.785 0.204
11.189 -1.7640001 0.205
11.172 -1.733 0.205
11.186 -1.706 0.205
11.219 -1.683 0.205
11.254 -1.66 0.206
11.279 -1.635 0.207
11.314 -1.612 0.207
11.307 -1.5829999 0.207
11.387 -1.566 0.20900001
11.419 -1.543 0.20900001
11.451 -1.52 0.20999999
11.495 -1.498 0.211
11.517 -1.473 0.211
11.54 -1.449 0.212
11.555 -1.423 0.212
11.588 -1.4 0.213
11.637 -1.3789999 0.213
11.682 -1.357 0.214
11.755 -1.339 0.21600001
11.774 -1.314 0.21600001
11.816 -1.2920001 0.21699999
11.849 -1.2690001 0.21799999
11.865 -1.244 0.21799999
11.869 -1.2180001 0.21799999
11.91 -1.196 0.219
11.982 -1.177 0.22
12.002 -1.153 0.221
12.04 -1.13 0.221
12.168 -1.1160001 0.22400001
12.2 -1.0930001 0.22400001
12.182 -1.0650001 0.22400001
12.239 -1.045 0.22499999
12.274 -1.022 0.226
12.264 -0.99599999 0.226
12.301 -0.97299999 0.226
12.28 -0.94599998 0.226
12.327 -0.92500001 0.227
11.618 -0.537 0.215
11.499 -0.50999999 0.212
11.47 -0.48800001 0.212
11.464 -0.46700001 0.212
11.469 -0.447 0.212
11.47 -0.42699999 0.212
11.452 -0.40700001 0.212
11.368 -0.384 0.20999999
11.295 -0.36199999 0.20900001
11.252 -0.34099999 0.208
11.266 -0.32300001 0.20900001
11.295 -0.30500001 0.20900001
11.348 -0.287 0.20999999
11.362 -0.26899999 0.211
12.382 0.162 0.111
12.428 0.185 0.111
12.444 0.208 0.111
12.484 0.23100001 0.111
12.512 0.255 0.111
12.512 0.27900001 0.111
12.509 0.30199999 0.111
12.55 0.32699999 0.111
12.577 0.352 0.111
12.555 0.377 0.111
12.597 0.403 0.111
12.598 0.428 0.111
12.594 0.45300001 0.111
12.656 0.48100001 0.111
12.647 0.50700003 0.111
12.66 0.53399998 0.111
12.639 0.56 0.11
12.628 0.58600003 0.11
12.645 0.61400002 0.11
12.662 0.64200002 0.11
12.681 0.671 0.11
12.652 0.69700003 0.109
12.662 0.72600001 0.109
12.674 0.755 0.109
12.669 0.78299999 0.109
12.714 0.815 0.109
12.695 0.84200001 0.109
12.702 0.87199998 0.109
12.708 0.90200001 0.109
12.689 0.93099999 0.108
12.539 0.949 0.107
12.396 0.96799999 0.105
12.343 0.99299997 0.105
12.342 1.023 0.105
12.324 1.052 0.104
12.331 1.082 0.104
12.316 1.1109999 0.104
12.31 1.141 0.104
12.328 1.174 0.104
12.399 1.212 0.104
12.912 1.295 0.108
12.927 1.329 0.108
12.933 1.363 0.108
12.152 1.312 0.101
12.045 1.331 0.1
12.029 1.3609999 0.1
12.017 1.391 0.1
11.999 1.421 0.098999999
12.004 1.4529999 0.098999999
12.027 1.488 0.098999999
12.074 1.526 0.1
12.228 1.579 0.101
13.128 1.7309999 0.108
13.079 1.76 0.107
13.104 1.799 0.107
13.108 1.836 0.107
13.128 1.875 0.107
13.151 1.915 0.107
13.167 1.954 0.107
13.195 1.9960001 0.107
13.234 2.039 0.107
13.273 2.0829999 0.108
13.311 2.1270001 0.108
13.328 2.168 0.108
13.355 2.211 0.108
13.36 2.25 0.108
13.369 2.2909999 0.108
13.456 2.345 0.108
13.456 2.3840001 0.108
13.46 2.425 0.108
13.507 2.473 0.108
13.539 2.5190001 0.108
13.553 2.562 0.108
13.597 2.6110001 0.108
13.623 2.6570001 0.108
13.63 2.7 0.108
13.684 2.7520001 0.108
13.708 2.799 0.108
13.775 2.855 0.109
13.805 2.9030001 0.109
13.832 2.951 0.109
13.843 2.997 0.109
13.864 3.0439999 0.109
13.894 3.0940001 0.109
13.952 3.1500001 0.109
13.942 3.1919999 0.109
14.002 3.25 0.109
14.081 3.313 0.11
14.12 3.3670001 0.11
14.13 3.414 0.11
14.115 3.4549999 0.109
14.143 3.507 0.109
14.184 3.563 0.11
14.251 3.6259999 0.11
14.261 3.675 0.11
14.343 3.7420001 0.11
14.432 3.812 0.111
14.493 3.8759999 0.111
14.504 3.9260001 0.111
14.53 3.9809999 0.111
14.559 4.0370002 0.111
14.583 4.092 0.111
14.623 4.151 0.111
14.669 4.2129998 0.112
14.736 4.2810001 0.112
14.751 4.335 0.112
14.767 4.3889999 0.112
14.813 4.4530001 0.112
14.88 4.5229998 0.112
14.947 4.5929999 0.113
15.038 4.6719999 0.113
15.067 4.7319999 0.113
15.094 4.7919998 0.113
15.175 4.8699999 0.114
15.237 4.941 0.114
15.199 4.9809999 0.113
15.263 5.0539999 0.114
15.336 5.132 0.114
15.371 5.1960001 0.114
15.418 5.2649999 0.114
15.539 5.3610001 0.115
15.538 5.414 0.115
15.588 5.4860001 0.115
15.645 5.5599999 0.115
15.684 5.6290002 0.116
15.811 5.73 0.116
15.794 5.7789998 0.116
15.801 5.8369999 0.116
15.882 5.9229999 0.116
15.874 5.9749999 0.116
15.957 6.0630002 0.117
16.007 6.1389999 0.117
16.042 6.2090001 0.117
16.106001 6.2909999 0.117
16.080999 6.3379998 0.117
16.164 6.428 0.117
14.768 6.0310001 0.107
14.774 6.0869999 0.106
9.2659998 4.5219998 0.064000003
9.0970001 4.473 0.063000001
9.0229998 4.4689999 0.063000001
8.9720001 4.4770002 0.061999999
8.9379997 4.4920001 0.061999999
8.9390001 4.526 0.061999999
8.9490004 4.5630002 0.061999999
8.9809999 4.6129999 0.061999999
8.9329996 4.6209998 0.061000001
8.8690004 4.6199999 0.061000001
8.8369999 4.6360002 0.061000001
8.8030005 4.6500001 0.059999999
8.8050003 4.6830001 0.059999999
8.8100004 4.7179999 0.059999999
8.8260002 4.7589998 0.059999999
8.9560003 4.8610001 0.061000001
8.2080002 -4.8410001 0.17
8.2200003 -4.8249998 0.17
8.2370005 -4.8119998 0.17
8.2589998 -4.8010001 0.171
8.2580004 -4.777 0.171
8.2639999 -4.756 0.171
8.283 -4.744 0.171
8.3050003 -4.7329998 0.17200001
8.3170004 -4.7160001 0.17200001
8.3140001 -4.6900001 0.17200001
8.316 -4.6680002 0.17200001
8.3219995 -4.6469998 0.17200001
8.3339996 -4.6300001 0.17299999
8.3599997 -4.6199999 0.17299999
8.3710003 -4.6020002 0.17299999
8.3879995 -4.5879998 0.17399999
8.3850002 -4.5619998 0.17399999
8.4029999 -4.5479999 0.17399999
8.4130001 -4.5289998 0.17399999
8.4350004 -4.5159998 0.175
8.4469995 -4.4980001 0.175
8.467 -4.4850001 0.176
8.4770002 -4.4660001 0.176
8.4910002 -4.4489999 0.176
8.5410004 -4.4499998 0.177
8.5559998 -4.4330001 0.178
8.5930004 -4.428 0.178
8.5810003 -4.3969998 0.178
8.5670004 -4.3649998 0.178
8.5719995 -4.3429999 0.178
8.592 -4.3280001 0.178
8.6059999 -4.3099999 0.17900001
8.6079998 -4.2859998 0.17900001
8.6359997 -4.2750001 0.17900001
8.6490002 -4.256 0.18000001
8.6809998 -4.2470002 0.18000001
8.7010002 -4.2319999 0.18099999
8.698 -4.2049999 0.18099999
8.6929998 -4.177 0.18099999
8.7250004 -4.1669998 0.18099999
8.7209997 -4.1399999 0.18099999
8.7559996 -4.131 0.182
8.7770004 -4.1160002 0.183
8.7770004 -4.0900002 0.183
8.7919998 -4.072 0.183
8.8000002 -4.0500002 0.183
8.8319998 -4.039 0.184
8.8540001 -4.0240002 0.184
8.8509998 -3.9960001 0.184
8.8929996 -3.9890001 0.185
8.8909998 -3.9630001 0.185
8.9060001 -3.944 0.186
8.9200001 -3.924 0.186
8.9259996 -3.9000001 0.186
8.9469995 -3.8840001 0.18700001
8.9759998 -3.8699999 0.18700001
8.993 -3.852 0.18799999
9.0170002 -3.836 0.18799999
9.0389996 -3.819 0.189
9.0410004 -3.793 0.189
9.0719995 -3.78 0.189
9.092 -3.7620001 0.19
9.0860004 -3.733 0.19
9.1269999 -3.723 0.191
9.1339998 -3.7 0.191
9.1569996 -3.6819999 0.191
9.1780005 -3.664 0.192
9.1999998 -3.6459999 0.192
9.21 -3.6240001 0.192
9.2390003 -3.608 0.193
9.2690001 -3.5929999 0.19400001
9.29 -3.5739999 0.19400001
9.2969999 -3.55 0.19400001
9.3269997 -3.5339999 0.19499999
9.3640003 -3.5209999 0.19599999
9.3959999 -3.506 0.19599999
9.3959999 -3.4790001 0.19599999
9.4250002 -3.4619999 0.197
9.4490004 -3.4430001 0.198
9.4630003 -3.421 0.198
9.4860001 -3.402 0.198
9.4860001 -3.3740001 0.198
9.5220003 -3.359 0.199
9.552 -3.342 0.2
9.5719995 -3.322 0.2
9.5719995 -3.2939999 0.2
9.6090002 -3.279 0.20100001
9.632 -3.2590001 0.20200001
9.6709995 -3.244 0.20200001
9.6850004 -3.22 0.20299999
9.6940002 -3.1949999 0.20299999
9.7220001 -3.1760001 0.204
9.757 -3.1589999 0.204
9.7779999 -3.138 0.205
9.8210001 -3.1229999 0.206
9.849 -3.1040001 0.206
9.8290005 -3.069 0.206
9.849 -3.0469999 0.206
9.8599997 -3.0220001 0.207
9.901 -3.006 0.207
9.8979998 -2.9760001 0.207
9.9029999 -2.9489999 0.208
9.9420004 -2.9319999 0.208
9.9379997 -2.902 0.208
9.9610004 -2.8800001 0.20900001
9.9969997 -2.862 0.20999999
10.011 -2.8369999 0.20999999
10.053 -2.8199999 0.211
10.054 -2.7909999 0.211
10.082 -2.7690001 0.211
10.102 -2.7460001 0.212
10.138 -2.7260001 0.213
10.157 -2.7019999 0.213
10.182 -2.6789999 0.214
10.195 -2.6530001 0.214
10.234 -2.6340001 0.215
10.246 -2.608 0.215
10.293 -2.5899999 0.21600001
10.292 -2.5599999 0.21600001
10.322 -2.5380001 0.21699999
10.343 -2.513 0.21699999
10.376 -2.4920001 0.21799999
10.396 -2.4660001 0.21799999
10.39 -2.4349999 0.21799999
10.428 -2.414 0.219
10.455 -2.3900001 0.22
10.492 -2.369 0.22
10.498 -2.3399999 0.22
10.531 -2.3169999 0.221
10.564 -2.2939999 0.222
10.59 -2.2690001 0.222
10.65 -2.2509999 0.22400001
10.677 -2.2260001 0.22400001
10.706 -2.2019999 0.22499999
10.739 -2.177 0.226
10.748 -2.1489999 0.226
10.786 -2.125 0.227
10.8 -2.0969999 0.227
10.85 -2.076 0.228
10.886 -2.0510001 0.229
10.915 -2.0250001 0.229
10.962 -2.003 0.23
10.997 -1.978 0.23100001
11.038 -1.9529999 0.23199999
11.053 -1.924 0.23199999
11.081 -1.897 0.233
11.116 -1.872 0.234
11.163 -1.848 0.235
11.182 -1.819 0.235
11.288 -1.804 0.237
11.374 -1.785 0.23899999
11.304 -1.742 0.23800001
11.357 -1.717 0.23899999
11.414 -1.693 0.23999999
11.468 -1.669 0.241
11.482 -1.638 0.242
11.546 -1.614 0.243
11.606 -1.589 0.244
11.664 -1.564 0.245
11.701 -1.535 0.24600001
11.711 -1.503 0.24600001
11.725 -1.471 0.24699999
11.815 -1.449 0.249
11.896 -1.425 0.25
11.9 -1.391 0.25
11.93 -1.3609999 0.25099999
11.958 -1.33 0.252
12.005 -1.301 0.25299999
12.065 -1.273 0.25400001
12.154 -1.248 0.25600001
12.239 -1.222 0.25799999
12.267 -1.189 0.25799999
12.293 -1.1569999 0.259
12.381 -1.13 0.26100001
12.348 -1.092 0.25999999
12.41 -1.062 0.26100001
12.525 -1.036 0.264
11.484 -0.62300003 0.242
11.453 -0.588 0.241
11.42 -0.55400002 0.23999999
11.345 -0.51800001 0.23899999
11.283 -0.48300001 0.237
11.249 -0.44999999 0.237
11.271 -0.419 0.237
11.286 -0.38699999 0.23800001
11.323 -0.35600001 0.23800001
13.269 0.46900001 0.14399999
13.219 0.48699999 0.14300001
13.194 0.50599998 0.14300001
13.187 0.52600002 0.142
13.128 0.54400003 0.142
13.119 0.565 0.141
13.113 0.58499998 0.141
13.141 0.60799998 0.141
13.138 0.63 0.141
13.14 0.65200001 0.141
13.138 0.67400002 0.141
13.142 0.69599998 0.141
13.144 0.71899998 0.14
13.108 0.74000001 0.14
13.135 0.76499999 0.14
13.135 0.78899997 0.14
13.136 0.81300002 0.14
13.12 0.83600003 0.139
13.13 0.861 0.139
13.117 0.88499999 0.139
13.121 0.91100001 0.139
13.127 0.93599999 0.139
13.126 0.96200001 0.139
12.424 0.935 0.131
12.356 0.954 0.13
12.314 0.97600001 0.13
12.315 1.001 0.12899999
12.311 1.026 0.12899999
12.348 1.054 0.12899999
12.372 1.082 0.13
12.438 1.114 0.13
12.603 1.156 0.132
13.2 1.239 0.138
13.191 1.267 0.138
13.221 1.299 0.138
13.242 1.33 0.138
12.277 1.261 0.12800001
12.084 1.268 0.125
12.037 1.29 0.125
12.01 1.3150001 0.124
12.016 1.3430001 0.124
12.022 1.372 0.124
12.051 1.403 0.124
12.134 1.442 0.125
12.333 1.495 0.127
13.377 1.653 0.138
13.382 1.686 0.138
13.399 1.721 0.138
13.41 1.755 0.138
13.433 1.791 0.138
13.448 1.827 0.138
13.465 1.863 0.138
13.488 1.9 0.138
13.508 1.938 0.138
13.518 1.974 0.138
13.541 2.0120001 0.138
13.545 2.0480001 0.138
13.557 2.085 0.138
13.589 2.125 0.138
13.601 2.1630001 0.138
13.625 2.204 0.138
13.656 2.2449999 0.139
13.675 2.2850001 0.139
13.698 2.326 0.139
13.733 2.3699999 0.139
13.783 2.4170001 0.139
13.814 2.46 0.14
13.87 2.5090001 0.14
13.876 2.549 0.14
13.888 2.5899999 0.14
13.893 2.6300001 0.14
13.936 2.678 0.14
13.958 2.723 0.14
14.027 2.777 0.141
14.039 2.8199999 0.141
14.091 2.8710001 0.141
14.114 2.918 0.142
14.127 2.9619999 0.142
14.166 3.0120001 0.142
14.222 3.066 0.142
14.267 3.119 0.14300001
14.293 3.168 0.14300001
14.354 3.2249999 0.14300001
14.388 3.277 0.14399999
14.465 3.3380001 0.14399999
14.473 3.385 0.14399999
14.463 3.427 0.14399999
14.524 3.487 0.145
14.476 3.5209999 0.14399999
14.468 3.5639999 0.14399999
14.512 3.6210001 0.14399999
14.597 3.6889999 0.145
14.752 3.7750001 0.146
14.701 3.809 0.146
14.716 3.8599999 0.146
14.797 3.9289999 0.146
14.843 3.99 0.147
14.845 4.039 0.147
14.902 4.1040001 0.147
14.97 4.1719999 0.148
14.962 4.2189999 0.148
15.001 4.2800002 0.148
15.054 4.3460002 0.148
15.119 4.415 0.149
15.148 4.4749999 0.149
15.247 4.5560002 0.15000001
15.242 4.6069999 0.15000001
15.335 4.6869998 0.15099999
15.441 4.7729998 0.152
15.42 4.8200002 0.15099999
15.525 4.9060001 0.152
15.587 4.98 0.153
15.62 5.046 0.153
15.669 5.1170001 0.154
15.746 5.197 0.154
15.745 5.2529998 0.154
15.774 5.3189998 0.154
15.813 5.388 0.155
15.833 5.4520001 0.155
15.877 5.5250001 0.155
