# .PCD v0.7 - Point Cloud Data file format
VERSION 0.7
FIELDS x y z
SIZE 4 4 4
TYPE F F F
COUNT 1 1 1
WIDTH 1655
HEIGHT 1
VIEWPOINT 0 0 0 1 0 0 0
POINTS 1655
DATA ascii
4.0500002 -2.3469999 -0.221
4.0609999 -2.3310001 -0.221
4.0700002 -2.313 -0.222
4.085 -2.3 -0.222
4.1279998 -2.3010001 -0.22400001
4.1739998 -2.3039999 -0.227
4.2979999 -2.349 -0.233
5.9060001 -3.197 -0.31999999
5.9000001 -3.1630001 -0.31900001
5.9190001 -3.142 -0.31999999
5.9320002 -3.118 -0.31999999
5.941 -3.092 -0.32100001
5.9699998 -3.0769999 -0.322
5.9879999 -3.0550001 -0.32300001
6.0139999 -3.0380001 -0.324
6.026 -3.0139999 -0.324
6.0289998 -2.9860001 -0.324
6.0479999 -2.9660001 -0.32499999
6.0500002 -2.937 -0.324
6.072 -2.918 -0.32499999
6.0890002 -2.898 -0.32600001
6.0999999 -2.8740001 -0.32600001
6.1110001 -2.8499999 -0.32600001
6.1350002 -2.8329999 -0.32699999
6.1459999 -2.809 -0.32800001
6.1570001 -2.7850001 -0.32800001
6.1739998 -2.7650001 -0.329
6.184 -2.7409999 -0.329
6.2069998 -2.724 -0.33000001
6.2249999 -2.704 -0.331
6.2360001 -2.6800001 -0.331
6.257 -2.6619999 -0.33199999
6.2880001 -2.648 -0.333
6.29 -2.6210001 -0.333
6.3200002 -2.6059999 -0.33399999
6.3369999 -2.586 -0.33500001
6.3579998 -2.5680001 -0.336
6.381 -2.55 -0.33700001
6.3839998 -2.5250001 -0.33700001
6.4000001 -2.5039999 -0.33700001
6.4299998 -2.4890001 -0.338
6.4439998 -2.4690001 -0.33899999
6.46 -2.448 -0.34
6.4650002 -2.424 -0.34
6.4980001 -2.4100001 -0.34099999
6.493 -2.382 -0.34099999
6.5229998 -2.368 -0.34200001
6.5430002 -2.349 -0.34299999
6.5650001 -2.3310001 -0.34400001
6.566 -2.306 -0.34299999
6.5739999 -2.2839999 -0.34400001
6.5869999 -2.263 -0.34400001
6.6220002 -2.25 -0.34599999
6.632 -2.2279999 -0.34599999
6.6370001 -2.2049999 -0.34599999
6.651 -2.1849999 -0.34599999
6.6700001 -2.1659999 -0.347
6.6799998 -2.145 -0.347
6.6999998 -2.1270001 -0.34799999
6.7080002 -2.105 -0.34799999
6.7280002 -2.0880001 -0.34900001
6.7420001 -2.0680001 -0.34999999
6.7470002 -2.0450001 -0.34999999
6.763 -2.026 -0.34999999
6.7750001 -2.006 -0.35100001
6.7810001 -1.984 -0.35100001
6.802 -1.967 -0.352
6.8150001 -1.947 -0.352
6.8340001 -1.929 -0.35299999
6.8470001 -1.91 -0.354
6.875 -1.8940001 -0.35499999
6.8790002 -1.873 -0.35499999
6.8850002 -1.851 -0.35499999
6.9050002 -1.834 -0.35600001
6.9109998 -1.813 -0.35600001
6.9299998 -1.795 -0.35699999
6.9530001 -1.778 -0.35800001
6.9549999 -1.757 -0.35699999
6.9749999 -1.739 -0.35800001
6.993 -1.721 -0.359
7 -1.701 -0.359
7.0209999 -1.684 -0.36000001
7.0489998 -1.669 -0.361
7.0539999 -1.648 -0.361
7.0799999 -1.632 -0.36300001
7.0840001 -1.612 -0.36300001
7.1040001 -1.595 -0.36300001
7.1069999 -1.574 -0.36300001
7.1269999 -1.557 -0.36399999
7.131 -1.5369999 -0.36399999
7.1550002 -1.521 -0.36500001
7.1659999 -1.502 -0.366
7.1849999 -1.485 -0.36700001
7.21 -1.469 -0.368
7.2280002 -1.452 -0.368
7.2329998 -1.432 -0.368
7.2420001 -1.413 -0.36899999
7.2610002 -1.396 -0.37
7.2729998 -1.378 -0.37
7.2909999 -1.3609999 -0.37099999
7.3150001 -1.345 -0.37200001
7.3080001 -1.324 -0.37099999
7.322 -1.306 -0.37200001
7.3330002 -1.288 -0.37200001
7.3499999 -1.271 -0.373
7.368 -1.255 -0.37400001
7.3709998 -1.235 -0.37400001
7.3870001 -1.2180001 -0.37400001
7.3899999 -1.199 -0.37400001
7.4229999 -1.1849999 -0.37599999
7.4250002 -1.166 -0.37599999
7.4289999 -1.148 -0.37599999
7.46 -1.133 -0.377
7.4720001 -1.1160001 -0.37799999
7.493 -1.1 -0.37900001
7.4980001 -1.082 -0.37900001
7.4990001 -1.063 -0.37900001
7.5300002 -1.049 -0.38
7.5310001 -1.03 -0.38
7.5500002 -1.0140001 -0.38100001
7.5479999 -0.99599999 -0.38100001
7.5770001 -0.98100001 -0.382
7.585 -0.96399999 -0.382
7.5929999 -0.94700003 -0.382
7.5890002 -0.92799997 -0.382
7.6230001 -0.91399997 -0.384
7.6279998 -0.89700001 -0.384
7.6240001 -0.87900001 -0.384
7.6389999 -0.86299998 -0.384
7.6550002 -0.847 -0.38499999
7.6690001 -0.83099997 -0.38499999
7.6659999 -0.81300002 -0.38499999
7.677 -0.79699999 -0.38600001
7.6890001 -0.78100002 -0.38600001
7.7069998 -0.76499999 -0.38699999
7.717 -0.74900001 -0.38699999
7.7329998 -0.73400003 -0.38800001
7.7490001 -0.71899998 -0.389
7.7750001 -0.704 -0.38999999
7.7729998 -0.68699998 -0.38999999
7.7839999 -0.671 -0.38999999
7.8000002 -0.65600002 -0.391
7.8130002 -0.64099997 -0.391
7.836 -0.62599999 -0.39199999
7.8429999 -0.611 -0.39300001
7.8530002 -0.59500003 -0.39300001
7.875 -0.58099997 -0.39399999
7.8829999 -0.565 -0.39399999
7.8839998 -0.54900002 -0.39399999
7.901 -0.53500003 -0.39500001
7.908 -0.51899999 -0.39500001
7.9390001 -0.50599998 -0.39700001
7.9369998 -0.49000001 -0.39700001
7.9499998 -0.47499999 -0.39700001
7.96 -0.46000001 -0.398
7.9910002 -0.447 -0.39899999
8.0129995 -0.433 -0.40000001
7.9990001 -0.417 -0.39899999
8.0340004 -0.403 -0.40099999
8.066 -0.38999999 -0.40200001
8.052 -0.37400001 -0.40200001
8.0810003 -0.361 -0.403
8.0970001 -0.347 -0.40400001
8.0749998 -0.331 -0.403
8.0979996 -0.317 -0.40400001
8.1450005 -0.30500001 -0.40599999
8.1660004 -0.29100001 -0.40700001
8.1999998 -0.278 -0.40900001
8.1969995 -0.26300001 -0.40799999
8.25 -0.25099999 -0.41100001
8.2700005 -0.237 -0.412
7.8530002 0.085000001 -0.53899997
7.8870001 0.1 -0.54100001
7.8730001 0.114 -0.54000002
7.881 0.12899999 -0.54100001
7.8179998 0.14300001 -0.537
7.8319998 0.15800001 -0.53799999
7.7969999 0.17299999 -0.53600001
7.7969999 0.18799999 -0.53600001
7.79 0.20299999 -0.53600001
7.7989998 0.219 -0.53600001
7.7750001 0.234 -0.53500003
7.7800002 0.25 -0.53500003
7.7849998 0.266 -0.53600001
7.7610002 0.28200001 -0.53500003
7.7470002 0.29800001 -0.53399998
7.7470002 0.31400001 -0.53399998
7.744 0.33000001 -0.53399998
7.743 0.347 -0.53399998
7.757 0.36500001 -0.53600001
7.7420001 0.38100001 -0.53500003
7.7620001 0.39899999 -0.53600001
7.7270002 0.41499999 -0.53399998
7.7389998 0.433 -0.53500003
7.7529998 0.45100001 -0.537
7.7509999 0.46900001 -0.537
7.73 0.48500001 -0.53600001
7.7550001 0.505 -0.53799999
7.73 0.52200001 -0.53600001
7.7249999 0.53899997 -0.53600001
7.7280002 0.55800003 -0.537
7.7290001 0.57700002 -0.537
7.7150002 0.59399998 -0.53600001
7.7280002 0.61400002 -0.53799999
7.7249999 0.63300002 -0.53799999
7.7129998 0.65100002 -0.537
7.7360001 0.67199999 -0.53899997
7.7340002 0.69099998 -0.53899997
7.7350001 0.71100003 -0.54000002
7.7360001 0.73000002 -0.54000002
7.7350001 0.75 -0.54100001
7.7319999 0.76899999 -0.54100001
7.7449999 0.79100001 -0.542
7.7620001 0.81300002 -0.54400003
7.789 0.83600003 -0.546
7.7719998 0.85399997 -0.54500002
7.7690001 0.875 -0.54500002
7.7550001 0.89399999 -0.54500002
7.7740002 0.91600001 -0.54699999
7.777 0.93800002 -0.54699999
7.7600002 0.95700002 -0.546
7.7779999 0.98000002 -0.54799998
7.7690001 1 -0.54799998
7.7750001 1.022 -0.54900002
7.79 1.046 -0.55000001
7.7849998 1.067 -0.55000001
7.8049998 1.091 -0.55199999
7.802 1.113 -0.55299997
7.8080001 1.135 -0.55400002
7.8280001 1.161 -0.55500001
7.8390002 1.184 -0.55699998
7.849 1.2079999 -0.55800003
7.8590002 1.232 -0.55900002
7.8509998 1.2539999 -0.55900002
7.8709998 1.28 -0.56099999
7.8829999 1.3049999 -0.56199998
7.8899999 1.329 -0.56400001
7.895 1.353 -0.56400001
7.9029999 1.378 -0.56599998
7.9120002 1.403 -0.56699997
7.914 1.427 -0.56699997
7.9320002 1.454 -0.56900001
7.9380002 1.479 -0.56999999
7.9390001 1.503 -0.57099998
7.9580002 1.53 -0.57300001
7.9679999 1.557 -0.574
7.9759998 1.582 -0.57499999
7.9819999 1.608 -0.57599998
7.98 1.632 -0.57700002
7.9879999 1.658 -0.57800001
7.9860001 1.683 -0.579
8.0179996 1.714 -0.58099997
8.0360003 1.743 -0.583
8.0459995 1.771 -0.58499998
8.0550003 1.798 -0.58600003
8.0780001 1.8279999 -0.588
8.0839996 1.855 -0.58999997
8.0909996 1.883 -0.59100002
8.1000004 1.911 -0.59200001
8.1260004 1.943 -0.59500003
8.125 1.9680001 -0.59500003
8.1350002 1.997 -0.597
8.1450005 2.026 -0.59799999
8.1400003 2.0510001 -0.59899998
8.1560001 2.0810001 -0.60000002
8.1689997 2.1110001 -0.602
8.1809998 2.141 -0.60399997
8.1789999 2.1670001 -0.60399997
8.1850004 2.1960001 -0.60600001
8.1750002 2.22 -0.60600001
8.1940002 2.2520001 -0.60799998
8.2010002 2.2820001 -0.60900003
8.2209997 2.3139999 -0.611
8.2220001 2.342 -0.61199999
8.2309999 2.372 -0.61400002
8.2419996 2.4030001 -0.61500001
8.2620001 2.437 -0.61799997
8.2779999 2.4690001 -0.61900002
8.2779999 2.497 -0.62
8.2779999 2.5250001 -0.62099999
8.302 2.5610001 -0.62400001
8.3070002 2.5910001 -0.625
8.3310003 2.6259999 -0.62800002
8.3260002 2.6530001 -0.62800002
8.3339996 2.684 -0.63
8.3479996 2.7179999 -0.63099998
8.3439999 2.7449999 -0.63200003
8.3479996 2.7750001 -0.63300002
8.3690004 2.8110001 -0.63599998
8.382 2.8440001 -0.63800001
8.3979998 2.8789999 -0.63999999
8.4020004 2.9100001 -0.64099997
8.4259996 2.948 -0.64399999
8.4189997 2.974 -0.64399999
8.4499998 3.0150001 -0.64700001
8.4519997 3.0450001 -0.648
8.4840002 3.0869999 -0.65200001
8.4720001 3.112 -0.65200001
8.4820004 3.1459999 -0.65399998
8.4919996 3.1800001 -0.65499997
8.493 3.21 -0.65600002
8.5220003 3.2509999 -0.66000003
8.5139999 3.2780001 -0.66000003
8.507 3.306 -0.66000003
8.5310001 3.346 -0.66299999
8.5450001 3.382 -0.66500002
8.5679998 3.4219999 -0.66799998
8.5679998 3.4519999 -0.66900003
8.5900002 3.4920001 -0.67199999
8.592 3.523 -0.67299998
8.6110001 3.562 -0.676
8.6190004 3.5969999 -0.67699999
8.6289997 3.632 -0.67900002
8.6370001 3.6659999 -0.68099999
8.6549997 3.7049999 -0.68300003
8.6680002 3.7420001 -0.685
8.6879997 3.7820001 -0.68800002
8.6940002 3.8169999 -0.69
8.6960001 3.849 -0.69099998
8.7159996 3.8889999 -0.69400001
8.7110004 3.9189999 -0.69400001
8.743 3.9649999 -0.69800001
8.7799997 4.0139999 -0.70200002
8.7729998 4.0430002 -0.70300001
8.7729998 4.0749998 -0.704
8.7659998 4.1030002 -0.704
8.7530003 4.1300001 -0.704
8.7749996 4.1719999 -0.70700002
8.783 4.2080002 -0.70899999
8.7910004 4.244 -0.71100003
8.79 4.2750001 -0.71200001
8.8249998 4.3249998 -0.71600002
8.8389997 4.3639998 -0.71899998
8.8310003 4.3930001 -0.71899998
8.8310003 4.4250002 -0.72000003
8.8330002 4.4580002 -0.722
8.835 4.4920001 -0.72299999
8.8520002 4.533 -0.72600001
8.8590002 4.5689998 -0.727
8.8710003 4.6069999 -0.73000002
8.8830004 4.6459999 -0.73199999
8.901 4.6880002 -0.73500001
8.9110003 4.7259998 -0.73699999
8.9099998 4.7579999 -0.73799998
8.9200001 4.7969999 -0.74000001
8.9239998 4.8309999 -0.74199998
8.9289999 4.8660002 -0.74299997
8.9289999 4.8990002 -0.745
8.934 4.934 -0.74599999
8.9510002 4.9759998 -0.74900001
8.948 5.007 -0.75
8.9799995 5.0580001 -0.75400001
8.993 5.098 -0.75700003
8.9940004 5.131 -0.75800002
8.9849997 5.1589999 -0.759
8.9899998 5.1939998 -0.75999999
8.9960003 5.2309999 -0.76200002
9.0080004 5.27 -0.76499999
8.9940004 5.2940001 -0.76499999
9.0050001 5.3330002 -0.76700002
9.0159998 5.3720002 -0.76899999
9.0179996 5.4060001 -0.77100003
9.0270004 5.4429998 -0.773
9.0319996 5.4790001 -0.77499998
9.059 5.5279999 -0.77899998
9.0620003 5.5619998 -0.77999997
9.0579996 5.5910001 -0.78100002
9.0539999 5.6209998 -0.78200001
9.0500002 5.651 -0.78299999
9.0710001 5.6960001 -0.787
9.0970001 5.744 -0.79000002
9.1230001 5.7930002 -0.79400003
7.1900001 4.5900002 -0.62699997
7.0580001 4.5310001 -0.616
7.0079999 4.5229998 -0.61299998
6.9780002 4.5279999 -0.61199999
6.9559999 4.5370002 -0.611
6.947 4.5560002 -0.611
6.9460001 4.579 -0.61199999
6.9590001 4.6110001 -0.61400002
6.9899998 4.6560001 -0.61799997
7.0489998 4.7189999 -0.625
7.1090002 4.783 -0.63099998
7.1420002 4.8299999 -0.63499999
7.1669998 4.8709998 -0.639
7.2350001 4.941 -0.64600003
9.2419996 6.342 -0.82700002
9.2419996 6.3720002 -0.82800001
9.2200003 6.388 -0.82800001
9.2159996 6.415 -0.829
9.2309999 6.4559999 -0.83200002
9.2370005 6.4899998 -0.83399999
9.2189999 6.507 -0.83399999
9.2489996 6.5570002 -0.838
9.2370005 6.579 -0.83899999
9.3009996 6.6539998 -0.84600002
4.059 -2.365 -0.211
4.0500002 -2.349 -0.20999999
4.0549998 -2.3410001 -0.20999999
4.0549998 -2.329 -0.20999999
4.0510001 -2.316 -0.20999999
4.0640001 -2.312 -0.211
4.0539999 -2.2950001 -0.20999999
4.0609999 -2.2880001 -0.20999999
4.072 -2.2820001 -0.211
4.0700002 -2.27 -0.211
4.0749998 -2.2609999 -0.211
4.072 -2.2479999 -0.211
4.0669999 -2.234 -0.20999999
4.0640001 -2.221 -0.20999999
4.073 -2.2149999 -0.20999999
4.0869999 -2.211 -0.211
4.086 -2.1989999 -0.211
4.0770001 -2.1830001 -0.20999999
4.1009998 -2.184 -0.211
4.105 -2.174 -0.212
4.1290002 -2.1760001 -0.213
4.1630001 -2.1819999 -0.214
4.2280002 -2.204 -0.21799999
4.349 -2.2539999 -0.22400001
6.0679998 -3.1289999 -0.31200001
6.0650001 -3.1099999 -0.31200001
6.0580001 -3.089 -0.31099999
6.073 -3.0799999 -0.31200001
6.098 -3.076 -0.31299999
6.1040001 -3.0610001 -0.31299999
6.112 -3.0480001 -0.31400001
6.1170001 -3.033 -0.31400001
6.1399999 -3.027 -0.315
6.152 -3.0150001 -0.315
6.164 -3.0039999 -0.31600001
6.1659999 -2.9879999 -0.31600001
6.1750002 -2.974 -0.31600001
6.1869998 -2.9630001 -0.317
6.1869998 -2.9449999 -0.31600001
6.1960001 -2.9319999 -0.317
6.2080002 -2.9189999 -0.317
6.224 -2.9089999 -0.31799999
6.2210002 -2.8900001 -0.31799999
6.2329998 -2.878 -0.31799999
6.244 -2.865 -0.31900001
6.2529998 -2.852 -0.31900001
6.257 -2.836 -0.31900001
6.2740002 -2.826 -0.31999999
6.2810001 -2.8110001 -0.31999999
6.2950001 -2.799 -0.31999999
6.3060002 -2.786 -0.32100001
6.3200002 -2.7739999 -0.32100001
6.3189998 -2.756 -0.32100001
6.3520002 -2.7520001 -0.32300001
6.3569999 -2.7360001 -0.32300001
6.3660002 -2.7219999 -0.32300001
6.3759999 -2.7079999 -0.324
6.3990002 -2.6989999 -0.32499999
6.4130001 -2.687 -0.32499999
6.4250002 -2.674 -0.32600001
6.4180002 -2.6530001 -0.32499999
6.4239998 -2.6370001 -0.32499999
6.4380002 -2.6240001 -0.32600001
6.4499998 -2.6110001 -0.32600001
6.4660001 -2.599 -0.32699999
6.4640002 -2.579 -0.32699999
6.4860001 -2.5699999 -0.32800001
6.4899998 -2.553 -0.32800001
6.5100002 -2.5420001 -0.329
6.5120001 -2.5239999 -0.32800001
6.5279999 -2.5120001 -0.329
6.5320001 -2.4949999 -0.329
6.5349998 -2.477 -0.329
6.539 -2.46 -0.329
6.5619998 -2.45 -0.33000001
6.5669999 -2.4330001 -0.33000001
6.566 -2.414 -0.33000001
6.585 -2.402 -0.331
6.6030002 -2.3900001 -0.33199999
6.6079998 -2.3729999 -0.33199999
6.6170001 -2.3570001 -0.33199999
6.6290002 -2.342 -0.333
6.6409998 -2.3280001 -0.333
6.6560001 -2.3139999 -0.33399999
6.6409998 -2.29 -0.333
6.652 -2.2750001 -0.333
6.6849999 -2.267 -0.33500001
6.6700001 -2.243 -0.33399999
6.684 -2.2279999 -0.33399999
6.6849999 -2.21 -0.33399999
6.7069998 -2.198 -0.33500001
6.7129998 -2.181 -0.33500001
6.7189999 -2.1630001 -0.33500001
6.7259998 -2.1470001 -0.336
6.7270002 -2.128 -0.33500001
6.757 -2.118 -0.33700001
6.7610002 -2.0999999 -0.33700001
6.7600002 -2.0799999 -0.33700001
6.7789998 -2.0669999 -0.33700001
6.7849998 -2.049 -0.33700001
6.8039999 -2.036 -0.338
6.8119998 -2.0190001 -0.33899999
6.8270001 -2.0039999 -0.33899999
6.8330002 -1.9859999 -0.33899999
6.8260002 -1.965 -0.33899999
6.8520002 -1.952 -0.34
6.8649998 -1.937 -0.34
6.8670001 -1.918 -0.34
6.8930001 -1.905 -0.34099999
6.9000001 -1.888 -0.34200001
6.9169998 -1.873 -0.34200001
6.915 -1.852 -0.34200001
6.9349999 -1.8380001 -0.34299999
6.9400001 -1.8200001 -0.34299999
6.9439998 -1.801 -0.34299999
6.9780002 -1.79 -0.34400001
6.9780002 -1.77 -0.34400001
6.9790001 -1.75 -0.34400001
7.0120001 -1.739 -0.34599999
7.0100002 -1.7180001 -0.345
7.0209999 -1.701 -0.34599999
7.0370002 -1.6849999 -0.34599999
7.0380001 -1.665 -0.34599999
7.0679998 -1.653 -0.34799999
7.0830002 -1.636 -0.34799999
7.099 -1.619 -0.34900001
7.1090002 -1.601 -0.34900001
7.1279998 -1.585 -0.34999999
7.132 -1.566 -0.34999999
7.1529999 -1.55 -0.35100001
7.1630001 -1.5319999 -0.35100001
7.1799998 -1.516 -0.352
7.184 -1.4960001 -0.352
7.2160001 -1.482 -0.35299999
7.2090001 -1.461 -0.35299999
7.2459998 -1.447 -0.354
7.263 -1.4299999 -0.35499999
7.2740002 -1.4119999 -0.35499999
7.2859998 -1.3940001 -0.35600001
7.2979999 -1.375 -0.35600001
7.3060002 -1.3559999 -0.35600001
7.3239999 -1.339 -0.35699999
7.3280001 -1.319 -0.35699999
7.3429999 -1.3 -0.35800001
7.3639998 -1.283 -0.35800001
7.382 -1.266 -0.359
7.395 -1.247 -0.36000001
7.4099998 -1.229 -0.36000001
7.4349999 -1.212 -0.361
7.4460001 -1.192 -0.361
7.4619999 -1.174 -0.36199999
7.4860001 -1.1569999 -0.36300001
7.4949999 -1.137 -0.36300001
7.5180001 -1.119 -0.36399999
7.533 -1.1 -0.36500001
7.54 -1.08 -0.36500001
7.5739999 -1.063 -0.366
7.5809999 -1.043 -0.36700001
7.6069999 -1.025 -0.368
7.619 -1.005 -0.368
7.6329999 -0.98500001 -0.36899999
7.6479998 -0.96600002 -0.36899999
7.6599998 -0.94599998 -0.36899999
7.6690001 -0.92500001 -0.37
7.6950002 -0.90700001 -0.37099999
7.7249999 -0.88800001 -0.37200001
7.7290001 -0.86699998 -0.37200001
7.7290001 -0.84500003 -0.37200001
7.7589998 -0.82599998 -0.373
7.7909999 -0.80800003 -0.37400001
7.816 -0.78799999 -0.375
7.8330002 -0.76800001 -0.37599999
7.8559999 -0.74800003 -0.377
7.8559999 -0.72600001 -0.377
7.902 -0.708 -0.37900001
7.9180002 -0.68699998 -0.37900001
7.9369998 -0.667 -0.38
7.9499998 -0.64499998 -0.38
7.9790001 -0.625 -0.382
8.0080004 -0.60500002 -0.38299999
8.0179996 -0.583 -0.38299999
8.0389996 -0.56199998 -0.384
8.0719995 -0.54100001 -0.38499999
8.0830002 -0.51899999 -0.38600001
8.1110001 -0.498 -0.38699999
8.125 -0.47600001 -0.38699999
8.1669998 -0.456 -0.389
8.1929998 -0.43399999 -0.38999999
8.2089996 -0.412 -0.391
8.2469997 -0.391 -0.39199999
8.2980003 -0.37 -0.39399999
8.3479996 -0.34799999 -0.39700001
8.3999996 -0.32699999 -0.39899999
8.1739998 0.193 -0.537
8.1309996 0.204 -0.53500003
8.0860004 0.214 -0.53200001
8.0559998 0.22499999 -0.52999997
8.0019999 0.235 -0.52600002
7.9980001 0.24699999 -0.52600002
7.98 0.25799999 -0.52499998
7.994 0.271 -0.52600002
7.9790001 0.28299999 -0.52600002
7.9790001 0.296 -0.52600002
7.9650002 0.308 -0.52499998
7.9359999 0.31999999 -0.523
7.9489999 0.333 -0.52399999
7.9580002 0.347 -0.52499998
7.948 0.36000001 -0.52499998
7.9450002 0.37400001 -0.52499998
7.9330001 0.38699999 -0.52399999
7.9320002 0.40099999 -0.52399999
7.9250002 0.414 -0.52399999
7.9390001 0.42899999 -0.52499998
7.9349999 0.44400001 -0.52499998
7.9289999 0.458 -0.52499998
7.9250002 0.47299999 -0.52499998
7.915 0.48699999 -0.52499998
7.9200001 0.50199997 -0.52499998
7.9390001 0.51899999 -0.52700001
7.9239998 0.53299999 -0.52600002
7.947 0.551 -0.528
7.9359999 0.56599998 -0.52700001
7.9359999 0.58200002 -0.528
7.9359999 0.59799999 -0.528
7.9390001 0.61400002 -0.528
7.9200001 0.62900001 -0.52700001
7.9369998 0.64700001 -0.52899998
7.9219999 0.66299999 -0.528
7.9390001 0.68099999 -0.52999997
7.9400001 0.69800001 -0.52999997
7.9450002 0.71600002 -0.53100002
7.9429998 0.73299998 -0.53100002
7.954 0.75199997 -0.53200001
7.9499998 0.76899999 -0.53200001
7.9569998 0.78799999 -0.53299999
7.9520001 0.80500001 -0.53299999
7.9549999 0.824 -0.53399998
7.9530001 0.84200001 -0.53399998
7.9510002 0.86000001 -0.53399998
7.9549999 0.87900001 -0.53500003
7.9499998 0.898 -0.53500003
7.9510002 0.917 -0.53600001
7.9819999 0.93900001 -0.53799999
7.967 0.95700002 -0.53799999
7.9650002 0.97600001 -0.53799999
7.96 0.995 -0.53799999
7.96 1.015 -0.53799999
7.9699998 1.036 -0.54000002
7.967 1.0549999 -0.54000002
7.9650002 1.075 -0.54000002
7.9889998 1.099 -0.542
7.9860001 1.119 -0.54299998
7.9699998 1.137 -0.542
7.994 1.161 -0.54400003
7.9920001 1.182 -0.54400003
7.9920001 1.2029999 -0.54500002
8.0120001 1.227 -0.54699999
8.0150003 1.249 -0.54799998
8.0299997 1.273 -0.54900002
8.0349998 1.295 -0.55000001
8.0349998 1.317 -0.551
8.0489998 1.342 -0.55199999
8.0649996 1.3660001 -0.55400002
8.0609999 1.388 -0.55400002
8.0579996 1.41 -0.55400002
8.0889997 1.438 -0.55699998
8.0909996 1.461 -0.55800003
8.0790005 1.482 -0.55800003
8.0979996 1.5089999 -0.56
8.1110001 1.534 -0.56099999
8.1219997 1.5599999 -0.56199998
8.1090002 1.581 -0.56199998
8.1120005 1.605 -0.56300002
8.1339998 1.633 -0.565
8.1420002 1.659 -0.56599998
8.1420002 1.683 -0.56699997
8.1400003 1.707 -0.56800002
8.1479998 1.733 -0.56900001
8.1660004 1.762 -0.57099998
8.1700001 1.7869999 -0.57200003
8.1850004 1.8150001 -0.57300001
8.1929998 1.842 -0.57499999
8.2110004 1.872 -0.57700002
8.2060003 1.896 -0.57700002
8.2290001 1.927 -0.579
8.2320004 1.9529999 -0.57999998
8.25 1.984 -0.58200002
8.2379999 2.007 -0.58200002
8.2580004 2.0380001 -0.58399999
8.2659998 2.066 -0.58600003
8.2690001 2.0929999 -0.58700001
8.2919998 2.1259999 -0.58899999
8.2770004 2.1489999 -0.58899999
8.2959995 2.181 -0.59100002
8.2980003 2.2090001 -0.59200001
8.309 2.2390001 -0.59299999
8.3249998 2.27 -0.59500003
8.309 2.2939999 -0.59500003
8.3369999 2.329 -0.59799999
8.3549995 2.362 -0.60000002
8.368 2.3940001 -0.602
8.3730001 2.424 -0.60299999
8.382 2.4549999 -0.60500002
8.3800001 2.483 -0.60500002
8.4029999 2.5179999 -0.60799998
8.4049997 2.5480001 -0.60900003
8.3979998 2.575 -0.60900003
8.4139996 2.609 -0.611
8.4169998 2.6389999 -0.61199999
8.4259996 2.671 -0.61400002
8.4510002 2.7090001 -0.61699998
8.4420004 2.7360001 -0.61699998
8.4569998 2.77 -0.61900002
8.4700003 2.8050001 -0.62099999
8.4779997 2.8380001 -0.62199998
8.5030003 2.8770001 -0.625
8.5129995 2.911 -0.62699997
8.5179996 2.944 -0.62800002
8.5369997 2.9809999 -0.63099998
8.5469999 3.016 -0.63200003
8.5530005 3.049 -0.634
8.5780001 3.0899999 -0.63700002
8.5869999 3.125 -0.63800001
8.6110001 3.165 -0.64099997
8.6049995 3.1949999 -0.64200002
8.6169996 3.2320001 -0.64399999
8.6339998 3.2709999 -0.64600003
8.6350002 3.3039999 -0.64700001
8.651 3.3429999 -0.64899999
8.651 3.3759999 -0.65100002
8.6719999 3.4170001 -0.653
8.6820002 3.454 -0.65499997
8.7080002 3.4979999 -0.65799999
8.7209997 3.5369999 -0.66000003
8.7340002 3.576 -0.662
8.7379999 3.6110001 -0.66399997
8.7460003 3.6489999 -0.66600001
8.7440004 3.6819999 -0.667
8.7980003 3.74 -0.67199999
8.7849998 3.7690001 -0.67199999
8.8009996 3.8110001 -0.67400002
8.8210001 3.8540001 -0.67699999
8.8360004 3.8959999 -0.68000001
8.8430004 3.9349999 -0.68099999
8.8940001 3.993 -0.68599999
8.8900003 4.0279999 -0.68699998
8.8789997 4.059 -0.68800002
8.875 4.0929999 -0.68900001
8.8839998 4.1339998 -0.69099998
8.8929996 4.1739998 -0.69300002
8.9099998 4.2189999 -0.69499999
8.915 4.2579999 -0.69700003
8.9519997 4.3130002 -0.70099998
8.9399996 4.3439999 -0.70200002
8.9440002 4.3839998 -0.70300001
8.9589996 4.428 -0.70599997
8.9619999 4.4679999 -0.70700002
8.9720001 4.5110002 -0.70899999
8.9980001 4.5619998 -0.713
9.0200005 4.6110001 -0.71600002
9.0200005 4.6500001 -0.71700001
9.0279999 4.6929998 -0.71899998
9.0200005 4.7270002 -0.72000003
9.0319996 4.7729998 -0.722
9.0369997 4.8140001 -0.72399998
9.0539999 4.862 -0.727
9.052 4.901 -0.72799999
9.0509996 4.9400001 -0.73000002
9.0869999 5 -0.73400003
9.1090002 5.052 -0.73699999
9.1210003 5.099 -0.74000001
9.1110001 5.1339998 -0.74000001
9.0950003 5.165 -0.741
9.0979996 5.2080002 -0.74199998
9.0979996 5.2480001 -0.74400002
9.0799999 5.2789998 -0.74400002
9.0970001 5.329 -0.74699998
9.092 5.368 -0.74800003
9.1149998 5.4229999 -0.75099999
9.1210003 5.4679999 -0.75400001
9.1230001 5.5110002 -0.755
9.1169996 5.5489998 -0.75599998
9.125 5.5960002 -0.759
9.1260004 5.6389999 -0.75999999
9.1429996 5.691 -0.76300001
9.1440001 5.7340002 -0.76499999
9.151 5.7810001 -0.76700002
9.1499996 5.8239999 -0.76899999
7.2709999 4.6620002 -0.61199999
7.0760002 4.5700002 -0.597
7.006 4.5580001 -0.59200001
6.973 4.5689998 -0.59100002
6.947 4.586 -0.58999997
6.9299998 4.6069999 -0.58999997
6.9200001 4.6339998 -0.58999997
6.9190001 4.6659999 -0.59100002
6.9510002 4.7220001 -0.59500003
7.0120001 4.7969999 -0.602
7.0609999 4.8639998 -0.60699999
7.0830002 4.914 -0.611
7.1090002 4.967 -0.61400002
7.1719999 5.0450001 -0.62099999
9.1070004 6.4510002 -0.79100001
9.0900002 6.4840002 -0.79100001
9.0500002 6.5 -0.78899997
9.026 6.527 -0.78899997
3.8670001 -2.5650001 -0.19499999
3.8840001 -2.552 -0.19499999
3.895 -2.5339999 -0.19499999
3.901 -2.5139999 -0.19599999
3.9170001 -2.5 -0.19599999
3.9230001 -2.48 -0.19599999
3.9330001 -2.4619999 -0.19599999
3.937 -2.441 -0.19599999
3.9419999 -2.4200001 -0.19599999
3.9649999 -2.411 -0.197
3.9630001 -2.3870001 -0.197
3.9849999 -2.3770001 -0.198
3.983 -2.3529999 -0.198
3.9920001 -2.335 -0.198
4.0019999 -2.3180001 -0.198
4.0180001 -2.3050001 -0.199
4.0469999 -2.299 -0.2
4.0809999 -2.296 -0.20100001
4.1409998 -2.3069999 -0.204
4.283 -2.3629999 -0.211
5.9450002 -3.2479999 -0.29300001
5.9549999 -3.2219999 -0.29300001
5.9640002 -3.1949999 -0.29300001
5.9970002 -3.1819999 -0.294
6.0079999 -3.1559999 -0.294
6.0209999 -3.132 -0.29499999
6.052 -3.1170001 -0.296
6.0799999 -3.1010001 -0.29699999
6.092 -3.076 -0.29699999
6.1069999 -3.053 -0.29800001
6.1220002 -3.0309999 -0.29800001
6.1389999 -3.0090001 -0.29899999
6.1459999 -2.983 -0.29899999
6.1630001 -2.961 -0.29899999
6.1690001 -2.934 -0.29899999
6.1859999 -2.9130001 -0.30000001
6.2189999 -2.8989999 -0.301
6.2220001 -2.8710001 -0.301
6.2329998 -2.848 -0.301
6.2470002 -2.825 -0.30199999
6.2810001 -2.812 -0.303
6.3000002 -2.7920001 -0.30399999
6.3210001 -2.773 -0.30500001
6.3379998 -2.7520001 -0.30500001
6.368 -2.7360001 -0.30599999
6.3850002 -2.7149999 -0.30700001
6.395 -2.6919999 -0.30700001
6.3990002 -2.6659999 -0.30700001
6.421 -2.6470001 -0.308
6.4499998 -2.632 -0.30899999
6.454 -2.6059999 -0.30899999
6.4770002 -2.5869999 -0.31
6.493 -2.5669999 -0.31
6.5089998 -2.546 -0.31099999
6.533 -2.5280001 -0.31200001
6.553 -2.5090001 -0.31299999
6.5710001 -2.4890001 -0.31299999
6.5710001 -2.4630001 -0.31299999
6.5939999 -2.4449999 -0.31400001
6.6079998 -2.424 -0.31400001
6.6240001 -2.4030001 -0.315
6.6360002 -2.382 -0.315
6.6409998 -2.358 -0.315
6.6609998 -2.339 -0.31600001
6.677 -2.319 -0.31600001
6.684 -2.296 -0.31600001
6.7059999 -2.2780001 -0.317
6.7189999 -2.257 -0.31799999
6.7329998 -2.237 -0.31799999
6.7490001 -2.2160001 -0.31900001
6.763 -2.1960001 -0.31900001
6.7779999 -2.1760001 -0.31999999
6.7909999 -2.1559999 -0.31999999
6.8060002 -2.1359999 -0.31999999
6.8109999 -2.1129999 -0.32100001
6.8309999 -2.095 -0.32100001
6.8390002 -2.073 -0.32100001
6.8730001 -2.059 -0.32300001
6.8800001 -2.0369999 -0.32300001
6.8790002 -2.0120001 -0.32300001
6.9000001 -1.995 -0.32300001
6.902 -1.972 -0.32300001
6.9320002 -1.957 -0.32499999
6.9460001 -1.937 -0.32499999
6.9650002 -1.919 -0.32600001
6.9699998 -1.897 -0.32600001
6.98 -1.876 -0.32600001
7.0110002 -1.862 -0.32699999
7.0089998 -1.8380001 -0.32699999
7.0349998 -1.822 -0.32800001
7.0349998 -1.799 -0.32800001
7.059 -1.783 -0.329
7.086 -1.767 -0.33000001
7.105 -1.749 -0.331
7.1009998 -1.726 -0.33000001
7.1360002 -1.712 -0.33199999
7.1529999 -1.693 -0.33199999
7.1750002 -1.676 -0.333
7.1830001 -1.656 -0.333
7.1880002 -1.635 -0.333
7.2160001 -1.62 -0.33500001
7.2290001 -1.601 -0.33500001
7.2480001 -1.5829999 -0.336
7.25 -1.562 -0.336
7.2740002 -1.546 -0.33700001
7.303 -1.531 -0.338
7.3060002 -1.51 -0.338
7.29 -1.485 -0.33700001
7.323 -1.471 -0.338
7.349 -1.455 -0.33899999
7.3649998 -1.437 -0.34
7.3790002 -1.419 -0.34
7.3870001 -1.4 -0.34
7.3969998 -1.381 -0.34099999
7.427 -1.3660001 -0.34200001
7.4130001 -1.3430001 -0.34099999
7.4429998 -1.3279999 -0.34200001
7.4549999 -1.3099999 -0.34299999
7.4710002 -1.2920001 -0.34299999
7.4819999 -1.274 -0.34400001
7.4920001 -1.256 -0.34400001
7.5209999 -1.2410001 -0.345
7.5209999 -1.221 -0.345
7.533 -1.2029999 -0.34599999
7.539 -1.1849999 -0.34599999
7.5640001 -1.169 -0.347
7.572 -1.151 -0.347
7.5840001 -1.133 -0.347
7.6129999 -1.118 -0.34799999
7.6269999 -1.101 -0.34900001
7.6279998 -1.082 -0.34900001
7.6459999 -1.0650001 -0.34999999
7.6469998 -1.0470001 -0.34999999
7.671 -1.031 -0.34999999
7.6820002 -1.0140001 -0.35100001
7.697 -0.99699998 -0.35100001
7.7080002 -0.98000002 -0.352
7.717 -0.963 -0.352
7.7360001 -0.94700003 -0.35299999
7.7470002 -0.93000001 -0.35299999
7.7649999 -0.91399997 -0.354
7.77 -0.89600003 -0.354
7.7779999 -0.87900001 -0.354
7.7680001 -0.86000001 -0.354
7.7940001 -0.84500003 -0.35499999
7.8109999 -0.829 -0.35499999
7.835 -0.81400001 -0.35600001
7.8369999 -0.79699999 -0.35600001
7.842 -0.77999997 -0.35600001
7.8530002 -0.76300001 -0.35699999
7.8850002 -0.74900001 -0.35800001
7.8969998 -0.73299998 -0.359
7.9089999 -0.71700001 -0.359
7.9190001 -0.70099998 -0.359
7.9460001 -0.68599999 -0.361
7.9640002 -0.671 -0.361
7.9520001 -0.653 -0.361
7.9879999 -0.639 -0.36199999
8.0050001 -0.62400001 -0.36300001
8.0209999 -0.60900003 -0.36399999
8.0760002 -0.59600002 -0.366
8.0950003 -0.58099997 -0.36700001
8.0570002 -0.56199998 -0.36500001
8.0710001 -0.54699999 -0.36500001
8.0869999 -0.53200001 -0.366
8.0900002 -0.51599997 -0.366
8.0950003 -0.50099999 -0.366
8.1339998 -0.48699999 -0.368
8.1409998 -0.472 -0.368
8.1569996 -0.45699999 -0.36899999
8.1870003 -0.44299999 -0.37
8.1709995 -0.42699999 -0.36899999
8.2040005 -0.41299999 -0.37099999
8.2250004 -0.39899999 -0.37200001
8.2390003 -0.384 -0.37200001
8.2779999 -0.37099999 -0.37400001
8.2840004 -0.35600001 -0.37400001
8.3000002 -0.34099999 -0.375
8.3109999 -0.32699999 -0.375
8.3430004 -0.31299999 -0.37599999
8.4020004 -0.301 -0.37900001
8.4370003 -0.287 -0.38100001
7.9569998 0.086999997 -0.50199997
8.0019999 0.102 -0.505
7.9990001 0.117 -0.505
8.0019999 0.132 -0.505
7.993 0.147 -0.505
7.9899998 0.163 -0.505
8.0010004 0.178 -0.50599998
7.9970002 0.19400001 -0.50599998
7.994 0.20999999 -0.50599998
7.994 0.226 -0.50599998
7.9809999 0.241 -0.505
7.9949999 0.25799999 -0.50599998
7.987 0.27399999 -0.50599998
7.9920001 0.29100001 -0.50599998
7.9990001 0.308 -0.50700003
7.9850001 0.324 -0.50599998
7.9949999 0.34200001 -0.50700003
7.9889998 0.359 -0.50700003
7.973 0.37599999 -0.50599998
7.987 0.39399999 -0.50800002
7.9809999 0.41100001 -0.50700003
7.9879999 0.42899999 -0.50800002
8.0080004 0.44800001 -0.50999999
8.0080004 0.46700001 -0.50999999
8.0039997 0.48500001 -0.50999999
7.9959998 0.50300002 -0.50999999
8.0089998 0.52200001 -0.51099998
8.0080004 0.54100001 -0.51099998
8.0229998 0.56099999 -0.51200002
8.0240002 0.57999998 -0.51300001
8.0310001 0.60000002 -0.514
8.0389996 0.62 -0.514
8.0469999 0.63999999 -0.51499999
8.0349998 0.65899998 -0.51499999
8.0310001 0.67799997 -0.51499999
8.0299997 0.69800001 -0.51499999
8.0480003 0.72000003 -0.51700002
8.0469999 0.74000001 -0.51700002
8.059 0.76099998 -0.51800001
8.0670004 0.78200001 -0.51899999
8.0489998 0.801 -0.51800001
8.0539999 0.82300001 -0.51899999
8.0489998 0.84299999 -0.51899999
8.0600004 0.86500001 -0.51999998
8.0760002 0.88800001 -0.52200001
8.0559998 0.90700001 -0.52100003
8.0539999 0.92799997 -0.52100003
8.066 0.95099998 -0.52200001
8.073 0.97399998 -0.523
8.0719995 0.995 -0.523
8.0710001 1.017 -0.52399999
8.0830002 1.041 -0.52499998
8.0860004 1.063 -0.52600002
8.1009998 1.0880001 -0.52700001
8.1129999 1.112 -0.528
8.1040001 1.133 -0.528
8.1079998 1.156 -0.52899998
8.1110001 1.1799999 -0.52999997
8.1149998 1.2029999 -0.52999997
8.1099997 1.225 -0.52999997
8.1280003 1.251 -0.53200001
8.1330004 1.275 -0.53299999
8.1389999 1.3 -0.53399998
8.1440001 1.324 -0.53500003
8.1660004 1.352 -0.537
8.1540003 1.373 -0.53600001
8.158 1.398 -0.537
8.1610003 1.423 -0.53799999
8.1680002 1.448 -0.53899997
8.1850004 1.475 -0.54100001
8.1949997 1.502 -0.542
8.2060003 1.528 -0.54299998
8.1999998 1.552 -0.54299998
8.2200003 1.58 -0.54500002
8.224 1.6059999 -0.546
8.2390003 1.6339999 -0.54799998
8.2259998 1.6569999 -0.54699999
8.2419996 1.6849999 -0.54900002
8.2370005 1.71 -0.54900002
8.2519999 1.738 -0.551
8.2609997 1.766 -0.55199999
8.2650003 1.7920001 -0.55299997
8.2690001 1.819 -0.55400002
8.2690001 1.845 -0.55400002
8.2980003 1.878 -0.55699998
8.2860003 1.901 -0.55699998
8.3030005 1.931 -0.55900002
8.3210001 1.962 -0.56
8.3219995 1.989 -0.56099999
8.3290005 2.017 -0.56199998
8.3400002 2.0469999 -0.56400001
8.3529997 2.0769999 -0.565
8.3629999 2.1059999 -0.56699997
8.3719997 2.1359999 -0.56800002
8.3769999 2.164 -0.56900001
8.382 2.1930001 -0.56999999
8.3809996 2.22 -0.57099998
8.3950005 2.2509999 -0.57200003
8.3940001 2.279 -0.57300001
8.4180002 2.313 -0.57499999
8.4280005 2.3440001 -0.57700002
8.4390001 2.375 -0.57800001
8.4650002 2.4100001 -0.58099997
8.474 2.441 -0.58200002
8.4750004 2.47 -0.583
8.4689999 2.497 -0.583
8.4779997 2.5280001 -0.58499998
8.4779997 2.556 -0.58600003
8.4840002 2.5869999 -0.58700001
8.4940004 2.619 -0.588
8.5 2.6500001 -0.58999997
8.5039997 2.6800001 -0.59100002
8.5139999 2.7119999 -0.59200001
8.5109997 2.7409999 -0.59299999
8.5369997 2.7780001 -0.59500003
8.526 2.8039999 -0.59500003
8.5459995 2.8399999 -0.59799999
8.5740004 2.8789999 -0.60000002
8.5790005 2.9100001 -0.602
8.5959997 2.9460001 -0.60399997
8.6020002 2.9779999 -0.60500002
8.6110001 3.0109999 -0.60699999
8.632 3.0480001 -0.60900003
8.6389999 3.0810001 -0.61000001
8.6630001 3.1199999 -0.61299998
8.6660004 3.152 -0.61400002
8.6920004 3.1919999 -0.61699998
8.6960001 3.224 -0.61799997
8.6990004 3.256 -0.61900002
8.71 3.2909999 -0.62099999
8.7209997 3.326 -0.62199998
8.7130003 3.3540001 -0.62300003
8.7410002 3.3959999 -0.62599999
8.7440004 3.428 -0.62699997
8.7639999 3.467 -0.62900001
8.7580004 3.4960001 -0.63
8.7810001 3.5369999 -0.63300002
8.7950001 3.5739999 -0.63499999
8.7959995 3.6059999 -0.63599998
8.809 3.6429999 -0.63800001
8.8360004 3.6860001 -0.64099997
8.8369999 3.7179999 -0.64200002
8.8520002 3.756 -0.64399999
8.8760004 3.799 -0.64600003
8.8920002 3.8369999 -0.64899999
8.9049997 3.875 -0.65100002
8.927 3.9170001 -0.653
8.9420004 3.9560001 -0.65499997
8.941 3.9879999 -0.65600002
8.967 4.033 -0.65899998
8.9809999 4.072 -0.662
8.9890003 4.1079998 -0.66299999
9 4.1459999 -0.66500002
8.9940004 4.1760001 -0.66600001
9.0050001 4.2140002 -0.66799998
9.0190001 4.2529998 -0.67000002
9.0290003 4.2909999 -0.67199999
9.059 4.3390002 -0.67500001
9.0710001 4.3769999 -0.67699999
9.0880003 4.4190001 -0.68000001
9.1040001 4.46 -0.68199998
9.1040001 4.493 -0.68300003
9.1210003 4.5349998 -0.685
9.1260004 4.5710001 -0.68699998
9.1199999 4.6009998 -0.68800002
9.1330004 4.6409998 -0.69
9.1610003 4.6890001 -0.69300002
9.1820002 4.7329998 -0.69599998
9.1750002 4.763 -0.69700003
9.1899996 4.8049998 -0.699
9.217 4.8530002 -0.70200002
9.2159996 4.8860002 -0.70300001
9.2279997 4.9260001 -0.70599997
9.2530003 4.974 -0.70899999
9.276 5.02 -0.71200001
9.283 5.0570002 -0.71399999
9.2980003 5.0999999 -0.71600002
9.3129997 5.1420002 -0.71799999
9.3459997 5.1939998 -0.722
9.3769999 5.2459998 -0.72600001
9.3640003 5.2719998 -0.72600001
9.3590002 5.3039999 -0.727
9.3800001 5.3499999 -0.73000002
9.3830004 5.3850002 -0.73199999
9.4049997 5.4320002 -0.73500001
9.4049997 5.4660001 -0.736
9.4259996 5.5120001 -0.73900002
9.4469995 5.559 -0.74199998
9.4540005 5.5970001 -0.74400002
9.4709997 5.6409998 -0.74599999
9.4870005 5.6849999 -0.74900001
9.4899998 5.7199998 -0.75099999
9.5030003 5.7620001 -0.75300002
9.5270004 5.8099999 -0.75599998
9.5290003 5.8460002 -0.75800002
9.533 5.882 -0.75999999
9.5430002 5.9219999 -0.76200002
9.573 5.9749999 -0.76599997
9.5979996 6.0240002 -0.76899999
7.1989999 4.5440001 -0.57800001
7.073 4.4889998 -0.56900001
7.0139999 4.4770002 -0.565
6.987 4.4840002 -0.56400001
6.98 4.5029998 -0.56400001
6.9699998 4.5209999 -0.565
6.974 4.5479999 -0.56599998
6.9660001 4.566 -0.56599998
6.9780002 4.598 -0.56800002
7.0139999 4.6459999 -0.57200003
7.092 4.7220001 -0.57999998
7.1659999 4.7950001 -0.58700001
7.2329998 4.8649998 -0.59299999
7.4419999 5.0300002 -0.61199999
9.7620001 6.631 -0.80400002
9.7159996 6.6329999 -0.80199999
9.7279997 6.6729999 -0.80400002
9.7360001 6.711 -0.80599999
9.743 6.7480001 -0.80900002
9.7700005 6.7979999 -0.81199998
9.7639999 6.8260002 -0.81300002
9.8009996 6.8839998 -0.81800002
9.8330002 6.9380002 -0.82200003
4.0599999 -2.368 -0.19
4.0510001 -2.3510001 -0.19
4.0339999 -2.3299999 -0.189
4.0359998 -2.3199999 -0.189
4.0279999 -2.3039999 -0.189
4.026 -2.2920001 -0.18799999
4.0250001 -2.28 -0.18799999
4.02 -2.266 -0.18799999
4.0219998 -2.256 -0.18799999
4.0209999 -2.244 -0.18799999
4.0310001 -2.2379999 -0.18799999
4.0430002 -2.234 -0.189
4.0279999 -2.214 -0.18799999
4.027 -2.2030001 -0.18799999
4.026 -2.191 -0.18799999
4.0310001 -2.1819999 -0.18799999
4.0359998 -2.1730001 -0.18799999
4.0409999 -2.165 -0.18799999
4.0500002 -2.158 -0.189
4.0609999 -2.1530001 -0.189
4.0630002 -2.142 -0.189
4.0780001 -2.138 -0.19
4.0960002 -2.1359999 -0.19
4.1240001 -2.1400001 -0.192
4.1739998 -2.154 -0.19400001
4.243 -2.177 -0.197
6.2249999 -3.177 -0.289
6.1929998 -3.1429999 -0.287
6.2090001 -3.1329999 -0.28799999
6.2080002 -3.1159999 -0.28799999
6.2210002 -3.1040001 -0.28799999
6.223 -3.0869999 -0.28799999
6.237 -3.0769999 -0.289
6.2519999 -3.066 -0.289
6.2509999 -3.0480001 -0.289
6.256 -3.033 -0.289
6.276 -3.0250001 -0.28999999
6.2779999 -3.0079999 -0.28999999
6.2969999 -2.9990001 -0.29100001
6.2909999 -2.9779999 -0.28999999
6.3010001 -2.9649999 -0.29100001
6.3179998 -2.9549999 -0.29100001
6.3280001 -2.9419999 -0.292
6.3470001 -2.9319999 -0.292
6.3509998 -2.9159999 -0.292
6.3569999 -2.901 -0.29300001
6.3730001 -2.8900001 -0.29300001
6.3759999 -2.8729999 -0.29300001
6.3889999 -2.8610001 -0.294
6.4000001 -2.848 -0.294
6.4180002 -2.8369999 -0.29499999
6.4250002 -2.822 -0.29499999
6.4299998 -2.806 -0.29499999
6.4380002 -2.7909999 -0.29499999
6.4590001 -2.7820001 -0.296
6.46 -2.7639999 -0.296
6.4780002 -2.753 -0.29699999
6.4759998 -2.733 -0.296
6.4850001 -2.7190001 -0.29699999
6.4980001 -2.7060001 -0.29699999
6.5100002 -2.6919999 -0.29800001
6.5250001 -2.6800001 -0.29800001
6.5430002 -2.668 -0.29899999
6.5510001 -2.6530001 -0.29899999
6.5500002 -2.6340001 -0.29899999
6.5840001 -2.6289999 -0.30000001
6.5770001 -2.6070001 -0.30000001
6.599 -2.5969999 -0.301
6.6110001 -2.5829999 -0.301
6.6040001 -2.5610001 -0.301
6.632 -2.553 -0.30199999
6.6430001 -2.5380001 -0.30199999
6.6539998 -2.5239999 -0.30199999
6.6630001 -2.5079999 -0.303
6.6609998 -2.4879999 -0.30199999
6.6680002 -2.471 -0.303
6.6739998 -2.4549999 -0.303
6.6859999 -2.4400001 -0.303
6.6789999 -2.4189999 -0.303
6.7059999 -2.4089999 -0.30399999
6.7069998 -2.3900001 -0.30399999
6.7179999 -2.375 -0.30399999
6.7329998 -2.3610001 -0.30500001
6.7379999 -2.3440001 -0.30500001
6.75 -2.3280001 -0.30500001
6.7639999 -2.3139999 -0.30500001
6.776 -2.299 -0.30599999
6.7740002 -2.279 -0.30599999
6.7940001 -2.266 -0.30599999
6.7930002 -2.2460001 -0.30599999
6.8109999 -2.233 -0.30700001
6.8099999 -2.2130001 -0.30700001
6.8390002 -2.2030001 -0.308
6.8429999 -2.1849999 -0.308
6.848 -2.1670001 -0.308
6.8590002 -2.151 -0.308
6.8670001 -2.1340001 -0.308
6.8779998 -2.1170001 -0.30899999
6.9050002 -2.1059999 -0.31
6.8959999 -2.0840001 -0.30899999
6.9169998 -2.0699999 -0.31
6.921 -2.052 -0.31
6.9320002 -2.0350001 -0.31
6.9590001 -2.023 -0.31200001
6.9510002 -2.0009999 -0.31099999
6.9580002 -1.983 -0.31099999
6.974 -1.9680001 -0.31200001
6.9809999 -1.95 -0.31200001
6.9980001 -1.9349999 -0.31200001
7.0180001 -1.92 -0.31299999
7.0180001 -1.9 -0.31299999
7.0339999 -1.885 -0.31400001
7.0419998 -1.867 -0.31400001
7.059 -1.851 -0.31400001
7.0570002 -1.831 -0.31400001
7.0939999 -1.8200001 -0.31600001
7.1020002 -1.802 -0.31600001
7.1269999 -1.788 -0.317
7.138 -1.771 -0.317
7.1360002 -1.75 -0.317
7.1609998 -1.7359999 -0.31799999
7.2010002 -1.725 -0.31900001
7.1939998 -1.7029999 -0.31900001
7.21 -1.686 -0.31999999
7.2350001 -1.671 -0.31999999
7.2309999 -1.65 -0.31999999
7.244 -1.632 -0.32100001
7.2729998 -1.618 -0.322
7.2740002 -1.598 -0.322
7.2989998 -1.582 -0.32300001
7.2989998 -1.562 -0.322
7.336 -1.549 -0.324
7.335 -1.528 -0.324
7.3509998 -1.51 -0.324
7.348 -1.489 -0.324
7.3730001 -1.473 -0.32499999
7.3909998 -1.456 -0.32499999
7.402 -1.437 -0.32600001
7.4120002 -1.418 -0.32600001
7.4180002 -1.398 -0.32600001
7.4419999 -1.381 -0.32699999
7.461 -1.364 -0.32800001
7.4889998 -1.348 -0.329
7.4959998 -1.3279999 -0.329
7.513 -1.309 -0.329
7.5250001 -1.29 -0.33000001
7.5479999 -1.273 -0.331
7.5619998 -1.2539999 -0.331
7.5840001 -1.2359999 -0.33199999
7.5939999 -1.216 -0.33199999
7.6110001 -1.197 -0.333
7.6230001 -1.178 -0.333
7.6290002 -1.1569999 -0.333
7.665 -1.141 -0.33500001
7.6750002 -1.12 -0.33500001
7.6890001 -1.101 -0.33500001
7.7080002 -1.082 -0.336
7.7210002 -1.062 -0.336
7.743 -1.043 -0.33700001
7.7540002 -1.022 -0.33700001
7.77 -1.003 -0.338
7.7779999 -0.98199999 -0.338
7.8080001 -0.963 -0.33899999
7.8270001 -0.94400001 -0.34
7.8369999 -0.92299998 -0.34
7.868 -0.90399998 -0.34099999
7.8649998 -0.88200003 -0.34099999
7.8860002 -0.86199999 -0.34200001
7.9099998 -0.84200001 -0.34299999
7.934 -0.82200003 -0.34299999
7.9660001 -0.80299997 -0.345
7.9829998 -0.78200001 -0.345
7.9990001 -0.76099998 -0.34599999
8.0290003 -0.741 -0.347
8.0310001 -0.71899998 -0.347
8.0620003 -0.699 -0.34799999
8.099 -0.67900002 -0.34900001
8.1009998 -0.65700001 -0.34900001
8.1309996 -0.63599998 -0.34999999
8.1619997 -0.616 -0.35100001
8.1520004 -0.59200001 -0.35100001
8.2080002 -0.57300001 -0.35299999
8.2030001 -0.54900002 -0.35299999
8.2469997 -0.52899998 -0.354
8.2620001 -0.50700003 -0.35499999
8.2849998 -0.48500001 -0.35600001
8.3009996 -0.46200001 -0.35600001
8.335 -0.44100001 -0.35699999
8.375 -0.419 -0.359
8.3830004 -0.396 -0.359
8.3920002 -0.373 -0.359
8.4779997 -0.35299999 -0.36300001
8.4689999 -0.329 -0.36199999
8.5299997 -0.30700001 -0.36399999
8.5880003 -0.285 -0.36700001
8.3459997 0.177 -0.50300002
8.3520002 0.18799999 -0.50400001
8.316 0.199 -0.50099999
8.3039999 0.20999999 -0.50099999
8.2700005 0.221 -0.49900001
8.243 0.23199999 -0.49700001
8.2290001 0.243 -0.49700001
8.2139997 0.255 -0.49599999
8.2150002 0.26800001 -0.49599999
8.2010002 0.28 -0.495
8.1929998 0.292 -0.495
8.1850004 0.30500001 -0.495
8.1929998 0.31799999 -0.49599999
8.1800003 0.331 -0.495
8.1700001 0.34400001 -0.495
8.1669998 0.35800001 -0.495
8.1700001 0.37200001 -0.495
8.1680002 0.38600001 -0.495
8.1739998 0.40000001 -0.49599999
8.1800003 0.41499999 -0.49599999
8.184 0.42899999 -0.49700001
8.1800003 0.44400001 -0.49700001
8.177 0.45899999 -0.49700001
8.1890001 0.47400001 -0.498
8.1700001 0.48899999 -0.49700001
8.1809998 0.505 -0.498
8.1680002 0.51899999 -0.49700001
8.1730003 0.53500003 -0.498
8.1859999 0.55199999 -0.49900001
8.1859999 0.56800002 -0.49900001
8.1870003 0.58499998 -0.49900001
8.1949997 0.602 -0.5
8.1809998 0.61699998 -0.5
8.198 0.63499999 -0.50099999
8.2049999 0.653 -0.50199997
8.2040005 0.67000002 -0.50199997
8.2089996 0.68800002 -0.50300002
8.2019997 0.70499998 -0.50300002
8.2119999 0.72299999 -0.50400001
8.2259998 0.74199998 -0.505
8.2089996 0.759 -0.50400001
8.2150002 0.77700001 -0.505
8.2220001 0.796 -0.50599998
8.2360001 0.81599998 -0.50700003
8.2440004 0.83600003 -0.50800002
8.2270002 0.85299999 -0.50700003
8.2399998 0.87300003 -0.50800002
8.2340002 0.89200002 -0.50800002
8.2410002 0.912 -0.509
8.2469997 0.93199998 -0.50999999
8.2480001 0.95099998 -0.50999999
8.25 0.97100002 -0.51099998
8.2460003 0.991 -0.51099998
8.257 1.012 -0.51200002
8.2629995 1.033 -0.51300001
8.2690001 1.054 -0.514
8.2700005 1.075 -0.514
8.2779999 1.097 -0.51499999
8.2779999 1.118 -0.51599997
8.29 1.141 -0.51700002
8.283 1.161 -0.51700002
8.2709999 1.1799999 -0.51700002
8.2939997 1.205 -0.51899999
8.3000002 1.228 -0.51899999
8.302 1.25 -0.51999998
8.3109999 1.273 -0.52100003
8.3140001 1.296 -0.52200001
8.3219995 1.319 -0.523
8.3360004 1.344 -0.52399999
8.3240004 1.365 -0.52399999
8.316 1.386 -0.52399999
8.3299999 1.4119999 -0.52600002
8.3219995 1.433 -0.52600002
8.3439999 1.46 -0.528
8.3520002 1.485 -0.52899998
8.3380003 1.506 -0.528
8.3500004 1.5319999 -0.52999997
8.3590002 1.557 -0.53100002
8.3690004 1.5829999 -0.53200001
8.3769999 1.609 -0.53299999
8.3699999 1.632 -0.53299999
8.3760004 1.6569999 -0.53399998
8.375 1.682 -0.53500003
8.3879995 1.709 -0.53600001
8.3800001 1.732 -0.53600001
8.4049997 1.762 -0.53899997
8.4099998 1.789 -0.54000002
8.4169998 1.816 -0.54100001
8.4119997 1.84 -0.54100001
8.427 1.869 -0.54299998
8.4329996 1.896 -0.54400003
8.4490004 1.926 -0.54500002
8.4440002 1.951 -0.546
8.4569998 1.98 -0.54699999
8.4569998 2.006 -0.54799998
8.4510002 2.0320001 -0.54799998
8.4720001 2.063 -0.55000001
8.4890003 2.0940001 -0.55199999
8.4949999 2.1229999 -0.55299997
8.4849997 2.148 -0.55299997
8.5159998 2.1830001 -0.55599999
8.5179996 2.211 -0.55699998
8.5109997 2.237 -0.55699998
8.5240002 2.2679999 -0.55900002
8.5439997 2.3010001 -0.56099999
8.5719995 2.3369999 -0.56400001
8.5760002 2.3670001 -0.565
8.585 2.398 -0.56599998
8.5869999 2.427 -0.56699997
8.599 2.4590001 -0.56900001
8.6020002 2.4890001 -0.56999999
8.6040001 2.5190001 -0.57099998
8.6120005 2.5510001 -0.57200003
8.6199999 2.582 -0.57300001
8.6190004 2.612 -0.574
8.6059999 2.638 -0.574
8.6149998 2.6700001 -0.57599998
8.6459999 2.71 -0.579
8.6479998 2.7409999 -0.57999998
8.6400003 2.7690001 -0.57999998
8.6669998 2.8080001 -0.583
8.6700001 2.839 -0.58399999
8.6920004 2.8770001 -0.58600003
8.7119999 2.915 -0.588
8.724 2.951 -0.58999997
8.7320004 2.9849999 -0.59200001
8.7370005 3.0179999 -0.59299999
8.757 3.0569999 -0.59500003
8.7679996 3.0929999 -0.597
8.7770004 3.128 -0.59799999
8.7779999 3.161 -0.59899998
8.8009996 3.201 -0.602
8.8000002 3.234 -0.60299999
8.8210001 3.2739999 -0.60500002
8.8269997 3.309 -0.60699999
8.8380003 3.3469999 -0.60799998
8.8299999 3.3770001 -0.60900003
8.849 3.418 -0.611
8.8629999 3.457 -0.61299998
8.8839998 3.4990001 -0.616
8.8889999 3.5350001 -0.61699998
8.9189997 3.5810001 -0.62
8.927 3.619 -0.62199998
8.927 3.6530001 -0.62300003
8.9580002 3.701 -0.62599999
8.9630003 3.7379999 -0.62800002
8.9829998 3.7809999 -0.63
9.0139999 3.8299999 -0.63300002
9.04 3.8770001 -0.63599998
9.0459995 3.915 -0.63800001
9.0570002 3.9560001 -0.63999999
9.0690002 3.997 -0.64200002
9.0769997 4.0370002 -0.64399999
9.092 4.0809999 -0.64600003
9.1079998 4.125 -0.648
9.1239996 4.1690001 -0.65100002
9.1529999 4.2199998 -0.65399998
9.151 4.256 -0.65499997
9.1470003 4.2919998 -0.65600002
9.1719999 4.3410001 -0.65899998
9.1870003 4.3860002 -0.66100001
9.1969995 4.4289999 -0.66299999
9.2119999 4.4749999 -0.66600001
9.2209997 4.5170002 -0.667
9.2320004 4.5619998 -0.66900003
9.2550001 4.612 -0.67199999
9.2869997 4.6669998 -0.676
9.2410002 4.6830001 -0.67400002
9.2709999 4.7379999 -0.67699999
9.2869997 4.7849998 -0.68000001
9.2919998 4.8280001 -0.68199998
9.3149996 4.8800001 -0.685
9.3409996 4.934 -0.68800002
9.3430004 4.9749999 -0.68900001
9.3599997 5.0250001 -0.69199997
9.3669996 5.0689998 -0.69400001
9.3789997 5.1170001 -0.69599998
9.3780003 5.158 -0.69800001
9.415 5.2189999 -0.70200002
9.4230003 5.2659998 -0.704
9.4449997 5.3200002 -0.70700002
9.4639997 5.3720002 -0.70999998
9.4659996 5.4159999 -0.71100003
9.4639997 5.4569998 -0.713
9.4610004 5.4980001 -0.71399999
9.46 5.54 -0.71499997
9.4779997 5.5929999 -0.71799999
9.4899998 5.6440001 -0.72100002
9.5050001 5.6960001 -0.72299999
9.4899998 5.73 -0.72399998
9.4960003 5.777 -0.72600001
9.5209999 5.836 -0.72899997
9.5240002 5.882 -0.73100001
9.5299997 5.9299998 -0.73299998
9.5369997 5.9790001 -0.73500001
9.5430002 6.027 -0.73699999
9.5550003 6.079 -0.74000001
9.5480003 6.1199999 -0.741
9.552 6.1669998 -0.74299997
9.5679998 6.2220001 -0.745
7.2020001 4.7179999 -0.56199998
7.0279999 4.6370001 -0.55000001
6.948 4.618 -0.54500002
6.9000001 4.619 -0.542
6.8800001 4.638 -0.542
6.8649998 4.6609998 -0.542
6.8540001 4.6869998 -0.542
6.8460002 4.7140002 -0.54299998
6.8590002 4.756 -0.54500002
6.882 4.8060002 -0.54799998
6.9180002 4.8649998 -0.55199999
6.9829998 4.9439998 -0.55900002
7.0339999 5.0149999 -0.56400001
7.0949998 5.0929999 -0.56999999
3.832 -2.54 -0.17299999
3.8429999 -2.523 -0.17299999
3.849 -2.503 -0.17399999
3.855 -2.4820001 -0.17399999
3.865 -2.4649999 -0.17399999
3.881 -2.451 -0.17399999
3.8859999 -2.431 -0.17399999
3.8889999 -2.4100001 -0.17399999
3.8929999 -2.3889999 -0.17399999
3.905 -2.3729999 -0.175
3.902 -2.348 -0.17399999
3.9200001 -2.336 -0.175
3.9349999 -2.323 -0.175
3.9519999 -2.3099999 -0.176
3.954 -2.289 -0.176
3.9749999 -2.279 -0.176
4.0100002 -2.277 -0.178
4.0450001 -2.2750001 -0.17900001
4.079 -2.2709999 -0.18099999
4.177 -2.303 -0.185
6.0999999 -3.3310001 -0.27000001
6.092 -3.2950001 -0.26899999
6.1110001 -3.2720001 -0.27000001
6.1269999 -3.2490001 -0.27000001
6.1370001 -3.223 -0.27000001
6.1500001 -3.198 -0.27000001
6.165 -3.174 -0.271
6.1890001 -3.155 -0.27200001
6.2119999 -3.135 -0.27200001
6.2280002 -3.112 -0.273
6.2340002 -3.0840001 -0.273
6.2459998 -3.0599999 -0.273
6.277 -3.0439999 -0.27399999
6.2909999 -3.0209999 -0.27399999
6.3000002 -2.9949999 -0.27500001
6.3140001 -2.9719999 -0.27500001
6.3369999 -2.9530001 -0.27599999
6.3629999 -2.9349999 -0.27700001
6.3709998 -2.9089999 -0.27700001
6.3959999 -2.891 -0.278
