# .PCD v0.7 - Point Cloud Data file format
VERSION 0.7
FIELDS x y z
SIZE 4 4 4
TYPE F F F
COUNT 1 1 1
WIDTH 1757
HEIGHT 1
VIEWPOINT 0 0 0 1 0 0 0
POINTS 1757
DATA ascii
8.0270004 -2.131 -0.12800001
8.0500002 -2.1140001 -0.12800001
8.0600004 -2.0940001 -0.12800001
8.0830002 -2.0769999 -0.12800001
8.085 -2.0539999 -0.12800001
8.1029997 -2.0350001 -0.12800001
8.1190004 -2.016 -0.12899999
8.1479998 -2 -0.12899999
8.1759996 -1.984 -0.12899999
8.1899996 -1.964 -0.12899999
8.1940002 -1.941 -0.12899999
8.224 -1.925 -0.13
8.2449999 -1.906 -0.13
8.2639999 -1.887 -0.13
8.2639999 -1.863 -0.13
8.2889996 -1.846 -0.13
8.3109999 -1.827 -0.13
8.3199997 -1.8049999 -0.131
8.3380003 -1.785 -0.131
8.3520002 -1.7640001 -0.131
8.3839998 -1.747 -0.131
8.4029999 -1.727 -0.131
8.4280005 -1.7079999 -0.132
8.4250002 -1.684 -0.132
8.4429998 -1.663 -0.132
8.4689999 -1.6440001 -0.132
8.4989996 -1.626 -0.132
8.5139999 -1.604 -0.132
8.5369997 -1.584 -0.133
8.5500002 -1.562 -0.133
8.5469999 -1.538 -0.133
8.5719995 -1.518 -0.133
8.5979996 -1.498 -0.133
8.6160002 -1.476 -0.133
8.6389999 -1.456 -0.134
8.6739998 -1.437 -0.134
8.6879997 -1.415 -0.134
8.7030001 -1.392 -0.134
8.7189999 -1.37 -0.134
8.7519999 -1.35 -0.13500001
8.7790003 -1.33 -0.13500001
8.7989998 -1.308 -0.13500001
8.8140001 -1.285 -0.13500001
8.8459997 -1.265 -0.13600001
8.8570004 -1.2410001 -0.13600001
8.8809996 -1.219 -0.13600001
8.9049997 -1.197 -0.13600001
8.9289999 -1.175 -0.13699999
8.9510002 -1.152 -0.13699999
8.9750004 -1.13 -0.13699999
8.9980001 -1.107 -0.13699999
9.0080004 -1.0829999 -0.13699999
9.0459995 -1.062 -0.138
9.0780001 -1.04 -0.138
9.1059999 -1.017 -0.138
9.125 -0.99400002 -0.139
9.132 -0.96899998 -0.139
9.1669998 -0.94599998 -0.139
9.1870003 -0.92199999 -0.139
9.2320004 -0.90100002 -0.14
9.2589998 -0.87699997 -0.14
9.2869997 -0.85299999 -0.14
9.3000002 -0.82800001 -0.14
9.349 -0.80599999 -0.141
9.3760004 -0.78200001 -0.141
9.3699999 -0.755 -0.141
9.3979998 -0.73100001 -0.141
9.4399996 -0.70700002 -0.142
9.441 -0.68000001 -0.142
9.5059996 -0.65799999 -0.14300001
9.5609999 -0.63499999 -0.14300001
9.5900002 -0.61000001 -0.14399999
9.6560001 -0.58700001 -0.145
9.6680002 -0.56 -0.145
9.6829996 -0.53299999 -0.145
9.7320004 -0.509 -0.145
9.8109999 -0.48500001 -0.146
9.6359997 0.193 -0.27700001
9.6110001 0.205 -0.27700001
9.5830002 0.21600001 -0.27599999
9.526 0.228 -0.27399999
9.5410004 0.241 -0.27500001
9.5190001 0.25299999 -0.27399999
9.5159998 0.26699999 -0.27399999
9.5059996 0.28 -0.27399999
9.4829998 0.29300001 -0.27399999
9.4860001 0.30700001 -0.27399999
9.4759998 0.32100001 -0.27399999
9.467 0.33500001 -0.27399999
9.4689999 0.34900001 -0.27399999
9.4680004 0.36399999 -0.27399999
9.474 0.37900001 -0.27399999
9.4840002 0.39500001 -0.27500001
9.467 0.40900001 -0.27500001
9.4870005 0.426 -0.27500001
9.4820004 0.442 -0.27500001
9.4779997 0.458 -0.27500001
9.4759998 0.47400001 -0.27599999
9.4809999 0.49000001 -0.27599999
9.5030003 0.50800002 -0.27700001
9.5 0.52499998 -0.27700001
9.5019999 0.542 -0.27700001
9.5279999 0.56099999 -0.278
9.5179996 0.57800001 -0.278
9.5190001 0.59600002 -0.278
9.5310001 0.61500001 -0.27900001
9.5369997 0.63300002 -0.27900001
9.5550003 0.653 -0.28
9.5710001 0.67299998 -0.28099999
9.566 0.69099998 -0.28099999
9.5780001 0.71100003 -0.28099999
9.585 0.73100001 -0.28200001
9.5839996 0.75 -0.28200001
9.6289997 0.773 -0.28400001
9.6199999 0.79299998 -0.28400001
9.6140003 0.81199998 -0.28400001
9.6300001 0.83399999 -0.28400001
9.6400003 0.85500002 -0.285
9.6400003 0.87599999 -0.285
9.6660004 0.89899999 -0.28600001
9.6590004 0.92000002 -0.28600001
9.6680002 0.94199997 -0.287
9.6990004 0.96700001 -0.28799999
9.7069998 0.98900002 -0.289
9.71 1.012 -0.289
9.7410002 1.0369999 -0.28999999
9.7589998 1.062 -0.29100001
9.7419996 1.082 -0.29100001
9.7550001 1.107 -0.292
9.7519999 1.1289999 -0.292
9.7629995 1.154 -0.29300001
9.7790003 1.179 -0.29300001
9.7690001 1.202 -0.29300001
9.7930002 1.229 -0.294
9.8179998 1.256 -0.296
9.8109999 1.279 -0.296
9.8319998 1.306 -0.29699999
9.8369999 1.332 -0.29699999
9.8319998 1.3559999 -0.29699999
9.8690004 1.386 -0.29899999
9.8809996 1.413 -0.30000001
9.8889999 1.4400001 -0.30000001
9.9119997 1.469 -0.301
9.9209995 1.4960001 -0.30199999
9.9189997 1.522 -0.30199999
9.9420004 1.552 -0.303
9.9639997 1.582 -0.30399999
9.9720001 1.61 -0.30500001
9.9870005 1.6390001 -0.30599999
9.9969997 1.668 -0.30599999
10.001 1.696 -0.30700001
10.009 1.725 -0.308
10.012 1.753 -0.308
10.035 1.785 -0.30899999
10.056 1.817 -0.31
10.069 1.848 -0.31099999
10.085 1.8789999 -0.31200001
10.102 1.911 -0.31299999
10.119 1.943 -0.31400001
10.128 1.974 -0.315
10.164 2.0109999 -0.31600001
10.192 2.046 -0.31799999
10.201 2.0780001 -0.31799999
10.205 2.109 -0.31900001
10.227 2.1440001 -0.31999999
10.236 2.1760001 -0.32100001
10.253 2.211 -0.322
10.242 2.2390001 -0.322
10.273 2.277 -0.324
10.268 2.3069999 -0.324
10.303 2.3469999 -0.32499999
10.328 2.3840001 -0.32699999
10.335 2.418 -0.32699999
10.335 2.45 -0.32800001
10.353 2.487 -0.329
10.364 2.5220001 -0.33000001
10.377 2.5580001 -0.331
10.374 2.5899999 -0.331
10.387 2.6259999 -0.33199999
10.426 2.6700001 -0.33399999
10.437 2.7060001 -0.33500001
10.469 2.7479999 -0.33700001
10.479 2.7850001 -0.33700001
10.501 2.825 -0.33899999
10.534 2.869 -0.34
10.538 2.905 -0.34099999
10.555 2.944 -0.34200001
10.598 2.9909999 -0.34400001
10.615 3.0320001 -0.345
10.625 3.0699999 -0.34599999
10.633 3.109 -0.347
10.672 3.1559999 -0.34900001
10.694 3.1989999 -0.34999999
10.701 3.2379999 -0.35100001
10.713 3.279 -0.352
10.737 3.323 -0.35299999
10.754 3.3659999 -0.35499999
10.81 3.421 -0.35699999
10.801 3.4560001 -0.35699999
10.823 3.5009999 -0.359
10.842 3.5450001 -0.36000001
10.873 3.5940001 -0.36199999
10.891 3.638 -0.36300001
10.851 3.664 -0.36199999
10.881 3.7130001 -0.36399999
10.863 3.7460001 -0.36399999
10.84 3.7780001 -0.36399999
10.853 3.822 -0.36500001
10.871 3.8670001 -0.366
10.89 3.914 -0.368
10.903 3.9590001 -0.36899999
10.911 4.0019999 -0.37
10.93 4.0500002 -0.37099999
10.954 4.0999999 -0.373
10.951 4.1389999 -0.373
10.975 4.1900001 -0.375
10.978 4.2319999 -0.37599999
11.016 4.289 -0.37799999
11.08 4.3559999 -0.38100001
11.085 4.4000001 -0.382
11.106 4.4510002 -0.38299999
11.129 4.5029998 -0.38499999
11.166 4.5609999 -0.38699999
11.168 4.605 -0.38800001
11.23 4.6739998 -0.391
11.255 4.7290001 -0.39199999
11.279 4.783 -0.39399999
11.326 4.848 -0.396
11.349 4.9029999 -0.398
11.355 4.9499998 -0.39899999
11.385 5.0079999 -0.40099999
11.406 5.0640001 -0.40200001
11.419 5.1149998 -0.40400001
11.461 5.1799998 -0.40599999
11.458 5.2249999 -0.40700001
11.493 5.2870002 -0.40900001
11.513 5.3439999 -0.41100001
11.538 5.4029999 -0.412
11.56 5.46 -0.414
11.583 5.5190001 -0.41600001
11.583 5.5669999 -0.417
11.615 5.6300001 -0.419
11.645 5.6939998 -0.421
11.664 5.7519999 -0.42199999
11.69 5.8130002 -0.42399999
11.678 5.8569999 -0.42500001
11.691 5.9130001 -0.426
11.711 5.973 -0.428
11.733 6.0339999 -0.42899999
11.747 6.0910001 -0.43099999
11.746 6.1409998 -0.43200001
11.777 6.2080002 -0.43399999
11.807 6.2750001 -0.43599999
11.833 6.3400002 -0.43799999
11.846 6.3979998 -0.43900001
11.854 6.454 -0.44100001
11.886 6.5240002 -0.44299999
11.905 6.586 -0.44499999
11.94 6.658 -0.447
11.944 6.7129998 -0.44800001
11.948 6.7690001 -0.449
11.994 6.848 -0.45199999
11.964 6.8839998 -0.45199999
11.998 6.9580002 -0.454
12.029 7.0300002 -0.45699999
12.021 7.0799999 -0.45699999
12.121 7.1929998 -0.46200001
9.9770002 6.6170001 -0.39399999
9.8629999 6.5879998 -0.391
9.8430004 6.6220002 -0.391
9.7440004 6.9330001 -0.39500001
9.5710001 6.8569999 -0.389
9.5039997 6.8559999 -0.38699999
6.4289999 -4.2480001 -0.097999997
6.447 -4.2189999 -0.097999997
6.4860001 -4.2030001 -0.097999997
6.5019999 -4.1739998 -0.098999999
6.5359998 -4.1550002 -0.098999999
6.5430002 -4.1199999 -0.098999999
6.5679998 -4.0960002 -0.098999999
6.5929999 -4.072 -0.098999999
6.6090002 -4.0430002 -0.098999999
6.618 -4.0100002 -0.098999999
6.6500001 -3.99 -0.1
6.6729999 -3.9660001 -0.1
6.6890001 -3.937 -0.1
6.7059999 -3.9089999 -0.1
6.7179999 -3.878 -0.1
6.744 -3.8559999 -0.1
6.7550001 -3.825 -0.1
6.7779999 -3.8 -0.1
6.7800002 -3.7650001 -0.1
6.8140001 -3.747 -0.101
6.8309999 -3.72 -0.101
6.8449998 -3.691 -0.101
6.8610001 -3.664 -0.101
6.8800001 -3.638 -0.101
6.8850002 -3.605 -0.101
6.9039998 -3.5799999 -0.101
6.9180002 -3.552 -0.101
6.954 -3.5350001 -0.102
6.9590001 -3.5039999 -0.102
6.9819999 -3.48 -0.102
6.9990001 -3.454 -0.102
7.0250001 -3.4330001 -0.102
7.052 -3.4119999 -0.102
7.0770001 -3.3900001 -0.103
7.0869999 -3.3610001 -0.103
7.1040001 -3.336 -0.103
7.1230001 -3.3110001 -0.103
7.1420002 -3.2869999 -0.103
7.1620002 -3.263 -0.103
7.1750002 -3.2360001 -0.103
7.1999998 -3.214 -0.103
7.2259998 -3.1930001 -0.104
7.2319999 -3.164 -0.104
7.2470002 -3.138 -0.104
7.2750001 -3.118 -0.104
7.2919998 -3.0929999 -0.104
7.303 -3.066 -0.104
7.3260002 -3.0439999 -0.104
7.349 -3.0220001 -0.104
7.3629999 -2.997 -0.105
7.3990002 -2.98 -0.105
7.4029999 -2.951 -0.105
7.4060001 -2.921 -0.105
7.4439998 -2.905 -0.105
7.4689999 -2.8840001 -0.105
7.4850001 -2.8599999 -0.106
7.4949999 -2.8329999 -0.106
7.5219998 -2.813 -0.106
7.5419998 -2.7909999 -0.106
7.5669999 -2.77 -0.106
7.5879998 -2.7479999 -0.106
7.5970001 -2.721 -0.106
7.6170001 -2.6989999 -0.107
7.6570001 -2.684 -0.107
7.6719999 -2.6589999 -0.107
7.6869998 -2.6359999 -0.107
7.7150002 -2.6159999 -0.107
7.7179999 -2.5880001 -0.107
7.7340002 -2.5639999 -0.107
7.7670002 -2.5469999 -0.108
7.7919998 -2.526 -0.108
7.8010001 -2.5 -0.108
7.836 -2.483 -0.108
7.8460002 -2.4579999 -0.108
7.8790002 -2.441 -0.109
7.8940001 -2.4170001 -0.109
7.9089999 -2.3940001 -0.109
7.9289999 -2.372 -0.109
7.9660001 -2.355 -0.11
7.9899998 -2.335 -0.11
8.0080004 -2.312 -0.11
8.0270004 -2.29 -0.11
8.0500002 -2.27 -0.11
8.0699997 -2.2479999 -0.11
8.0900002 -2.2260001 -0.111
8.1110001 -2.2049999 -0.111
8.118 -2.1800001 -0.111
8.1420002 -2.1600001 -0.111
8.1680002 -2.1400001 -0.111
8.1739998 -2.115 -0.111
8.2069998 -2.0969999 -0.112
8.2250004 -2.076 -0.112
8.2460003 -2.0550001 -0.112
8.2749996 -2.036 -0.112
8.2989998 -2.016 -0.112
8.3219995 -1.995 -0.113
8.3479996 -1.976 -0.113
8.3719997 -1.956 -0.113
8.3870001 -1.933 -0.113
8.3889999 -1.908 -0.113
8.4040003 -1.886 -0.113
8.4519997 -1.872 -0.114
8.4490004 -1.846 -0.114
8.4709997 -1.826 -0.114
8.4960003 -1.806 -0.114
8.5290003 -1.788 -0.114
8.5550003 -1.768 -0.115
8.552 -1.743 -0.115
8.5640001 -1.721 -0.115
8.5869999 -1.701 -0.115
8.6239996 -1.684 -0.115
8.6470003 -1.664 -0.115
8.6680002 -1.6440001 -0.116
8.665 -1.619 -0.115
8.6949997 -1.601 -0.116
8.6809998 -1.574 -0.116
8.7130003 -1.556 -0.116
8.7539997 -1.54 -0.116
8.7559996 -1.517 -0.116
8.7740002 -1.4960001 -0.116
8.7849998 -1.475 -0.116
8.8000002 -1.454 -0.117
8.8310003 -1.436 -0.117
8.8369999 -1.414 -0.117
8.8559999 -1.3940001 -0.117
8.8950005 -1.377 -0.117
8.9119997 -1.357 -0.118
8.9090004 -1.334 -0.117
8.9329996 -1.3150001 -0.118
8.9519997 -1.295 -0.118
8.967 -1.275 -0.118
8.9899998 -1.256 -0.118
8.9940004 -1.235 -0.118
9.0270004 -1.217 -0.119
9.0509996 -1.198 -0.119
9.0609999 -1.178 -0.119
9.073 -1.158 -0.119
9.0950003 -1.1390001 -0.119
9.118 -1.12 -0.119
9.1420002 -1.101 -0.12
9.1590004 -1.082 -0.12
9.1899996 -1.064 -0.12
9.1999998 -1.044 -0.12
9.2229996 -1.026 -0.12
9.2539997 -1.008 -0.121
9.25 -0.98699999 -0.12
9.2740002 -0.96899998 -0.121
9.2670002 -0.94700003 -0.121
9.3050003 -0.93000001 -0.121
9.3249998 -0.912 -0.121
9.3240004 -0.89099997 -0.121
9.3459997 -0.87300003 -0.121
9.3649998 -0.85500002 -0.121
9.3859997 -0.83700001 -0.122
9.401 -0.81800002 -0.122
9.4119997 -0.79900002 -0.122
9.4490004 -0.78200001 -0.122
9.4779997 -0.76499999 -0.123
9.5 -0.74699998 -0.123
9.5249996 -0.72899997 -0.123
9.526 -0.70999998 -0.123
9.5439997 -0.69199997 -0.123
9.5710001 -0.67500001 -0.123
9.5869999 -0.65700001 -0.124
9.5979996 -0.639 -0.124
9.6199999 -0.62099999 -0.124
9.6730003 -0.60500002 -0.124
9.6639996 -0.58600003 -0.124
9.7220001 -0.57099998 -0.125
9.6990004 -0.551 -0.125
9.7449999 -0.53500003 -0.125
9.7939997 -0.51899999 -0.126
9.8400002 -0.50300002 -0.126
9.8690004 -0.486 -0.127
9.8990002 -0.47 -0.127
9.9420004 -0.454 -0.127
9.3540001 0.113 -0.243
9.3870001 0.13 -0.244
9.4060001 0.147 -0.245
9.3940001 0.16500001 -0.245
9.4200001 0.183 -0.24600001
9.4200001 0.20100001 -0.24600001
9.4020004 0.21799999 -0.24600001
9.4130001 0.237 -0.24600001
9.4189997 0.255 -0.24600001
9.4119997 0.27399999 -0.24600001
9.4029999 0.292 -0.24600001
9.4069996 0.31099999 -0.24699999
9.427 0.331 -0.24699999
9.4219999 0.35100001 -0.24699999
9.4329996 0.37099999 -0.248
9.4469995 0.391 -0.248
9.4449997 0.41100001 -0.249
9.4390001 0.43099999 -0.249
9.4440002 0.45199999 -0.249
9.4490004 0.472 -0.249
9.4630003 0.49399999 -0.25
9.4700003 0.51499999 -0.25
9.4580002 0.53600001 -0.25
9.4799995 0.55800003 -0.25099999
9.4969997 0.58099997 -0.252
9.5109997 0.60299999 -0.252
9.4949999 0.62400001 -0.252
9.5279999 0.64899999 -0.25299999
9.5410004 0.67199999 -0.25400001
9.5620003 0.69599998 -0.255
9.5649996 0.71899998 -0.255
9.5600004 0.741 -0.255
9.5679998 0.76499999 -0.255
9.5880003 0.79000002 -0.25600001
9.6269999 0.81699997 -0.25799999
9.6359997 0.84100002 -0.25799999
9.6470003 0.866 -0.259
9.6350002 0.889 -0.259
9.651 0.91500002 -0.259
9.658 0.94 -0.25999999
9.6590004 0.96499997 -0.25999999
9.6820002 0.99199998 -0.26100001
9.7159996 1.02 -0.26199999
9.7259998 1.046 -0.26300001
9.7559996 1.075 -0.264
9.776 1.103 -0.26499999
9.7980003 1.131 -0.266
9.783 1.156 -0.266
9.7939997 1.183 -0.266
9.7959995 1.21 -0.26699999
9.8210001 1.239 -0.26800001
9.8290005 1.267 -0.26800001
9.849 1.296 -0.26899999
9.8640003 1.325 -0.27000001
9.868 1.353 -0.27000001
9.8889999 1.383 -0.271
9.9139996 1.414 -0.27200001
9.9259996 1.444 -0.273
9.9659996 1.478 -0.27399999
9.9619999 1.505 -0.27399999
9.9779997 1.536 -0.27500001
10.001 1.568 -0.27599999
10.018 1.6 -0.27700001
10.046 1.633 -0.278
10.057 1.664 -0.27900001
10.076 1.696 -0.28
10.089 1.728 -0.28099999
10.121 1.763 -0.28200001
10.122 1.793 -0.28200001
10.156 1.829 -0.28400001
10.17 1.862 -0.28400001
10.189 1.896 -0.285
10.207 1.9299999 -0.28600001
10.233 1.966 -0.287
10.258 2.0009999 -0.28799999
10.31 2.043 -0.28999999
10.323 2.0769999 -0.29100001
10.346 2.1129999 -0.292
10.368 2.1489999 -0.29300001
10.388 2.1849999 -0.294
10.399 2.22 -0.29499999
10.433 2.26 -0.296
10.433 2.2920001 -0.29699999
10.458 2.3299999 -0.29800001
10.48 2.368 -0.29899999
10.524 2.411 -0.301
10.512 2.4419999 -0.301
10.54 2.4809999 -0.30199999
10.54 2.5150001 -0.303
10.559 2.553 -0.30399999
10.579 2.592 -0.30500001
10.598 2.6300001 -0.30599999
10.625 2.6719999 -0.30700001
10.648 2.7119999 -0.308
10.664 2.75 -0.30899999
10.716 2.799 -0.31099999
10.749 2.842 -0.31299999
10.772 2.8840001 -0.31400001
10.774 2.9200001 -0.31400001
10.814 2.9660001 -0.31600001
10.823 3.0039999 -0.317
10.839 3.0450001 -0.31799999
10.856 3.085 -0.31900001
10.904 3.135 -0.32100001
10.928 3.1789999 -0.322
10.945 3.22 -0.32300001
10.937 3.2550001 -0.324
10.979 3.3039999 -0.32499999
11.021 3.3540001 -0.32699999
11.05 3.4000001 -0.329
11.063 3.441 -0.33000001
11.104 3.4920001 -0.331
11.105 3.53 -0.33199999
11.105 3.5680001 -0.333
11.173 3.628 -0.33500001
11.151 3.6589999 -0.33500001
11.162 3.701 -0.336
11.17 3.743 -0.33700001
11.177 3.783 -0.338
11.209 3.8329999 -0.33899999
11.203 3.8699999 -0.34
11.202 3.9089999 -0.34
11.222 3.9549999 -0.34200001
11.238 3.9990001 -0.34299999
11.251 4.0430002 -0.34400001
11.25 4.0819998 -0.34400001
11.253 4.1230001 -0.345
11.263 4.1669998 -0.34599999
11.303 4.2210002 -0.34799999
11.341 4.2750001 -0.34999999
11.356 4.3210001 -0.35100001
11.373 4.368 -0.352
11.405 4.4200001 -0.354
11.43 4.4710002 -0.35499999
11.456 4.5219998 -0.35699999
11.453 4.5619998 -0.35699999
11.485 4.6149998 -0.359
11.543 4.6799998 -0.361
11.577 4.7350001 -0.36300001
11.599 4.7849998 -0.36399999
11.608 4.8309999 -0.36500001
11.621 4.8779998 -0.36700001
11.648 4.9320002 -0.368
11.666 4.9809999 -0.36899999
11.686 5.0320001 -0.37099999
11.707 5.0830002 -0.37200001
11.733 5.1370001 -0.37400001
11.764 5.1929998 -0.37599999
11.777 5.2420001 -0.377
11.78 5.2859998 -0.37799999
11.809 5.3410001 -0.37900001
11.823 5.3909998 -0.38
11.826 5.4349999 -0.38100001
11.848 5.4879999 -0.38299999
11.837 5.526 -0.38299999
11.869 5.585 -0.38499999
11.888 5.6370001 -0.38600001
11.887 5.6799998 -0.38699999
11.932 5.7449999 -0.389
11.929 5.7870002 -0.38999999
11.935 5.8330002 -0.391
11.942 5.881 -0.39199999
11.971 5.9380002 -0.39399999
11.985 5.9889998 -0.39500001
12.009 6.0450001 -0.39700001
12.026 6.098 -0.398
12.037 6.1469998 -0.39899999
12.045 6.1960001 -0.40099999
12.058 6.2459998 -0.40200001
12.095 6.3099999 -0.40400001
12.137 6.3759999 -0.40599999
12.161 6.4330001 -0.40799999
12.184 6.4889998 -0.40900001
12.194 6.54 -0.41100001
12.182 6.5770001 -0.41100001
12.221 6.6430001 -0.41299999
12.265 6.7119999 -0.41600001
12.294 6.7719998 -0.41800001
12.299 6.8200002 -0.419
12.318 6.875 -0.41999999
12.338 6.9310002 -0.42199999
12.358 6.9879999 -0.42300001
12.415 7.0640001 -0.426
12.499 7.158 -0.43000001
10.594 6.5229998 -0.37400001
10.516 6.5120001 -0.37200001
9.6140003 6.77 -0.359
9.5640001 6.7649999 -0.35800001
9.5100002 6.7579999 -0.35699999
9.4790001 6.7659998 -0.35600001
9.4449997 6.7709999 -0.35600001
9.4189997 6.7820001 -0.35600001
9.4099998 6.8049998 -0.35600001
9.3909998 6.8200002 -0.35600001
9.3850002 6.8439999 -0.35699999
6.849 -4.0170002 -0.086000003
6.8629999 -4.006 -0.086000003
6.868 -3.99 -0.086000003
6.882 -3.9779999 -0.086000003
6.8860002 -3.961 -0.086000003
6.9060001 -3.9530001 -0.086000003
6.9050002 -3.9330001 -0.086000003
6.914 -3.918 -0.086000003
6.9159999 -3.9000001 -0.086000003
6.928 -3.8870001 -0.086000003
6.9330001 -3.8699999 -0.086000003
6.9549999 -3.8629999 -0.086000003
6.9510002 -3.8410001 -0.086000003
6.9660001 -3.8299999 -0.086000003
6.98 -3.8180001 -0.086000003
6.993 -3.8050001 -0.086000003
6.9970002 -3.7869999 -0.086000003
7.0180001 -3.779 -0.086999997
7.02 -3.76 -0.086999997
7.0139999 -3.7360001 -0.086000003
7.0479999 -3.734 -0.086999997
7.0570002 -3.7190001 -0.086999997
7.027 -3.6830001 -0.086000003
7.0599999 -3.681 -0.086999997
7.0650001 -3.6630001 -0.086999997
7.0840001 -3.652 -0.086999997
7.0970001 -3.6389999 -0.086999997
7.0929999 -3.6170001 -0.086999997
7.1009998 -3.6010001 -0.086999997
7.1230001 -3.5910001 -0.086999997
7.125 -3.572 -0.086999997
7.152 -3.5650001 -0.086999997
7.1789999 -3.5580001 -0.086999997
7.1799998 -3.5380001 -0.086999997
7.1950002 -3.5250001 -0.086999997
7.2030001 -3.5079999 -0.086999997
7.2189999 -3.4949999 -0.086999997
7.2069998 -3.4679999 -0.086999997
7.2220001 -3.4549999 -0.086999997
7.2329998 -3.4389999 -0.086999997
7.2350001 -3.4200001 -0.086999997
7.2579999 -3.4100001 -0.086999997
7.2659998 -3.392 -0.088
7.2880001 -3.382 -0.088
7.2979999 -3.3659999 -0.088
7.303 -3.3469999 -0.088
7.3109999 -3.3299999 -0.088
7.336 -3.3199999 -0.088
7.3410001 -3.3010001 -0.088
7.3559999 -3.286 -0.088
7.3590002 -3.267 -0.088
7.3839998 -3.256 -0.088
7.3779998 -3.2320001 -0.088
7.4070001 -3.224 -0.088
7.428 -3.2119999 -0.088
7.4260001 -3.1889999 -0.088
7.4419999 -3.175 -0.088
7.4460001 -3.155 -0.088
7.4439998 -3.1329999 -0.088
7.448 -3.1129999 -0.088
7.4809999 -3.105 -0.088
7.494 -3.089 -0.089000002
7.513 -3.075 -0.089000002
7.5219998 -3.0569999 -0.089000002
7.5419998 -3.0439999 -0.089000002
7.5510001 -3.026 -0.089000002
7.5570002 -3.006 -0.089000002
7.5489998 -2.9809999 -0.089000002
7.5739999 -2.9690001 -0.089000002
7.6009998 -2.9579999 -0.089000002
7.612 -2.9400001 -0.089000002
7.6290002 -2.925 -0.089000002
7.6399999 -2.9070001 -0.089000002
7.6360002 -2.8840001 -0.089000002
7.6609998 -2.8710001 -0.089000002
7.6869998 -2.858 -0.090000004
7.6919999 -2.8380001 -0.090000004
7.704 -2.8210001 -0.090000004
7.7189999 -2.8039999 -0.090000004
7.7329998 -2.7869999 -0.090000004
7.7399998 -2.767 -0.090000004
7.7600002 -2.7520001 -0.090000004
7.7680001 -2.7320001 -0.090000004
7.7810001 -2.714 -0.090000004
7.8010001 -2.6989999 -0.090000004
7.8169999 -2.6819999 -0.090000004
7.823 -2.6619999 -0.090000004
7.8309999 -2.642 -0.090000004
7.849 -2.625 -0.090000004
7.875 -2.6110001 -0.090000004
7.868 -2.586 -0.090000004
7.8920002 -2.5710001 -0.090000004
7.9070001 -2.5539999 -0.090999998
7.9310002 -2.539 -0.090999998
7.9439998 -2.52 -0.090999998
7.947 -2.4979999 -0.090999998
7.9590001 -2.4790001 -0.090999998
7.9809999 -2.4630001 -0.090999998
8.0120001 -2.4489999 -0.090999998
8.0279999 -2.431 -0.090999998
8.0310001 -2.4089999 -0.090999998
8.052 -2.392 -0.090999998
8.0760002 -2.3759999 -0.092
8.0699997 -2.3510001 -0.090999998
8.1079998 -2.339 -0.092
8.1140003 -2.3180001 -0.092
8.1370001 -2.3010001 -0.092
8.1669998 -2.286 -0.092
8.198 -2.2709999 -0.092
8.1929998 -2.2460001 -0.092
8.1990004 -2.224 -0.092
8.217 -2.2060001 -0.092
8.2390003 -2.188 -0.092
8.2550001 -2.1689999 -0.093000002
8.2749996 -2.1500001 -0.093000002
8.2770004 -2.1270001 -0.093000002
8.3000002 -2.109 -0.093000002
8.3240004 -2.092 -0.093000002
8.3529997 -2.075 -0.093000002
8.3640003 -2.0539999 -0.093000002
8.3520002 -2.027 -0.093000002
8.3839998 -2.0109999 -0.093000002
8.4189997 -1.995 -0.093000002
8.4359999 -1.975 -0.093999997
8.448 -1.954 -0.093999997
8.4680004 -1.934 -0.093999997
8.4940004 -1.916 -0.093999997
8.5010004 -1.893 -0.093999997
8.5190001 -1.872 -0.093999997
8.5349998 -1.852 -0.093999997
8.5579996 -1.832 -0.093999997
8.5880003 -1.814 -0.093999997
8.6090002 -1.794 -0.094999999
8.6280003 -1.773 -0.094999999
8.6529999 -1.7539999 -0.094999999
8.6669998 -1.732 -0.094999999
8.6829996 -1.71 -0.094999999
8.7150002 -1.692 -0.094999999
8.7349997 -1.671 -0.094999999
8.7449999 -1.648 -0.094999999
8.7670002 -1.627 -0.096000001
8.7770004 -1.604 -0.096000001
8.7969999 -1.582 -0.096000001
8.8070002 -1.559 -0.096000001
8.835 -1.539 -0.096000001
8.8570004 -1.518 -0.096000001
8.8839998 -1.497 -0.096000001
8.8979998 -1.474 -0.096000001
8.9189997 -1.452 -0.096000001
8.9499998 -1.432 -0.097000003
8.96 -1.408 -0.097000003
8.9879999 -1.387 -0.097000003
9.0270004 -1.367 -0.097000003
9.0389996 -1.3430001 -0.097000003
9.0609999 -1.321 -0.097000003
9.0740004 -1.2970001 -0.097000003
9.1059999 -1.275 -0.097999997
9.1300001 -1.253 -0.097999997
9.1490002 -1.229 -0.097999997
9.1859999 -1.2079999 -0.097999997
9.2130003 -1.186 -0.097999997
9.2150002 -1.16 -0.097999997
9.2489996 -1.138 -0.097999997
9.2849998 -1.1160001 -0.098999999
9.3149996 -1.0930001 -0.098999999
9.3430004 -1.0700001 -0.098999999
9.349 -1.044 -0.098999999
9.375 -1.02 -0.098999999
9.4049997 -0.99699998 -0.098999999
9.4160004 -0.97100002 -0.098999999
9.4540005 -0.94800001 -0.1
9.4790001 -0.92400002 -0.1
9.5019999 -0.89899999 -0.1
9.5340004 -0.875 -0.1
9.5640001 -0.85100001 -0.1
9.6379995 -0.82999998 -0.101
9.6520004 -0.80400002 -0.101
9.6669998 -0.778 -0.101
9.6660004 -0.75 -0.101
9.7299995 -0.72799999 -0.102
9.7390003 -0.70099998 -0.102
9.7939997 -0.67699999 -0.102
9.823 -0.65100002 -0.102
9.8540001 -0.625 -0.103
9.8990002 -0.60000002 -0.103
9.9659996 -0.57599998 -0.103
10 -0.55000001 -0.104
10.071 -0.52499998 -0.104
9.9499998 0.227 -0.236
9.9300003 0.23999999 -0.235
9.8120003 0.25 -0.233
9.7869997 0.26300001 -0.23199999
9.7930002 0.27700001 -0.23199999
9.7440004 0.289 -0.23100001
9.7510004 0.303 -0.23199999
9.7209997 0.31600001 -0.23100001
9.7229996 0.331 -0.23100001
9.7370005 0.34599999 -0.23199999
9.7270002 0.361 -0.23199999
9.7419996 0.37599999 -0.23199999
9.7270002 0.391 -0.23199999
9.7279997 0.40700001 -0.23199999
9.7259998 0.42199999 -0.23199999
9.743 0.43900001 -0.233
9.724 0.45500001 -0.233
9.7290001 0.47099999 -0.233
9.7299995 0.48800001 -0.233
9.7299995 0.505 -0.233
9.7349997 0.52200001 -0.234
9.7489996 0.54000002 -0.234
9.7309999 0.55699998 -0.234
9.7390003 0.57499999 -0.235
9.7519999 0.59399998 -0.235
9.7589998 0.61199999 -0.235
9.7819996 0.63200003 -0.236
9.7779999 0.65100002 -0.236
9.7950001 0.671 -0.237
9.7880001 0.68900001 -0.237
9.8219995 0.71100003 -0.23800001
9.823 0.73000002 -0.23800001
9.8260002 0.75 -0.23899999
9.8210001 0.76999998 -0.23899999
9.8529997 0.79299998 -0.23999999
9.8570004 0.81300002 -0.23999999
9.8699999 0.83499998 -0.241
9.8599997 0.85500002 -0.241
9.8669996 0.87699997 -0.241
9.8940001 0.89999998 -0.242
9.8929996 0.92199999 -0.242
9.9020004 0.94400001 -0.243
9.9110003 0.96700001 -0.243
9.9370003 0.99199998 -0.244
9.9440002 1.015 -0.245
9.9589996 1.039 -0.245
9.9860001 1.064 -0.24600001
10.013 1.09 -0.24699999
10.036 1.1160001 -0.248
10.045 1.14 -0.248
10.03 1.1619999 -0.248
10.048 1.188 -0.249
10.06 1.214 -0.25
10.067 1.239 -0.25
10.088 1.266 -0.25099999
10.109 1.294 -0.252
10.114 1.319 -0.252
10.138 1.348 -0.25299999
10.161 1.376 -0.25400001
10.154 1.401 -0.25400001
10.172 1.429 -0.255
10.177 1.456 -0.25600001
10.2 1.485 -0.25600001
10.223 1.515 -0.257
10.245 1.545 -0.25799999
10.251 1.573 -0.259
10.277 1.604 -0.25999999
10.304 1.636 -0.26100001
10.31 1.665 -0.26100001
10.347 1.698 -0.26300001
10.368 1.73 -0.264
10.378 1.76 -0.264
10.398 1.7920001 -0.26499999
10.408 1.823 -0.266
10.435 1.8559999 -0.26699999
10.448 1.888 -0.26800001
10.472 1.9220001 -0.26899999
10.481 1.9529999 -0.26899999
10.475 1.982 -0.26899999
10.496 2.016 -0.27000001
10.506 2.0480001 -0.271
10.527 2.0829999 -0.27200001
10.544 2.1170001 -0.273
10.587 2.1570001 -0.27399999
10.627 2.1960001 -0.27599999
10.632 2.2290001 -0.27599999
10.667 2.2679999 -0.278
10.667 2.3 -0.278
10.707 2.3410001 -0.28
10.712 2.3740001 -0.28
10.724 2.4100001 -0.28099999
10.753 2.4489999 -0.28200001
10.775 2.487 -0.28299999
10.812 2.529 -0.285
10.836 2.569 -0.28600001
10.834 2.602 -0.28600001
10.868 2.6440001 -0.28799999
10.879 2.681 -0.289
10.912 2.724 -0.28999999
10.902 2.756 -0.28999999
10.95 2.8039999 -0.292
10.954 2.8399999 -0.292
10.992 2.885 -0.294
11.001 2.9230001 -0.29499999
11.003 2.96 -0.29499999
11.046 3.0079999 -0.29699999
11.072 3.0510001 -0.29800001
11.062 3.085 -0.29899999
11.107 3.135 -0.30000001
11.127 3.177 -0.301
11.137 3.2179999 -0.30199999
11.125 3.2520001 -0.30199999
11.138 3.293 -0.303
11.192 3.348 -0.30500001
11.231 3.398 -0.30700001
11.247 3.441 -0.308
11.276 3.4890001 -0.30899999
11.324 3.543 -0.31099999
11.319 3.5810001 -0.31200001
11.334 3.625 -0.31299999
11.362 3.674 -0.31400001
11.382 3.721 -0.315
11.378 3.76 -0.31600001
11.377 3.8 -0.31600001
11.387 3.8440001 -0.317
11.407 3.892 -0.31799999
11.405 3.9319999 -0.31900001
11.418 3.9779999 -0.31999999
11.418 4.02 -0.32100001
11.442 4.0700002 -0.322
11.446 4.1129999 -0.32300001
11.48 4.1669998 -0.324
11.501 4.2179999 -0.32600001
11.515 4.2659998 -0.32699999
11.536 4.316 -0.32800001
11.558 4.368 -0.329
11.575 4.4169998 -0.33000001
11.623 4.48 -0.33199999
11.64 4.5300002 -0.33399999
11.645 4.5770001 -0.33399999
11.668 4.6300001 -0.336
11.717 4.6950002 -0.338
11.754 4.7540002 -0.34
11.761 4.803 -0.34099999
11.794 4.862 -0.34200001
11.79 4.9060001 -0.34299999
11.809 4.96 -0.34400001
11.862 5.0289998 -0.34599999
11.864 5.0770001 -0.347
11.886 5.1329999 -0.34900001
11.895 5.184 -0.34999999
11.903 5.2350001 -0.35100001
11.947 5.302 -0.35299999
11.956 5.3540001 -0.354
11.959 5.4039998 -0.35499999
11.968 5.4559999 -0.35600001
11.97 5.506 -0.35600001
12.006 5.5710001 -0.35800001
12.014 5.6240001 -0.359
12.03 5.6810002 -0.361
12.033 5.7319999 -0.36199999
12.046 5.7880001 -0.36300001
12.054 5.8410001 -0.36399999
12.073 5.901 -0.36500001
12.096 5.9629998 -0.36700001
12.112 6.0219998 -0.368
12.113 6.073 -0.36899999
12.133 6.1339998 -0.37
12.144 6.191 -0.37200001
12.136 6.2389998 -0.37200001
12.168 6.3080001 -0.37400001
12.313 6.4349999 -0.37900001
12.266 6.6230001 -0.382
12.292 6.691 -0.38299999
12.368 6.7870002 -0.38699999
12.367 6.8400002 -0.38699999
12.378 6.901 -0.389
12.407 6.9720001 -0.391
12.439 7.0450001 -0.39199999
12.448 7.105 -0.39399999
12.659 7.2820001 -0.40099999
10.506 6.3769999 -0.33899999
10.376 6.3460002 -0.33500001
10.368 6.388 -0.336
10.394 6.4520001 -0.338
10.37 6.4860001 -0.338
10.358 6.526 -0.338
10.334 6.559 -0.338
10.322 6.5999999 -0.33899999
10.347 6.665 -0.34
10.304 6.6849999 -0.34
10.223 6.6810002 -0.338
10.174 6.698 -0.33700001
6.5609999 -4.3330002 -0.068000004
6.5819998 -4.3049998 -0.068000004
6.6110001 -4.283 -0.068000004
6.6469998 -4.2649999 -0.068000004
6.6609998 -4.2329998 -0.068000004
6.691 -4.211 -0.068000004
6.6999998 -4.1760001 -0.068000004
6.7199998 -4.1490002 -0.068000004
6.7449999 -4.1240001 -0.068999998
6.763 -4.0949998 -0.068999998
6.7729998 -4.0619998 -0.068999998
6.796 -4.0370002 -0.068999998
6.8200002 -4.0120001 -0.068999998
6.836 -3.983 -0.068999998
6.8670001 -3.9619999 -0.068999998
6.8800001 -3.9319999 -0.068999998
6.8839998 -3.8959999 -0.068999998
6.908 -3.872 -0.068999998
6.948 -3.8570001 -0.068999998
6.941 -3.816 -0.068999998
6.974 -3.796 -0.068999998
6.9910002 -3.7690001 -0.068999998
6.9990001 -3.7360001 -0.068999998
7.02 -3.711 -0.068999998
7.0430002 -3.6860001 -0.068999998
7.053 -3.6559999 -0.068999998
7.0830002 -3.6359999 -0.07
7.1100001 -3.6140001 -0.07
7.1350002 -3.5910001 -0.07
7.152 -3.5639999 -0.07
7.178 -3.5409999 -0.07
7.178 -3.507 -0.07
7.1950002 -3.48 -0.07
7.2329998 -3.4630001 -0.07
7.2340002 -3.4300001 -0.07
7.27 -3.4119999 -0.07
7.2779999 -3.382 -0.07
7.2989998 -3.358 -0.07
7.3270001 -3.3369999 -0.071000002
7.3369999 -3.3080001 -0.071000002
7.3579998 -3.2839999 -0.071000002
7.3870001 -3.2639999 -0.071000002
7.4130001 -3.2420001 -0.071000002
7.4219999 -3.2130001 -0.071000002
7.4369998 -3.1860001 -0.071000002
7.4710002 -3.168 -0.071000002
7.4710002 -3.1359999 -0.071000002
7.5 -3.115 -0.071000002
7.5190001 -3.0910001 -0.071000002
7.5419998 -3.0680001 -0.071999997
7.5799999 -3.052 -0.071999997
7.5799999 -3.02 -0.071999997
7.5879998 -2.9920001 -0.071999997
7.6100001 -2.9690001 -0.071999997
7.6399999 -2.95 -0.071999997
7.6560001 -2.924 -0.071999997
7.6849999 -2.905 -0.071999997
7.6989999 -2.8789999 -0.071999997
7.7199998 -2.8559999 -0.071999997
7.7480001 -2.835 -0.071999997
7.7709999 -2.813 -0.072999999
7.7950001 -2.7920001 -0.072999999
7.802 -2.7639999 -0.072999999
7.823 -2.7409999 -0.072999999
7.849 -2.72 -0.072999999
7.8569999 -2.6930001 -0.072999999
7.8930001 -2.6760001 -0.072999999
7.9159999 -2.654 -0.072999999
7.9250002 -2.6270001 -0.072999999
7.954 -2.6070001 -0.072999999
7.987 -2.589 -0.074000001
8.007 -2.566 -0.074000001
8.0279999 -2.5439999 -0.074000001
8.052 -2.5220001 -0.074000001
8.073 -2.5 -0.074000001
8.092 -2.477 -0.074000001
8.1169996 -2.4560001 -0.074000001
8.1569996 -2.4400001 -0.074000001
8.1709995 -2.415 -0.074000001
8.1800003 -2.3900001 -0.074000001
8.2139997 -2.3710001 -0.075000003
8.2410002 -2.3510001 -0.075000003
8.2840004 -2.335 -0.075000003
8.2930002 -2.3099999 -0.075000003
8.3000002 -2.2839999 -0.075000003
8.323 -2.263 -0.075000003
8.3610001 -2.2449999 -0.075000003
8.3760004 -2.2219999 -0.075000003
8.4130001 -2.204 -0.075999998
8.4230003 -2.1800001 -0.075999998
8.4350004 -2.1559999 -0.075999998
8.448 -2.132 -0.075999998
8.4770002 -2.112 -0.075999998
8.4799995 -2.086 -0.075999998
8.5159998 -2.0680001 -0.075999998
8.5450001 -2.049 -0.075999998
8.5570002 -2.0250001 -0.075999998
8.6190004 -2.013 -0.077
8.6149998 -1.9859999 -0.077
8.6359997 -1.965 -0.077
8.6599998 -1.944 -0.077
8.6969995 -1.926 -0.077
8.7030001 -1.901 -0.077
8.7250004 -1.88 -0.077
8.7559996 -1.8609999 -0.077
8.7559996 -1.836 -0.077
8.7790003 -1.8150001 -0.077
8.8129997 -1.796 -0.078000002
8.8269997 -1.774 -0.078000002
8.835 -1.75 -0.078000002
8.8859997 -1.735 -0.078000002
8.8879995 -1.711 -0.078000002
8.9200001 -1.692 -0.078000002
8.9289999 -1.669 -0.078000002
8.9440002 -1.647 -0.078000002
8.9359999 -1.6210001 -0.078000002
8.967 -1.602 -0.078000002
8.9849997 -1.581 -0.078000002
8.9960003 -1.559 -0.078000002
9.0290003 -1.54 -0.078000002
9.059 -1.521 -0.079000004
9.0690002 -1.499 -0.079000004
9.0979996 -1.48 -0.079000004
9.1070004 -1.4579999 -0.079000004
9.1260004 -1.437 -0.079000004
9.1459999 -1.4170001 -0.079000004
9.1789999 -1.398 -0.079000004
9.1949997 -1.377 -0.079000004
9.2200003 -1.358 -0.079000004
9.2139997 -1.334 -0.079000004
9.2410002 -1.3150001 -0.079000004
9.276 -1.2970001 -0.079999998
9.2849998 -1.275 -0.079999998
9.2939997 -1.253 -0.079999998
9.3000002 -1.232 -0.079999998
9.3400002 -1.215 -0.079999998
9.3430004 -1.193 -0.079999998
9.3719997 -1.174 -0.079999998
9.3809996 -1.153 -0.079999998
9.4049997 -1.1339999 -0.079999998
9.4230003 -1.114 -0.079999998
9.4429998 -1.094 -0.079999998
9.4720001 -1.076 -0.079999998
9.493 -1.056 -0.081
9.5100002 -1.0369999 -0.081
9.533 -1.018 -0.081
9.5489998 -0.99800003 -0.081
9.5609999 -0.97799999 -0.081
9.5719995 -0.958 -0.081
9.5939999 -0.93900001 -0.081
9.6110001 -0.92000002 -0.081
9.6190004 -0.89899999 -0.081
9.6520004 -0.88200003 -0.081
9.6540003 -0.861 -0.081
9.6879997 -0.84399998 -0.081
9.6859999 -0.82300001 -0.081
9.7060003 -0.80400002 -0.081
9.7259998 -0.78600001 -0.082000002
9.7720003 -0.76899999 -0.082000002
9.8249998 -0.75300002 -0.082000002
9.8570004 -0.736 -0.082000002
9.8549995 -0.71600002 -0.082000002
9.8830004 -0.69800001 -0.082999997
9.9300003 -0.68099999 -0.082999997
9.9250002 -0.66100001 -0.082999997
9.974 -0.64499998 -0.082999997
9.9639997 -0.625 -0.082999997
10.016 -0.60799998 -0.082999997
10.022 -0.58899999 -0.082999997
10.068 -0.57300001 -0.083999999
10.088 -0.55500001 -0.083999999
10.068 -0.53500003 -0.083999999
10.105 -0.51800001 -0.083999999
9.6739998 0.118 -0.20200001
9.6859999 0.13600001 -0.20299999
9.7010002 0.153 -0.20299999
9.6920004 0.171 -0.20299999
9.7139997 0.19 -0.204
9.7320004 0.20900001 -0.204
9.7290001 0.227 -0.204
9.7259998 0.24600001 -0.204
9.7159996 0.26499999 -0.204
9.7390003 0.285 -0.205
9.7480001 0.30399999 -0.205
9.757 0.324 -0.206
9.7559996 0.34400001 -0.206
9.7819996 0.36500001 -0.207
9.7629995 0.38499999 -0.206
9.7810001 0.40599999 -0.207
9.7950001 0.42699999 -0.208
9.8079996 0.449 -0.208
9.8050003 0.47 -0.208
9.8190002 0.49200001 -0.20900001
9.8199997 0.51300001 -0.20900001
9.8109999 0.53500003 -0.20900001
9.8290005 0.55800003 -0.20999999
9.8339996 0.57999998 -0.20999999
9.8540001 0.60399997 -0.211
9.849 0.62599999 -0.211
9.8629999 0.64899999 -0.211
9.8769999 0.67299998 -0.212
9.8879995 0.69700003 -0.212
9.9280005 0.72299999 -0.213
9.9259996 0.74699998 -0.213
9.9390001 0.77200001 -0.214
9.9639997 0.79699999 -0.215
9.974 0.82200003 -0.215
9.9799995 0.847 -0.21600001
9.993 0.87300003 -0.21600001
9.9949999 0.898 -0.21600001
9.9949999 0.92299998 -0.21699999
10.019 0.94999999 -0.21799999
10.03 0.977 -0.21799999
10.047 1.0039999 -0.219
10.07 1.0319999 -0.219
10.076 1.058 -0.22
10.103 1.087 -0.221
10.124 1.1160001 -0.221
10.165 1.147 -0.223
10.159 1.173 -0.223
10.183 1.2029999 -0.22400001
10.183 1.23 -0.22400001
10.21 1.261 -0.22499999
10.215 1.289 -0.22499999
10.242 1.3200001 -0.226
10.267 1.352 -0.227
10.265 1.3789999 -0.227
10.287 1.411 -0.228
10.301 1.441 -0.229
10.318 1.472 -0.229
10.349 1.506 -0.23
10.358 1.536 -0.23100001
10.361 1.566 -0.23100001
10.405 1.602 -0.233
10.412 1.633 -0.233
10.422 1.664 -0.234
10.451 1.699 -0.235
10.492 1.7359999 -0.236
10.517 1.771 -0.237
10.538 1.8049999 -0.23800001
10.551 1.8380001 -0.23800001
10.585 1.875 -0.23999999
10.594 1.908 -0.23999999
10.602 1.941 -0.241
10.613 1.975 -0.241
10.636 2.0109999 -0.242
10.654 2.046 -0.243
10.692 2.086 -0.244
10.681 2.1159999 -0.244
10.709 2.154 -0.245
10.754 2.1960001 -0.24699999
10.785 2.2360001 -0.248
10.839 2.28 -0.25
10.856 2.3169999 -0.25
10.864 2.3529999 -0.25099999
10.866 2.3870001 -0.25099999
10.868 2.421 -0.252
10.905 2.464 -0.25299999
10.955 2.5090001 -0.255
10.979 2.55 -0.25600001
11.01 2.592 -0.257
11.034 2.632 -0.25799999
11.052 2.6719999 -0.259
11.057 2.7079999 -0.259
11.06 2.7449999 -0.25999999
11.115 2.7939999 -0.26199999
11.113 2.8299999 -0.26199999
11.129 2.8699999 -0.26300001
11.129 2.9059999 -0.26300001
11.176 2.9549999 -0.26499999
11.197 2.997 -0.266
11.202 3.0350001 -0.26699999
11.228 3.079 -0.26800001
11.247 3.1210001 -0.26899999
11.252 3.1600001 -0.26899999
11.303 3.2119999 -0.271
11.306 3.25 -0.271
11.297 3.2850001 -0.27200001
11.35 3.339 -0.27399999
11.392 3.3889999 -0.27500001
11.413 3.434 -0.27599999
11.454 3.4849999 -0.278
11.512 3.5409999 -0.28
11.52 3.5829999 -0.28
11.57 3.638 -0.28200001
11.572 3.678 -0.28299999
11.573 3.7179999 -0.28299999
11.54 3.747 -0.28299999
11.528 3.7820001 -0.28299999
11.549 3.829 -0.28400001
11.571 3.8759999 -0.285
11.59 3.9219999 -0.28600001
11.622 3.973 -0.28799999
11.611 4.0100002 -0.28799999
11.622 4.0539999 -0.289
11.641 4.1009998 -0.28999999
11.645 4.1430001 -0.29100001
11.662 4.1900001 -0.292
11.718 4.2509999 -0.294
11.73 4.2969999 -0.294
11.725 4.336 -0.29499999
11.742 4.3839998 -0.296
11.759 4.4320002 -0.29699999
11.785 4.4829998 -0.29800001
11.796 4.5289998 -0.29899999
11.816 4.579 -0.30000001
11.852 4.6350002 -0.30199999
11.893 4.6929998 -0.303
11.922 4.7470002 -0.30500001
11.927 4.7919998 -0.30599999
11.976 4.8540001 -0.30700001
11.967 4.8930001 -0.308
11.997 4.9489999 -0.30899999
12.001 4.993 -0.31
12.036 5.0510001 -0.31200001
12.037 5.0949998 -0.31200001
12.054 5.1459999 -0.31299999
12.088 5.204 -0.315
12.114 5.2589998 -0.31600001
12.13 5.3099999 -0.317
12.133 5.355 -0.31799999
12.137 5.4000001 -0.31900001
12.139 5.4450002 -0.31999999
12.145 5.4920001 -0.31999999
12.142 5.5349998 -0.32100001
12.178 5.5949998 -0.32300001
12.198 5.6490002 -0.324
12.195 5.6919999 -0.32499999
12.222 5.7490001 -0.32600001
12.239 5.802 -0.32699999
12.249 5.8509998 -0.32800001
12.273 5.9070001 -0.329
12.277 5.954 -0.33000001
12.301 6.0110002 -0.33199999
12.341 6.0749998 -0.333
12.347 6.1230001 -0.33399999
12.376 6.1830001 -0.336
12.384 6.2319999 -0.33700001
12.31 6.2399998 -0.336
12.202 6.23 -0.333
12.203 6.2750001 -0.33399999
12.231 6.4239998 -0.33700001
12.211 6.4580002 -0.33700001
12.269 6.533 -0.34
12.806 7.053 -0.359
12.835 7.1149998 -0.36000001
12.832 7.1599998 -0.361
12.839 7.211 -0.36199999
12.902 7.2930002 -0.36500001
13.005 7.3990002 -0.368
10.654 6.2919998 -0.30599999
10.518 6.2490001 -0.303
10.489 6.2690001 -0.30199999
10.373 6.237 -0.30000001
10.258 6.2049999 -0.29699999
10.268 6.2480001 -0.29800001
10.214 6.2509999 -0.29699999
10.148 6.2470002 -0.296
10.124 6.2680001 -0.296
10.191 6.3449998 -0.29899999
9.7060003 6.6750002 -0.29699999
9.5799999 6.6199999 -0.294
9.5170002 6.6079998 -0.29300001
9.4650002 6.6030002 -0.292
9.434 6.612 -0.292
9.408 6.6230001 -0.29100001
9.401 6.6490002 -0.292
9.4020004 6.6789999 -0.29300001
9.3940001 6.7030001 -0.29300001
9.3929996 6.7319999 -0.294
9.3970003 6.7649999 -0.294
9.4119997 6.8039999 -0.296
9.3940001 6.8200002 -0.296
9.3959999 6.8509998 -0.296
7.0219998 -4.1220002 -0.054000001
7.0240002 -4.1030002 -0.054000001
7.0310001 -4.0879998 -0.054000001
7.0489998 -4.0780001 -0.054000001
7.0619998 -4.0650001 -0.054000001
7.0700002 -4.0500002 -0.054000001
7.0619998 -4.026 -0.054000001
7.0760002 -4.0139999 -0.054000001
7.099 -4.006 -0.054000001
7.0929999 -3.983 -0.054000001
7.0999999 -3.967 -0.054000001
7.1139998 -3.954 -0.054000001
7.1069999 -3.9300001 -0.054000001
7.131 -3.924 -0.054000001
7.1290002 -3.902 -0.054000001
7.1389999 -3.888 -0.054000001
7.158 -3.878 -0.054000001
7.1599998 -3.858 -0.054000001
7.1760001 -3.846 -0.054000001
7.197 -3.8369999 -0.054000001
7.2010002 -3.819 -0.054000001
7.2199998 -3.8080001 -0.054000001
7.204 -3.779 -0.054000001
7.1729999 -3.7420001 -0.054000001
7.1890001 -3.73 -0.054000001
7.2280002 -3.7290001 -0.054000001
7.2750001 -3.733 -0.054000001
7.2649999 -3.707 -0.054000001
7.2849998 -3.6960001 -0.054000001
7.2950001 -3.681 -0.054000001
7.3010001 -3.6630001 -0.054000001
7.3210001 -3.652 -0.054000001
7.3270001 -3.6329999 -0.054000001
7.3270001 -3.6129999 -0.054000001
7.3429999 -3.5999999 -0.054000001
7.3569999 -3.585 -0.054000001
7.3649998 -3.5680001 -0.054000001
7.368 -3.5480001 -0.054000001
7.3779998 -3.5320001 -0.054000001
7.4039998 -3.523 -0.054000001
7.4070001 -3.503 -0.054000001
7.4229999 -3.4890001 -0.054000001
7.441 -3.4760001 -0.054000001
7.4299998 -3.45 -0.054000001
7.4520001 -3.4389999 -0.054000001
7.4720001 -3.4260001 -0.054000001
7.4790001 -3.408 -0.054000001
7.4879999 -3.391 -0.054000001
7.4949999 -3.372 -0.054000001
7.5180001 -3.3610001 -0.054000001
7.526 -3.3429999 -0.054000001
7.54 -3.3269999 -0.054000001
7.5500002 -3.3099999 -0.054000001
7.5689998 -3.2969999 -0.054000001
7.5830002 -3.2809999 -0.054000001
7.5929999 -3.263 -0.054000001
7.598 -3.243 -0.054000001
7.6139998 -3.2279999 -0.054000001
7.6300001 -3.2130001 -0.054000001
7.6500001 -3.1989999 -0.054000001
7.664 -3.1830001 -0.054000001
7.6659999 -3.1619999 -0.054000001
7.6789999 -3.145 -0.054000001
7.6939998 -3.1289999 -0.054000001
7.7160001 -3.1159999 -0.054000001
7.7249999 -3.0969999 -0.054000001
7.723 -3.0739999 -0.054000001
7.7389998 -3.0580001 -0.054000001
7.7690001 -3.0469999 -0.054000001
7.7800002 -3.029 -0.054000001
7.7779999 -3.006 -0.054000001
7.8080001 -2.9949999 -0.054000001
7.803 -2.971 -0.054000001
7.8150001 -2.9530001 -0.054000001
7.8449998 -2.941 -0.054000001
7.848 -2.9200001 -0.054000001
7.868 -2.905 -0.054000001
7.8670001 -2.882 -0.054000001
7.8870001 -2.8659999 -0.054000001
7.908 -2.8510001 -0.054000001
7.915 -2.8310001 -0.054000001
7.9359999 -2.8150001 -0.054000001
7.9510002 -2.7980001 -0.055
7.974 -2.783 -0.055
7.9850001 -2.7639999 -0.055
7.9809999 -2.7390001 -0.054000001
7.9980001 -2.7219999 -0.055
8.0270004 -2.7090001 -0.055
8.0319996 -2.687 -0.055
8.0550003 -2.6719999 -0.055
8.0839996 -2.658 -0.055
8.0979996 -2.6400001 -0.055
8.1090002 -2.6199999 -0.055
8.1289997 -2.6029999 -0.055
8.1429996 -2.5840001 -0.055
8.1479998 -2.562 -0.055
8.1599998 -2.543 -0.055
8.1920004 -2.529 -0.055
8.2040005 -2.5090001 -0.055
8.2309999 -2.494 -0.055
8.2410002 -2.473 -0.055
8.2840004 -2.4619999 -0.055
8.2969999 -2.4419999 -0.055
8.3170004 -2.424 -0.055
8.3310003 -2.404 -0.055
8.3330002 -2.381 -0.055
8.3610001 -2.365 -0.055
8.3780003 -2.346 -0.055
8.3769999 -2.3210001 -0.055
8.3970003 -2.303 -0.055
8.4139996 -2.283 -0.055
8.4440002 -2.267 -0.055
8.4720001 -2.2509999 -0.055
8.4899998 -2.2309999 -0.056000002
8.5030003 -2.21 -0.056000002
8.5200005 -2.1900001 -0.056000002
8.54 -2.171 -0.056000002
8.5629997 -2.152 -0.056000002
8.5760002 -2.131 -0.056000002
8.5889997 -2.109 -0.056000002
8.5810003 -2.0829999 -0.055
8.6059999 -2.0639999 -0.056000002
8.6409998 -2.0480001 -0.056000002
8.658 -2.027 -0.056000002
8.6929998 -2.01 -0.056000002
8.698 -1.987 -0.056000002
8.7130003 -1.965 -0.056000002
8.7510004 -1.949 -0.056000002
8.7819996 -1.931 -0.056000002
8.8319998 -1.916 -0.056000002
8.8360004 -1.892 -0.056000002
8.8260002 -1.865 -0.056000002
8.8529997 -1.845 -0.056000002
8.8479996 -1.819 -0.056000002
8.8979998 -1.804 -0.056000002
8.8990002 -1.778 -0.056000002
8.9230003 -1.758 -0.056000002
8.9560003 -1.739 -0.056000002
8.9709997 -1.716 -0.056000002
9.007 -1.697 -0.057
9.0229998 -1.675 -0.057
9.0220003 -1.649 -0.056000002
9.0349998 -1.625 -0.056000002
9.0539999 -1.603 -0.056000002
9.0860004 -1.5829999 -0.057
9.1090002 -1.561 -0.057
9.1339998 -1.539 -0.057
9.1560001 -1.516 -0.057
9.2040005 -1.498 -0.057
9.2279997 -1.476 -0.057
9.2290001 -1.45 -0.057
9.2550001 -1.428 -0.057
9.276 -1.404 -0.057
9.3039999 -1.382 -0.057
9.3109999 -1.357 -0.057
9.368 -1.3380001 -0.057
9.382 -1.314 -0.057
9.4209995 -1.2920001 -0.057
9.4359999 -1.268 -0.057
9.4639997 -1.244 -0.057999998
9.4849997 -1.22 -0.057999998
9.5089998 -1.196 -0.057999998
9.5240002 -1.171 -0.057999998
9.5690002 -1.15 -0.057999998
9.5939999 -1.125 -0.057999998
9.6370001 -1.103 -0.057999998
9.6709995 -1.079 -0.057999998
9.6949997 -1.0549999 -0.057999998
9.7209997 -1.03 -0.057999998
9.7309999 -1.003 -0.057999998
9.7390003 -0.97600001 -0.057999998
9.7659998 -0.95099998 -0.057999998
9.816 -0.92799997 -0.057999998
9.8310003 -0.90200001 -0.057999998
9.8859997 -0.87900001 -0.059
9.941 -0.85600001 -0.059
10.002 -0.83200002 -0.059
10.022 -0.80599999 -0.059
10.058 -0.77999997 -0.059
10.105 -0.755 -0.059
10.183 -0.73199999 -0.059999999
10.223 -0.70599997 -0.059999999
10.204 -0.676 -0.059999999
10.279 -0.65100002 -0.059999999
10.408 -0.63 -0.061000001
10.238 0.184 -0.19
10.172 0.19599999 -0.189
10.155 0.208 -0.189
10.184 0.221 -0.19
10.145 0.234 -0.189
10.124 0.24699999 -0.189
10.128 0.25999999 -0.189
10.092 0.273 -0.18799999
10.101 0.287 -0.189
10.1 0.30199999 -0.189
10.107 0.31600001 -0.189
10.078 0.33000001 -0.189
10.08 0.345 -0.189
10.085 0.36000001 -0.189
10.119 0.377 -0.19
10.103 0.39199999 -0.19
10.13 0.40900001 -0.191
10.111 0.42500001 -0.19
10.095 0.44 -0.19
10.072 0.456 -0.19
10.096 0.47400001 -0.191
10.099 0.491 -0.191
10.089 0.50800002 -0.191
10.084 0.52499998 -0.191
10.099 0.54299998 -0.191
10.098 0.56099999 -0.192
10.115 0.57999998 -0.192
10.112 0.59899998 -0.192
10.132 0.61799997 -0.193
10.149 0.63800001 -0.193
10.164 0.65799999 -0.19400001
10.176 0.67799997 -0.19400001
10.181 0.69800001 -0.19499999
10.194 0.71899998 -0.19499999
10.213 0.74000001 -0.19599999
10.22 0.76099998 -0.19599999
10.238 0.78299999 -0.197
10.245 0.80400002 -0.197
10.248 0.82599998 -0.197
10.259 0.84799999 -0.198
10.275 0.87 -0.198
10.283 0.89300001 -0.199
10.305 0.917 -0.199
10.321 0.94 -0.2
10.327 0.963 -0.2
10.345 0.98699999 -0.20100001
10.329 1.0089999 -0.20100001
10.366 1.035 -0.20200001
10.383 1.0599999 -0.20200001
10.403 1.086 -0.20299999
10.412 1.1109999 -0.20299999
10.436 1.137 -0.204
10.452 1.163 -0.205
10.445 1.187 -0.205
10.469 1.214 -0.206
10.463 1.238 -0.206
10.493 1.267 -0.207
10.514 1.295 -0.207
10.527 1.322 -0.208
10.531 1.348 -0.208
10.555 1.377 -0.20900001
10.582 1.4069999 -0.20999999
10.569 1.432 -0.20999999
10.563 1.4579999 -0.20999999
10.585 1.488 -0.211
10.605 1.518 -0.212
10.591 1.543 -0.212
10.633 1.577 -0.213
10.638 1.605 -0.213
10.682 1.64 -0.214
10.699 1.671 -0.215
10.704 1.7 -0.215
10.71 1.73 -0.21600001
10.736 1.763 -0.21699999
10.741 1.793 -0.21699999
10.765 1.826 -0.21799999
10.79 1.86 -0.219
10.8 1.892 -0.22
10.82 1.925 -0.22
10.836 1.9579999 -0.221
10.864 1.994 -0.222
10.869 2.026 -0.222
10.876 2.0580001 -0.223
10.9 2.0940001 -0.22400001
10.938 2.1329999 -0.22499999
10.965 2.1689999 -0.226
10.973 2.2030001 -0.226
11.01 2.243 -0.228
11.043 2.2820001 -0.229
11.045 2.3150001 -0.229
11.084 2.3570001 -0.23
11.083 2.3900001 -0.23100001
11.098 2.4260001 -0.23100001
11.114 2.4630001 -0.23199999
11.15 2.5050001 -0.233
11.166 2.543 -0.234
11.194 2.5840001 -0.235
11.216 2.6240001 -0.236
11.223 2.6600001 -0.237
11.244 2.7 -0.237
11.265 2.7409999 -0.23800001
11.29 2.7820001 -0.23899999
11.323 2.826 -0.23999999
11.328 2.8640001 -0.241
11.368 2.9100001 -0.242
11.378 2.9489999 -0.243
11.379 2.987 -0.243
11.399 3.029 -0.244
11.428 3.0739999 -0.245
11.463 3.1210001 -0.24699999
11.435 3.151 -0.24699999
11.46 3.1960001 -0.248
11.481 3.24 -0.249
11.517 3.289 -0.25
11.531 3.3310001 -0.25099999
11.567 3.3800001 -0.252
11.596 3.428 -0.25299999
11.623 3.4760001 -0.25400001
11.672 3.5309999 -0.25600001
11.71 3.582 -0.257
11.748 3.6340001 -0.25799999
11.81 3.694 -0.25999999
11.807 3.7349999 -0.26100001
11.824 3.7809999 -0.26199999
11.818 3.8210001 -0.26199999
11.814 3.8610001 -0.26300001
11.83 3.908 -0.26300001
11.881 3.967 -0.26499999
11.896 4.0149999 -0.266
11.936 4.0710001 -0.26699999
11.895 4.0999999 -0.26699999
11.919 4.152 -0.26800001
11.927 4.198 -0.26899999
11.939 4.2449999 -0.27000001
11.929 4.2859998 -0.27000001
11.942 4.3340001 -0.271
11.966 4.3870001 -0.27200001
12.004 4.4450002 -0.27399999
12.028 4.4990001 -0.27500001
12.051 4.553 -0.27599999
12.052 4.599 -0.27700001
12.074 4.652 -0.278
12.083 4.7020001 -0.27900001
12.167 4.7810001 -0.28099999
12.175 4.8299999 -0.28200001
12.173 4.8759999 -0.28200001
12.191 4.9299998 -0.28400001
12.19 4.9770002 -0.28400001
12.205 5.0300002 -0.285
12.211 5.0799999 -0.28600001
12.254 5.1459999 -0.28799999
12.264 5.198 -0.289
12.28 5.2529998 -0.28999999
12.298 5.3099999 -0.29100001
12.324 5.3699999 -0.292
12.339 5.4250002 -0.29300001
12.343 5.4759998 -0.294
12.375 5.54 -0.29499999
12.388 5.5960002 -0.296
12.403 5.6529999 -0.29699999
12.394 5.6989999 -0.29800001
12.393 5.7490001 -0.29800001
12.401 5.8039999 -0.29899999
12.442 5.8740001 -0.301
12.45 5.9289999 -0.30199999
12.486 5.9980001 -0.30399999
12.498 6.0549998 -0.30500001
12.526 6.1209998 -0.30599999
12.587 6.204 -0.308
12.614 6.2690001 -0.31
12.601 6.316 -0.31
12.291 6.2129998 -0.303
12.238 6.2379999 -0.303
