# .PCD v0.7 - Point Cloud Data file format
VERSION 0.7
FIELDS x y z
SIZE 4 4 4
TYPE F F F
COUNT 1 1 1
WIDTH 1925
HEIGHT 1
VIEWPOINT 0 0 0 1 0 0 0
POINTS 1925
DATA ascii
12.681 -0.242 0.84399998
12.686 -0.222 0.84500003
12.702 -0.20200001 0.84600002
12.72 -0.182 0.847
12.742 -0.163 0.84899998
12.787 -0.14300001 0.852
12.819 -0.124 0.85399997
12.869 -0.105 0.85699999
13.114 -0.086999997 0.87400001
12.857 0.189 0.792
12.874 0.212 0.79299998
12.886 0.236 0.79299998
12.905 0.259 0.79400003
12.903 0.28299999 0.79400003
12.905 0.30700001 0.79400003
12.922 0.33199999 0.79500002
12.934 0.35600001 0.79500002
12.947 0.382 0.796
12.954 0.40700001 0.796
12.95 0.43200001 0.796
12.973 0.45899999 0.79699999
12.976 0.48500001 0.79699999
12.972 0.51099998 0.79699999
12.989 0.53799999 0.79799998
13.021 0.56599998 0.80000001
13.019 0.59299999 0.79900002
13.029 0.62099999 0.80000001
13.046 0.64899999 0.801
13.024 0.676 0.80000001
13.02 0.704 0.79900002
13.027 0.73299998 0.80000001
13.02 0.76099998 0.79900002
13.011 0.78899997 0.79900002
12.989 0.81699997 0.79699999
12.979 0.84500003 0.79699999
12.95 0.87300003 0.79500002
12.935 0.90200001 0.79400003
12.906 0.92900002 0.792
12.892 0.958 0.79100001
12.921 0.991 0.79299998
12.954 1.024 0.79500002
12.922 1.052 0.79299998
12.931 1.084 0.79400003
12.931 1.115 0.79400003
12.943 1.147 0.79500002
12.97 1.181 0.796
12.95 1.211 0.79500002
12.947 1.243 0.79500002
22.364 2.148 1.374
12.972 1.278 0.79699999
22.242001 2.1919999 1.367
13.023 1.316 0.80000001
22.209 2.244 1.365
13.037 1.35 0.801
22.136999 2.293 1.3609999
13.029 1.383 0.801
22.075001 2.3429999 1.357
13.054 1.419 0.80199999
21.968 2.388 1.351
13.281 1.477 0.81699997
22.059999 2.454 1.357
22.091999 2.5150001 1.359
22.105 2.5739999 1.36
22.138 2.6359999 1.362
22.367001 2.723 1.377
22.389999 2.7850001 1.378
22.309999 2.8340001 1.374
22.268 2.8889999 1.372
22.243999 2.9460001 1.37
22.183001 2.9979999 1.367
22.176001 3.0569999 1.367
22.155001 3.115 1.3660001
22.143 3.175 1.3660001
22.222 3.247 1.3710001
22.271999 3.3169999 1.375
22.292 3.382 1.376
22.356001 3.4549999 1.381
22.367001 3.52 1.382
22.437 3.595 1.387
22.643 3.6919999 1.4
22.764 3.777 1.408
22.795 3.848 1.41
22.756001 3.9070001 1.409
22.565001 3.9400001 1.397
22.441 3.984 1.39
22.427999 4.0469999 1.39
22.440001 4.1160002 1.391
22.648001 4.2210002 1.405
22.653999 4.289 1.406
22.591999 4.3449998 1.403
22.601999 4.415 1.404
22.638 4.4899998 1.4069999
22.686001 4.5679998 1.41
22.784 4.6570001 1.4170001
17.753 5.5739999 1.1289999
17.532 5.5640001 1.1160001
17.278999 5.7789998 1.104
17.224001 5.8200002 1.102
17.351 5.9219999 1.1109999
6.973 3.427 0.465
6.8039999 3.369 0.45500001
6.7329998 3.358 0.44999999
6.6999998 3.3659999 0.449
6.6440001 3.362 0.44499999
6.5949998 3.3610001 0.44299999
6.5609999 3.368 0.44100001
6.5580001 3.391 0.44100001
6.5650001 3.418 0.442
6.5970001 3.4590001 0.44499999
6.6069999 3.4879999 0.44600001
6.6329999 3.526 0.44800001
6.6469998 3.5580001 0.44999999
6.6659999 3.5929999 0.45199999
6.7270002 3.6500001 0.456
12.251 -6.756 0.87699997
12.352 -6.776 0.884
12.473 -6.6960001 0.89200002
12.368 -6.6030002 0.884
12.382 -6.5749998 0.88499999
12.395 -6.5450001 0.88599998
12.391 -6.507 0.88599998
12.504 -6.5289998 0.89399999
12.639 -6.3400002 0.90200001
12.655 -6.3109999 0.90399998
12.676 -6.2839999 0.90499997
12.755 -6.2849998 0.91000003
12.82 -6.2800002 0.91500002
12.836 -6.25 0.91600001
12.793 -6.1919999 0.91299999
13.142 -6.322 0.93699998
6.48 -2.6400001 0.46000001
6.3309999 -2.5610001 0.44999999
6.2909999 -2.526 0.447
6.2940001 -2.5090001 0.447
6.303 -2.494 0.447
6.3569999 -2.4960001 0.45100001
6.5359998 -2.5469999 0.46399999
13.859 -5.3200002 0.98299998
13.894 -5.2930002 0.986
6.4530001 -2.4389999 0.45699999
6.3210001 -2.3710001 0.44800001
6.2709999 -2.3340001 0.44400001
6.2620001 -2.312 0.44400001
6.2579999 -2.2920001 0.44299999
6.256 -2.273 0.44299999
6.256 -2.2539999 0.44299999
6.2490001 -2.234 0.44299999
6.25 -2.2149999 0.442
6.2670002 -2.2030001 0.44400001
6.2519999 -2.1800001 0.44299999
6.2379999 -2.1570001 0.44100001
6.224 -2.1329999 0.44
6.1989999 -2.1059999 0.43799999
6.1939998 -2.0869999 0.43799999
6.1989999 -2.0699999 0.43799999
6.204 -2.0539999 0.43900001
6.2030001 -2.0350001 0.43799999
6.2150002 -2.0209999 0.43900001
6.2259998 -2.006 0.44
6.2259998 -1.988 0.44
6.244 -1.976 0.44100001
6.256 -1.961 0.442
6.2810001 -1.951 0.44299999
6.3150001 -1.943 0.44600001
6.3049998 -1.921 0.44499999
6.2839999 -1.896 0.44299999
6.276 -1.876 0.44299999
6.2659998 -1.854 0.442
6.2919998 -1.844 0.44400001
6.348 -1.842 0.44800001
6.473 -1.859 0.456
13.051 -0.542 0.903
12.955 -0.5 0.89700001
12.849 -0.45899999 0.889
12.779 -0.41999999 0.884
12.741 -0.382 0.88099998
12.744 -0.34599999 0.88099998
12.767 -0.31 0.88200003
12.771 -0.273 0.88300002
12.811 -0.237 0.88499999
12.933 -0.20200001 0.89300001
12.979 -0.16599999 0.89600003
13.265 0.889 0.83700001
13.207 0.90899998 0.833
13.184 0.93300003 0.83099997
13.189 0.958 0.83200002
13.252 0.98799998 0.83600003
13.249 1.066 0.83600003
13.316 1.098 0.83999997
22.559 2.046 1.424
22.396999 2.079 1.414
22.336 2.1210001 1.411
22.344 2.1700001 1.411
22.341999 2.2179999 1.411
22.322001 2.2650001 1.41
22.379999 2.3199999 1.414
22.399 2.372 1.416
22.438 2.427 1.419
23.046 2.5439999 1.4579999
22.943001 2.586 1.451
22.832001 2.6259999 1.4450001
22.714001 2.665 1.438
22.679001 2.714 1.436
22.653999 2.7639999 1.4349999
22.604 2.812 1.432
22.469 2.849 1.424
22.392 2.8929999 1.42
22.337 2.941 1.4170001
22.296 2.99 1.414
22.250999 3.039 1.4119999
22.261999 3.096 1.413
22.322001 3.1600001 1.418
22.337 3.2190001 1.419
22.368 3.28 1.4220001
22.49 3.3559999 1.4299999
22.503 3.4159999 1.432
22.561001 3.483 1.436
22.638 3.5539999 1.441
23.025999 3.6760001 1.467
22.990999 3.7309999 1.465
22.971001 3.789 1.465
23.086 3.8699999 1.473
22.712999 3.993 1.451
22.635 4.0409999 1.447
22.632999 4.1040001 1.448
22.712 4.1810002 1.454
22.948 4.289 1.47
22.777 4.322 1.459
22.702999 4.3720002 1.456
22.756001 4.447 1.46
22.855 4.5320001 1.467
19.57 4.6409998 1.267
19.441999 4.671 1.26
19.538 4.7550001 1.267
7.0190001 3.424 0.49000001
6.8299999 3.3610001 0.47799999
6.737 3.3429999 0.472
6.6789999 3.342 0.46799999
6.6370001 3.349 0.46599999
6.5749998 3.345 0.46200001
6.5609999 3.3659999 0.46200001
6.5630002 3.395 0.463
6.586 3.4349999 0.465
6.6129999 3.4779999 0.46799999
6.6170001 3.5090001 0.46900001
6.6469998 3.5539999 0.472
6.6849999 3.6029999 0.47499999
6.7550001 3.6700001 0.48100001
11.381 -7.4710002 0.85399997
11.445 -7.441 0.85799998
11.487 -7.3979998 0.86000001
11.517 -7.3460002 0.86199999
11.605 -7.3319998 0.86799997
11.626 -7.2750001 0.86799997
11.657 -7.2249999 0.87
11.754 -7.2160001 0.87699997
11.795 -7.1719999 0.87900001
11.832 -7.1259999 0.88099998
11.85 -7.0689998 0.88200003
11.895 -7.0279999 0.884
11.94 -6.987 0.88700002
11.99 -6.9489999 0.88999999
12.023 -6.901 0.89200002
12.065 -6.8590002 0.89399999
12.121 -6.8249998 0.898
12.201 -6.8039999 0.903
12.235 -6.757 0.90499997
12.205 -6.6750002 0.90200001
12.248 -6.6339998 0.90499997
12.272 -6.5830002 0.90600002
12.29 -6.5289998 0.90700001
12.323 -6.4829998 0.90799999
12.381 -6.4499998 0.912
12.442 -6.4190001 0.91600001
12.547 -6.4109998 0.92299998
12.529 -6.3390002 0.921
12.576 -6.3000002 0.92400002
12.59 -6.2459998 0.92500001
12.686 -6.2319999 0.93099999
12.722 -6.1880002 0.93300003
12.85 -6.1880002 0.94199997
12.974 -6.1869998 0.94999999
13.036 -6.1550002 0.954
6.3280001 -2.487 0.45899999
6.3000002 -2.45 0.45699999
6.3270001 -2.4349999 0.458
6.421 -2.4449999 0.465
6.454 -2.3800001 0.46700001
6.3080001 -2.302 0.456
6.2740002 -2.2650001 0.45300001
6.2729998 -2.24 0.45300001
6.2639999 -2.2130001 0.45199999
6.2480001 -2.184 0.45100001
6.2579999 -2.1630001 0.45100001
6.2379999 -2.1329999 0.44999999
6.2210002 -2.1040001 0.44800001
6.211 -2.0769999 0.447
6.2010002 -2.0510001 0.447
6.211 -2.0309999 0.447
6.2179999 -2.0109999 0.447
6.224 -1.9910001 0.44800001
6.2309999 -1.97 0.44800001
6.263 -1.9579999 0.44999999
6.2979999 -1.946 0.45300001
6.3119998 -1.928 0.45300001
6.29 -1.9 0.45199999
6.276 -1.874 0.45100001
6.2940001 -1.857 0.45199999
6.3699999 -1.858 0.45699999
12.993 -0.35499999 0.921
12.964 -0.33199999 0.91900003
12.964 -0.31099999 0.91900003
12.949 -0.289 0.91799998
12.925 -0.26800001 0.91600001
12.907 -0.24600001 0.91500002
12.943 -0.226 0.91799998
13.056 -0.208 0.926
13.053 -0.16599999 0.926
13.054 -0.146 0.926
13.05 0.19400001 0.86500001
13.152 0.219 0.87199998
13.24 0.89399999 0.875
13.219 0.92299998 0.87400001
13.216 0.95300001 0.87400001
13.24 0.98500001 0.875
13.356 1.057 0.88300002
13.162 1.073 0.87
13.263 1.113 0.87699997
13.282 1.146 0.87800002
22.492001 2.1059999 1.488
22.351 2.1489999 1.479
22.339001 2.2030001 1.478
22.364 2.2620001 1.48
22.375999 2.3199999 1.4809999
22.372 2.3759999 1.4809999
22.465 2.4430001 1.488
22.67 2.5239999 1.502
23.044001 2.625 1.527
22.983999 2.678 1.523
22.868999 2.7249999 1.516
22.778 2.7739999 1.51
22.747999 2.8310001 1.5089999
22.704 2.8859999 1.506
22.504 2.921 1.493
22.408001 2.9690001 1.487
22.346001 3.0209999 1.484
22.327999 3.0799999 1.483
22.291 3.1359999 1.4809999
22.329 3.2030001 1.484
22.388 3.273 1.488
22.400999 3.3369999 1.49
22.607 3.431 1.5039999
22.645 3.5009999 1.507
22.909 4.3390002 1.5319999
22.92 4.4089999 1.534
23.472 4.7270002 1.573
23.27 4.757 1.5599999
23.344999 4.8429999 1.566
19.57 4.6069999 1.3200001
19.434 4.6360002 1.311
19.504999 4.7150002 1.317
7.1170001 3.4979999 0.51300001
6.8649998 3.3989999 0.495
6.75 3.3659999 0.48800001
6.697 3.365 0.484
6.6420002 3.3610001 0.48100001
6.5869999 3.3570001 0.47799999
6.559 3.3670001 0.47600001
6.5430002 3.3829999 0.47600001
6.539 3.405 0.47600001
6.5419998 3.4300001 0.477
6.5799999 3.474 0.47999999
6.6100001 3.5150001 0.48300001
6.6430001 3.556 0.486
6.6690001 3.5940001 0.48800001
6.717 3.645 0.49200001
13.341 -6.421 1.012
13.34 -6.382 1.012
13.35 -6.3470001 1.013
13.379 -6.322 1.015
13.48 -6.3299999 1.022
13.537 -6.316 1.026
13.644 -6.3260002 1.034
13.733 -6.3270001 1.041
14.148 -6.0170002 1.0700001
14.091 -5.9520001 1.066
14.23 -5.9679999 1.076
6.362 -2.575 0.48100001
6.296 -2.529 0.47499999
6.283 -2.5050001 0.47400001
6.289 -2.4890001 0.47499999
6.3070002 -2.4779999 0.47600001
6.3610001 -2.48 0.47999999
6.342 -2.3800001 0.47799999
6.2919998 -2.342 0.47400001
6.27 -2.316 0.472
6.256 -2.2920001 0.47099999
6.2550001 -2.2739999 0.47099999
6.237 -2.2479999 0.47
6.2329998 -2.2290001 0.46900001
6.2249999 -2.2079999 0.46900001
6.2360001 -2.1930001 0.46900001
6.223 -2.1700001 0.46799999
6.2119999 -2.148 0.46700001
6.1999998 -2.1259999 0.46599999
6.2059999 -2.1099999 0.46700001
6.217 -2.095 0.46799999
6.21 -2.075 0.46700001
6.1999998 -2.053 0.46599999
6.2069998 -2.0369999 0.46700001
6.2010002 -2.017 0.46599999
6.2210002 -2.006 0.46700001
6.2150002 -1.985 0.46700001
6.2399998 -1.975 0.46900001
6.2620001 -1.964 0.47
6.2670002 -1.947 0.47099999
6.296 -1.937 0.47299999
6.3039999 -1.921 0.47299999
6.2820001 -1.896 0.47099999
6.2870002 -1.88 0.472
6.2849998 -1.86 0.47099999
6.283 -1.842 0.47099999
6.3579998 -1.845 0.477
6.4840002 -1.862 0.486
13.123 -0.39199999 0.96399999
13.08 -0.35299999 0.96100003
13.053 -0.315 0.95899999
13.274 0.81800002 0.89899999
13.363 0.84799999 0.90499997
13.211 0.86199999 0.89499998
13.216 0.88700002 0.89600003
13.202 0.91000003 0.89499998
13.18 0.93400002 0.89300001
13.201 0.95999998 0.89499998
13.22 0.98699999 0.89600003
13.135 1.006 0.88999999
13.091 1.029 0.88700002
13.084 1.054 0.88700002
13.126 1.084 0.88999999
13.181 1.115 0.89399999
13.214 1.145 0.89600003
13.329 1.182 0.90399998
13.247 1.316 0.89899999
13.169 1.337 0.89399999
13.279 1.378 0.90200001
23.268999 3.473 1.591
23.224001 3.526 1.5880001
23.165001 3.5780001 1.585
23.160999 3.638 1.586
23.181999 3.7019999 1.5880001
23.153999 3.7590001 1.587
23.188 3.826 1.59
23.172001 3.8859999 1.59
23.139 3.9430001 1.5880001
23.149 4.007 1.59
23.122999 4.066 1.589
23.136 4.132 1.591
23.127001 4.1950002 1.591
23.160999 4.2649999 1.594
23.386 4.6389999 1.615
23.355 4.6999998 1.613
23.267 4.75 1.608
23.201 4.8039999 1.605
23.233999 4.8790002 1.608
19.518 4.6900001 1.3609999
19.539 4.756 1.363
6.8709998 3.381 0.51800001
6.75 3.349 0.509
6.6739998 3.3399999 0.50400001
6.6230001 3.342 0.50099999
6.572 3.3440001 0.498
6.5469999 3.359 0.49700001
6.5279999 3.378 0.49599999
6.5279999 3.405 0.49700001
6.5710001 3.4560001 0.50099999
6.5960002 3.4979999 0.50400001
6.632 3.546 0.50700003
6.6620002 3.5910001 0.50999999
6.743 3.664 0.51700002
11.86 -7.7839999 0.94499999
11.899 -7.7360001 0.94700003
11.976 -7.711 0.95200002
12.022 -7.6680002 0.95499998
12.073 -7.6269999 0.95899999
12.144 -7.598 0.963
12.135 -7.52 0.96200001
12.165 -7.467 0.963
12.178 -7.4039998 0.96399999
12.205 -7.349 0.96499997
12.232 -7.296 0.96600002
12.261 -7.243 0.96799999
12.265 -7.1760001 0.96799999
12.293 -7.1230001 0.96899998
12.304 -7.0619998 0.96899998
12.309 -6.9970002 0.96899998
12.343 -6.9489999 0.97100002
12.389 -6.908 0.97399998
12.431 -6.8649998 0.97600001
12.457 -6.8119998 0.97799999
12.512 -6.777 0.98100001
12.666 -6.7940001 0.99299997
13.079 -6.8800001 1.024
13.103 -6.8260002 1.025
13.053 -6.7340002 1.02
13.147 -6.7160001 1.027
13.211 -6.6830001 1.031
13.266 -6.645 1.035
13.273 -6.5840001 1.035
13.316 -6.54 1.038
13.368 -6.5009999 1.041
13.272 -6.3909998 1.033
13.299 -6.3410001 1.034
13.328 -6.2919998 1.036
13.395 -6.2610002 1.041
13.504 -6.2490001 1.049
13.6 -6.2309999 1.0549999
13.668 -6.1989999 1.0599999
13.852 -6.2199998 1.074
13.966 -6.2090001 1.082
14.027 -6.1729999 1.086
14.109 -6.0840001 1.091
14.084 -6.0120001 1.089
14.133 -5.9710002 1.092
14.179 -5.9299998 1.095
14.191 -5.8740001 1.095
14.225 -5.8280001 1.098
14.221 -5.7659998 1.097
14.277 -5.7290001 1.101
14.31 -5.6830001 1.103
6.3540001 -2.497 0.48899999
6.296 -2.448 0.484
6.3039999 -2.4260001 0.48500001
6.3730001 -2.427 0.49000001
6.4580002 -2.382 0.49599999
6.3140001 -2.3039999 0.484
6.277 -2.266 0.48100001
6.2540002 -2.233 0.479
6.2480001 -2.207 0.479
6.2340002 -2.1789999 0.47799999
6.2290001 -2.1530001 0.477
6.21 -2.1229999 0.47499999
6.2030001 -2.0969999 0.47499999
6.2119999 -2.0769999 0.47499999
6.197 -2.049 0.47400001
6.2090001 -2.0309999 0.47499999
6.2119999 -2.0090001 0.47499999
6.2160001 -1.988 0.47499999
6.223 -1.9680001 0.47499999
6.2350001 -1.949 0.47600001
6.276 -1.9400001 0.479
6.3169999 -1.9299999 0.48199999
6.303 -1.904 0.47999999
6.2880001 -1.877 0.479
6.2659998 -1.849 0.477
6.3540001 -1.853 0.484
13.017 0.19599999 0.92400002
13.043 0.219 0.926
13.051 0.242 0.926
13.021 0.26499999 0.92400002
13.054 0.28999999 0.926
13.063 0.31400001 0.926
13.076 0.33899999 0.92699999
13.052 0.36300001 0.92500001
13.094 0.389 0.92799997
13.074 0.414 0.92699999
13.074 0.44 0.926
13.076 0.46599999 0.926
13.098 0.493 0.92799997
13.118 0.51999998 0.92900002
13.106 0.546 0.92799997
13.077 0.57200003 0.926
13.098 0.60000002 0.92799997
13.093 0.62699997 0.92699999
13.136 0.65700001 0.93000001
13.117 0.68400002 0.92900002
13.143 0.71399999 0.93099999
13.174 0.74400002 0.93300003
13.116 0.76899999 0.92900002
13.138 0.80000001 0.93000001
13.147 0.82999998 0.93099999
13.114 0.85699999 0.92799997
13.139 0.88800001 0.93000001
13.112 0.917 0.92799997
13.081 0.94400001 0.926
13.058 0.97299999 0.92500001
13.076 1.005 0.926
13.023 1.0319999 0.92199999
13.012 1.062 0.92199999
13.017 1.0930001 0.92199999
13.056 1.128 0.92500001
13.081 1.1619999 0.92699999
13.098 1.1950001 0.92799997
13.2 1.237 0.93599999
13.138 1.2640001 0.93099999
22.993 2.2119999 1.63
13.147 1.298 0.93199998
23.103001 2.2809999 1.638
13.152 1.331 0.93300003
13.097 1.359 0.92900002
13.098 1.392 0.92900002
13.248 1.442 0.94
23.216 2.891 1.65
23.205 2.951 1.65
23.139 3.0050001 1.646
23.166 3.0710001 1.648
23.157 3.1329999 1.648
23.146999 3.194 1.648
23.132 3.256 1.647
23.131001 3.319 1.648
23.208 3.395 1.654
23.122 3.5109999 1.649
23.106001 3.573 1.648
23.084999 3.635 1.647
23.087 3.701 1.648
23.080999 3.766 1.648
23.083 3.8329999 1.649
23.077999 3.898 1.65
23.077999 3.9649999 1.65
23.077 4.0320001 1.651
23.079 4.0999999 1.652
23.083 4.1680002 1.653
23.094999 4.2379999 1.654
23.179001 4.322 1.661
23.334 4.6300001 1.676
23.315001 4.697 1.675
23.245001 4.7529998 1.671
23.215 4.8179998 1.67
23.360001 4.9190001 1.681
6.8839998 3.4089999 0.53399998
6.7540002 3.369 0.52399999
6.6820002 3.358 0.51899999
6.6350002 3.358 0.51599997
6.5749998 3.352 0.51200002
6.5440001 3.3599999 0.50999999
6.5219998 3.3729999 0.509
6.5050001 3.388 0.509
6.5159998 3.4170001 0.50999999
6.559 3.464 0.514
6.5739999 3.4949999 0.51599997
6.5929999 3.53 0.51800001
6.6079998 3.562 0.51999998
6.6690001 3.619 0.52499998
6.8730001 3.7550001 0.542
14.179 -6.4949999 1.1390001
14.176 -6.4510002 1.1390001
14.162 -6.4029999 1.137
14.232 -6.3930001 1.143
14.276 -6.3709998 1.146
14.352 -6.362 1.152
14.396 -6.3390002 1.155
14.429 -6.1409998 1.1569999
14.447 -6.105 1.158
14.501 -6.086 1.1619999
14.502 -6.0430002 1.1619999
14.504 -6.0009999 1.1619999
14.54 -5.973 1.165
14.545 -5.9320002 1.165
6.3940001 -2.5699999 0.51200002
6.3060002 -2.516 0.505
6.2919998 -2.4920001 0.50300002
6.2969999 -2.4749999 0.50400001
6.3379998 -2.473 0.50700003
6.5040002 -2.5179999 0.51999998
6.467 -2.447 0.51700002
6.3299999 -2.3759999 0.50599998
6.283 -2.3399999 0.50199997
6.2550001 -2.3110001 0.5
6.2399998 -2.2869999 0.498
6.2280002 -2.2650001 0.49700001
6.2199998 -2.243 0.49599999
6.2210002 -2.2249999 0.49599999
6.224 -2.2079999 0.49700001
6.2210002 -2.1889999 0.49599999
6.1890001 -2.1589999 0.49399999
6.1729999 -2.1359999 0.49200001
6.1890001 -2.1229999 0.493
6.184 -2.1029999 0.493
6.204 -2.092 0.49399999
6.2010002 -2.072 0.49399999
6.1939998 -2.052 0.493
6.2090001 -2.039 0.49399999
6.2030001 -2.0179999 0.49399999
6.1880002 -1.9960001 0.493
6.1950002 -1.98 0.493
6.1999998 -1.9630001 0.493
6.2319999 -1.955 0.49599999
6.2649999 -1.947 0.498
6.3039999 -1.941 0.50099999
6.3270001 -1.929 0.50300002
6.2950001 -1.901 0.5
6.2810001 -1.878 0.49900001
6.276 -1.858 0.49900001
6.302 -1.848 0.50099999
6.3790002 -1.852 0.50700003
13.13 0.33500001 0.95499998
13.117 0.35100001 0.95300001
13.221 0.37 0.96100003
13.145 0.38499999 0.95499998
13.122 0.40099999 0.95300001
13.105 0.454 0.95099998
13.136 0.47400001 0.95300001
13.148 0.51200002 0.954
13.084 0.52899998 0.949
13.19 0.55299997 0.95599997
13.152 0.57200003 0.954
13.148 0.59200001 0.95300001
13.14 0.61199999 0.95200002
13.152 0.634 0.95300001
13.087 0.65200001 0.94800001
13.093 0.67400002 0.949
13.142 0.69800001 0.95200002
13.094 0.71799999 0.949
13.058 0.73799998 0.94599998
13.049 0.75999999 0.94499999
13.041 0.78200001 0.94499999
13.04 0.80500001 0.94499999
13.05 0.829 0.94499999
13.034 0.852 0.94400001
13.009 0.87400001 0.94300002
12.98 0.89700001 0.94
12.957 0.91900003 0.93900001
12.934 0.94199997 0.93699998
12.915 0.96600002 0.93599999
12.9 0.99000001 0.935
12.887 1.0140001 0.93400002
12.885 1.039 0.93400002
12.894 1.066 0.935
12.91 1.0930001 0.93599999
12.923 1.1210001 0.93699998
12.945 1.15 0.93900001
12.954 1.177 0.94
23.136 2.1029999 1.679
13.005 1.21 0.94400001
23.096001 2.148 1.676
13.06 1.242 0.94800001
23.117001 2.1989999 1.678
12.991 1.2640001 0.94300002
23.073999 2.2449999 1.675
13.012 1.294 0.94499999
23.216 2.309 1.686
13.031 1.324 0.94599998
13.055 1.3559999 0.94800001
13.135 1.393 0.954
13.194 1.429 0.95899999
23.221001 2.5150001 1.688
13.212 1.461 0.95999998
23.035 2.5469999 1.675
22.997999 2.596 1.673
22.987 2.6470001 1.6720001
13.175 1.548 0.95899999
23.004999 2.7030001 1.674
13.088 1.568 0.95300001
23.004 2.756 1.675
13.011 1.589 0.94700003
23.028 2.813 1.677
13.035 1.623 0.949
23.041 2.8699999 1.678
13.092 1.6619999 0.954
23.018999 2.9219999 1.677
23.011999 2.977 1.678
23.011999 3.033 1.678
22.989 3.086 1.677
23.009001 3.1459999 1.679
23.000999 3.2019999 1.679
23.01 3.2609999 1.681
23.059 3.326 1.6849999
23.084999 3.388 1.688
23.030001 3.4389999 1.684
23.006001 3.4949999 1.683
23.009001 3.5550001 1.684
23.027 3.618 1.687
23.02 3.677 1.687
23.021999 3.7390001 1.688
23.018999 3.8 1.689
23.014999 3.8610001 1.689
23.025 3.925 1.691
23.035 3.9890001 1.693
23.028 4.0510001 1.693
23.031 4.1149998 1.694
23.049999 4.1820002 1.697
23.059 4.2480001 1.698
23.122999 4.3239999 1.704
23.309999 4.6240001 1.722
23.290001 4.6880002 1.722
23.358 4.7690001 1.728
23.351999 4.836 1.729
6.8860002 3.388 0.55599999
6.7470002 3.348 0.546
6.6669998 3.3369999 0.54000002
6.605 3.3340001 0.53600001
6.5609999 3.339 0.53299999
6.539 3.3559999 0.53200001
6.52 3.3740001 0.53100002
6.5149999 3.3989999 0.53200001
6.5510001 3.4460001 0.53500003
6.5760002 3.4879999 0.53799999
6.579 3.5179999 0.53899997
6.6240001 3.5699999 0.54400003
6.7179999 3.651 0.55299997
12.614 -8.2779999 1.064
12.654 -8.2250004 1.066
12.742 -8.2030001 1.072
12.767 -8.1409998 1.074
12.856 -8.1199999 1.08
12.889 -8.0629997 1.082
12.956 -8.0279999 1.087
13.039 -8.0019999 1.0930001
13.052 -7.934 1.0930001
13.129 -7.9050002 1.099
13.211 -7.8779998 1.105
13.233 -7.816 1.1059999
13.255 -7.7540002 1.107
13.371 -7.7470002 1.115
13.522 -7.4660001 1.124
13.636 -7.4559999 1.133
13.613 -7.3720002 1.13
13.572 -7.2789998 1.126
13.649 -7.2490001 1.131
13.689 -7.1999998 1.1339999
13.777 -7.1760001 1.14
13.825 -7.131 1.1440001
13.904 -7.1020002 1.149
13.871 -7.0159998 1.146
13.94 -6.9819999 1.151
14.182 -6.6950002 1.1670001
14.217 -6.6440001 1.169
14.375 -6.585 1.1799999
14.247 -6.4619999 1.169
14.195 -6.3730001 1.164
14.257 -6.3369999 1.169
14.283 -6.2849998 1.17
14.383 -6.2649999 1.178
14.453 -6.2319999 1.183
14.543 -6.1440001 1.189
14.499 -6.0630002 1.1849999
14.559 -6.026 1.189
14.564 -5.9660001 1.189
14.582 -5.9120002 1.1900001
14.642 -5.875 1.194
14.666 -5.8239999 1.196
6.4070001 -2.5179999 0.52200001
6.3119998 -2.4549999 0.514
6.3210001 -2.4319999 0.514
6.3979998 -2.4360001 0.51999998
6.369 -2.349 0.51700002
6.2839999 -2.293 0.50999999
6.2639999 -2.2609999 0.50800002
6.2459998 -2.23 0.50700003
6.2389998 -2.204 0.50599998
6.2210002 -2.174 0.50400001
6.2140002 -2.148 0.50300002
6.1799998 -2.1129999 0.5
6.1919999 -2.0940001 0.50099999
6.2080002 -2.076 0.50199997
6.204 -2.052 0.50199997
6.1950002 -2.026 0.50099999
6.1999998 -2.0050001 0.50099999
6.1859999 -1.978 0.5
6.1929998 -1.9579999 0.5
6.2329998 -1.948 0.50300002
6.2729998 -1.939 0.50599998
6.3280001 -1.933 0.51099998
6.3210001 -1.909 0.50999999
6.2779999 -1.874 0.50599998
6.2779999 -1.853 0.50599998
6.3439999 -1.85 0.51099998
12.901 0.19599999 0.97600001
12.933 0.219 0.97899997
12.933 0.242 0.97799999
12.95 0.266 0.98000002
12.937 0.289 0.97799999
12.971 0.31400001 0.98100001
12.959 0.338 0.98000002
12.972 0.36300001 0.98100001
12.956 0.38699999 0.97899997
13.008 0.414 0.98299998
13.006 0.43900001 0.98299998
13.017 0.465 0.98299998
13.028 0.49200001 0.98400003
13.024 0.51800001 0.98400003
13.038 0.54500002 0.98500001
13.055 0.57200003 0.986
13.058 0.59899998 0.986
13.031 0.62599999 0.98400003
13.054 0.65399998 0.986
13.045 0.68199998 0.98500001
13.019 0.708 0.98299998
13.015 0.736 0.98299998
13.013 0.76499999 0.98199999
13.011 0.79299998 0.98199999
12.998 0.82200003 0.98100001
12.993 0.85000002 0.98100001
12.975 0.87900001 0.98000002
12.947 0.90600002 0.97799999
12.933 0.935 0.977
12.899 0.963 0.97399998
12.868 0.99000001 0.972
12.859 1.02 0.97100002
12.85 1.05 0.97100002
12.855 1.081 0.97100002
12.866 1.113 0.972
12.881 1.145 0.97299999
12.91 1.179 0.97600001
12.931 1.2130001 0.97799999
23.056 2.1630001 1.743
12.949 1.247 0.97899997
23.033001 2.2179999 1.742
13.041 1.288 0.986
23.051001 2.277 1.744
12.965 1.313 0.98100001
23.059999 2.336 1.745
13.019 1.352 0.98500001
13.009 1.3839999 0.98400003
13.066 1.423 0.98900002
13.125 1.4630001 0.99400002
23.169001 2.5829999 1.7539999
13.168 1.502 0.99699998
22.973 2.6210001 1.74
13.297 1.551 1.007
22.931 2.6760001 1.737
13.189 1.573 0.99900001
22.934999 2.7360001 1.738
13.038 1.59 0.98799998
22.948 2.7980001 1.739
12.991 1.618 0.98500001
22.962 2.8610001 1.7410001
12.972 1.651 0.98400003
22.988001 2.925 1.743
13.054 1.696 0.99000001
22.976 2.9849999 1.743
22.971001 3.0469999 1.743
22.958 3.1070001 1.743
22.959999 3.1700001 1.744
22.972 3.2349999 1.745
22.961 3.296 1.745
22.979 3.362 1.747
23.052999 3.437 1.753
22.981001 3.4909999 1.748
22.983 3.556 1.749
22.988001 3.622 1.75
22.99 3.687 1.751
22.988001 3.7520001 1.752
22.997999 3.8199999 1.753
22.997 3.8859999 1.7539999
23.002001 3.9530001 1.755
23.014999 4.0219998 1.757
23.016001 4.0900002 1.758
23.030001 4.1599998 1.76
23.027 4.2270002 1.76
23.044001 4.2979999 1.763
23.284 4.4120002 1.7819999
23.377001 4.71 1.793
23.419001 4.79 1.7970001
19.77 4.6550002 1.526
19.561001 4.6680002 1.511
19.424 4.697 1.501
19.51 4.7789998 1.5089999
6.9499998 3.4419999 0.57599998
6.7670002 3.3759999 0.56099999
6.6799998 3.3570001 0.55500001
6.6269999 3.3540001 0.551
6.5780001 3.3529999 0.54799998
6.5409999 3.359 0.54500002
6.533 3.3789999 0.54500002
6.5219998 3.3970001 0.54500002
6.5170002 3.418 0.54500002
6.5310001 3.4489999 0.54699999
6.5650001 3.4909999 0.551
6.566 3.516 0.551
6.599 3.5569999 0.55500001
6.664 3.6170001 0.56099999
14.617 -6.829 1.2410001
14.636 -6.7950001 1.242
12.24 -5.5370002 1.038
12.267 -5.513 1.04
14.715 -6.5700002 1.248
14.73 -6.533 1.249
14.809 -6.5250001 1.255
14.797 -6.3439999 1.253
14.831 -6.3150001 1.256
14.935 -6.3150001 1.265
14.876 -6.2459998 1.2589999
14.904 -6.2140002 1.262
6.4219999 -2.5829999 0.54299998
6.3309999 -2.527 0.53500003
6.316 -2.5020001 0.53399998
6.329 -2.4890001 0.53500003
6.4050002 -2.5 0.54100001
6.4679999 -2.448 0.546
6.3299999 -2.378 0.53399998
6.2670002 -2.335 0.52899998
6.2579999 -2.3139999 0.528
6.2459998 -2.2909999 0.52700001
6.237 -2.2690001 0.52600002
6.2319999 -2.2490001 0.52499998
6.2150002 -2.224 0.52399999
6.2150002 -2.2060001 0.52399999
6.204 -2.184 0.523
6.1989999 -2.164 0.52200001
6.171 -2.1359999 0.51999998
6.1760001 -2.1199999 0.51999998
6.1820002 -2.1029999 0.51999998
6.1869998 -2.0869999 0.52100003
6.1929998 -2.0710001 0.52100003
6.184 -2.049 0.51999998
6.197 -2.036 0.52100003
6.1799998 -2.0120001 0.51999998
6.1929998 -1.998 0.52100003
6.2049999 -1.984 0.52200001
6.2129998 -1.9680001 0.52200001
6.244 -1.959 0.52499998
6.2750001 -1.951 0.52700001
6.316 -1.9450001 0.53100002
6.3759999 -1.9450001 0.53500003
6.3239999 -1.91 0.53100002
6.283 -1.88 0.52700001
6.2779999 -1.859 0.52700001
6.303 -1.848 0.52899998
6.3790002 -1.852 0.53500003
13.251 0.248 1.028
13.147 0.26100001 1.0190001
13.071 0.27399999 1.013
13.077 0.289 1.013
13.14 0.30500001 1.018
13.098 0.31999999 1.0140001
13.064 0.33500001 1.011
13.19 0.35499999 1.021
13.118 0.38600001 1.0140001
13.149 0.40400001 1.017
13.093 0.41999999 1.012
13.115 0.43900001 1.0140001
13.153 0.458 1.016
13.121 0.47499999 1.0140001
13.107 0.49399999 1.012
13.109 0.51300001 1.012
13.124 0.53299999 1.013
13.105 0.55199999 1.012
13.089 0.57099998 1.01
13.074 0.59100002 1.0089999
13.09 0.61199999 1.01
13.089 0.63300002 1.01
13.092 0.65399998 1.01
13.139 0.67799997 1.0140001
13.09 0.69700003 1.01
13.082 0.71899998 1.0089999
13.058 0.74000001 1.007
13.039 0.76099998 1.006
13.024 0.78299999 1.005
13.024 0.80599999 1.005
13.018 0.829 1.0039999
12.991 0.85100001 1.002
12.974 0.87400001 1.001
12.936 0.89499998 0.99800003
12.901 0.917 0.995
12.881 0.94 0.99400002
12.832 0.96100003 0.99000001
12.803 0.98400003 0.98799998
12.792 1.008 0.98699999
12.788 1.033 0.98699999
12.794 1.059 0.98799998
12.812 1.086 0.98900002
12.819 1.113 0.99000001
12.848 1.142 0.99199998
23.007 2.046 1.777
12.961 1.179 1.001
22.993999 2.0929999 1.777
12.909 1.202 0.99699998
22.986 2.1400001 1.776
12.998 1.238 1.005
23.077 2.198 1.784
12.992 1.265 1.0039999
23.200001 2.2590001 1.794
13.016 1.296 1.006
23.181 2.3080001 1.793
13.021 1.324 1.007
13.082 1.359 1.012
13.122 1.393 1.015
13.163 1.427 1.0190001
23.046 2.4979999 1.784
13.395 1.482 1.0369999
22.938999 2.5380001 1.776
22.919001 2.589 1.775
22.91 2.6400001 1.775
13.128 1.543 1.017
22.91 2.6930001 1.776
13.044 1.564 1.011
22.924 2.7490001 1.777
13.012 1.591 1.0089999
22.933001 2.8039999 1.779
13.053 1.627 1.013
22.938 2.859 1.78
13.315 1.691 1.033
22.948999 2.915 1.781
22.947001 2.97 1.7819999
22.948999 3.026 1.783
22.940001 3.0810001 1.783
22.940001 3.138 1.783
22.962 3.198 1.786
22.969999 3.257 1.7869999
22.979 3.316 1.789
23.021 3.3800001 1.793
22.985001 3.434 1.791
22.976999 3.4920001 1.791
22.976999 3.5510001 1.7920001
22.993999 3.6140001 1.794
22.996 3.675 1.795
22.983999 3.734 1.795
22.983 3.7950001 1.796
23.003 3.8599999 1.799
22.989 3.9200001 1.799
23.003 3.9849999 1.801
23.004 4.0479999 1.802
23.007 4.112 1.803
23.021 4.178 1.8049999
23.035999 4.2449999 1.808
23.065001 4.3140001 1.811
23.194 4.4039998 1.822
19.834999 4.645 1.575
19.664 4.665 1.563
19.462 4.678 1.548
19.361 4.7140002 1.541
19.393999 4.7820001 1.545
6.9499998 3.4200001 0.59899998
6.777 3.3629999 0.58499998
6.677 3.342 0.57700002
6.618 3.3399999 0.57300001
6.5669999 3.342 0.56900001
6.5419998 3.358 0.56800002
6.5289998 3.3789999 0.56800002
6.5180001 3.401 0.56699997
6.5240002 3.4319999 0.56900001
6.552 3.4749999 0.57200003
6.5669999 3.5120001 0.574
6.6129999 3.5650001 0.579
6.698 3.6400001 0.588
13.218 -8.6719999 1.176
13.289 -8.6370001 1.181
13.389 -8.6190004 1.189
13.429 -8.5620003 1.192
13.483 -8.5150003 1.1950001
13.518 -8.4560003 1.197
13.546 -8.3929996 1.199
13.624 -8.3610001 1.205
13.685 -8.3179998 1.209
13.728 -8.2639999 1.212
13.766 -8.2080002 1.214
13.818 -8.1610003 1.2180001
13.867 -8.1110001 1.221
14.133 -7.9549999 1.2410001
14.008 -7.8080001 1.229
14.156 -7.8150001 1.2410001
14.055 -7.6849999 1.232
14.177 -7.6760001 1.2410001
14.244 -7.638 1.2460001
14.237 -7.5609999 1.245
14.358 -7.5510001 1.255
14.34 -7.4689999 1.252
14.285 -7.368 1.247
14.317 -7.3119998 1.248
14.353 -7.2600002 1.251
14.376 -7.1999998 1.252
14.434 -7.158 1.256
14.499 -7.1199999 1.261
14.467 -7.0339999 1.258
14.505 -6.9840002 1.26
12.01 -5.7249999 1.043
12.015 -5.671 1.043
14.627 -6.836 1.268
14.689 -6.7969999 1.273
14.636 -6.704 1.268
14.675 -6.6550002 1.27
14.72 -6.6090002 1.274
14.773 -6.566 1.278
14.768 -6.4980001 1.276
14.824 -6.4569998 1.281
14.888 -6.4190001 1.285
14.931 -6.3730001 1.288
15.007 -6.3400002 1.294
14.983 -6.2649999 1.2920001
15.004 -6.21 1.293
6.4349999 -2.529 0.55299997
6.3390002 -2.4649999 0.54400003
6.3470001 -2.4419999 0.54500002
6.4759998 -2.4649999 0.55599999
6.3870001 -2.355 0.54699999
6.2820001 -2.2920001 0.53799999
6.25 -2.256 0.53500003
6.2420001 -2.2290001 0.53399998
6.224 -2.1989999 0.53200001
6.211 -2.1700001 0.53100002
6.2189999 -2.1489999 0.53100002
6.191 -2.1159999 0.52899998
6.1989999 -2.096 0.52899998
6.1919999 -2.0699999 0.528
6.1989999 -2.05 0.52899998
6.191 -2.0250001 0.528
6.1919999 -2.0020001 0.528
6.1989999 -1.982 0.528
6.211 -1.964 0.52899998
6.2449999 -1.952 0.53200001
6.2779999 -1.9400001 0.53399998
6.3520002 -1.9400001 0.54000002
6.3860002 -1.929 0.54299998
6.2810001 -1.875 0.53399998
6.2750001 -1.852 0.53299999
6.3499999 -1.852 0.54000002
12.905 0.198 1.0369999
12.896 0.22 1.036
12.919 0.244 1.038
12.946 0.26800001 1.04
12.931 0.29100001 1.039
12.944 0.315 1.039
12.98 0.34 1.0420001
12.995 0.36500001 1.043
12.998 0.38999999 1.043
13.021 0.41600001 1.045
13.013 0.44100001 1.044
12.994 0.46599999 1.043
13.026 0.493 1.045
13.026 0.51899999 1.045
13.03 0.546 1.045
13.041 0.57300001 1.046
13.028 0.60000002 1.045
13.048 0.62800002 1.0470001
13.041 0.65499997 1.046
13.039 0.68300003 1.046
13.028 0.70999998 1.045
13.03 0.73900002 1.045
13.011 0.76599997 1.043
13.02 0.79500002 1.044
13.005 0.82300001 1.043
12.982 0.85100001 1.041
12.964 0.87900001 1.04
12.913 0.90499997 1.036
12.881 0.93300003 1.033
12.836 0.95899999 1.03
12.796 0.986 1.027
12.759 1.013 1.024
12.765 1.044 1.024
12.789 1.077 1.027
12.797 1.108 1.027
12.815 1.141 1.029
12.856 1.176 1.0319999
12.967 1.2180001 1.041
23.177999 2.177 1.862
12.931 1.2460001 1.039
23.087 2.2249999 1.855
13.059 1.291 1.049
13.005 1.318 1.045
13.083 1.359 1.052
13.068 1.391 1.051
13.124 1.4299999 1.0549999
13.119 1.464 1.0549999
23.066 2.5739999 1.8559999
22.908001 2.615 1.844
22.896999 2.674 1.8430001
22.905001 2.7349999 1.844
13.11 1.599 1.056
22.902 2.7939999 1.845
13.063 1.628 1.052
22.914 2.8570001 1.846
13.109 1.669 1.056
22.916 2.918 1.847
22.921 2.98 1.848
22.913 3.0409999 1.848
22.931 3.105 1.85
22.931 3.168 1.851
22.934999 3.2309999 1.852
22.941 3.2950001 1.853
22.959 3.3610001 1.855
23.009001 3.4319999 1.86
22.969999 3.4909999 1.857
22.955999 3.553 1.857
22.969999 3.6199999 1.859
22.978001 3.687 1.86
22.976999 3.7520001 1.8609999
22.966 3.816 1.8609999
22.99 3.8859999 1.864
22.982 3.951 1.864
22.988001 4.0190001 1.865
22.992001 4.0869999 1.8660001
22.999001 4.1550002 1.868
22.997999 4.223 1.869
23.018 4.2940001 1.8710001
23.07 4.3730001 1.877
19.76 4.6539998 1.622
19.499001 4.6539998 1.601
19.406 4.6929998 1.595
19.49 4.7750001 1.603
7.0209999 3.477 0.61900002
6.8210001 3.4030001 0.602
6.6960001 3.365 0.59200001
6.6399999 3.3610001 0.588
6.579 3.355 0.583
6.5510001 3.3640001 0.58099997
6.5229998 3.3740001 0.57999998
6.5209999 3.3970001 0.57999998
6.5120001 3.4159999 0.57999998
6.5250001 3.4460001 0.58200002
6.5469999 3.4820001 0.58499998
6.553 3.5090001 0.58600003
6.598 3.5569999 0.59100002
6.697 3.635 0.60000002
10.95 7.198 1.026
10.893 7.198 1.023
6.4640002 -2.6010001 0.57599998
6.3610001 -2.5409999 0.56599998
6.3270001 -2.5079999 0.56300002
6.3249998 -2.4890001 0.56300002
6.381 -2.4920001 0.56800002
6.526 -2.529 0.58099997
6.4710002 -2.451 0.57499999
6.3390002 -2.382 0.56300002
6.2750001 -2.339 0.55800003
6.25 -2.312 0.55500001
6.2280002 -2.2850001 0.55299997
6.2210002 -2.2639999 0.55199999
6.2270002 -2.2479999 0.55299997
6.2210002 -2.227 0.55199999
6.2049999 -2.2030001 0.551
6.21 -2.187 0.551
6.1989999 -2.165 0.55000001
6.1810002 -2.1400001 0.54799998
6.1700001 -2.118 0.54699999
6.1789999 -2.1029999 0.54799998
6.1849999 -2.0869999 0.54799998
6.1869998 -2.0699999 0.54799998
6.1810002 -2.049 0.54799998
6.1859999 -2.033 0.54799998
6.1859999 -2.0150001 0.54799998
6.197 -2 0.54900002
6.2059999 -1.985 0.54900002
6.2220001 -1.972 0.551
6.2389998 -1.959 0.55199999
6.2800002 -1.9529999 0.55599999
6.3179998 -1.946 0.55900002
6.414 -1.957 0.56699997
6.3709998 -1.925 0.56300002
6.3099999 -1.888 0.55800003
6.2709999 -1.858 0.55400002
6.3109999 -1.851 0.55800003
6.3600001 -1.847 0.56199998
6.5679998 -1.888 0.57999998
13.099 -0.34799999 1.132
13.046 -0.30899999 1.127
13.033 -0.27200001 1.126
13.093 -0.235 1.131
13.274 -0.2 1.146
12.978 0.177 1.117
12.938 0.214 1.114
13.081 0.25400001 1.126
13.047 0.146 1.077
13.024 0.15700001 1.074
13.116 0.17 1.081
13.044 0.206 1.074
13.038 0.219 1.073
13.077 0.234 1.076
13.067 0.24699999 1.075
13.136 0.26300001 1.08
13.079 0.27599999 1.075
13.073 0.29100001 1.074
13.039 0.30500001 1.071
13.052 0.32100001 1.072
13.08 0.338 1.074
13.008 0.352 1.067
13 0.368 1.066
13.004 0.38499999 1.067
13.004 0.40200001 1.066
13.079 0.42199999 1.072
13.142 0.57499999 1.076
13.125 0.59500003 1.074
13.068 0.61299998 1.0700001
13.108 0.63499999 1.073
13.135 0.65799999 1.075
13.118 0.67799997 1.074
13.106 0.69999999 1.072
13.075 0.72000003 1.0700001
13.083 0.74299997 1.071
13.055 0.764 1.068
13.035 0.78500003 1.067
13.018 0.80699998 1.0650001
12.996 0.829 1.063
12.971 0.85100001 1.061
12.961 0.87400001 1.061
12.913 0.89499998 1.057
12.888 0.917 1.0549999
12.862 0.94 1.053
12.824 0.96200001 1.05
12.786 0.98400003 1.0470001
12.776 1.008 1.046
12.791 1.034 1.0470001
12.796 1.0599999 1.048
12.808 1.087 1.049
12.818 1.114 1.05
12.872 1.146 1.0549999
12.934 1.178 1.0599999
23.149 2.109 1.898
12.958 1.2079999 1.062
23.09 2.152 1.893
13.042 1.243 1.069
13.006 1.268 1.067
13.065 1.302 1.072
13.027 1.326 1.069
13.077 1.36 1.073
13.099 1.391 1.075
13.143 1.426 1.079
22.988001 2.494 1.888
13.252 1.467 1.089
22.895 2.5350001 1.881
22.879999 2.586 1.881
13.109 1.512 1.0779999
22.877001 2.638 1.881
13.166 1.549 1.0829999
22.882999 2.6919999 1.882
22.906 2.7479999 1.885
22.909 2.802 1.885
22.902 2.8559999 1.886
22.910999 2.9119999 1.887
22.907 2.967 1.887
22.923 3.0239999 1.8890001
22.91 3.079 1.8890001
22.921 3.1370001 1.891
22.931 3.1949999 1.893
22.92 3.2509999 1.892
22.943001 3.312 1.895
22.988001 3.3770001 1.9
22.957001 3.431 1.898
22.947001 3.4890001 1.898
22.948 3.5480001 1.899
22.954 3.609 1.901
22.968 3.6719999 1.903
22.979 3.734 1.905
22.98 3.796 1.906
22.976 3.8570001 1.9069999
22.957001 3.9159999 1.906
22.971001 3.98 1.909
22.971001 4.0430002 1.91
22.976 4.1069999 1.911
22.98 4.171 1.913
22.990999 4.237 1.915
22.997 4.303 1.9170001
23.000999 4.369 1.918
23.073 4.448 1.925
23.225 4.5430002 1.939
7.0440001 3.467 0.64499998
6.8260002 3.388 0.62599999
6.6929998 3.3499999 0.61500001
6.6269999 3.345 0.60900003
6.5749998 3.3469999 0.60600001
6.5419998 3.358 0.60299999
6.526 3.378 0.60299999
6.5180001 3.401 0.60299999
6.5219998 3.4319999 0.60399997
6.5419998 3.47 0.60699999
6.5640001 3.5109999 0.61000001
6.618 3.5680001 0.616
6.7820001 3.6860001 0.63300002
11.037 6.8959999 1.062
10.901 6.862 1.051
10.909 6.9180002 1.053
27.836 19.795 2.77
27.632 19.785999 2.7550001
27.444 19.787001 2.7409999
14.066 -8.967 1.313
14.058 -8.8769999 1.311
14.054 -8.79 1.3099999
14.059 -8.7089996 1.309
14.075 -8.6359997 1.3099999
14.132 -8.5889997 1.314
14.189 -8.5410004 1.318
14.241 -8.4899998 1.322
14.291 -8.4390001 1.325
14.407 -8.4259996 1.335
14.519 -8.4110003 1.344
14.57 -8.3590002 1.348
14.497 -8.1590004 1.339
14.559 -8.1149998 1.344
14.637 -8.0799999 1.35
6.362 -2.474 0.57499999
6.336 -2.438 0.57200003
6.3870001 -2.4319999 0.57599998
6.5749998 -2.477 0.59299999
6.4520001 -2.3789999 0.58099997
6.2989998 -2.2980001 0.56699997
6.2540002 -2.257 0.56300002
6.2399998 -2.2279999 0.56199998
6.2350001 -2.2019999 0.56099999
6.223 -2.174 0.56
6.2069998 -2.145 0.55800003
6.1900001 -2.1159999 0.55599999
6.1789999 -2.089 0.55500001
6.197 -2.072 0.55599999
6.1900001 -2.0469999 0.55500001
6.1890001 -2.0239999 0.55500001
6.1890001 -2.0009999 0.55500001
6.21 -1.9859999 0.55699998
6.223 -1.967 0.55800003
6.2509999 -1.954 0.56
6.2870002 -1.943 0.56300002
6.3779998 -1.949 0.57099998
6.3839998 -1.928 0.57099998
6.2880001 -1.877 0.56199998
6.2870002 -1.855 0.56199998
6.3649998 -1.8559999 0.56900001
12.98 -0.35299999 1.1440001
12.938 -0.331 1.141
12.883 -0.308 1.136
12.821 -0.285 1.13
12.784 -0.264 1.127
12.762 -0.242 1.125
12.761 -0.222 1.125
12.758 -0.20100001 1.125
12.765 -0.18099999 1.126
12.792 -0.162 1.128
12.805 -0.142 1.1289999
12.877 -0.123 1.136
13.087 -0.105 1.155
12.851 0.199 1.0930001
12.873 0.222 1.095
12.872 0.245 1.095
12.893 0.26800001 1.096
12.881 0.292 1.095
12.894 0.31600001 1.096
12.926 0.34099999 1.098
12.979 0.366 1.103
13.044 0.39300001 1.108
13.085 0.41999999 1.1109999
13.113 0.44600001 1.114
13.154 0.47299999 1.117
13.103 0.498 1.113
13.035 0.52100003 1.107
13.019 0.54699999 1.105
13.028 0.574 1.1059999
13.053 0.602 1.108
13.04 0.62900001 1.107
13.05 0.65700001 1.108
13.072 0.68599999 1.11
13.048 0.713 1.108
13.061 0.74199998 1.109
13.03 0.76899999 1.1059999
13.013 0.796 1.105
13.008 0.82499999 1.104
12.961 0.85100001 1.101
12.957 0.88 1.1
12.931 0.90799999 1.098
12.897 0.935 1.095
12.865 0.963 1.0930001
12.824 0.99000001 1.089
12.78 1.016 1.086
12.772 1.046 1.085
12.797 1.0779999 1.0880001
12.811 1.11 1.089
12.829 1.143 1.091
12.883 1.179 1.095
12.929 1.215 1.099
12.966 1.251 1.103
13.033 1.29 1.109
13.031 1.322 1.109
13.041 1.3559999 1.11
13.05 1.39 1.1109999
13.07 1.426 1.113
13.103 1.4630001 1.1160001
22.955 2.563 1.956
13.182 1.506 1.123
22.872999 2.6129999 1.949
13.189 1.541 1.124
22.858999 2.671 1.948
13.028 1.556 1.1109999
22.846001 2.7290001 1.948
13.137 1.604 1.12
22.872 2.793 1.951
13.183 1.6440001 1.124
22.871 2.8529999 1.951
22.882999 2.915 1.9529999
22.886999 2.977 1.954
22.882999 3.0380001 1.954
22.886999 3.1010001 1.955
22.898001 3.165 1.957
22.892 3.227 1.957
22.91 3.2920001 1.959
22.910999 3.3559999 1.96
22.951 3.425 1.964
22.93 3.4860001 1.9630001
22.927 3.55 1.964
22.938 3.6170001 1.966
22.954 3.684 1.9680001
22.948999 3.7490001 1.9680001
22.950001 3.8150001 1.969
22.951 3.881 1.97
22.945999 3.9460001 1.971
22.959999 4.0149999 1.973
22.979 4.086 1.976
22.972 4.152 1.976
22.962999 4.2179999 1.976
22.98 4.289 1.979
22.993999 4.3600001 1.9809999
23.01 4.4310002 1.983
23.068001 4.5120001 1.99
23.198999 4.6069999 2.0020001
6.8920002 3.4389999 0.64499998
6.717 3.3759999 0.63
6.6409998 3.362 0.62300003
6.5929999 3.362 0.62
6.5599999 3.369 0.61699998
6.539 3.3829999 0.616
6.5240002 3.3989999 0.616
6.5079999 3.414 0.61500001
6.507 3.437 0.616
6.5349998 3.4760001 0.61900002
6.5630002 3.5150001 0.62300003
6.6110001 3.5650001 0.62800002
6.7880001 3.6849999 0.64600003
11.288 6.7839999 1.097
11.212 6.7789998 1.092
11.184 6.802 1.09
11.169 6.8330002 1.091
11.189 6.8850002 1.094
10.868 7.1459999 1.081
10.797 7.1370001 1.076
10.905 7.2449999 1.0880001
6.5110002 -2.6210001 0.60900003
6.3530002 -2.539 0.59399998
6.3189998 -2.506 0.59100002
6.3109999 -2.4849999 0.58999997
6.323 -2.471 0.59100002
6.3909998 -2.4779999 0.597
6.4959998 -2.5 0.60699999
6.4039998 -2.4070001 0.59799999
6.302 -2.3499999 0.588
6.2589998 -2.316 0.58399999
6.2399998 -2.29 0.58200002
6.2259998 -2.267 0.58099997
6.2319999 -2.2509999 0.58099997
6.224 -2.2290001 0.57999998
6.2020001 -2.2030001 0.57800001
6.2080002 -2.187 0.579
6.1939998 -2.164 0.57700002
6.1659999 -2.1359999 0.57499999
6.171 -2.1199999 0.57499999
6.1739998 -2.102 0.57499999
6.1760001 -2.085 0.57499999
6.2010002 -2.075 0.57700002
6.178 -2.049 0.57499999
6.1989999 -2.0380001 0.57700002
6.2059999 -2.0220001 0.57700002
6.2090001 -2.0050001 0.57800001
6.2150002 -1.988 0.57800001
6.2340002 -1.976 0.57999998
6.2509999 -1.9630001 0.58099997
6.2639999 -1.949 0.58200002
6.303 -1.942 0.58600003
6.3769999 -1.946 0.59200001
6.4619999 -1.9529999 0.60000002
6.3330002 -1.896 0.588
6.296 -1.8660001 0.58499998
6.2880001 -1.845 0.58399999
6.3330002 -1.84 0.588
6.4330001 -1.85 0.597
13.013 -0.45699999 1.182
12.883 -0.41499999 1.17
12.8 -0.375 1.1619999
12.745 -0.33700001 1.1569999
12.715 -0.30000001 1.154
12.701 -0.26300001 1.152
12.708 -0.226 1.152
12.726 -0.19 1.154
12.739 -0.153 1.155
12.802 -0.117 1.16
12.967 -0.081 1.175
13.072 0.17200001 1.1390001
13.063 0.184 1.138
13.076 0.19599999 1.138
13.086 0.20900001 1.1390001
13.069 0.222 1.137
13.032 0.235 1.133
13.066 0.249 1.136
13.041 0.26300001 1.133
13.089 0.27900001 1.137
13.032 0.292 1.132
13.049 0.308 1.133
13.026 0.32300001 1.13
13.001 0.338 1.128
12.946 0.352 1.123
12.883 0.36700001 1.117
12.864 0.38299999 1.115
12.846 0.39899999 1.114
12.861 0.417 1.115
12.911 0.43599999 1.119
12.983 0.456 1.125
13.271 0.523 1.149
13.203 0.54000002 1.143
13.2 0.55900002 1.143
13.125 0.57599998 1.136
13.126 0.59600002 1.136
13.084 0.61500001 1.132
13.035 0.634 1.128
13.034 0.65399998 1.128
13.051 0.67699999 1.1289999
13.089 0.69999999 1.132
13.097 0.72299999 1.133
13.1 0.745 1.133
13.072 0.76599997 1.131
13.054 0.78799999 1.1289999
13.026 0.80900002 1.127
13.017 0.83200002 1.126
12.98 0.85299999 1.123
12.952 0.875 1.1210001
12.926 0.89700001 1.119
12.909 0.92000002 1.117
12.905 0.94400001 1.117
12.885 0.96799999 1.115
12.88 0.99199998 1.115
12.896 1.0190001 1.117
12.903 1.045 1.117
12.913 1.071 1.118
12.921 1.098 1.119
12.939 1.126 1.1210001
12.933 1.152 1.1210001
12.963 1.182 1.124
13.014 1.214 1.128
13.009 1.2410001 1.128
12.986 1.267 1.126
13.04 1.3 1.131
13.064 1.331 1.1339999
13.069 1.36 1.1339999
13.085 1.391 1.136
23.000999 2.4460001 1.997
13.144 1.427 1.142
22.872999 2.483 1.987
13.212 1.464 1.148
22.847 2.5320001 1.985
13.197 1.492 1.147
22.847 2.5840001 1.9859999
13.1 1.512 1.1390001
22.868 2.6389999 1.988
13.097 1.5420001 1.1390001
22.853001 2.6900001 1.988
13.115 1.574 1.141
22.865 2.7449999 1.99
13.283 1.626 1.156
22.851 2.7969999 1.989
22.867001 2.8529999 1.9910001
22.868 2.908 1.992
22.870001 2.964 1.993
22.896 3.023 1.9960001
22.895 3.079 1.997
22.888 3.1340001 1.997
22.895 3.1919999 1.999
22.893 3.2490001 1.999
22.914 3.3099999 2.0020001
22.948999 3.3729999 2.006
22.947001 3.431 2.007
22.923 3.487 2.006
22.921 3.546 2.007
22.941 3.609 2.0090001
22.944 3.6700001 2.0109999
22.940001 3.73 2.0120001
22.947001 3.7920001 2.013
22.943001 3.8529999 2.0139999
22.943001 3.914 2.0150001
22.943001 3.977 2.016
22.955999 4.0419998 2.0190001
22.958 4.105 2.02
22.972 4.171 2.023
22.959 4.2329998 2.023
22.959 4.2969999 2.0239999
22.976 4.3649998 2.027
22.982 4.4310002 2.029
22.979 4.4959998 2.03
23.018999 4.5700002 2.0350001
23.027 4.638 2.0369999
23.048 4.7090001 2.04
23.058001 4.7789998 2.043
23.059 4.8470001 2.0439999
23.087 4.921 2.0480001
6.8709998 3.411 0.667
6.7150002 3.362 0.653
6.6290002 3.3469999 0.64600003
6.5830002 3.352 0.64200002
6.5500002 3.362 0.63999999
6.5229998 3.3770001 0.63800001
6.5139999 3.4000001 0.63800001
6.5139999 3.428 0.639
6.5250001 3.4619999 0.64099997
6.572 3.5150001 0.64700001
6.6680002 3.596 0.65799999
11.353 6.3720002 1.1289999
11.259 6.369 1.122
11.217 6.395 1.12
11.189 6.4299998 1.119
11.171 6.4689999 1.119
11.195 6.5339999 1.123
28.329 19.594 2.964
28.197001 19.641001 2.9560001
28.004 19.643 2.941
27.927999 19.728001 2.9389999
27.76 19.745001 2.927
27.620001 19.782 2.9170001
27.372 19.74 2.8970001
6.4120002 -2.493 0.60799998
6.3369999 -2.438 0.60000002
6.348 -2.4170001 0.60100001
6.4000001 -2.411 0.60600001
6.579 -2.4519999 0.62199998
6.3590002 -2.3199999 0.60100001
6.2859998 -2.2690001 0.59399998
6.2519999 -2.2320001 0.58999997
6.237 -2.2030001 0.58899999
6.21 -2.1700001 0.58600003
6.2059999 -2.145 0.58499998
6.1739998 -2.1099999 0.58200002
6.1669998 -2.085 0.58099997
6.1880002 -2.069 0.583
6.1880002 -2.046 0.583
6.1939998 -2.026 0.583
6.204 -2.006 0.58399999
6.2140002 -1.987 0.58399999
6.2309999 -1.97 0.58600003
6.2529998 -1.954 0.588
6.2729998 -1.939 0.58899999
6.3790002 -1.949 0.59899998
6.4650002 -1.952 0.60699999
6.3119998 -1.8839999 0.59200001
6.2820001 -1.854 0.58899999
6.3449998 -1.851 0.59500003
6.6020002 -1.903 0.61900002
13.002 -0.375 1.202
12.883 -0.34999999 1.191
12.836 -0.32699999 1.187
12.757 -0.30399999 1.1799999
12.719 -0.28200001 1.176
12.694 -0.26100001 1.174
12.702 -0.241 1.175
12.688 -0.22 1.174
12.688 -0.2 1.174
12.694 -0.18000001 1.174
12.703 -0.16 1.175
12.731 -0.141 1.178
12.76 -0.121 1.181
12.853 -0.102 1.189
13.06 -0.083999999 1.209
12.852 0.20100001 1.154
12.873 0.22400001 1.155
12.84 0.24600001 1.152
12.842 0.26899999 1.152
12.801 0.292 1.148
12.817 0.31600001 1.15
12.831 0.34 1.151
12.861 0.36500001 1.153
12.93 0.391 1.159
13.027 0.41999999 1.168
13.12 0.44800001 1.176
13.104 0.47299999 1.174
13.091 0.49900001 1.173
13.042 0.523 1.169
13.051 0.55000001 1.169
13.02 0.57499999 1.1670001
13.023 0.60299999 1.1670001
13.011 0.62900001 1.166
13.045 0.65799999 1.169
13.044 0.68599999 1.169
13.075 0.71600002 1.171
13.064 0.74400002 1.171
13.056 0.77200001 1.17
13.05 0.80000001 1.169
13.021 0.82700002 1.1670001
13.001 0.85500002 1.165
12.961 0.88200003 1.1619999
12.923 0.90899998 1.158
12.905 0.93699998 1.1569999
12.897 0.96600002 1.156
12.887 0.99599999 1.155
12.888 1.026 1.156
12.911 1.059 1.158
12.917 1.09 1.159
12.924 1.1210001 1.159
12.938 1.154 1.161
12.95 1.187 1.1619999
12.96 1.219 1.163
13.002 1.255 1.1670001
12.992 1.2869999 1.1670001
13.004 1.321 1.168
13.064 1.36 1.174
13.056 1.392 1.173
13.091 1.429 1.177
22.959 2.507 2.0639999
13.133 1.467 1.181
22.856001 2.5539999 2.0550001
13.245 1.5140001 1.191
22.825001 2.6099999 2.053
13.216 1.545 1.189
22.820999 2.6689999 2.053
13.151 1.572 1.183
22.853001 2.7320001 2.0569999
13.15 1.6059999 1.184
22.84 2.7909999 2.056
22.848 2.852 2.0580001
22.841999 2.9119999 2.0580001
22.849001 2.974 2.059
22.849001 3.036 2.0599999
22.867001 3.0999999 2.062
22.862 3.161 2.063
22.868999 3.2249999 2.0639999
22.872 3.2880001 2.0650001
22.886 3.3540001 2.0669999
22.924 3.4230001 2.0710001
22.903 3.484 2.0699999
22.896999 3.5469999 2.0710001
22.905001 3.6129999 2.072
22.924 3.681 2.075
22.926001 3.747 2.076
22.934999 3.8139999 2.0780001
22.931 3.8789999 2.079
22.919001 3.9430001 2.0780001
22.943001 4.0139999 2.082
22.943001 4.0809999 2.0829999
22.952 4.1500001 2.085
22.943001 4.2160001 2.085
22.958 4.2859998 2.0869999
22.972 4.3569999 2.0899999
22.972 4.4250002 2.0910001
22.969999 4.494 2.092
22.995001 4.5679998 2.095
22.99 4.6360002 2.096
23.004 4.7080002 2.099
