# .PCD v0.7 - Point Cloud Data file format
VERSION 0.7
FIELDS x y z
SIZE 4 4 4
TYPE F F F
COUNT 1 1 1
WIDTH 1820
HEIGHT 1
VIEWPOINT 0 0 0 1 0 0 0
POINTS 1820
DATA ascii
11.468 -4.5949998 0.60699999
11.529 -4.586 0.61000001
11.632 -4.5929999 0.61500001
11.622 -4.5549998 0.61500001
11.614 -4.5170002 0.61400002
11.673 -4.507 0.61699998
11.614 -4.4499998 0.61400002
11.636 -4.4239998 0.61500001
11.687 -4.4089999 0.61799997
11.694 -4.3779998 0.61799997
11.737 -4.3600001 0.62
11.772 -4.3379998 0.62199998
11.799 -4.3140001 0.62300003
11.811 -4.283 0.62400001
11.836 -4.2579999 0.625
11.858 -4.2309999 0.62599999
11.885 -4.2059999 0.62800002
11.902 -4.177 0.62800002
11.914 -4.1469998 0.62900001
11.94 -4.1209998 0.63
12.009 -4.1100001 0.634
12.002 -4.072 0.63300002
12.05 -4.053 0.63599998
12.148 -4.0510001 0.64099997
12.156 -4.0180001 0.64099997
12.218 -4.0029998 0.64399999
12.233 -3.9719999 0.64499998
12.301 -3.9579999 0.64899999
13.363 -3.717 0.70300001
13.362 -3.678 0.70300001
13.424 -3.6559999 0.70599997
13.379 -3.605 0.704
13.365 -3.562 0.70300001
13.422 -3.5380001 0.70599997
13.527 -3.527 0.71100003
13.508 -3.4430001 0.70999998
13.534 -3.411 0.71100003
13.567 -3.3800001 0.713
13.616 -3.3529999 0.71499997
13.693 -3.332 0.71899998
13.708 -3.296 0.72000003
13.787 -3.2750001 0.72399998
13.778 -3.233 0.72299999
13.785 -3.194 0.72299999
13.795 -3.1570001 0.72399998
13.863 -3.1329999 0.727
13.903 -3.1010001 0.72899997
13.912 -3.063 0.73000002
13.912 -3.023 0.73000002
13.949 -2.99 0.73100001
13.963 -2.9530001 0.73199999
14.025 -2.9260001 0.73500001
14.1 -2.901 0.73900002
14.153 -2.8710001 0.74199998
14.193 -2.8380001 0.74400002
14.21 -2.8 0.74400002
14.329 -2.783 0.75
14.442 -2.763 0.75599998
12.842 -2.3829999 0.67199999
12.806 -2.339 0.67000002
12.811 -2.303 0.67000002
12.864 -2.2750001 0.67299998
13.03 -2.267 0.68099999
12.918 -2.062 0.67500001
12.864 -2.016 0.67199999
12.855 -1.978 0.671
12.887 -1.946 0.67299998
12.965 -1.92 0.67699999
9.1190004 -0.64399999 0.47400001
9.0369997 -0.61199999 0.46900001
9.0080004 -0.58399999 0.46799999
9.0190001 -0.55900002 0.46799999
8.9860001 -0.53100002 0.46599999
8.9060001 -0.50099999 0.46200001
8.8509998 -0.47299999 0.45899999
8.8299999 -0.44600001 0.458
8.8319998 -0.421 0.458
8.849 -0.39700001 0.45899999
8.8909998 -0.373 0.461
8.9879999 -0.35100001 0.46599999
13.062 0.198 0.67400002
12.871 0.23199999 0.66399997
12.826 0.26800001 0.66100001
12.801 0.30399999 0.66000003
12.806 0.34099999 0.66000003
12.806 0.377 0.66000003
12.82 0.41499999 0.66100001
12.81 0.45100001 0.66000003
12.808 0.48699999 0.66000003
12.815 0.52399999 0.66000003
12.829 0.56199998 0.66000003
12.819 0.59799999 0.66000003
12.823 0.63499999 0.66000003
12.827 0.67199999 0.66000003
12.836 0.70899999 0.66000003
12.847 0.74599999 0.66100001
12.869 0.78500003 0.66100001
12.874 0.82200003 0.662
12.881 0.85900003 0.662
12.858 0.89399999 0.66000003
12.646 0.12 0.56699997
12.643 0.131 0.56599998
12.643 0.14300001 0.56599998
12.658 0.155 0.56599998
12.65 0.168 0.56599998
12.646 0.18000001 0.565
12.652 0.193 0.565
12.649 0.207 0.565
12.651 0.22 0.56400001
12.648 0.234 0.56400001
12.654 0.249 0.56400001
12.65 0.26300001 0.56400001
12.648 0.278 0.56300002
12.654 0.29300001 0.56300002
12.652 0.30899999 0.56300002
12.643 0.32499999 0.56199998
12.651 0.34099999 0.56199998
12.646 0.35699999 0.56199998
12.657 0.37400001 0.56199998
12.648 0.391 0.56199998
12.656 0.40900001 0.56199998
12.655 0.42699999 0.56199998
12.649 0.44400001 0.56099999
12.658 0.463 0.56099999
12.663 0.48199999 0.56099999
12.662 0.50099999 0.56099999
12.667 0.51999998 0.56099999
12.66 0.53899997 0.56099999
12.668 0.55900002 0.56099999
12.665 0.579 0.56099999
12.67 0.60000002 0.56099999
12.671 0.62099999 0.56099999
12.668 0.64099997 0.56099999
12.7 0.66399997 0.56199998
12.754 0.68900001 0.56400001
12.853 0.71600002 0.56800002
12.89 0.741 0.56999999
12.886 0.76300001 0.56999999
12.879 0.78600001 0.56900001
12.882 0.80900002 0.56900001
12.873 0.83200002 0.56900001
12.859 0.85500002 0.56800002
12.819 0.87599999 0.56599998
12.819 0.90100002 0.56599998
12.809 0.92400002 0.56599998
12.805 0.949 0.56599998
12.799 0.97299999 0.565
12.803 0.99900001 0.56599998
12.805 1.025 0.56599998
12.815 1.051 0.56599998
12.815 1.077 0.56599998
12.842 1.1059999 0.56699997
12.867 1.135 0.56800002
12.889 1.164 0.56900001
12.884 1.191 0.56900001
12.938 1.223 0.57200003
12.951 1.253 0.57200003
12.976 1.283 0.57300001
12.988 1.313 0.574
19.455 1.967 0.86000001
13.012 1.344 0.57499999
19.322001 1.9960001 0.85399997
13.056 1.378 0.57700002
19.422001 2.05 0.85900003
13.097 1.4119999 0.579
19.322001 2.0829999 0.85399997
13.15 1.447 0.58099997
19.358 2.131 0.85600001
13.142 1.477 0.58099997
19.492001 2.1900001 0.86199999
13.118 1.5039999 0.57999998
19.447001 2.23 0.86000001
13.004 1.521 0.57499999
13.012 1.553 0.57599998
19.378 2.313 0.85799998
13.071 1.591 0.57800001
19.389999 2.3599999 0.85799998
19.396999 2.4070001 0.85900003
19.351 2.448 0.85699999
19.378 2.4979999 0.85799998
19.462 2.5569999 0.86199999
19.441 2.602 0.86199999
19.469 2.654 0.86299998
19.549999 2.714 0.86699998
19.649 2.777 0.87099999
13.025 1.873 0.57800001
19.613001 2.8210001 0.87
13.111 1.919 0.58200002
19.662001 2.878 0.87300003
19.698999 2.934 0.87400001
19.728001 2.99 0.87599999
19.796 3.052 0.87900001
19.818001 3.1070001 0.88099998
19.819 3.1589999 0.88099998
19.877001 3.221 0.884
12.122 1.997 0.53899997
11.959 2.0020001 0.53200001
11.892 2.023 0.52899998
11.869 2.052 0.528
11.797 2.072 0.52499998
11.69 2.085 0.52100003
11.666 2.1129999 0.51999998
11.642 2.141 0.51899999
11.666 2.178 0.52100003
11.692 2.2160001 0.52200001
11.803 2.2709999 0.52700001
21.868 4.7839999 0.98199999
21.844 4.8439999 0.98100001
21.721001 4.882 0.97600001
21.658001 4.934 0.97399998
19.690001 5.2290001 0.89300001
19.620001 5.2740002 0.88999999
13.064 3.5539999 0.59299999
19.629999 5.3410001 0.89099997
12.73 3.5050001 0.57800001
12.56 3.5 0.57099998
12.456 3.5120001 0.56699997
12.425 3.5450001 0.56599998
12.411 3.582 0.56599998
12.451 3.635 0.56800002
18.055 5.2719998 0.824
12.665 3.7409999 0.57800001
17.782 5.2519999 0.81199998
17.655001 5.2740002 0.80699998
17.663 5.3369999 0.80800003
14.962 5.756 0.699
14.715 5.7160001 0.68800002
14.654 5.7480001 0.68599999
14.717 5.829 0.69
14.598 5.8369999 0.685
10.983 6.96 0.55500001
10.873 6.941 0.551
10.831 6.9650002 0.55000001
10.79 6.9889998 0.54799998
10.761 7.0219998 0.54799998
10.73 7.052 0.54699999
10.711 7.0910001 0.54699999
10.691 7.1279998 0.54699999
10.679 7.171 0.54699999
10.633 7.1919999 0.546
10.61 7.2270002 0.546
10.584 7.2600002 0.54500002
10.56 7.2950001 0.54500002
10.543 7.335 0.54500002
10.508 7.362 0.54400003
10.49 7.4000001 0.54400003
10.463 7.4320002 0.54400003
10.438 7.4660001 0.54299998
10.405 7.494 0.542
9.8059998 -6.4429998 0.55299997
9.8579998 -6.415 0.55500001
9.9180002 -6.3920002 0.55800003
9.9359999 -6.3429999 0.55900002
9.9809999 -6.3109999 0.56099999
10.041 -6.289 0.56400001
10.057 -6.2389998 0.56400001
10.107 -6.21 0.56599998
10.131 -6.165 0.56699997
10.164 -6.1259999 0.56900001
10.18 -6.0770001 0.56900001
10.203 -6.0320001 0.56999999
10.249 -6.0019999 0.57200003
10.277 -5.961 0.57300001
10.311 -5.9229999 0.57499999
10.346 -5.8860002 0.57599998
10.356 -5.835 0.57700002
10.415 -5.8119998 0.57999998
10.458 -5.7800002 0.58200002
10.537 -5.7670002 0.58600003
10.546 -5.717 0.58600003
10.539 -5.6570001 0.58499998
10.561 -5.6139998 0.58600003
10.607 -5.5840001 0.588
10.621 -5.5370002 0.588
10.659 -5.5029998 0.58999997
10.694 -5.467 0.59200001
10.73 -5.4320002 0.59299999
10.765 -5.3959999 0.59500003
10.799 -5.3610001 0.59600002
10.831 -5.323 0.59799999
10.832 -5.2719998 0.59799999
10.925 -5.2649999 0.602
10.937 -5.2179999 0.60299999
10.953 -5.1739998 0.60299999
10.999 -5.1440001 0.60500002
11.013 -5.0999999 0.60600001
11.068 -5.0739999 0.60900003
11.104 -5.04 0.61000001
11.13 -5.0009999 0.611
11.149 -4.9590001 0.61199999
11.196 -4.9299998 0.61400002
11.228 -4.8940001 0.616
11.243 -4.8509998 0.616
11.3 -4.8260002 0.61900002
11.359 -4.802 0.62199998
11.36 -4.7529998 0.62199998
11.375 -4.711 0.62199998
11.439 -4.6890001 0.62599999
11.496 -4.664 0.62900001
11.5 -4.6170001 0.62800002
11.564 -4.5949998 0.63200003
11.585 -4.5549998 0.63300002
11.66 -4.5370002 0.63599998
11.712 -4.5089998 0.639
11.759 -4.48 0.64099997
11.742 -4.4260001 0.63999999
11.81 -4.4050002 0.64399999
11.826 -4.3639998 0.64399999
11.863 -4.3309999 0.64600003
11.917 -4.3039999 0.64899999
11.979 -4.2800002 0.65200001
11.965 -4.2290001 0.65100002
12.017 -4.2010002 0.653
12.111 -4.1880002 0.65799999
12.192 -4.1700001 0.662
12.237 -4.1389999 0.66500002
12.306 -4.1170001 0.66799998
12.524 -4.1440001 0.68000001
13.397 -3.8629999 0.72399998
13.495 -3.845 0.73000002
13.406 -3.7750001 0.72399998
13.398 -3.727 0.72399998
13.513 -3.7149999 0.73000002
13.53 -3.674 0.73100001
13.665 -3.6659999 0.73799998
13.756 -3.5569999 0.74199998
13.724 -3.5039999 0.74000001
13.791 -3.4779999 0.74400002
13.813 -3.4400001 0.745
13.913 -3.3770001 0.75
13.916 -3.335 0.75
13.998 -3.312 0.75400001
14 -3.2690001 0.75400001
14.018 -3.2309999 0.755
14.042 -3.194 0.75599998
14.071 -3.158 0.75700003
14.172 -3.1389999 0.76200002
14.203 -3.1029999 0.764
14.221 -3.0650001 0.76499999
14.33 -3.0469999 0.76999998
14.367 -3.013 0.77200001
14.348 -2.9679999 0.77100003
14.418 -2.941 0.77499998
14.395 -2.895 0.773
14.459 -2.8670001 0.77700001
14.578 -2.849 0.78299999
14.574 -2.8080001 0.78299999
12.987 -2.4660001 0.69700003
12.805 -2.3959999 0.68699998
12.799 -2.359 0.68699998
12.793 -2.323 0.68699998
12.838 -2.2969999 0.68900001
12.948 -2.2809999 0.69499999
12.919 -2.072 0.69300002
12.85 -2.0280001 0.68900001
12.848 -1.995 0.68900001
12.851 -1.962 0.68900001
12.886 -1.9349999 0.69
12.984 -1.9170001 0.69599998
9.2250004 -0.56699997 0.493
9.1040001 -0.542 0.48699999
9.0369997 -0.52100003 0.48300001
9.0279999 -0.50300002 0.48300001
9.0190001 -0.486 0.48199999
9 -0.46799999 0.48100001
8.9519997 -0.449 0.479
8.9029999 -0.43000001 0.47600001
8.8739996 -0.41299999 0.47499999
8.8660002 -0.396 0.47400001
8.8459997 -0.37900001 0.47299999
8.8400002 -0.36300001 0.47299999
8.8310003 -0.347 0.47299999
8.8629999 -0.333 0.47400001
8.8889999 -0.31799999 0.47600001
8.9490004 -0.30500001 0.479
9.1370001 -0.296 0.48899999
12.918 0.082000002 0.69400001
12.846 0.098999999 0.69
12.824 0.117 0.68900001
12.821 0.134 0.68900001
12.832 0.152 0.68900001
12.835 0.169 0.69
12.853 0.186 0.69099998
12.861 0.20299999 0.69099998
12.868 0.22 0.69199997
12.867 0.236 0.69199997
12.887 0.25299999 0.69300002
12.894 0.27000001 0.69400001
12.884 0.28600001 0.69300002
12.907 0.30199999 0.69400001
12.925 0.31799999 0.69599998
12.939 0.33399999 0.69599998
12.977 0.35100001 0.699
13.023 0.368 0.70099998
13.038 0.384 0.70200002
13.091 0.40000001 0.70499998
13.125 0.417 0.70700002
13.154 0.433 0.70899999
12.629 0.18000001 0.59899998
12.651 0.20299999 0.60000002
12.655 0.226 0.60000002
12.652 0.249 0.59899998
12.654 0.27200001 0.59899998
12.649 0.296 0.59899998
12.666 0.31999999 0.60000002
12.66 0.34400001 0.59899998
12.662 0.368 0.59899998
12.652 0.39199999 0.59799999
12.659 0.41800001 0.59899998
12.662 0.44299999 0.59899998
12.659 0.46799999 0.59799999
12.669 0.49399999 0.59899998
12.671 0.51999998 0.59899998
12.673 0.546 0.59899998
12.666 0.57200003 0.59799999
12.677 0.60000002 0.59899998
12.675 0.62699997 0.59799999
12.682 0.65399998 0.59899998
12.706 0.68300003 0.60000002
12.76 0.71399999 0.602
12.879 0.74900001 0.60799998
12.893 0.778 0.60799998
12.873 0.80599999 0.60699999
12.876 0.83499998 0.60699999
12.862 0.86299998 0.60699999
12.84 0.89099997 0.60600001
12.807 0.91900003 0.60399997
12.797 0.94800001 0.60399997
12.782 0.97600001 0.60299999
12.765 1.005 0.602
12.774 1.0369999 0.602
12.79 1.068 0.60299999
12.782 1.099 0.60299999
12.809 1.132 0.60399997
12.812 1.164 0.60399997
12.856 1.2 0.60600001
12.89 1.235 0.60799998
12.91 1.2690001 0.60900003
12.939 1.304 0.61000001
19.341999 1.95 0.91299999
12.953 1.339 0.611
19.372 2.0020001 0.91399997
12.962 1.373 0.611
19.378 2.052 0.91399997
12.988 1.409 0.61299998
19.423 2.1070001 0.917
13.04 1.448 0.61500001
19.344 2.148 0.91299999
13.076 1.4859999 0.61699998
19.4 2.2049999 0.91600001
13.125 1.526 0.61900002
19.478001 2.2639999 0.92000002
13.103 1.558 0.61799997
19.483 2.316 0.92000002
13.064 1.587 0.61699998
19.65 2.388 0.92799997
13.036 1.619 0.61500001
19.566 2.4300001 0.92400002
13.091 1.661 0.61799997
19.604 2.487 0.926
19.597 2.539 0.926
19.743 2.6110001 0.93300003
19.715 2.661 0.93199998
19.724001 2.7160001 0.93199998
19.809999 2.7820001 0.93699998
19.997999 2.8640001 0.94599998
13.104 1.913 0.62
19.999001 2.9189999 0.94599998
13.025 1.937 0.616
20.006001 2.9760001 0.94700003
19.989 3.03 0.94599998
19.989 3.086 0.94599998
20.035 3.1500001 0.949
20.011999 3.2030001 0.94800001
20.183001 3.2880001 0.95599997
20.471001 3.3940001 0.97000003
11.973 2.0190001 0.56699997
11.884 2.039 0.56300002
11.848 2.0669999 0.56199998
11.773 2.0880001 0.55800003
11.677 2.1059999 0.55400002
11.643 2.1340001 0.55299997
11.651 2.1700001 0.55299997
11.686 2.211 0.55500001
11.774 2.263 0.55900002
21.757 4.2470002 1.035
21.688 4.2989998 1.0319999
21.775999 4.382 1.036
21.875999 4.6700001 1.043
21.756001 4.711 1.0369999
21.687 4.7639999 1.035
21.698999 4.8340001 1.036
21.722 4.9060001 1.0369999
19.841999 5.112 0.95200002
19.674 5.132 0.94499999
19.722 5.2090001 0.94800001
12.791 3.4200001 0.61500001
19.702 5.2680001 0.94700003
12.616 3.414 0.60699999
19.761 5.348 0.95099998
12.544 3.4360001 0.60399997
12.47 3.457 0.60000002
12.437 3.4879999 0.59899998
12.426 3.526 0.59899998
12.447 3.573 0.60000002
17.92 5.145 0.86500001
12.543 3.6429999 0.60500002
17.743999 5.1539998 0.85699999
17.622 5.177 0.85100001
17.572001 5.2210002 0.84899998
17.684999 5.3130002 0.85600001
15.074 5.777 0.74299997
14.851 5.744 0.73199999
14.792 5.7740002 0.73000002
14.903 5.8699999 0.736
14.874 5.9120002 0.73500001
10.797 7.165 0.579
10.744 7.1659999 0.57700002
10.716 7.184 0.57599998
10.702 7.211 0.57599998
10.673 7.2270002 0.57499999
10.659 7.2540002 0.57499999
10.655 7.2870002 0.57499999
10.643 7.3140001 0.57599998
10.617 7.3309999 0.57499999
10.589 7.3460002 0.574
10.575 7.3709998 0.574
10.558 7.3940001 0.574
10.55 7.4229999 0.574
10.529 7.4419999 0.574
10.511 7.4629998 0.574
10.524 7.506 0.57499999
10.503 7.5240002 0.57499999
10.492 7.5489998 0.57499999
10.481 7.5739999 0.57499999
10.472 7.599 0.57499999
10.449 7.6149998 0.57499999
10.705 -6.355 0.62
10.705 -6.3239999 0.62
10.717 -6.3000002 0.62
10.715 -6.2680001 0.62
10.752 -6.2589998 0.62199998
10.785 -6.2470002 0.62400001
10.778 -6.2119999 0.62300003
10.804 -6.1960001 0.625
10.867 -6.1999998 0.62900001
10.826 -6.145 0.62599999
10.863 -6.1350002 0.62800002
10.862 -6.1030002 0.62800002
10.866 -6.0739999 0.62800002
10.864 -6.0409999 0.62800002
10.881 -6.0190001 0.62900001
10.885 -5.9889998 0.62900001
10.899 -5.9650002 0.63
10.923 -5.9460001 0.63099998
10.947 -5.928 0.63300002
10.928 -5.8860002 0.63099998
10.948 -5.8639998 0.63300002
10.974 -5.8460002 0.634
11.103 -5.7849998 0.64099997
11.044 -5.723 0.63800001
11.024 -5.6799998 0.63599998
11.077 -5.6750002 0.639
11.084 -5.6459999 0.63999999
11.113 -5.6279998 0.64099997
11.124 -5.6009998 0.64200002
11.156 -5.585 0.64399999
11.18 -5.5640001 0.64499998
11.195 -5.539 0.64600003
11.216 -5.5159998 0.64700001
11.208 -5.4790001 0.64600003
11.253 -5.4689999 0.64899999
11.282 -5.4499998 0.65100002
11.284 -5.4180002 0.65100002
11.31 -5.3969998 0.65200001
11.309 -5.3629999 0.65200001
11.285 -5.3189998 0.64999998
11.364 -5.323 0.65499997
11.35 -5.283 0.65399998
11.375 -5.2610002 0.65499997
11.386 -5.2329998 0.65600002
11.432 -5.2199998 0.65899998
11.415 -5.1789999 0.65700001
11.465 -5.1680002 0.66000003
11.475 -5.1389999 0.66100001
11.542 -5.1350002 0.66500002
11.539 -5.0999999 0.66399997
11.579 -5.0840001 0.66600001
11.58 -5.0500002 0.66600001
11.633 -5.039 0.66900003
11.662 -5.0170002 0.671
11.647 -4.9770002 0.67000002
11.678 -4.9559999 0.67199999
11.707 -4.934 0.67299998
11.732 -4.9099998 0.67500001
11.754 -4.8850002 0.676
11.759 -4.8520002 0.676
11.789 -4.8299999 0.67799997
11.826 -4.8109999 0.68000001
11.886 -4.8000002 0.68300003
11.932 -4.7839999 0.68599999
11.955 -4.7579999 0.68699998
11.983 -4.7340002 0.68800002
12.053 -4.7259998 0.69199997
12.111 -4.7129998 0.69599998
12.108 -4.677 0.69499999
12.112 -4.6430001 0.69499999
12.192 -4.638 0.69999999
12.218 -4.612 0.70099998
12.252 -4.5890002 0.70300001
12.288 -4.566 0.70499998
12.252 -4.5170002 0.70300001
12.306 -4.5009999 0.70599997
12.405 -4.5009999 0.71100003
12.572 -4.5240002 0.72100002
12.589 -4.494 0.722
12.606 -4.4629998 0.72299999
12.637 -4.4369998 0.72399998
12.692 -4.4190001 0.727
12.779 -4.4120002 0.73199999
12.834 -4.3940001 0.73500001
12.837 -4.3569999 0.73500001
12.918 -4.3470001 0.74000001
13.513 -4.1139998 0.773
13.469 -4.0609999 0.76999998
13.441 -4.013 0.76800001
13.506 -3.993 0.77200001
13.51 -3.9549999 0.77200001
13.499 -3.9130001 0.77100003
13.581 -3.8970001 0.77600002
13.539 -3.845 0.773
13.566 -3.8139999 0.77499998
13.625 -3.7909999 0.778
13.654 -3.7590001 0.77899998
13.712 -3.7349999 0.78299999
13.774 -3.7119999 0.78600001
13.791 -3.677 0.787
13.943 -3.5550001 0.79500002
13.93 -3.5109999 0.79400003
13.956 -3.477 0.79500002
14 -3.448 0.79799998
14.13 -3.4389999 0.80500001
14.163 -3.4059999 0.80699998
14.155 -3.3629999 0.80599999
14.181 -3.3280001 0.80800003
14.17 -3.2839999 0.80699998
14.191 -3.2479999 0.80800003
14.298 -3.2309999 0.81400001
14.393 -3.1689999 0.81900001
14.396 -3.128 0.81900001
14.394 -3.086 0.81900001
14.462 -3.059 0.82200003
14.654 -2.9300001 0.833
14.621 -2.881 0.83099997
14.819 -2.878 0.84200001
14.696 -2.8110001 0.83499998
12.888 -2.391 0.73199999
12.783 -2.335 0.72600001
12.774 -2.296 0.72500002
12.825 -2.2679999 0.72799999
12.936 -2.2509999 0.73400003
12.91 -2.0599999 0.73199999
12.85 -2.0139999 0.72799999
12.849 -1.976 0.72799999
12.891 -1.946 0.73000002
13.065 -1.934 0.74000001
9.3050003 -0.65600002 0.52399999
9.0679998 -0.61299998 0.50999999
9.0209999 -0.58399999 0.50800002
8.9940004 -0.55699998 0.50599998
8.9359999 -0.528 0.50300002
8.882 -0.49900001 0.49900001
8.842 -0.47099999 0.49700001
8.8260002 -0.44499999 0.49599999
8.8299999 -0.41999999 0.49599999
8.835 -0.39500001 0.49599999
8.8800001 -0.37200001 0.49900001
8.9820004 -0.34999999 0.50400001
12.99 -0.20900001 0.72799999
13.089 -0.17299999 0.73400003
12.949 0.236 0.72399998
12.839 0.27000001 0.71799999
12.823 0.30700001 0.71700001
12.834 0.34400001 0.71700001
12.824 0.38 0.71600002
12.829 0.417 0.71600002
12.845 0.45500001 0.71700001
12.865 0.49200001 0.71799999
12.863 0.52899998 0.71799999
12.856 0.565 0.71700001
12.857 0.602 0.71700001
12.859 0.639 0.71700001
12.883 0.67699999 0.71799999
12.885 0.71399999 0.71799999
12.901 0.75199997 0.71899998
12.922 0.79000002 0.72000003
12.94 0.829 0.72100002
12.944 0.866 0.72100002
12.929 0.90200001 0.72000003
12.647 0.123 0.62699997
12.638 0.134 0.62599999
12.649 0.146 0.62599999
12.64 0.15800001 0.625
12.641 0.17 0.625
12.646 0.183 0.625
12.656 0.19599999 0.625
12.639 0.20900001 0.62400001
12.654 0.223 0.62400001
12.649 0.237 0.62400001
12.654 0.25099999 0.62400001
12.647 0.266 0.62300003
12.639 0.28 0.62300003
12.639 0.29499999 0.62199998
12.634 0.31099999 0.62199998
12.638 0.32699999 0.62199998
12.646 0.34299999 0.62199998
12.639 0.359 0.62099999
12.651 0.37599999 0.62199998
12.656 0.39399999 0.62199998
12.659 0.41100001 0.62199998
12.662 0.42899999 0.62199998
12.651 0.447 0.62099999
12.654 0.465 0.62099999
12.657 0.484 0.62099999
12.659 0.50300002 0.62099999
12.673 0.52200001 0.62099999
12.673 0.542 0.62099999
12.668 0.56099999 0.62099999
12.673 0.58200002 0.62099999
12.669 0.602 0.62099999
12.668 0.62199998 0.62099999
12.673 0.64399999 0.62099999
12.693 0.66600001 0.62199998
12.719 0.68900001 0.62300003
12.787 0.71399999 0.62599999
12.881 0.74199998 0.63
12.901 0.76599997 0.63099998
12.906 0.78899997 0.63200003
12.89 0.81099999 0.63099998
12.864 0.833 0.62900001
12.829 0.85500002 0.62800002
12.791 0.87599999 0.62599999
12.752 0.89700001 0.62400001
12.729 0.92000002 0.62300003
12.712 0.94300002 0.62199998
12.704 0.96799999 0.62099999
12.72 0.99400002 0.62199998
12.729 1.02 0.62300003
12.736 1.046 0.62300003
12.743 1.073 0.62300003
12.765 1.101 0.62400001
12.769 1.128 0.625
12.808 1.158 0.62699997
12.863 1.1900001 0.62900001
12.901 1.221 0.63099998
12.945 1.253 0.634
12.945 1.281 0.634
12.982 1.313 0.63599998
12.99 1.3430001 0.63599998
20.636999 2.1340001 1.011
12.99 1.372 0.63599998
20.610001 2.177 1.01
13.056 1.408 0.639
20.605 2.223 1.0089999
13.13 1.446 0.64300001
20.610001 2.27 1.01
13.294 1.495 0.65100002
20.563 2.312 1.008
20.631001 2.368 1.011
20.569 2.408 1.008
20.632999 2.464 1.012
20.719999 2.5239999 1.016
20.629999 2.562 1.012
20.788 2.631 1.02
20.752001 2.677 1.0190001
20.726 2.724 1.018
20.673 2.7679999 1.015
20.639 2.8150001 1.0140001
20.603001 2.8610001 1.012
20.649 2.9189999 1.015
20.746 2.9860001 1.02
20.851999 3.0539999 1.026
20.830999 3.1040001 1.025
20.775999 3.1500001 1.023
20.785999 3.2049999 1.024
20.837 3.2679999 1.026
20.77 3.312 1.024
20.701 3.3559999 1.021
12.139 2 0.59899998
11.945 2 0.58899999
11.868 2.02 0.58600003
11.844 2.0480001 0.58499998
11.796 2.072 0.583
11.718 2.0899999 0.579
11.663 2.1129999 0.57700002
11.643 2.142 0.57599998
11.639 2.174 0.57599998
11.661 2.211 0.57700002
11.73 2.257 0.58099997
11.992 2.342 0.59399998
21.834999 4.2639999 1.0829999
21.922001 4.3449998 1.0880001
21.962999 4.4159999 1.09
22.037001 4.4949999 1.094
22.084999 4.5700002 1.097
22.184 4.6550002 1.103
22.146999 4.7129998 1.102
22.025 4.7529998 1.096
21.933001 4.7979999 1.092
21.899 4.8569999 1.091
21.846001 4.9109998 1.09
19.684999 5.164 0.99000001
19.663 5.2220001 0.99000001
12.664 3.404 0.63800001
12.503 3.402 0.63
12.468 3.4330001 0.62900001
12.457 3.471 0.62900001
12.435 3.506 0.62800002
12.402 3.5380001 0.62699997
12.413 3.5829999 0.62800002
17.989 5.1919999 0.91000003
12.469 3.641 0.63099998
17.767 5.1880002 0.89999998
17.629 5.2069998 0.89399999
17.556 5.2449999 0.89099997
17.597 5.3169999 0.89399999
14.934 5.7449999 0.77600002
14.836 5.7639999 0.77200001
10.932 6.9790001 0.61699998
10.856 6.9809999 0.61400002
10.829 7.0149999 0.61299998
10.804 7.0500002 0.61299998
10.77 7.0780001 0.61199999
10.77 7.1300001 0.61299998
10.719 7.1469998 0.611
10.699 7.1849999 0.611
10.675 7.2199998 0.611
10.646 7.2519999 0.61000001
10.62 7.2859998 0.61000001
10.596 7.3210001 0.60900003
10.57 7.3540001 0.60900003
10.555 7.395 0.60900003
10.528 7.428 0.60900003
10.502 7.461 0.60799998
10.478 7.4949999 0.60799998
10.444 7.5219998 0.60699999
10.184 -6.6890001 0.62199998
10.223 -6.651 0.62300003
10.277 -6.6230001 0.62599999
10.31 -6.5809999 0.62800002
10.338 -6.5359998 0.62900001
10.392 -6.507 0.63200003
10.432 -6.4699998 0.634
10.459 -6.4250002 0.63499999
10.497 -6.3860002 0.63700002
10.531 -6.3460002 0.63800001
10.553 -6.2979999 0.639
10.591 -6.2610002 0.64099997
10.613 -6.2140002 0.64200002
10.663 -6.1830001 0.64399999
10.692 -6.1409998 0.64600003
10.716 -6.0949998 0.64700001
10.757 -6.0599999 0.64899999
10.804 -6.0279999 0.65100002
10.827 -5.9829998 0.65200001
10.925 -5.9780002 0.65700001
10.943 -5.9310002 0.65799999
10.917 -5.8590002 0.65600002
10.928 -5.8080001 0.65600002
10.962 -5.77 0.65799999
11.003 -5.7350001 0.66000003
11.055 -5.7059999 0.66299999
11.069 -5.658 0.66299999
11.109 -5.6230001 0.66500002
11.147 -5.5869999 0.667
11.192 -5.5539999 0.66900003
11.216 -5.5120001 0.67000002
11.255 -5.4759998 0.67199999
11.24 -5.415 0.671
11.297 -5.3889999 0.67400002
11.336 -5.3540001 0.676
11.35 -5.3080001 0.676
11.398 -5.277 0.67900002
11.399 -5.2249999 0.67799997
11.451 -5.1960001 0.68099999
11.49 -5.1620002 0.68300003
11.526 -5.1259999 0.685
11.581 -5.099 0.68800002
11.603 -5.0570002 0.68900001
11.651 -5.027 0.69099998
11.667 -4.9819999 0.69199997
11.74 -4.9619999 0.69599998
11.772 -4.9250002 0.69800001
11.795 -4.8839998 0.699
11.847 -4.855 0.70099998
11.877 -4.8179998 0.70300001
11.934 -4.7909999 0.70599997
12.012 -4.7719998 0.70999998
12.105 -4.7589998 0.71499997
12.15 -4.7270002 0.71799999
12.189 -4.6919999 0.72000003
12.265 -4.6719999 0.72399998
12.306 -4.638 0.72600001
12.393 -4.6209998 0.73100001
12.467 -4.5999999 0.73500001
12.516 -4.5689998 0.73799998
12.58 -4.5430002 0.741
12.63 -4.5120001 0.74400002
12.819 -4.5300002 0.755
12.815 -4.48 0.75400001
12.814 -4.4310002 0.75400001
12.99 -4.4429998 0.764
13.122 -4.3899999 0.77100003
13.182 -4.3610001 0.77399999
13.629 -4.165 0.79900002
13.544 -4.092 0.79299998
13.585 -4.0570002 0.79500002
13.638 -4.026 0.79799998
13.68 -3.9909999 0.801
13.655 -3.937 0.79900002
13.679 -3.898 0.80000001
13.705 -3.859 0.801
13.796 -3.8380001 0.80599999
13.944 -3.8329999 0.815
14.024 -3.809 0.81900001
14.069 -3.7739999 0.82200003
14.087 -3.688 0.82200003
14.134 -3.654 0.82499999
14.171 -3.619 0.82700002
14.173 -3.5739999 0.82700002
14.218 -3.54 0.829
14.234 -3.5 0.82999998
14.315 -3.4749999 0.83399999
14.506 -3.4319999 0.84500003
14.481 -3.381 0.84299999
14.552 -3.3540001 0.847
14.628 -3.24 0.85100001
14.687 -3.2090001 0.85500002
14.684 -3.165 0.85399997
12.808 -2.3959999 0.74400002
12.781 -2.3559999 0.74199998
12.763 -2.3180001 0.741
12.805 -2.2909999 0.74299997
12.902 -2.2739999 0.74900001
12.981 -2.1159999 0.75300002
12.886 -2.0669999 0.74699998
12.855 -2.029 0.745
12.852 -1.995 0.745
12.865 -1.965 0.74599999
12.941 -1.943 0.75
9.1879997 -0.54699999 0.53100002
9.073 -0.523 0.52499998
9.0459995 -0.50400001 0.523
9.0109997 -0.486 0.52100003
8.9680004 -0.46700001 0.51899999
8.9200001 -0.44800001 0.51599997
8.8850002 -0.42899999 0.514
8.8409996 -0.41100001 0.51099998
8.8450003 -0.39500001 0.51200002
8.8319998 -0.37900001 0.51099998
8.8170004 -0.36199999 0.50999999
8.8179998 -0.347 0.50999999
8.8380003 -0.33199999 0.51099998
8.8760004 -0.31799999 0.514
8.9180002 -0.30399999 0.51599997
9.1190004 -0.29499999 0.528
13.014 -0.39899999 0.75300002
12.93 -0.375 0.74900001
12.865 -0.35100001 0.745
12.844 -0.329 0.74400002
12.824 -0.308 0.74299997
12.827 -0.287 0.74299997
12.816 -0.26499999 0.74199998
12.813 -0.245 0.74199998
12.786 -0.22400001 0.741
12.757 -0.20299999 0.73900002
12.749 -0.183 0.73900002
12.76 -0.163 0.73900002
12.817 -0.14399999 0.74299997
12.926 -0.125 0.74900001
13.113 0.119 0.76099998
13.163 0.138 0.764
12.632 0.182 0.65899998
12.642 0.205 0.65899998
12.647 0.228 0.65899998
12.652 0.25099999 0.65899998
12.648 0.27399999 0.65899998
12.655 0.29699999 0.65899998
12.653 0.32100001 0.65899998
12.663 0.345 0.65899998
12.673 0.37 0.66000003
12.66 0.39399999 0.65899998
12.659 0.419 0.65899998
12.66 0.44400001 0.65799999
12.67 0.47 0.65899998
12.673 0.49599999 0.65899998
12.684 0.52200001 0.65899998
12.683 0.54799998 0.65899998
12.681 0.57499999 0.65899998
12.694 0.602 0.66000003
12.696 0.62900001 0.66000003
12.719 0.65700001 0.66100001
12.757 0.68699998 0.66299999
12.865 0.72100002 0.66799998
12.89 0.75099999 0.66900003
12.889 0.77899998 0.66900003
12.864 0.80599999 0.66799998
12.822 0.833 0.66600001
12.796 0.86000001 0.66399997
12.75 0.88599998 0.662
12.71 0.91299999 0.66000003
12.699 0.94099998 0.65899998
12.693 0.97100002 0.65899998
12.693 1.001 0.65899998
12.712 1.033 0.66000003
12.745 1.066 0.662
12.748 1.097 0.662
12.767 1.13 0.66299999
12.797 1.164 0.66399997
12.839 1.199 0.667
12.92 1.239 0.671
12.956 1.274 0.67299998
12.968 1.308 0.67400002
12.985 1.3430001 0.67400002
20.627001 2.1329999 1.072
12.976 1.375 0.67400002
20.548 2.178 1.068
12.984 1.409 0.67500001
20.572001 2.233 1.069
13.059 1.451 0.67900002
20.611 2.29 1.071
13.158 1.4960001 0.68400002
20.620001 2.345 1.072
20.660999 2.4030001 1.074
20.639999 2.4549999 1.073
20.648001 2.5109999 1.074
20.783001 2.582 1.081
20.885 2.651 1.087
20.875 2.7049999 1.086
20.836 2.757 1.084
20.781 2.806 1.082
20.865 2.8740001 1.087
20.851 2.9289999 1.086
20.9 2.994 1.089
21.033001 3.0710001 1.096
21.1 3.1400001 1.1
20.921 3.1719999 1.091
20.871 3.223 1.089
20.987 3.3010001 1.095
12.212 2.0250001 0.63800001
11.928 2.0120001 0.62300003
11.869 2.0369999 0.62
11.843 2.0669999 0.61900002
11.776 2.089 0.616
11.689 2.108 0.611
11.657 2.1370001 0.61000001
11.65 2.1700001 0.61000001
11.647 2.204 0.61000001
11.712 2.2509999 0.61299998
11.864 2.316 0.62199998
22.135 4.322 1.16
22.077999 4.3769999 1.158
22.122 4.4530001 1.161
22.27 4.5500002 1.169
22.344 4.6329999 1.173
22.354 4.704 1.174
22.327999 4.7670002 1.173
22.291 4.8280001 1.1720001
22.417999 4.9239998 1.179
19.704 5.1409998 1.044
19.723 5.21 1.046
12.626 3.3759999 0.67000002
12.465 3.3740001 0.66100001
12.42 3.402 0.65899998
12.467 3.4560001 0.662
12.427 3.4860001 0.66100001
12.396 3.5179999 0.65899998
12.395 3.559 0.66000003
18.136 5.2069998 0.96600002
12.423 3.608 0.662
17.82 5.1760001 0.949
12.529 3.681 0.66799998
17.672001 5.1919999 0.94199997
17.59 5.2259998 0.93900001
17.608 5.29 0.94
11.054 -6.5679998 0.69099998
11.057 -6.5370002 0.69099998
11.121 -6.5430002 0.69499999
11.085 -6.4899998 0.69199997
11.099 -6.4660001 0.69300002
11.156 -6.467 0.69700003
11.191 -6.4549999 0.699
11.204 -6.3969998 0.69999999
11.189 -6.3559999 0.699
11.258 -6.3629999 0.70300001
11.274 -6.3390002 0.704
11.239 -6.2870002 0.70200002
11.222 -6.2449999 0.69999999
11.227 -6.2150002 0.70099998
11.226 -6.1810002 0.69999999
11.26 -6.1669998 0.70200002
11.313 -6.1630001 0.70599997
11.3 -6.1240001 0.70499998
11.318 -6.0999999 0.70599997
11.379 -6.0999999 0.70999998
11.54 -6.085 0.71899998
11.413 -5.9840002 0.71100003
11.442 -5.967 0.713
11.485 -5.9549999 0.71600002
11.485 -5.921 0.71600002
11.473 -5.882 0.71499997
11.468 -5.8449998 0.71399999
11.511 -5.8340001 0.71700001
11.502 -5.7950001 0.71600002
11.572 -5.7969999 0.72100002
11.556 -5.7550001 0.72000003
11.601 -5.744 0.722
11.654 -5.7360001 0.72600001
11.642 -5.6950002 0.72500002
11.628 -5.6539998 0.72399998
11.656 -5.6339998 0.72500002
11.703 -5.6220002 0.72799999
11.719 -5.5949998 0.72899997
11.695 -5.5500002 0.72799999
11.758 -5.5450001 0.73100001
11.753 -5.5079999 0.73100001
11.807 -5.4990001 0.73400003
11.85 -5.4840002 0.73699999
11.85 -5.4489999 0.73699999
11.866 -5.4219999 0.73799998
11.914 -5.4089999 0.74000001
11.949 -5.3899999 0.74299997
11.956 -5.3569999 0.74299997
12.01 -5.3460002 0.74599999
12.076 -5.3400002 0.75
12.048 -5.2930002 0.74800003
12.168 -5.3099999 0.75599998
12.163 -5.2719998 0.755
12.183 -5.244 0.75599998
12.244 -5.2350001 0.75999999
12.272 -5.211 0.76200002
12.293 -5.184 0.76300001
12.348 -5.1700001 0.76599997
12.346 -5.1329999 0.76599997
12.347 -5.098 0.76599997
12.4 -5.0830002 0.76899999
12.464 -5.073 0.773
12.45 -5.0310001 0.77200001
12.51 -5.0180001 0.77600002
12.672 -5.046 0.78500003
12.601 -4.9809999 0.78100002
12.65 -4.9629998 0.78399998
12.96 -4.9699998 0.80299997
12.838 -4.8860002 0.79500002
12.842 -4.8499999 0.79500002
12.883 -4.8280001 0.79799998
12.944 -4.8119998 0.801
13.022 -4.803 0.80599999
13.009 -4.7600002 0.80500001
13.202 -4.7919998 0.81699997
13.13 -4.7280002 0.81199998
13.454 -4.6079998 0.83099997
13.534 -4.5960002 0.83600003
13.415 -4.5159998 0.829
13.47 -4.4949999 0.83200002
13.559 -4.4850001 0.83700001
13.553 -4.4439998 0.83700001
13.597 -4.4180002 0.83899999
13.613 -4.3839998 0.83999997
13.688 -4.368 0.84500003
13.719 -4.3379998 0.847
13.796 -4.1609998 0.85100001
13.807 -4.1240001 0.85100001
13.842 -4.0939999 0.85299999
13.791 -4.039 0.85000002
13.929 -4.039 0.85799998
13.98 -4.013 0.861
14.003 -3.9779999 0.86199999
14.008 -3.9389999 0.86299998
14.076 -3.9170001 0.86699998
14.122 -3.8889999 0.86900002
14.193 -3.8670001 0.87400001
14.491 -3.527 0.88999999
14.493 -3.4860001 0.88999999
14.509 -3.447 0.89099997
12.775 -2.3329999 0.78200001
12.759 -2.293 0.78100002
12.777 -2.26 0.78100002
12.832 -2.2320001 0.78500003
13.021 -2.115 0.796
12.876 -2.0539999 0.787
12.856 -2.0139999 0.78500003
12.873 -1.98 0.78600001
12.922 -1.95 0.78899997
9.0710001 -0.61299998 0.55000001
9.0190001 -0.583 0.54699999
8.9619999 -0.55400002 0.54299998
8.882 -0.523 0.53799999
8.8439999 -0.49599999 0.53600001
8.8070002 -0.46799999 0.53399998
8.8120003 -0.44299999 0.53399998
8.8129997 -0.41800001 0.53399998
8.8400002 -0.39399999 0.53500003
8.8859997 -0.37099999 0.53799999
9.0760002 -0.35299999 0.54900002
12.942 -0.50300002 0.78299999
12.863 -0.463 0.778
12.77 -0.42300001 0.773
12.72 -0.38499999 0.76899999
12.7 -0.34799999 0.76800001
12.693 -0.31200001 0.76700002
12.679 -0.27500001 0.76599997
12.677 -0.23800001 0.76599997
12.677 -0.20200001 0.76599997
12.69 -0.16599999 0.76599997
12.729 -0.13 0.76899999
12.789 -0.093999997 0.77200001
12.733 0.126 0.69099998
12.727 0.138 0.69
12.722 0.149 0.69
12.728 0.162 0.69
12.724 0.17399999 0.68900001
12.723 0.18700001 0.68900001
12.732 0.2 0.68900001
12.723 0.213 0.68800002
12.732 0.227 0.68800002
12.736 0.241 0.68800002
12.735 0.255 0.68800002
12.738 0.27000001 0.68800002
12.744 0.285 0.68800002
12.742 0.30000001 0.68699998
12.739 0.31600001 0.68699998
12.743 0.33199999 0.68699998
12.738 0.34799999 0.68699998
12.744 0.36500001 0.68699998
12.743 0.38100001 0.68599999
12.747 0.39899999 0.68599999
12.752 0.41600001 0.68599999
12.761 0.43399999 0.68699998
12.774 0.45300001 0.68699998
12.783 0.472 0.68800002
12.78 0.49000001 0.68699998
12.785 0.50999999 0.68699998
12.792 0.52899998 0.68800002
12.8 0.54900002 0.68800002
12.815 0.56999999 0.68800002
12.817 0.58999997 0.68800002
12.815 0.611 0.68800002
12.82 0.63200003 0.68800002
12.865 0.65499997 0.69099998
12.896 0.67799997 0.69199997
12.905 0.69999999 0.69300002
12.912 0.72299999 0.69300002
12.899 0.745 0.69199997
12.903 0.76800001 0.69199997
12.897 0.79000002 0.69199997
12.873 0.81199998 0.69099998
12.839 0.833 0.68900001
12.815 0.85500002 0.68699998
12.771 0.87599999 0.685
12.73 0.89700001 0.68300003
12.707 0.92000002 0.68199998
12.702 0.94400001 0.68099999
12.71 0.97000003 0.68199998
12.72 0.995 0.68199998
12.747 1.023 0.68400002
12.761 1.05 0.685
12.77 1.076 0.685
12.801 1.105 0.68699998
12.835 1.135 0.68900001
12.885 1.166 0.69199997
12.898 1.1950001 0.69199997
20.836 1.9299999 1.119
12.911 1.223 0.69300002
20.868 1.978 1.12
12.945 1.2539999 0.69499999
20.863001 2.0220001 1.12
12.948 1.283 0.69499999
20.805 2.062 1.117
12.978 1.314 0.69700003
20.884001 2.115 1.122
12.981 1.3430001 0.69700003
21.044001 2.178 1.131
12.992 1.373 0.69800001
21.469999 2.27 1.154
13.005 1.404 0.699
21.215 2.2909999 1.14
13.079 1.442 0.70300001
21.105 2.3269999 1.135
13.164 1.4809999 0.708
21.052 2.369 1.132
21.075001 2.4200001 1.133
21.443001 2.5120001 1.153
21.539 2.5739999 1.159
21.67 2.641 1.166
21.798 2.7090001 1.174
21.841999 2.766 1.176
21.903999 2.8269999 1.1799999
21.837999 2.872 1.177
21.849001 2.927 1.178
21.834999 2.9790001 1.177
21.833 3.033 1.178
21.747 3.076 1.173
21.631001 3.1140001 1.1670001
21.681 3.177 1.171
22.173 3.306 1.198
22.191999 3.3659999 1.199
22.247999 3.4319999 1.2029999
22.263 3.493 1.204
22.306999 3.5580001 1.207
22.466 3.6429999 1.216
11.985 1.976 0.64899999
11.892 1.992 0.64399999
11.842 2.016 0.64200002
11.816 2.043 0.63999999
11.753 2.0650001 0.63700002
11.69 2.086 0.634
11.66 2.1129999 0.63300002
11.654 2.1440001 0.63300002
11.658 2.178 0.63300002
11.681 2.2149999 0.63499999
11.742 2.26 0.639
11.884 2.3210001 0.64700001
22.306 4.3569999 1.215
22.403 4.441 1.22
22.481001 4.5209999 1.225
22.525 4.5949998 1.229
22.496 4.6550002 1.228
22.462999 4.7150002 1.227
22.406 4.7690001 1.224
22.462 4.848 1.228
19.743 5.1799998 1.091
19.698 5.2319999 1.089
12.623 3.3929999 0.699
12.446 3.3870001 0.68900001
12.408 3.4170001 0.68800002
12.428 3.4630001 0.68900001
12.415 3.5009999 0.68900001
12.391 3.5350001 0.68900001
12.373 3.5710001 0.68800002
12.393 3.619 0.69
17.906 5.2290001 0.99699998
12.438 3.674 0.69300002
17.729 5.237 0.98799998
12.585 3.76 0.70200002
17.669001 5.2789998 0.986
17.766001 5.368 0.99199998
17.688999 5.5890002 0.991
17.497999 5.5890002 0.98100001
17.348 5.6020002 0.97399998
17.396999 5.6789999 0.97799999
17.464001 5.7620001 0.98199999
17.305 5.7709999 0.97399998
11.374 6.5310001 0.69199997
11.317 6.5489998 0.68900001
11.281 6.579 0.68800002
10.521 -6.9089999 0.69099998
10.551 -6.8629999 0.69300002
10.574 -6.8119998 0.69400001
10.646 -6.7940001 0.69800001
10.688 -6.7550001 0.69999999
10.73 -6.717 0.70200002
10.791 -6.691 0.70499998
10.805 -6.6360002 0.70599997
10.851 -6.5999999 0.708
10.888 -6.5599999 0.70999998
10.914 -6.513 0.71100003
10.936 -6.4629998 0.71200001
10.97 -6.421 0.71399999
11.004 -6.3800001 0.71600002
11.041 -6.3400002 0.71700001
11.073 -6.2969999 0.71899998
11.115 -6.2600002 0.72100002
11.166 -6.2290001 0.72399998
11.226 -6.2020001 0.727
11.267 -6.165 0.73000002
11.253 -6.0970001 0.72799999
11.29 -6.0580001 0.73000002
11.327 -6.02 0.73199999
11.358 -5.9770002 0.73400003
11.375 -5.928 0.73400003
11.399 -5.8829999 0.73500001
11.447 -5.8499999 0.73799998
11.485 -5.8119998 0.74000001
11.529 -5.7779999 0.74199998
11.577 -5.7449999 0.745
11.593 -5.6960001 0.74599999
11.613 -5.6500001 0.74599999
11.656 -5.6149998 0.74900001
11.696 -5.579 0.75099999
11.756 -5.552 0.75400001
11.778 -5.507 0.755
11.834 -5.4780002 0.75800002
11.874 -5.4419999 0.76099998
11.924 -5.4099998 0.76300001
11.972 -5.3779998 0.76599997
12.036 -5.3520002 0.76999998
12.086 -5.3200002 0.773
12.101 -5.2729998 0.773
12.188 -5.257 0.778
12.295 -5.25 0.78500003
12.293 -5.1950002 0.78399998
12.357 -5.1690001 0.78799999
12.42 -5.1420002 0.792
12.427 -5.0929999 0.792
12.464 -5.0549998 0.79400003
12.533 -5.0310001 0.79799998
12.575 -4.9949999 0.80000001
12.679 -4.9840002 0.80599999
12.876 -5.0089998 0.81800002
12.85 -4.9460001 0.81599998
13.065 -4.9759998 0.82999998
13.016 -4.9050002 0.82599998
13.024 -4.8559999 0.82599998
13.176 -4.8610001 0.83600003
13.329 -4.71 0.84399998
13.478 -4.711 0.85299999
13.655 -4.7210002 0.86400002
13.606 -4.6529999 0.861
13.665 -4.6220002 0.86400002
13.639 -4.5619998 0.86199999
13.666 -4.5209999 0.86299998
13.719 -4.4879999 0.866
13.779 -4.4569998 0.87
13.754 -4.3990002 0.86799997
13.781 -4.3579998 0.86900002
13.894 -4.3439999 0.87599999
13.953 -4.3130002 0.88
13.923 -4.2059999 0.87699997
13.982 -4.1750002 0.88099998
13.992 -4.1300001 0.88099998
14.115 -4.118 0.889
14.281 -4.0689998 0.898
14.317 -4.0310001 0.89999998
14.343 -3.99 0.90200001
14.316 -3.9349999 0.89999998
14.395 -3.9089999 0.90499997
12.841 -2.438 0.80199999
12.73 -2.382 0.79500002
12.735 -2.348 0.79500002
12.745 -2.3150001 0.796
12.806 -2.2909999 0.79900002
12.984 -2.2880001 0.81
12.951 -2.145 0.80800003
12.863 -2.0969999 0.80199999
12.858 -2.063 0.80199999
12.853 -2.0280001 0.801
12.878 -2 0.80299997
12.95 -1.978 0.80699998
9.1190004 -0.52600002 0.56699997
9.059 -0.505 0.56300002
9.0089998 -0.486 0.56
8.9379997 -0.465 0.55599999
8.8699999 -0.44499999 0.551
8.8479996 -0.428 0.55000001
8.8190002 -0.41 0.54799998
8.8249998 -0.39399999 0.54900002
8.8199997 -0.37799999 0.54799998
8.8199997 -0.36300001 0.54799998
8.8299999 -0.347 0.54900002
8.8450003 -0.33199999 0.55000001
8.868 -0.31799999 0.551
8.9239998 -0.30399999 0.55500001
12.94 -0.419 0.80500001
12.849 -0.39399999 0.79900002
12.738 -0.36899999 0.79299998
12.688 -0.347 0.79000002
12.658 -0.32499999 0.78799999
12.646 -0.303 0.787
12.635 -0.28200001 0.78600001
12.63 -0.26199999 0.78600001
12.634 -0.241 0.78600001
12.63 -0.221 0.78600001
12.633 -0.20100001 0.787
12.638 -0.18099999 0.787
12.643 -0.161 0.787
12.661 -0.142 0.78899997
12.682 -0.123 0.79000002
12.73 -0.104 0.79299998
12.853 -0.085000001 0.801
12.711 0.185 0.72299999
12.724 0.208 0.72399998
12.745 0.23100001 0.72500002
12.736 0.25400001 0.72399998
12.735 0.27700001 0.72399998
12.744 0.301 0.72399998
12.755 0.32600001 0.72399998
12.766 0.34999999 0.72500002
12.778 0.375 0.72500002
12.787 0.40000001 0.72600001
12.776 0.42500001 0.72500002
12.779 0.44999999 0.72500002
12.799 0.47600001 0.72600001
12.812 0.50300002 0.727
12.823 0.52899998 0.727
12.829 0.55599999 0.727
12.84 0.583 0.72799999
12.837 0.61000001 0.72799999
12.872 0.639 0.73000002
12.892 0.66799998 0.73100001
12.911 0.69700003 0.73199999
12.922 0.72500002 0.73199999
12.908 0.75300002 0.73100001
12.897 0.78100002 0.73100001
12.883 0.80900002 0.73000002
12.85 0.83600003 0.72799999
12.826 0.86299998 0.727
12.791 0.88999999 0.72500002
12.739 0.91600001 0.722
12.71 0.94400001 0.72000003
12.705 0.97299999 0.72000003
12.721 1.0039999 0.72100002
12.738 1.036 0.722
12.751 1.067 0.722
12.781 1.101 0.72399998
12.808 1.1339999 0.72600001
12.85 1.169 0.72799999
12.893 1.205 0.73100001
12.886 1.2359999 0.73000002
12.915 1.271 0.73199999
12.937 1.306 0.73299998
21.268 2.148 1.206
12.946 1.34 0.73400003
21.475 2.223 1.2180001
12.964 1.375 0.73500001
21.440001 2.2739999 1.216
12.958 1.4069999 0.73500001
21.416 2.326 1.215
12.999 1.4450001 0.73699999
21.386 2.378 1.2130001
13.015 1.4809999 0.73799998
21.407 2.4360001 1.215
13.16 1.531 0.74699998
21.5 2.5020001 1.22
21.677 2.5799999 1.2309999
21.593 2.6270001 1.226
21.604 2.6860001 1.227
21.746 2.7609999 1.235
21.848 2.8329999 1.2410001
21.856001 2.8929999 1.242
21.853001 2.9519999 1.242
21.816 3.007 1.2410001
21.826 3.0680001 1.2410001
21.808001 3.125 1.2410001
21.833 3.1889999 1.242
22.091 3.289 1.258
22.136 3.3570001 1.261
22.159 3.4230001 1.262
22.243 3.4990001 1.267
22.292999 3.5699999 1.271
22.363001 3.645 1.275
12.057 2 0.68800002
11.91 2.01 0.67900002
11.851 2.0339999 0.676
11.808 2.0610001 0.67400002
11.725 2.0810001 0.67000002
11.686 2.108 0.66799998
11.65 2.1359999 0.66600001
11.666 2.174 0.667
11.679 2.211 0.66799998
11.73 2.2550001 0.671
11.849 2.3139999 0.67799997
22.624001 4.4180002 1.296
22.539 4.4689999 1.291
22.573 4.5440001 1.294
22.575001 4.6129999 1.295
22.679001 4.704 1.301
12.588 3.3659999 0.73000002
12.427 3.3640001 0.72100002
12.398 3.3959999 0.72000003
12.421 3.4430001 0.722
12.384 3.474 0.72000003
12.373 3.5120001 0.72000003
12.366 3.55 0.72000003
12.369 3.5929999 0.72100002
12.418 3.648 0.72399998
12.539 3.7260001 0.73199999
17.652 5.4819999 1.033
17.441999 5.4759998 1.022
17.384001 5.5170002 1.0190001
17.292 5.5469999 1.0140001
17.302999 5.6090002 1.016
17.427999 5.7090001 1.024
17.299999 5.7259998 1.017
17.256001 5.7709999 1.015
17.249001 5.8280001 1.016
11.39 6.6350002 0.72100002
11.185 6.5560002 0.70899999
11.118 6.5570002 0.70499998
11.067 6.5669999 0.70300001
11.042 6.592 0.70200002
11.027 6.6230001 0.70200002
10.997 6.6440001 0.70099998
10.975 6.6690001 0.70099998
10.967 6.704 0.70099998
10.955 6.7360001 0.70099998
10.962 6.7789998 0.70200002
10.993 6.8369999 0.70499998
12.042 -6.283 0.80599999
11.958 -6.2049999 0.80000001
11.977 -6.1799998 0.801
12.039 -6.1760001 0.80500001
12.046 -6.1440001 0.80599999
12.043 -6.1079998 0.80500001
12.095 -6.098 0.80900002
12.142 -6.0869999 0.81199998
12.124 -6.0419998 0.81
12.186 -6.0370002 0.81400001
12.162 -5.9899998 0.81300002
12.198 -5.9710002 0.815
12.25 -5.961 0.81800002
12.215 -5.908 0.81599998
12.232 -5.8800001 0.81699997
12.279 -5.8670001 0.81999999
12.335 -5.8569999 0.824
12.374 -5.8390002 0.82599998
12.391 -5.8109999 0.82700002
12.373 -5.7659998 0.82599998
12.386 -5.7360001 0.82599998
12.432 -5.7210002 0.829
12.47 -5.7010002 0.83200002
12.472 -5.665 0.83200002
12.519 -5.6500001 0.83499998
12.537 -5.6209998 0.83600003
12.54 -5.586 0.83600003
12.581 -5.5669999 0.83899999
12.619 -5.5469999 0.84100002
12.699 -5.5440001 0.84600002
12.633 -5.4780002 0.84200001
12.784 -5.506 0.852
12.784 -5.4689999 0.852
12.817 -5.4450002 0.85399997
12.82 -5.4089999 0.85399997
12.997 -5.3309999 0.86500001
13.045 -5.3119998 0.86799997
13.076 -5.2859998 0.87
13.641 -5.0739999 0.90600002
13.613 -5.0229998 0.90399998
13.674 -5.006 0.90799999
13.681 -4.9679999 0.90799999
13.649 -4.9169998 0.90600002
13.7 -4.895 0.90899998
13.665 -4.842 0.90700001
13.709 -4.8179998 0.90899998
13.726 -4.7839999 0.91000003
13.759 -4.7550001 0.912
13.796 -4.7270002 0.91500002
13.821 -4.6950002 0.91600001
13.889 -4.678 0.92000002
14.092 -4.54 0.93300003
13.984 -4.4640002 0.926
14.001 -4.4289999 0.92699999
14.039 -4.4000001 0.92900002
14.016 -4.3509998 0.92699999
14.066 -4.3260002 0.93099999
14.149 -4.2270002 0.93599999
14.162 -4.1900001 0.93599999
14.366 -4.2090001 0.94999999
14.464 -4.1529999 0.95599997
14.546 -4.1339998 0.96100003
14.531 -4.0029998 0.95899999
14.625 -3.9860001 0.96499997
12.774 -2.3329999 0.838
12.73 -2.2880001 0.83499998
12.748 -2.2539999 0.83600003
12.801 -2.227 0.83899999
12.906 -2.096 0.84500003
12.865 -2.052 0.84299999
12.863 -2.0150001 0.84200001
12.893 -1.982 0.84399998
13.04 -1.967 0.85399997
9.0719995 -0.61199999 0.58999997
8.9960003 -0.58099997 0.58499998
8.8900003 -0.54799998 0.57800001
8.8360004 -0.51999998 0.574
8.8039999 -0.493 0.57200003
8.8000002 -0.46700001 0.57099998
8.8059998 -0.442 0.57200003
8.8319998 -0.41800001 0.57300001
8.868 -0.39399999 0.57499999
9.007 -0.375 0.58399999
12.977 -0.54000002 0.84200001
12.851 -0.498 0.83399999
12.728 -0.45699999 0.82499999
12.671 -0.41800001 0.82200003
12.64 -0.38100001 0.81900001
12.638 -0.345 0.81900001
12.635 -0.308 0.81900001
12.622 -0.27200001 0.81800002
12.638 -0.236 0.81800002
12.647 -0.2 0.81900001
12.666 -0.164 0.81999999
12.695 -0.12800001 0.82099998
12.783 -0.092 0.82700002
13.01 0.132 0.76700002
13.007 0.14399999 0.76700002
13.021 0.156 0.76700002
13.016 0.168 0.76700002
13 0.18000001 0.76499999
13.009 0.193 0.76599997
12.994 0.206 0.764
13.027 0.221 0.76599997
13.008 0.234 0.764
12.968 0.248 0.76200002
12.971 0.26199999 0.76200002
12.986 0.278 0.76200002
12.965 0.292 0.76099998
12.952 0.30700001 0.75999999
12.954 0.32300001 0.75999999
12.963 0.34 0.75999999
12.954 0.35600001 0.759
12.942 0.37200001 0.75800002
12.947 0.38999999 0.75800002
12.956 0.40700001 0.75800002
12.939 0.42500001 0.75700003
12.955 0.44299999 0.75800002
12.973 0.46200001 0.759
12.984 0.48100001 0.759
12.993 0.50099999 0.75999999
12.998 0.51999998 0.75999999
12.988 0.53899997 0.759
12.962 0.55800003 0.75700003
12.977 0.579 0.75800002
12.99 0.60000002 0.759
12.985 0.62 0.75800002
12.989 0.64200002 0.759
13.012 0.66399997 0.75999999
12.996 0.685 0.759
12.988 0.70700002 0.75800002
12.951 0.727 0.75599998
12.955 0.75 0.75599998
12.951 0.77200001 0.75599998
12.949 0.79500002 0.75599998
12.942 0.81800002 0.755
12.922 0.83999997 0.75400001
12.888 0.86199999 0.75199997
12.863 0.884 0.75099999
12.849 0.90700001 0.75
12.862 0.93300003 0.75099999
12.867 0.958 0.75099999
12.867 0.98299998 0.75099999
12.868 1.008 0.75099999
12.881 1.035 0.75199997
12.891 1.062 0.75199997
12.887 1.0880001 0.75199997
12.901 1.115 0.75300002
12.918 1.143 0.75400001
12.921 1.171 0.755
12.918 1.198 0.75400001
12.92 1.225 0.755
12.947 1.256 0.75599998
22.309 2.164 1.304
12.98 1.2869999 0.75800002
22.171 2.1989999 1.296
12.978 1.3150001 0.75800002
21.990999 2.2290001 1.286
12.978 1.344 0.759
21.881001 2.266 1.279
12.999 1.375 0.75999999
21.874001 2.3150001 1.279
13.063 1.411 0.764
21.893 2.3659999 1.281
13.1 1.4450001 0.76599997
22.009001 2.428 1.288
22.007 2.4779999 1.288
22.013 2.53 1.289
22.063 2.5869999 1.2920001
22.173 2.652 1.299
22.198 2.707 1.3
22.169001 2.756 1.299
22.176001 2.8099999 1.3
22.145 2.8599999 1.298
22.117001 2.9100001 1.2970001
22.063999 2.957 1.295
22.042999 3.0090001 1.294
22.042 3.0639999 1.294
22.139 3.1329999 1.3
22.212999 3.2 1.3049999
22.223 3.2579999 1.306
22.224001 3.3150001 1.307
22.225 3.372 1.307
22.273001 3.437 1.311
22.355 3.5090001 1.316
22.464001 3.585 1.323
22.649 3.674 1.335
12.109 1.997 0.71399999
22.798 3.7590001 1.344
11.924 1.998 0.70300001
11.836 2.0150001 0.69800001
11.807 2.0420001 0.69700003
11.756 2.066 0.69400001
11.712 2.0899999 0.69199997
11.689 2.119 0.69099998
11.668 2.148 0.69
11.678 2.1819999 0.69099998
11.678 2.2149999 0.69199997
11.695 2.2509999 0.69300002
11.757 2.2969999 0.69700003
11.949 2.369 0.70899999
22.649 4.4910002 1.344
22.618 4.5500002 1.3430001
22.65 4.6220002 1.346
22.659 4.6900001 1.347
12.665 3.4460001 0.764
12.401 3.415 0.74900001
12.368 3.447 0.74800003
12.378 3.49 0.74900001
12.352 3.5239999 0.74800003
12.346 3.5639999 0.74900001
12.338 3.6029999 0.74900001
12.353 3.6489999 0.75
12.42 3.711 0.755
12.558 3.7950001 0.764
17.499001 5.5289998 1.069
17.395 5.5570002 1.064
17.351999 5.6030002 1.062
17.365999 5.6690001 1.064
17.518999 5.7810001 1.075
17.35 5.7859998 1.0650001
17.197001 5.796 1.057
