# .PCD v0.7 - Point Cloud Data file format
VERSION 0.7
FIELDS x y z
SIZE 4 4 4
TYPE F F F
COUNT 1 1 1
WIDTH 1762
HEIGHT 1
VIEWPOINT 0 0 0 1 0 0 0
POINTS 1762
DATA ascii
10.052 4.007 -0.486
10.069 4.0500002 -0.48699999
10.075 4.0879998 -0.48899999
10.093 4.132 -0.49000001
10.115 4.177 -0.49200001
10.131 4.2199998 -0.49399999
10.143 4.2620001 -0.495
10.183 4.3150001 -0.498
10.205 4.3610001 -0.5
10.236 4.4109998 -0.50199997
10.25 4.454 -0.50400001
10.262 4.4970002 -0.505
10.289 4.546 -0.50800002
10.316 4.5949998 -0.50999999
10.338 4.6430001 -0.51200002
10.359 4.6900001 -0.514
10.364 4.73 -0.51499999
10.393 4.7810001 -0.51700002
10.417 4.8299999 -0.51899999
10.438 4.8779998 -0.52100003
10.462 4.927 -0.52399999
10.467 4.967 -0.52499998
10.491 5.0170002 -0.52700001
10.522 5.0700002 -0.52899998
10.541 5.118 -0.53100002
10.551 5.1620002 -0.53299999
10.606 5.2270002 -0.537
10.607 5.2659998 -0.53799999
10.627 5.3150001 -0.54000002
10.635 5.3579998 -0.54100001
10.676 5.4180002 -0.54400003
10.686 5.4619999 -0.546
10.71 5.513 -0.54799998
6.8449998 3.549 -0.35100001
10.848 5.6240001 -0.55599999
6.7470002 3.523 -0.34599999
6.7129998 3.53 -0.345
6.6919999 3.543 -0.345
6.6810002 3.562 -0.345
6.6830001 3.5869999 -0.34599999
6.6960001 3.619 -0.347
6.7280002 3.6600001 -0.34900001
6.8410001 3.747 -0.35600001
10.908 5.974 -0.56800002
7.0300002 3.8759999 -0.366
10.846 5.98 -0.565
10.862 6.0279999 -0.56699997
10.889 6.0830002 -0.56999999
10.916 6.138 -0.57200003
10.928 6.184 -0.574
10.972 6.2480001 -0.57700002
10.987 6.2969999 -0.579
11.018 6.355 -0.58200002
10.998 6.3829999 -0.58200002
11.032 6.4429998 -0.58499998
11.032 6.4829998 -0.58600003
11.054 6.5349998 -0.58899999
11.058 6.5770001 -0.58999997
11.075 6.6269999 -0.59200001
11.079 6.6690001 -0.59299999
11.071 6.704 -0.59399998
11.075 6.7459998 -0.59500003
11.084 6.7909999 -0.597
11.064 6.8179998 -0.597
11.072 6.862 -0.59899998
11.091 6.9130001 -0.60100001
11.11 6.9640002 -0.60299999
11.151 7.0289998 -0.60699999
11.165 7.0770001 -0.60900003
11.174 7.1220002 -0.61000001
11.299 7.2410002 -0.61799997
11.302 7.2820001 -0.62
6.4489999 -3.773 -0.175
6.4549999 -3.7590001 -0.175
6.4660001 -3.747 -0.175
6.4759998 -3.7349999 -0.175
6.4819999 -3.72 -0.175
6.4899998 -3.7060001 -0.176
6.4970002 -3.6919999 -0.176
6.5050001 -3.6789999 -0.176
6.5159998 -3.6659999 -0.176
6.5279999 -3.655 -0.176
6.5409999 -3.6440001 -0.176
6.5430002 -3.6270001 -0.176
6.5510001 -3.612 -0.177
6.5640001 -3.6010001 -0.177
6.5650001 -3.5829999 -0.177
6.5619998 -3.562 -0.177
6.552 -3.539 -0.176
6.5770001 -3.5339999 -0.177
6.6069999 -3.5309999 -0.177
6.6240001 -3.5209999 -0.178
6.638 -3.51 -0.178
6.6409998 -3.493 -0.178
6.6409998 -3.474 -0.178
6.6550002 -3.4619999 -0.178
6.6690001 -3.451 -0.17900001
6.664 -3.4289999 -0.178
6.6789999 -3.418 -0.17900001
6.7049999 -3.4119999 -0.17900001
6.7059999 -3.3929999 -0.17900001
6.7150002 -3.3789999 -0.17900001
6.7249999 -3.365 -0.17900001
6.7290001 -3.3469999 -0.17900001
6.744 -3.336 -0.18000001
6.7509999 -3.3199999 -0.18000001
6.7529998 -3.302 -0.18000001
6.7670002 -3.289 -0.18000001
6.7859998 -3.279 -0.18000001
6.79 -3.2609999 -0.18000001
6.7859998 -3.24 -0.18000001
6.7969999 -3.2260001 -0.18000001
6.8039999 -3.21 -0.18000001
6.8099999 -3.1930001 -0.18000001
6.8309999 -3.1830001 -0.18099999
6.8460002 -3.171 -0.18099999
6.8540001 -3.155 -0.18099999
6.8579998 -3.1370001 -0.18099999
6.8709998 -3.1240001 -0.182
6.8829999 -3.109 -0.182
6.902 -3.098 -0.182
6.9039998 -3.079 -0.182
6.9109998 -3.062 -0.182
6.9060001 -3.04 -0.182
6.9320002 -3.0320001 -0.182
6.9369998 -3.0139999 -0.182
6.947 -2.9979999 -0.183
6.9569998 -2.983 -0.183
6.9580002 -2.964 -0.183
6.9679999 -2.948 -0.183
6.9920001 -2.938 -0.183
6.9959998 -2.9200001 -0.183
6.9920001 -2.898 -0.183
6.0560002 -2.4920001 -0.15800001
5.9429998 -2.4289999 -0.155
5.9000001 -2.3940001 -0.154
5.8829999 -2.3699999 -0.154
5.8889999 -2.3559999 -0.154
5.9000001 -2.3429999 -0.154
5.8979998 -2.326 -0.154
5.9099998 -2.313 -0.154
5.9310002 -2.3050001 -0.154
5.9520001 -2.296 -0.155
6.0489998 -2.316 -0.15700001
7.1339998 -2.711 -0.186
7.1329999 -2.6900001 -0.185
7.1409998 -2.6730001 -0.185
7.1539998 -2.6570001 -0.186
7.1529999 -2.6359999 -0.186
7.1739998 -2.6229999 -0.186
7.1799998 -2.605 -0.186
7.1799998 -2.5840001 -0.186
6.5149999 -2.326 -0.169
6.4429998 -2.2820001 -0.167
6.4089999 -2.2509999 -0.16599999
6.4130001 -2.234 -0.16599999
6.421 -2.2190001 -0.16599999
6.427 -2.2019999 -0.16599999
6.4439998 -2.1900001 -0.16599999
6.506 -2.1919999 -0.168
6.717 -2.244 -0.17299999
7.3119998 -2.4219999 -0.18799999
7.3309999 -2.4070001 -0.189
7.329 -2.385 -0.18799999
7.3449998 -2.3699999 -0.189
7.3670001 -2.355 -0.189
7.3779998 -2.3380001 -0.189
7.3930001 -2.3210001 -0.19
7.402 -2.303 -0.19
7.402 -2.2820001 -0.19
7.4219999 -2.267 -0.19
7.434 -2.2490001 -0.19
7.4489999 -2.2320001 -0.19
7.46 -2.214 -0.191
7.474 -2.197 -0.191
7.4829998 -2.178 -0.191
7.4980001 -2.161 -0.191
7.5089998 -2.1429999 -0.191
7.5289998 -2.1270001 -0.192
7.5289998 -2.1059999 -0.192
7.5549998 -2.0910001 -0.192
7.5599999 -2.0710001 -0.192
7.5799999 -2.0550001 -0.192
7.5770001 -2.0320001 -0.192
7.605 -2.0179999 -0.193
7.6160002 -1.999 -0.193
7.6430001 -1.984 -0.19400001
7.6560001 -1.966 -0.19400001
7.6459999 -1.942 -0.193
7.6789999 -1.928 -0.19400001
7.677 -1.906 -0.19400001
7.724 -1.895 -0.19499999
7.7270002 -1.874 -0.19499999
7.7410002 -1.855 -0.19499999
7.7659998 -1.839 -0.19599999
7.776 -1.819 -0.19599999
7.7839999 -1.799 -0.19599999
7.8010001 -1.781 -0.19599999
7.8080001 -1.76 -0.19599999
7.8400002 -1.745 -0.197
7.8559999 -1.726 -0.197
7.8569999 -1.704 -0.197
7.8850002 -1.688 -0.198
7.8790002 -1.664 -0.197
7.9060001 -1.647 -0.198
7.9169998 -1.627 -0.198
7.9359999 -1.608 -0.198
7.9590001 -1.59 -0.199
7.9720001 -1.5700001 -0.199
7.9990001 -1.553 -0.2
8.007 -1.5319999 -0.2
8.0279999 -1.513 -0.2
8.0360003 -1.4910001 -0.2
8.0710001 -1.475 -0.20100001
8.0880003 -1.455 -0.20100001
8.1040001 -1.4349999 -0.20100001
8.1099997 -1.413 -0.20100001
8.1260004 -1.393 -0.20200001
8.1540003 -1.374 -0.20200001
8.151 -1.351 -0.20200001
8.2030001 -1.336 -0.20299999
8.2290001 -1.317 -0.204
8.2360001 -1.295 -0.204
8.2489996 -1.273 -0.204
8.2880001 -1.256 -0.205
8.3170004 -1.237 -0.205
8.3310003 -1.215 -0.206
8.3660002 -1.196 -0.206
8.3870001 -1.176 -0.207
8.4119997 -1.155 -0.207
8.415 -1.132 -0.207
8.4469995 -1.112 -0.208
8.4890003 -1.094 -0.20900001
8.5039997 -1.072 -0.20900001
8.5190001 -1.049 -0.20900001
8.5299997 -1.027 -0.20900001
8.5539999 -1.005 -0.20999999
8.5930004 -0.98500001 -0.211
8.6120005 -0.963 -0.211
8.6479998 -0.94300002 -0.212
8.6560001 -0.91900003 -0.212
8.6669998 -0.89600003 -0.212
8.6940002 -0.87400001 -0.212
8.7189999 -0.852 -0.213
8.7460003 -0.82999998 -0.213
8.757 -0.80599999 -0.213
8.8079996 -0.78600001 -0.215
8.816 -0.76200002 -0.215
8.8500004 -0.74000001 -0.215
8.8920002 -0.71799999 -0.21600001
8.9359999 -0.69599998 -0.21699999
8.9469995 -0.67199999 -0.21699999
8.9650002 -0.648 -0.21799999
8.9639997 -0.62199998 -0.21699999
9 -0.59899998 -0.21799999
9.0579996 -0.57800001 -0.219
9.0839996 -0.55400002 -0.22
9.0959997 -0.52899998 -0.22
9.1260004 -0.505 -0.221
9.1590004 -0.48100001 -0.221
9.1879997 -0.456 -0.222
9.2919998 -0.435 -0.22400001
9.3470001 -0.41100001 -0.22499999
9.1669998 0.124 -0.35800001
9.099 0.133 -0.35499999
9.0970001 0.14399999 -0.35499999
9.0699997 0.155 -0.354
9.0550003 0.16500001 -0.354
9.0679998 0.177 -0.354
9.0500002 0.18799999 -0.354
9.04 0.2 -0.35299999
9.0489998 0.212 -0.354
9.0179996 0.22400001 -0.35299999
9.026 0.236 -0.35299999
9.0209999 0.249 -0.35299999
9.0089998 0.26100001 -0.35299999
9.007 0.27399999 -0.35299999
9.0100002 0.28799999 -0.35299999
9.0100002 0.301 -0.35299999
8.9980001 0.31400001 -0.35299999
8.9969997 0.32800001 -0.35299999
8.9910002 0.34200001 -0.35299999
8.9949999 0.35699999 -0.35299999
8.9650002 0.37 -0.352
8.9820004 0.38499999 -0.35299999
8.9829998 0.40000001 -0.35299999
8.9809999 0.41499999 -0.354
8.9899998 0.43099999 -0.354
8.9949999 0.447 -0.35499999
9 0.46200001 -0.35499999
9.0030003 0.47799999 -0.35499999
9.0039997 0.495 -0.35600001
9.0179996 0.51200002 -0.35600001
9.0120001 0.528 -0.35600001
9.0159998 0.54500002 -0.35699999
9.0209999 0.56199998 -0.35699999
9.0139999 0.579 -0.35699999
9.0319996 0.597 -0.35800001
9.0290003 0.61400002 -0.35800001
9.0430002 0.63300002 -0.359
9.0579996 0.65200001 -0.36000001
9.0559998 0.67000002 -0.36000001
9.0550003 0.68800002 -0.36000001
9.0690002 0.708 -0.361
9.0839996 0.727 -0.36199999
9.0889997 0.74699998 -0.36199999
9.0939999 0.76599997 -0.36300001
9.0889997 0.78500003 -0.36300001
9.0970001 0.80500001 -0.36399999
9.1300001 0.82800001 -0.36500001
9.1260004 0.847 -0.36500001
9.1470003 0.86900002 -0.366
9.1569996 0.89099997 -0.36700001
9.1470003 0.91000003 -0.36700001
9.1680002 0.93300003 -0.368
9.1700001 0.954 -0.36899999
9.1700001 0.97500002 -0.36899999
9.177 0.99699998 -0.37
9.1949997 1.02 -0.37099999
9.2040005 1.043 -0.37099999
9.1990004 1.064 -0.37200001
9.2259998 1.089 -0.373
9.2290001 1.112 -0.373
9.2329998 1.135 -0.37400001
9.2460003 1.159 -0.375
9.2690001 1.184 -0.37599999
9.2670002 1.207 -0.37599999
9.283 1.232 -0.37799999
9.2889996 1.256 -0.37799999
9.3050003 1.2819999 -0.37900001
9.3059998 1.306 -0.38
9.3109999 1.331 -0.38
9.3269997 1.357 -0.38100001
9.3509998 1.385 -0.38299999
9.3620005 1.411 -0.384
9.3669996 1.436 -0.384
9.3809996 1.4630001 -0.38499999
9.401 1.492 -0.38699999
9.4300003 1.522 -0.38800001
9.4289999 1.5470001 -0.389
9.4300003 1.573 -0.389
9.4560003 1.603 -0.391
9.448 1.628 -0.391
9.4589996 1.656 -0.39199999
9.4750004 1.6849999 -0.39300001
9.4910002 1.715 -0.39399999
9.4860001 1.74 -0.39399999
9.493 1.7690001 -0.39500001
9.4980001 1.7970001 -0.396
9.5100002 1.826 -0.39700001
9.5310001 1.858 -0.398
9.5469999 1.8890001 -0.39899999
9.5609999 1.92 -0.40000001
9.5740004 1.95 -0.40099999
9.5909996 1.982 -0.403
9.6000004 2.013 -0.40400001
9.5860004 2.0380001 -0.40400001
9.5979996 2.0699999 -0.405
9.618 2.1029999 -0.40599999
9.6269999 2.1340001 -0.40700001
9.6739998 2.174 -0.40900001
9.6689997 2.2030001 -0.41
9.6739998 2.234 -0.41100001
9.6789999 2.2650001 -0.41100001
9.6820002 2.296 -0.412
9.6920004 2.3280001 -0.41299999
9.7209997 2.3659999 -0.41499999
9.7419996 2.402 -0.41600001
9.7390003 2.4319999 -0.417
9.7460003 2.4649999 -0.41800001
9.7580004 2.4990001 -0.419
9.7440004 2.527 -0.419
9.776 2.5669999 -0.421
9.7709999 2.598 -0.421
9.7849998 2.6340001 -0.42300001
9.8039999 2.671 -0.42399999
9.802 2.7030001 -0.42500001
9.8100004 2.737 -0.426
9.8170004 2.7720001 -0.42699999
9.8280001 2.8080001 -0.428
9.8280001 2.8410001 -0.428
9.8439999 2.8789999 -0.43000001
9.8640003 2.918 -0.43099999
9.8699999 2.954 -0.43200001
9.8800001 2.9909999 -0.43399999
9.8669996 3.0209999 -0.43399999
9.901 3.066 -0.43599999
9.9189997 3.1059999 -0.43700001
9.9329996 3.145 -0.43900001
9.9429998 3.1830001 -0.44
9.9390001 3.2160001 -0.44
9.9560003 3.257 -0.442
9.9490004 3.29 -0.442
9.9580002 3.329 -0.44299999
9.9610004 3.365 -0.44400001
9.9759998 3.4059999 -0.44600001
9.9910002 3.447 -0.447
10.002 3.487 -0.449
10.004 3.5239999 -0.449
10.027 3.569 -0.45100001
10.037 3.6099999 -0.45199999
10.062 3.6559999 -0.454
10.085 3.701 -0.456
10.089 3.74 -0.45699999
10.102 3.783 -0.45899999
10.13 3.8310001 -0.461
10.134 3.8710001 -0.46200001
10.179 3.9260001 -0.465
10.175 3.9630001 -0.465
10.201 4.0120001 -0.46700001
10.219 4.0580001 -0.46900001
10.239 4.1059999 -0.47099999
10.256 4.152 -0.472
10.278 4.2010002 -0.47400001
10.314 4.2550001 -0.477
10.335 4.3039999 -0.479
10.359 4.355 -0.48100001
10.394 4.4099998 -0.48300001
10.424 4.4640002 -0.486
10.45 4.5170002 -0.48800001
10.482 4.572 -0.49000001
10.485 4.6149998 -0.491
10.524 4.6750002 -0.49399999
10.548 4.7270002 -0.49599999
10.56 4.776 -0.498
10.614 4.8429999 -0.50099999
10.639 4.8979998 -0.50400001
10.66 4.9510002 -0.50599998
10.679 5.0029998 -0.50700003
10.706 5.0599999 -0.50999999
10.72 5.1110001 -0.51099998
10.777 5.1820002 -0.51499999
10.794 5.2360001 -0.51700002
10.822 5.2940001 -0.51899999
10.839 5.348 -0.52100003
10.87 5.4089999 -0.52399999
10.877 5.4580002 -0.52499998
10.888 5.5100002 -0.52700001
10.926 5.5760002 -0.52999997
6.8169999 3.507 -0.331
6.7449999 3.5 -0.32800001
6.7210002 3.516 -0.32800001
6.698 3.5320001 -0.32699999
6.697 3.5610001 -0.32800001
6.698 3.5910001 -0.329
6.7379999 3.641 -0.331
6.8649998 3.74 -0.338
11.164 6.0819998 -0.551
6.993 3.8399999 -0.345
11.065 6.0770001 -0.54699999
11.095 6.1420002 -0.55000001
11.113 6.2010002 -0.55199999
11.123 6.256 -0.55299997
11.12 6.303 -0.55400002
11.128 6.3579998 -0.55599999
11.129 6.408 -0.55699998
11.152 6.4710002 -0.56
11.145 6.5180001 -0.56099999
11.166 6.5799999 -0.56300002
11.175 6.6360002 -0.565
11.178 6.6890001 -0.56599998
11.159 6.7280002 -0.56599998
11.171 6.7870002 -0.56800002
11.148 6.8239999 -0.56800002
11.143 6.8720002 -0.56900001
11.13 6.9159999 -0.56999999
11.105 6.9510002 -0.56999999
11.102 7.0019999 -0.57099998
11.149 7.0830002 -0.57499999
11.179 7.1550002 -0.57800001
9.757 6.756 -0.51700002
9.7460003 6.796 -0.51800001
9.6599998 6.783 -0.51499999
9.5959997 6.7859998 -0.51200002
9.5629997 6.809 -0.51200002
9.526 6.829 -0.51099998
9.474 6.8390002 -0.50999999
6.1529999 -4.0689998 -0.155
6.198 -4.0599999 -0.155
6.2160001 -4.033 -0.156
6.2270002 -4.0009999 -0.156
6.2620001 -3.9849999 -0.156
6.2659998 -3.9489999 -0.156
6.2849998 -3.924 -0.15700001
6.3099999 -3.901 -0.15700001
6.3319998 -3.8770001 -0.15700001
6.3600001 -3.8570001 -0.15800001
6.3730001 -3.8280001 -0.15800001
6.3790002 -3.7950001 -0.15800001
6.395 -3.767 -0.15800001
6.4130001 -3.7420001 -0.15800001
6.4310002 -3.7160001 -0.15899999
6.4190001 -3.6730001 -0.15800001
6.421 -3.6389999 -0.15800001
6.4829998 -3.638 -0.15899999
6.513 -3.6199999 -0.16
6.5279999 -3.5929999 -0.16
6.5489998 -3.569 -0.16
6.5710001 -3.546 -0.161
6.585 -3.52 -0.161
6.599 -3.493 -0.161
6.6090002 -3.464 -0.161
6.6409998 -3.4460001 -0.162
6.6529999 -3.4189999 -0.162
6.677 -3.3970001 -0.162
6.6810002 -3.3659999 -0.162
6.7059999 -3.346 -0.162
6.711 -3.3150001 -0.162
6.7329998 -3.293 -0.163
6.7480001 -3.2679999 -0.163
6.7579999 -3.24 -0.163
6.7839999 -3.22 -0.163
6.796 -3.1930001 -0.163
6.816 -3.171 -0.164
6.8340001 -3.1470001 -0.164
6.8460002 -3.1210001 -0.164
6.8720002 -3.1010001 -0.16500001
6.8920002 -3.079 -0.16500001
6.915 -3.0580001 -0.16500001
6.915 -3.027 -0.16500001
6.9239998 -3 -0.16500001
6.954 -2.9820001 -0.16599999
6.9650002 -2.957 -0.16599999
6.9829998 -2.934 -0.16599999
7 -2.911 -0.16599999
7.0110002 -2.885 -0.16599999
7.0489998 -2.8710001 -0.167
5.9780002 -2.4089999 -0.141
5.9109998 -2.3570001 -0.14
5.8930001 -2.325 -0.139
5.8940001 -2.302 -0.139
5.908 -2.283 -0.139
5.9419999 -2.2720001 -0.14
6.0110002 -2.2739999 -0.141
7.1810002 -2.687 -0.169
7.191 -2.6619999 -0.169
7.1999998 -2.6370001 -0.169
7.2090001 -2.612 -0.169
7.2389998 -2.5940001 -0.17
6.5029998 -2.3050001 -0.152
6.4169998 -2.25 -0.15000001
6.4000001 -2.2190001 -0.15000001
6.4190001 -2.2019999 -0.15000001
6.46 -2.191 -0.15099999
6.5780001 -2.207 -0.153
7.3870001 -2.45 -0.17200001
7.3909998 -2.424 -0.17200001
7.4200001 -2.4070001 -0.17299999
7.4380002 -2.385 -0.17299999
7.4660001 -2.3670001 -0.17299999
7.4809999 -2.345 -0.17399999
7.5029998 -2.325 -0.17399999
7.507 -2.299 -0.17399999
7.5310001 -2.28 -0.17399999
7.5300002 -2.253 -0.17399999
7.5650001 -2.2379999 -0.175
7.5819998 -2.2160001 -0.175
7.598 -2.1949999 -0.175
7.6350002 -2.1789999 -0.176
7.6350002 -2.1530001 -0.176
7.6490002 -2.131 -0.176
7.6859999 -2.1159999 -0.177
7.7020001 -2.095 -0.177
7.717 -2.073 -0.177
7.7249999 -2.05 -0.177
7.7550001 -2.033 -0.178
7.776 -2.013 -0.178
7.79 -1.9910001 -0.178
7.816 -1.973 -0.17900001
7.8400002 -1.954 -0.17900001
7.869 -1.936 -0.18000001
7.8740001 -1.913 -0.18000001
7.8889999 -1.892 -0.18000001
7.915 -1.873 -0.18099999
7.927 -1.852 -0.18099999
7.9530001 -1.8329999 -0.18099999
7.967 -1.812 -0.18099999
7.994 -1.794 -0.182
8.0109997 -1.774 -0.182
8.0229998 -1.753 -0.182
8.0419998 -1.733 -0.183
8.0439997 -1.71 -0.183
8.0640001 -1.6900001 -0.183
8.0979996 -1.674 -0.184
8.1160002 -1.654 -0.184
8.1339998 -1.6339999 -0.184
8.1520004 -1.615 -0.184
8.1750002 -1.596 -0.185
8.191 -1.576 -0.185
8.2250004 -1.5599999 -0.186
8.2200003 -1.536 -0.185
8.2559996 -1.52 -0.186
8.2519999 -1.4960001 -0.186
8.2729998 -1.477 -0.186
8.2889996 -1.4579999 -0.18700001
8.3109999 -1.439 -0.18700001
8.3140001 -1.418 -0.18700001
8.3389997 -1.399 -0.18700001
8.3570004 -1.38 -0.18799999
8.3640003 -1.359 -0.18799999
8.3999996 -1.3430001 -0.18799999
8.4239998 -1.325 -0.189
8.4619999 -1.3099999 -0.19
8.4659996 -1.288 -0.19
8.4919996 -1.271 -0.19
8.5080004 -1.252 -0.19
8.5159998 -1.2309999 -0.19
8.5279999 -1.212 -0.191
8.5600004 -1.1950001 -0.191
8.5539999 -1.173 -0.191
8.5790005 -1.156 -0.191
8.5930004 -1.137 -0.192
8.599 -1.117 -0.192
8.6289997 -1.1 -0.192
8.6140003 -1.077 -0.192
8.6549997 -1.062 -0.193
8.6730003 -1.044 -0.193
8.6829996 -1.025 -0.193
8.6999998 -1.007 -0.193
8.7040005 -0.98699999 -0.193
8.7320004 -0.97000003 -0.19400001
8.7379999 -0.95099998 -0.19400001
8.7639999 -0.93400002 -0.19400001
8.7919998 -0.917 -0.19499999
8.7919998 -0.89700001 -0.19499999
8.8109999 -0.88 -0.19499999
8.8459997 -0.86400002 -0.19599999
8.8450003 -0.84399998 -0.19599999
8.868 -0.82700002 -0.19599999
8.8780003 -0.80900002 -0.19599999
8.8800001 -0.79000002 -0.19599999
8.9060001 -0.773 -0.197
8.9239998 -0.75599998 -0.197
8.9420004 -0.73900002 -0.197
8.9429998 -0.72000003 -0.197
8.9569998 -0.70300001 -0.198
8.9750004 -0.68599999 -0.198
8.9949999 -0.66900003 -0.198
9.0109997 -0.65200001 -0.199
9.0340004 -0.63499999 -0.199
9.0500002 -0.61799997 -0.199
9.0710001 -0.602 -0.2
9.0959997 -0.58499998 -0.2
9.1099997 -0.56800002 -0.2
9.118 -0.551 -0.20100001
9.1280003 -0.53399998 -0.20100001
9.1440001 -0.51800001 -0.20100001
9.1660004 -0.50099999 -0.20100001
9.1689997 -0.484 -0.20100001
9.2259998 -0.47 -0.20299999
9.2250004 -0.45300001 -0.20200001
9.2589998 -0.43700001 -0.20299999
9.2779999 -0.421 -0.20299999
9.2740002 -0.40400001 -0.20299999
9.3149996 -0.389 -0.204
9.3369999 -0.373 -0.205
9.3640003 -0.35800001 -0.205
9.4020004 -0.34299999 -0.206
8.8809996 0.104 -0.32300001
8.9099998 0.121 -0.324
8.8990002 0.13699999 -0.324
8.8940001 0.153 -0.324
8.9209995 0.171 -0.32499999
8.9069996 0.18700001 -0.32499999
8.927 0.205 -0.32600001
8.9239998 0.222 -0.32600001
8.9370003 0.23999999 -0.32600001
8.9399996 0.25799999 -0.32699999
8.9359999 0.27599999 -0.32699999
8.9460001 0.294 -0.32699999
8.9469995 0.31200001 -0.32699999
8.9429998 0.331 -0.32800001
8.9429998 0.34900001 -0.32800001
8.9490004 0.368 -0.32800001
8.9499998 0.38800001 -0.32800001
8.9519997 0.40700001 -0.329
8.9580002 0.426 -0.329
8.96 0.44600001 -0.329
8.9879999 0.46700001 -0.331
8.9910002 0.48699999 -0.331
8.9770002 0.50700003 -0.331
8.9799995 0.52700001 -0.331
8.9879999 0.54799998 -0.33199999
8.9969997 0.56900001 -0.33199999
9.0120001 0.59100002 -0.333
9.0270004 0.61299998 -0.33399999
9.0229998 0.634 -0.33399999
9.0489998 0.65700001 -0.33500001
9.0500002 0.67900002 -0.33500001
9.052 0.70099998 -0.336
9.0559998 0.72299999 -0.336
9.0760002 0.74699998 -0.33700001
9.0950003 0.76999998 -0.338
9.1040001 0.79400003 -0.33899999
9.1059999 0.81599998 -0.33899999
9.1040001 0.83899999 -0.33899999
9.1309996 0.86500001 -0.34099999
9.1529999 0.88999999 -0.34200001
9.1680002 0.91500002 -0.34299999
9.1750002 0.93900001 -0.34299999
9.1789999 0.963 -0.34400001
9.1809998 0.98699999 -0.34400001
9.1940002 1.013 -0.345
9.198 1.0369999 -0.34599999
9.2180004 1.064 -0.347
9.2250004 1.089 -0.347
9.2510004 1.117 -0.34900001
9.2629995 1.143 -0.34900001
9.2709999 1.169 -0.34999999
9.2679996 1.194 -0.34999999
9.2930002 1.223 -0.352
9.3170004 1.251 -0.35299999
9.3129997 1.277 -0.35299999
9.3280001 1.3049999 -0.354
9.3590002 1.335 -0.35600001
9.3529997 1.36 -0.35600001
9.3870001 1.392 -0.35699999
9.4020004 1.421 -0.35800001
9.4209995 1.45 -0.36000001
9.434 1.479 -0.36000001
9.4630003 1.511 -0.36199999
9.4820004 1.541 -0.36300001
9.4879999 1.5700001 -0.36399999
9.5 1.599 -0.36500001
9.526 1.632 -0.366
9.5419998 1.6619999 -0.36700001
9.552 1.692 -0.368
9.559 1.722 -0.36899999
9.5760002 1.7539999 -0.37
9.6009998 1.7869999 -0.37099999
9.6009998 1.816 -0.37200001
9.6199999 1.848 -0.373
9.6470003 1.883 -0.37400001
9.6450005 1.911 -0.375
9.6619997 1.944 -0.37599999
9.6680002 1.975 -0.377
9.7040005 2.0120001 -0.37799999
9.7040005 2.0420001 -0.37900001
9.724 2.076 -0.38
9.7320004 2.108 -0.38100001
9.757 2.1440001 -0.38299999
9.757 2.175 -0.38299999
9.7919998 2.2130001 -0.38499999
9.802 2.2460001 -0.38600001
9.8249998 2.283 -0.38699999
9.8299999 2.3150001 -0.38800001
9.8430004 2.3499999 -0.389
9.8629999 2.3859999 -0.38999999
9.8839998 2.4230001 -0.39199999
9.9160004 2.4619999 -0.39399999
9.9160004 2.494 -0.39399999
9.9399996 2.533 -0.396
9.9530001 2.5680001 -0.39700001
9.9689999 2.605 -0.398
9.9689999 2.6370001 -0.39899999
9.9759998 2.6719999 -0.39899999
9.9820004 2.7060001 -0.40000001
9.9969997 2.743 -0.40099999
10.011 2.78 -0.403
10.04 2.8210001 -0.40400001
10.046 2.8570001 -0.405
10.071 2.8970001 -0.40700001
10.072 2.931 -0.40700001
10.102 2.974 -0.40900001
10.118 3.0120001 -0.41100001
10.144 3.0539999 -0.412
10.123 3.082 -0.412
10.148 3.1240001 -0.414
10.139 3.1559999 -0.414
10.174 3.201 -0.41600001
10.176 3.2360001 -0.417
10.219 3.2850001 -0.419
10.212 3.3180001 -0.41999999
10.221 3.3559999 -0.421
10.226 3.3929999 -0.42199999
10.223 3.427 -0.42199999
10.218 3.461 -0.42300001
10.243 3.5050001 -0.42399999
10.243 3.54 -0.42500001
10.269 3.585 -0.42699999
10.299 3.631 -0.42899999
10.343 3.6830001 -0.43099999
10.37 3.7290001 -0.433
10.361 3.7620001 -0.433
10.361 3.7980001 -0.43399999
10.36 3.8340001 -0.435
10.363 3.872 -0.43599999
10.384 3.9170001 -0.43700001
10.416 3.9660001 -0.44
10.427 4.007 -0.44100001
10.456 4.0549998 -0.44299999
10.489 4.105 -0.44499999
10.5 4.1469998 -0.44600001
10.521 4.1929998 -0.44800001
10.541 4.2379999 -0.449
10.549 4.2789998 -0.45100001
10.59 4.3340001 -0.45300001
10.597 4.375 -0.454
10.627 4.4250002 -0.456
10.664 4.4790001 -0.45899999
10.691 4.5289998 -0.461
10.722 4.5809999 -0.463
10.722 4.6199999 -0.46399999
10.749 4.6700001 -0.46599999
10.768 4.717 -0.46700001
10.817 4.7779999 -0.47
10.841 4.8280001 -0.472
10.867 4.8790002 -0.47400001
10.893 4.9299998 -0.47600001
10.918 4.9809999 -0.47799999
10.94 5.0310001 -0.47999999
10.959 5.079 -0.48199999
10.98 5.1290002 -0.484
11.013 5.1849999 -0.486
11.027 5.2309999 -0.48699999
11.063 5.289 -0.49000001
11.078 5.3369999 -0.49200001
11.075 5.3759999 -0.49200001
11.119 5.4380002 -0.495
11.126 5.4819999 -0.49599999
11.127 5.5229998 -0.49700001
11.161 5.5809999 -0.5
11.17 5.6259999 -0.50099999
11.177 5.6700001 -0.50300002
11.214 5.73 -0.505
6.9439998 3.5739999 -0.31299999
11.263 5.796 -0.50800002
6.7750001 3.5109999 -0.30599999
6.7189999 3.507 -0.30399999
6.6989999 3.5209999 -0.30399999
6.6810002 3.536 -0.30399999
6.684 3.562 -0.30399999
6.677 3.582 -0.30500001
6.6929998 3.6159999 -0.30599999
6.7540002 3.6730001 -0.30899999
6.8400002 3.7449999 -0.31400001
6.8850002 3.7950001 -0.317
11.431 6.3010001 -0.52600002
7.0170002 3.8929999 -0.32300001
11.371 6.309 -0.52399999
11.387 6.3590002 -0.52600002
11.386 6.4000001 -0.52700001
11.392 6.4450002 -0.528
11.393 6.4860001 -0.52899998
11.414 6.54 -0.53200001
11.422 6.586 -0.53299999
11.445 6.6399999 -0.53500003
11.448 6.684 -0.53600001
11.469 6.737 -0.53799999
11.478 6.7839999 -0.54000002
11.466 6.8179998 -0.54000002
11.479 6.8670001 -0.542
11.46 6.8969998 -0.542
11.456 6.9349999 -0.54299998
9.6540003 6.6760001 -0.48199999
9.6169996 6.6820002 -0.48100001
9.6020002 6.7020001 -0.48100001
9.625 6.75 -0.48300001
9.75 6.869 -0.49000001
6.5679998 -3.846 -0.146
6.5809999 -3.835 -0.146
6.585 -3.819 -0.146
6.605 -3.812 -0.147
6.6129999 -3.7980001 -0.147
6.6259999 -3.7869999 -0.147
6.6339998 -3.773 -0.147
6.6420002 -3.7590001 -0.147
6.6500001 -3.7449999 -0.147
6.6669998 -3.7349999 -0.147
6.6589999 -3.7119999 -0.147
6.6669998 -3.698 -0.147
6.6750002 -3.6830001 -0.147
6.6950002 -3.6760001 -0.148
6.7090001 -3.664 -0.148
6.7119999 -3.6470001 -0.148
6.7150002 -3.6289999 -0.148
6.7150002 -3.6099999 -0.148
6.7360001 -3.6029999 -0.148
6.744 -3.5880001 -0.148
6.7519999 -3.573 -0.148
6.7600002 -3.5580001 -0.148
6.7810001 -3.55 -0.149
6.789 -3.5339999 -0.149
6.7810001 -3.5109999 -0.149
6.7909999 -3.497 -0.149
6.7989998 -3.4820001 -0.149
6.8140001 -3.47 -0.149
6.8150001 -3.451 -0.149
6.8249998 -3.437 -0.149
6.8309999 -3.4200001 -0.149
6.8439999 -3.4070001 -0.149
6.8509998 -3.391 -0.149
6.8590002 -3.375 -0.149
6.862 -3.3570001 -0.149
6.875 -3.3440001 -0.15000001
6.8990002 -3.336 -0.15000001
6.9109998 -3.322 -0.15000001
6.9120002 -3.302 -0.15000001
6.9289999 -3.2909999 -0.15000001
6.934 -3.273 -0.15000001
6.9400001 -3.256 -0.15000001
6.9559999 -3.244 -0.15099999
6.9710002 -3.2309999 -0.15099999
6.9780002 -3.214 -0.15099999
6.9860001 -3.198 -0.15099999
6.9920001 -3.1800001 -0.15099999
7.0040002 -3.1659999 -0.15099999
7.02 -3.1530001 -0.15099999
7.0209999 -3.1329999 -0.15099999
7.0430002 -3.122 -0.152
7.04 -3.1010001 -0.15099999
7.0599999 -3.0899999 -0.152
7.0710001 -3.0739999 -0.152
7.0760002 -3.056 -0.152
7.086 -3.04 -0.152
7.1100001 -3.03 -0.152
7.1009998 -3.006 -0.152
7.1209998 -2.994 -0.152
7.1259999 -2.9749999 -0.152
7.1500001 -2.9649999 -0.153
7.1539998 -2.9460001 -0.153
6.1360002 -2.5090001 -0.131
5.9689999 -2.4230001 -0.127
5.915 -2.3840001 -0.126
5.908 -2.365 -0.126
5.8979998 -2.3440001 -0.126
5.8930001 -2.325 -0.125
5.9039998 -2.312 -0.125
5.9099998 -2.2980001 -0.126
5.9229999 -2.286 -0.126
5.9549999 -2.2809999 -0.126
6.0139999 -2.286 -0.127
6.1269999 -2.312 -0.13
7.2940001 -2.7309999 -0.154
7.309 -2.7149999 -0.155
7.3130002 -2.6960001 -0.155
7.3260002 -2.6800001 -0.155
7.355 -2.6689999 -0.155
6.6279998 -2.3859999 -0.14
6.4780002 -2.3139999 -0.13699999
6.4130001 -2.2720001 -0.13500001
6.408 -2.2520001 -0.13500001
6.414 -2.2349999 -0.13500001
6.4130001 -2.217 -0.13500001
6.4250002 -2.2019999 -0.13500001
6.448 -2.1919999 -0.13500001
6.526 -2.2 -0.13699999
7.4770002 -2.4990001 -0.15700001
7.4790001 -2.4779999 -0.15700001
7.5019999 -2.464 -0.15700001
7.5019999 -2.4430001 -0.15700001
7.5229998 -2.428 -0.15700001
7.5409999 -2.4119999 -0.15800001
7.5549998 -2.395 -0.15800001
7.5679998 -2.3770001 -0.15800001
7.5710001 -2.3559999 -0.15800001
7.5879998 -2.3399999 -0.15800001
7.6079998 -2.3239999 -0.15800001
7.6220002 -2.3069999 -0.15899999
7.6259999 -2.286 -0.15899999
7.6230001 -2.263 -0.15800001
7.6570001 -2.2509999 -0.15899999
7.6630001 -2.2320001 -0.15899999
7.6869998 -2.2160001 -0.15899999
7.704 -2.1989999 -0.16
7.7160001 -2.1800001 -0.16
7.723 -2.161 -0.16
7.7470002 -2.145 -0.16
7.7639999 -2.1270001 -0.16
7.7750001 -2.108 -0.161
7.7930002 -2.0910001 -0.161
7.8049998 -2.072 -0.161
7.8179998 -2.053 -0.161
7.8299999 -2.0339999 -0.161
7.8579998 -2.0179999 -0.162
7.8579998 -1.9960001 -0.162
7.8779998 -1.979 -0.162
7.8800001 -1.956 -0.162
7.921 -1.944 -0.163
7.9450002 -1.927 -0.163
7.9489999 -1.905 -0.163
7.96 -1.885 -0.163
7.9749999 -1.8660001 -0.163
7.9860001 -1.846 -0.163
8.0129995 -1.829 -0.164
8.0319996 -1.811 -0.164
8.0579996 -1.794 -0.164
8.0699997 -1.774 -0.16500001
8.0880003 -1.7539999 -0.16500001
8.1070004 -1.735 -0.16500001
8.1289997 -1.717 -0.16500001
8.1339998 -1.6950001 -0.16500001
8.1549997 -1.676 -0.16599999
8.1800003 -1.658 -0.16599999
8.2069998 -1.64 -0.16599999
8.2080002 -1.617 -0.16599999
8.2200003 -1.596 -0.167
8.2489996 -1.5779999 -0.167
8.2910004 -1.562 -0.168
8.3140001 -1.543 -0.168
8.3140001 -1.5190001 -0.168
8.3330002 -1.499 -0.168
8.3409996 -1.477 -0.168
8.3559999 -1.456 -0.168
8.3760004 -1.4349999 -0.169
8.4259996 -1.42 -0.17
8.4219999 -1.395 -0.169
8.4309998 -1.373 -0.169
8.474 -1.3559999 -0.17
8.4870005 -1.334 -0.17
8.5100002 -1.313 -0.171
8.5430002 -1.294 -0.171
8.5749998 -1.275 -0.17200001
8.6140003 -1.256 -0.17200001
8.6049995 -1.23 -0.17200001
8.6230001 -1.209 -0.17200001
8.6400003 -1.186 -0.17299999
8.6789999 -1.1670001 -0.17299999
8.6929998 -1.1440001 -0.17299999
8.7060003 -1.1210001 -0.17299999
8.7209997 -1.099 -0.17399999
8.7449999 -1.077 -0.17399999
8.7729998 -1.0549999 -0.17399999
8.7790003 -1.031 -0.17399999
8.8210001 -1.011 -0.175
8.8339996 -0.98799998 -0.175
8.8830004 -0.96799999 -0.176
8.9069996 -0.94499999 -0.176
8.9359999 -0.92299998 -0.177
8.9549999 -0.89999998 -0.177
8.993 -0.87800002 -0.178
9.0030003 -0.85399997 -0.178
9.0340004 -0.83099997 -0.178
9.0570002 -0.80699998 -0.17900001
9.0670004 -0.78299999 -0.17900001
9.0909996 -0.759 -0.17900001
9.1260004 -0.736 -0.18000001
9.1450005 -0.71200001 -0.18000001
9.1899996 -0.68900001 -0.18099999
9.2130003 -0.66500002 -0.18099999
9.2469997 -0.64099997 -0.18099999
9.2840004 -0.61699998 -0.182
9.3190002 -0.59299999 -0.183
9.342 -0.56800002 -0.183
9.3800001 -0.54400003 -0.183
9.4049997 -0.51899999 -0.184
9.4379997 -0.49399999 -0.184
9.4980001 -0.47 -0.185
9.2910004 0.149 -0.315
9.2709999 0.16 -0.31400001
9.2370005 0.171 -0.31299999
9.2419996 0.183 -0.31299999
9.2360001 0.19400001 -0.31299999
9.2419996 0.207 -0.31400001
9.2299995 0.219 -0.31299999
9.2139997 0.23100001 -0.31299999
9.2080002 0.243 -0.31299999
9.1999998 0.25600001 -0.31299999
9.165 0.26800001 -0.31200001
9.177 0.28099999 -0.31200001
9.1520004 0.294 -0.31099999
9.1560001 0.308 -0.31200001
9.1560001 0.322 -0.31200001
9.1639996 0.336 -0.31200001
9.1800003 0.35100001 -0.31299999
9.1619997 0.36500001 -0.31299999
9.1590004 0.38 -0.31299999
9.1639996 0.39500001 -0.31299999
9.1730003 0.41 -0.31299999
9.1660004 0.42500001 -0.31299999
9.165 0.44100001 -0.31299999
9.1669998 0.45699999 -0.31400001
9.1700001 0.47299999 -0.31400001
9.1689997 0.48899999 -0.31400001
9.1820002 0.50599998 -0.315
9.1750002 0.52200001 -0.315
9.1929998 0.54000002 -0.31600001
9.198 0.55699998 -0.31600001
9.2049999 0.57499999 -0.317
9.2040005 0.59200001 -0.317
9.224 0.611 -0.31799999
9.2229996 0.62900001 -0.31799999
9.2309999 0.64700001 -0.31799999
9.2329998 0.66600001 -0.31900001
9.25 0.685 -0.31999999
9.2440004 0.704 -0.31999999
9.2580004 0.72299999 -0.31999999
9.2600002 0.74299997 -0.32100001
9.2740002 0.76300001 -0.32100001
9.2889996 0.78399998 -0.322
9.3120003 0.80500001 -0.32300001
9.2950001 0.824 -0.32300001
9.3079996 0.84500003 -0.324
9.3219995 0.866 -0.324
9.3310003 0.88800001 -0.32499999
9.349 0.91000003 -0.32600001
9.3610001 0.93199998 -0.32699999
9.382 0.95499998 -0.32800001
9.375 0.97600001 -0.32800001
9.3850002 0.99800003 -0.32800001
9.3850002 1.02 -0.329
9.3940001 1.043 -0.329
9.4209995 1.068 -0.331
9.441 1.0930001 -0.33199999
9.4429998 1.115 -0.33199999
9.4549999 1.14 -0.333
9.474 1.165 -0.33399999
9.4860001 1.189 -0.33500001
9.4650002 1.21 -0.33399999
9.4949999 1.237 -0.336
9.4940004 1.261 -0.336
9.5270004 1.289 -0.338
9.5299997 1.314 -0.338
9.5469999 1.34 -0.33899999
9.5679998 1.368 -0.34
9.585 1.395 -0.34099999
9.5970001 1.4220001 -0.34200001
9.6129999 1.449 -0.34299999
9.6309996 1.477 -0.34400001
9.6300001 1.503 -0.34400001
9.6490002 1.531 -0.345
9.6599998 1.559 -0.34599999
9.6890001 1.59 -0.34799999
9.6990004 1.618 -0.34900001
9.7119999 1.647 -0.34900001
9.7340002 1.677 -0.35100001
9.7510004 1.707 -0.352
9.7729998 1.738 -0.35299999
9.7910004 1.7690001 -0.354
9.8039999 1.799 -0.35499999
9.8039999 1.827 -0.35499999
9.8319998 1.86 -0.35699999
9.8439999 1.891 -0.35800001
9.8559999 1.921 -0.359
9.875 1.954 -0.36000001
9.8839998 1.984 -0.361
9.8929996 2.0150001 -0.36199999
9.9060001 2.0469999 -0.36300001
9.9230003 2.0799999 -0.36399999
9.9200001 2.109 -0.36399999
9.9350004 2.142 -0.36500001
9.9469995 2.175 -0.366
9.9580002 2.207 -0.36700001
9.9619999 2.2390001 -0.368
9.9919996 2.276 -0.36899999
10.008 2.3110001 -0.37
10.028 2.346 -0.37200001
10.037 2.3800001 -0.373
10.066 2.418 -0.37400001
10.074 2.451 -0.375
10.106 2.4909999 -0.377
10.11 2.5239999 -0.37799999
10.105 2.556 -0.37799999
10.135 2.596 -0.38
10.151 2.632 -0.38100001
10.166 2.6689999 -0.382
10.167 2.7030001 -0.38299999
10.217 2.7490001 -0.38499999
10.242 2.79 -0.38699999
10.269 2.8310001 -0.38800001
10.288 2.8699999 -0.38999999
10.301 2.908 -0.391
10.317 2.947 -0.39199999
10.326 2.984 -0.39300001
10.365 3.0309999 -0.39500001
10.367 3.0669999 -0.396
10.356 3.099 -0.396
10.365 3.1370001 -0.39700001
10.361 3.171 -0.398
10.38 3.2130001 -0.39899999
10.387 3.2509999 -0.40000001
10.393 3.289 -0.40099999
10.418 3.3340001 -0.403
10.434 3.3759999 -0.40400001
10.435 3.4130001 -0.405
10.438 3.451 -0.405
10.436 3.487 -0.40599999
10.428 3.5220001 -0.40700001
10.444 3.5650001 -0.40799999
10.485 3.6159999 -0.41
10.49 3.6559999 -0.41100001
10.498 3.697 -0.412
10.533 3.7479999 -0.414
10.515 3.78 -0.414
10.519 3.8210001 -0.41499999
10.552 3.8710001 -0.417
10.548 3.9089999 -0.41800001
10.56 3.9530001 -0.419
10.583 4.0009999 -0.421
10.615 4.053 -0.42300001
10.632 4.0999999 -0.42399999
10.655 4.1490002 -0.426
10.676 4.198 -0.428
10.673 4.237 -0.428
10.688 4.2849998 -0.43000001
10.709 4.3340001 -0.43200001
10.742 4.3889999 -0.43399999
10.766 4.441 -0.43599999
10.792 4.493 -0.43700001
10.825 4.5489998 -0.44
10.861 4.6069999 -0.442
10.885 4.6599998 -0.44400001
10.892 4.7059999 -0.44499999
10.935 4.7690001 -0.44800001
10.961 4.823 -0.44999999
10.975 4.8740001 -0.45100001
11.006 4.9310002 -0.45300001
11.043 4.9920001 -0.456
11.051 5.0409999 -0.45699999
11.062 5.0910001 -0.458
11.121 5.1630001 -0.46200001
11.125 5.211 -0.463
11.149 5.2680001 -0.465
11.152 5.3150001 -0.46599999
11.178 5.3740001 -0.46799999
11.203 5.4320002 -0.47
11.214 5.4840002 -0.47099999
11.227 5.5380001 -0.47299999
11.222 5.5819998 -0.47400001
11.263 5.6500001 -0.47600001
11.288 5.71 -0.479
11.299 5.7639999 -0.47999999
7.0500002 3.6259999 -0.30000001
11.316 5.8210001 -0.48199999
6.7989998 3.526 -0.28999999
6.7280002 3.5179999 -0.287
6.6999998 3.5320001 -0.287
6.6849999 3.5539999 -0.287
6.6760001 3.5780001 -0.287
6.6739998 3.6059999 -0.28799999
6.7069998 3.6530001 -0.28999999
6.7820001 3.723 -0.294
6.8590002 3.7950001 -0.29800001
6.9289999 3.865 -0.301
11.408 6.3639998 -0.49599999
11.399 6.4089999 -0.49700001
11.407 6.4640002 -0.49900001
11.41 6.5170002 -0.5
11.424 6.5760002 -0.50199997
11.444 6.638 -0.50400001
11.44 6.6880002 -0.505
11.443 6.7410002 -0.50599998
11.433 6.7870002 -0.50599998
11.47 6.8610001 -0.509
11.452 6.9029999 -0.50999999
11.443 6.9499998 -0.50999999
11.462 7.0139999 -0.51200002
11.433 7.0489998 -0.51200002
11.371 7.0630002 -0.51099998
9.8190002 6.6550002 -0.454
9.7440004 6.651 -0.45100001
9.71 6.6750002 -0.45100001
9.7229996 6.7309999 -0.45199999
9.8120003 6.8400002 -0.458
6.27 -4.145 -0.126
6.3210001 -4.138 -0.127
6.3429999 -4.1129999 -0.12800001
6.355 -4.0809999 -0.12800001
6.382 -4.0599999 -0.12800001
6.408 -4.0370002 -0.12800001
6.4320002 -4.013 -0.12899999
6.4549999 -3.9890001 -0.12899999
6.4720001 -3.961 -0.12899999
6.4889998 -3.9330001 -0.12899999
6.5079999 -3.9070001 -0.12899999
6.5289998 -3.882 -0.13
6.539 -3.8499999 -0.13
6.5549998 -3.823 -0.13
6.5809999 -3.8010001 -0.13
6.5939999 -3.7709999 -0.13
6.6079998 -3.743 -0.13
6.6300001 -3.7190001 -0.13
6.651 -3.6949999 -0.131
6.671 -3.6700001 -0.131
6.7020001 -3.651 -0.131
6.7059999 -3.618 -0.131
6.7259998 -3.5940001 -0.131
6.7389998 -3.5650001 -0.132
6.7399998 -3.5309999 -0.131
6.7680001 -3.5109999 -0.132
6.7789998 -3.4820001 -0.132
6.8039999 -3.461 -0.132
6.8270001 -3.438 -0.132
6.8429999 -3.4130001 -0.133
6.855 -3.385 -0.133
6.8779998 -3.3629999 -0.133
6.895 -3.3369999 -0.133
6.9289999 -3.3199999 -0.134
6.9330001 -3.29 -0.134
6.947 -3.263 -0.134
6.9590001 -3.2360001 -0.134
6.9790001 -3.2130001 -0.134
6.9970002 -3.1889999 -0.134
7.0289998 -3.171 -0.13500001
7.0409999 -3.1440001 -0.13500001
7.0570002 -3.1199999 -0.13500001
7.0700002 -3.0940001 -0.13500001
7.0890002 -3.0699999 -0.13500001
7.0999999 -3.0439999 -0.13500001
7.125 -3.023 -0.13600001
7.1339998 -2.9960001 -0.13600001
7.1669998 -2.9790001 -0.13600001
7.1719999 -2.95 -0.13600001
7.1989999 -2.931 -0.13600001
6.0679998 -2.4449999 -0.115
5.9549999 -2.3740001 -0.112
5.9060001 -2.3299999 -0.111
5.895 -2.3010001 -0.111
5.914 -2.2850001 -0.111
5.9310002 -2.267 -0.112
5.973 -2.2579999 -0.112
6.0799999 -2.2739999 -0.114
7.3660002 -2.7260001 -0.138
7.382 -2.7030001 -0.138
7.3990002 -2.6800001 -0.139
6.7189999 -2.4070001 -0.126
6.4439998 -2.2839999 -0.12
6.3979998 -2.243 -0.119
6.4050002 -2.221 -0.119
6.4130001 -2.1989999 -0.119
6.4689999 -2.194 -0.12
6.645 -2.2279999 -0.124
7.533 -2.4979999 -0.14
7.572 -2.483 -0.141
7.5949998 -2.4630001 -0.141
7.6139998 -2.441 -0.141
7.631 -2.4189999 -0.141
7.6589999 -2.4000001 -0.142
7.6680002 -2.375 -0.142
7.6950002 -2.3570001 -0.142
7.7090001 -2.3329999 -0.142
7.71 -2.3069999 -0.142
7.744 -2.29 -0.14300001
7.7729998 -2.2720001 -0.14300001
7.7800002 -2.247 -0.14300001
7.8070002 -2.2279999 -0.14300001
7.8210001 -2.2049999 -0.14399999
7.822 -2.1789999 -0.14300001
7.8769999 -2.168 -0.14399999
7.8979998 -2.148 -0.145
7.8930001 -2.1199999 -0.14399999
7.9239998 -2.102 -0.145
7.9359999 -2.0799999 -0.145
7.9499998 -2.0580001 -0.145
7.9710002 -2.0369999 -0.145
8.0039997 -2.02 -0.146
8.0179996 -1.998 -0.146
8.0419998 -1.979 -0.146
8.0769997 -1.962 -0.147
8.085 -1.939 -0.147
8.1029997 -1.918 -0.147
8.1169996 -1.896 -0.147
8.1309996 -1.874 -0.147
8.1630001 -1.857 -0.148
8.1739998 -1.835 -0.148
8.2019997 -1.816 -0.148
8.2110004 -1.794 -0.148
8.2270002 -1.773 -0.149
8.2709999 -1.758 -0.149
8.2810001 -1.7359999 -0.149
8.2980003 -1.715 -0.15000001
8.3140001 -1.6950001 -0.15000001
8.316 -1.671 -0.15000001
8.3529997 -1.655 -0.15000001
8.3789997 -1.636 -0.15099999
8.3909998 -1.615 -0.15099999
8.4219999 -1.597 -0.15099999
8.4560003 -1.58 -0.152
8.4510002 -1.556 -0.15099999
8.4530001 -1.533 -0.15099999
8.4650002 -1.512 -0.152
8.4989996 -1.495 -0.152
8.5240002 -1.476 -0.152
8.5419998 -1.457 -0.153
8.5559998 -1.436 -0.153
8.5830002 -1.418 -0.153
8.5869999 -1.396 -0.153
8.6120005 -1.378 -0.153
8.6079998 -1.355 -0.153
8.6499996 -1.339 -0.154
8.6870003 -1.323 -0.155
8.6750002 -1.299 -0.154
8.7110004 -1.2819999 -0.155
8.7250004 -1.262 -0.155
8.7469997 -1.244 -0.155
8.7410002 -1.221 -0.155
8.7620001 -1.202 -0.155
8.7770004 -1.183 -0.155
8.802 -1.165 -0.156
8.8439999 -1.149 -0.156
8.8400002 -1.127 -0.156
8.8739996 -1.11 -0.15700001
8.8730001 -1.089 -0.15700001
8.8809996 -1.069 -0.15700001
8.9020004 -1.051 -0.15700001
8.9239998 -1.033 -0.15700001
8.9219999 -1.012 -0.15700001
8.9619999 -0.99599999 -0.15800001
8.9770002 -0.977 -0.15800001
9.0109997 -0.96100003 -0.15899999
9.0469999 -0.94400001 -0.15899999
9.0539999 -0.92500001 -0.15899999
9.0620003 -0.90499997 -0.15899999
9.0670004 -0.88599998 -0.15899999
9.0909996 -0.86799997 -0.16
9.1090002 -0.85000002 -0.16
9.1199999 -0.83200002 -0.16
9.1520004 -0.815 -0.16
9.1739998 -0.79799998 -0.161
9.198 -0.77999997 -0.161
9.217 -0.76200002 -0.161
9.2220001 -0.74400002 -0.161
9.2349997 -0.72500002 -0.161
9.2480001 -0.70700002 -0.162
9.2639999 -0.69 -0.162
9.2790003 -0.67199999 -0.162
9.2860003 -0.65399998 -0.162
9.3140001 -0.63700002 -0.162
9.3240004 -0.61900002 -0.163
9.368 -0.60399997 -0.163
9.382 -0.58600003 -0.163
9.3789997 -0.56800002 -0.163
9.408 -0.55199999 -0.164
9.4169998 -0.53399998 -0.164
9.4750004 -0.51899999 -0.16500001
9.474 -0.50099999 -0.16500001
9.54 -0.48699999 -0.16599999
9.5579996 -0.47 -0.16599999
9.5769997 -0.45300001 -0.16599999
9.6409998 -0.43900001 -0.167
9.5760002 -0.41800001 -0.16599999
9.6949997 -0.40599999 -0.168
9.0830002 0.108 -0.28299999
9.1149998 0.125 -0.28400001
9.1420002 0.142 -0.285
9.1479998 0.15899999 -0.28600001
9.165 0.177 -0.28600001
9.165 0.19400001 -0.28600001
9.1680002 0.212 -0.287
9.1709995 0.229 -0.287
9.1590004 0.24699999 -0.287
9.1750002 0.266 -0.28799999
9.1809998 0.28400001 -0.28799999
9.1929998 0.303 -0.28799999
9.1850004 0.322 -0.28799999
9.1920004 0.34099999 -0.289
9.2030001 0.361 -0.289
9.2069998 0.38 -0.28999999
9.2220001 0.40000001 -0.28999999
9.2110004 0.41999999 -0.28999999
9.2130003 0.44 -0.28999999
9.2449999 0.461 -0.292
9.2200003 0.47999999 -0.29100001
9.2519999 0.50199997 -0.292
9.2480001 0.523 -0.292
9.2629995 0.54500002 -0.29300001
9.2799997 0.56699997 -0.294
9.2740002 0.588 -0.294
9.3149996 0.61199999 -0.296
9.3100004 0.63300002 -0.296
9.3249998 0.65600002 -0.296
9.3190002 0.67799997 -0.296
9.3210001 0.69999999 -0.29699999
9.3199997 0.722 -0.29699999
9.3479996 0.74699998 -0.29800001
9.3430004 0.76899999 -0.29800001
9.3559999 0.79299998 -0.29899999
9.3699999 0.81699997 -0.30000001
9.3909998 0.84299999 -0.301
9.3920002 0.866 -0.301
9.4200001 0.89200002 -0.30199999
9.408 0.91500002 -0.30199999
9.448 0.94300002 -0.30399999
9.4460001 0.96700001 -0.30399999
9.4779997 0.995 -0.30500001
9.4890003 1.021 -0.30599999
9.5 1.0470001 -0.30700001
9.5039997 1.072 -0.30700001
9.5240002 1.099 -0.308
9.5240002 1.125 -0.308
9.5360003 1.152 -0.30899999
9.5600004 1.1799999 -0.31
9.5629997 1.206 -0.31099999
9.592 1.2359999 -0.31200001
9.5869999 1.262 -0.31200001
9.6009998 1.29 -0.31299999
9.6110001 1.318 -0.31400001
9.6499996 1.35 -0.315
9.6490002 1.376 -0.315
9.6739998 1.4069999 -0.317
9.691 1.437 -0.31799999
9.7139997 1.4680001 -0.31900001
9.7320004 1.498 -0.31999999
9.7469997 1.528 -0.32100001
9.7700005 1.5599999 -0.322
9.7919998 1.592 -0.32300001
9.809 1.623 -0.324
9.8369999 1.656 -0.32499999
9.8430004 1.686 -0.32600001
9.8479996 1.716 -0.32600001
9.875 1.75 -0.32800001
9.8789997 1.779 -0.32800001
9.9110003 1.8150001 -0.33000001
9.9280005 1.847 -0.331
9.9490004 1.881 -0.33199999
9.9549999 1.9119999 -0.33199999
9.9829998 1.948 -0.33399999
10.009 1.983 -0.33500001
10.006 2.013 -0.336
10.024 2.0469999 -0.33700001
10.046 2.0829999 -0.338
10.062 2.1170001 -0.33899999
10.073 2.151 -0.34
10.093 2.1860001 -0.34099999
10.097 2.2190001 -0.34099999
10.087 2.2479999 -0.34200001
10.116 2.286 -0.34299999
10.139 2.323 -0.34400001
10.158 2.3599999 -0.345
10.186 2.3989999 -0.347
10.19 2.4319999 -0.34799999
10.197 2.4660001 -0.34799999
10.204 2.5 -0.34900001
10.235 2.5409999 -0.35100001
10.246 2.5769999 -0.35100001
10.259 2.6129999 -0.352
10.277 2.651 -0.354
10.31 2.6930001 -0.35499999
10.336 2.734 -0.35699999
10.351 2.7709999 -0.35800001
10.39 2.816 -0.36000001
10.404 2.8540001 -0.361
10.437 2.898 -0.36199999
10.459 2.9389999 -0.36399999
10.482 2.98 -0.36500001
10.489 3.017 -0.366
10.52 3.0610001 -0.368
10.534 3.0999999 -0.36899999
10.528 3.1340001 -0.36899999
10.537 3.1719999 -0.37
10.557 3.2130001 -0.37099999
10.566 3.2520001 -0.37200001
10.59 3.2950001 -0.37400001
10.586 3.3299999 -0.37400001
10.584 3.365 -0.375
10.597 3.4059999 -0.37599999
10.64 3.4560001 -0.37799999
10.627 3.4879999 -0.37799999
10.63 3.526 -0.37900001
10.648 3.5680001 -0.38
10.622 3.596 -0.38
10.654 3.6440001 -0.382
10.664 3.6849999 -0.38299999
10.653 3.7179999 -0.38299999
10.675 3.763 -0.384
10.68 3.802 -0.38499999
10.651 3.829 -0.38499999
10.68 3.8770001 -0.38699999
10.696 3.9200001 -0.38800001
10.726 3.9690001 -0.38999999
10.73 4.0079999 -0.38999999
10.746 4.052 -0.39199999
10.773 4.0999999 -0.39300001
10.788 4.1440001 -0.39500001
10.807 4.1900001 -0.396
10.821 4.2340002 -0.39700001
10.847 4.2820001 -0.39899999
10.865 4.3280001 -0.40000001
10.867 4.368 -0.40099999
10.883 4.4130001 -0.40200001
10.9 4.4590001 -0.40400001
10.94 4.5149999 -0.40599999
10.955 4.5609999 -0.40700001
10.993 4.6160002 -0.41
11.021 4.6669998 -0.41100001
11.042 4.7160001 -0.41299999
11.076 4.7709999 -0.41499999
11.103 4.822 -0.417
11.128 4.8730001 -0.41800001
11.145 4.921 -0.41999999
11.188 4.9809999 -0.42199999
11.203 5.0279999 -0.42399999
11.21 5.072 -0.42500001
11.241 5.1269999 -0.42699999
11.277 5.184 -0.42899999
11.284 5.2290001 -0.43000001
11.299 5.276 -0.43099999
11.304 5.3200002 -0.43200001
11.337 5.3769999 -0.435
11.37 5.434 -0.43700001
11.383 5.4819999 -0.43799999
11.397 5.5300002 -0.43900001
11.407 5.5770001 -0.44100001
11.439 5.6339998 -0.44299999
11.45 5.6810002 -0.44400001
11.465 5.7309999 -0.44600001
11.482 5.7810001 -0.447
11.506 5.836 -0.449
11.505 5.8769999 -0.44999999
11.531 5.9320002 -0.45199999
6.9130001 3.582 -0.271
11.562 5.9910002 -0.454
6.77 3.5320001 -0.266
6.7049999 3.523 -0.264
6.6830001 3.536 -0.264
6.6570001 3.5469999 -0.26300001
6.6630001 3.5739999 -0.264
6.6599998 3.5969999 -0.264
6.6849999 3.6340001 -0.266
6.7340002 3.6860001 -0.26800001
6.803 3.7490001 -0.27200001
6.8319998 3.789 -0.273
6.8899999 3.846 -0.27599999
11.875 6.6300001 -0.477
11.753 6.6040001 -0.47299999
11.727 6.632 -0.472
11.754 6.6900001 -0.47499999
11.765 6.7389998 -0.47600001
11.796 6.8000002 -0.47799999
11.803 6.8460002 -0.479
11.829 6.9039998 -0.48199999
11.878 6.9749999 -0.48500001
11.895 7.0289998 -0.486
11.945 7.0999999 -0.48899999
12.01 7.1820002 -0.493
9.8380003 6.802 -0.42699999
9.7110004 6.7449999 -0.42300001
9.6759996 6.7529998 -0.42199999
9.6370001 6.757 -0.421
9.6120005 6.77 -0.421
9.5839996 6.7810001 -0.421
9.5369997 6.7779999 -0.419
9.5080004 6.7870002 -0.419
9.4890003 6.8039999 -0.419
9.4709997 6.8200002 -0.419
9.441 6.8280001 -0.419
9.4519997 6.8649998 -0.41999999
9.4239998 6.8740001 -0.41999999
6.7090001 -3.9319999 -0.117
6.7119999 -3.915 -0.117
6.7189999 -3.9000001 -0.117
6.7270002 -3.885 -0.117
6.7350001 -3.8710001 -0.117
6.7490001 -3.8599999 -0.117
6.7649999 -3.8499999 -0.117
6.7729998 -3.836 -0.117
6.7750001 -3.8180001 -0.117
6.7880001 -3.806 -0.117
6.7940001 -3.79 -0.117
6.8049998 -3.777 -0.117
6.8140001 -3.763 -0.117
6.8260002 -3.75 -0.118
6.835 -3.7360001 -0.118
6.8410001 -3.7190001 -0.118
6.8530002 -3.707 -0.118
6.8540001 -3.688 -0.118
6.8559999 -3.6689999 -0.118
6.8639998 -3.654 -0.118
6.8649998 -3.635 -0.118
6.8730001 -3.6199999 -0.118
6.8889999 -3.608 -0.118
6.8990002 -3.5940001 -0.118
6.9109998 -3.5810001 -0.118
6.9109998 -3.5610001 -0.118
6.9390001 -3.556 -0.118
6.9400001 -3.5369999 -0.118
6.9429998 -3.5179999 -0.118
6.9450002 -3.4990001 -0.118
6.9580002 -3.4860001 -0.118
6.961 -3.467 -0.118
6.974 -3.454 -0.118
6.9850001 -3.4389999 -0.118
6.9959998 -3.425 -0.118
7.0110002 -3.4119999 -0.119
7.0250001 -3.3989999 -0.119
7.027 -3.3800001 -0.119
7.0409999 -3.3659999 -0.119
7.0630002 -3.3559999 -0.119
7.0609999 -3.335 -0.119
7.085 -3.326 -0.119
7.0910001 -3.309 -0.119
7.098 -3.2920001 -0.119
7.1069999 -3.2750001 -0.119
7.125 -3.263 -0.12
7.1360002 -3.2479999 -0.12
7.151 -3.234 -0.12
7.1490002 -3.2119999 -0.12
7.1719999 -3.2019999 -0.12
7.1799998 -3.1849999 -0.12
7.1939998 -3.171 -0.12
7.1950002 -3.1500001 -0.12
7.2119999 -3.1370001 -0.12
7.224 -3.122 -0.12
7.224 -3.1010001 -0.12
7.2449999 -3.089 -0.121
7.2600002 -3.075 -0.121
7.257 -3.052 -0.121
7.2750001 -3.039 -0.121
7.2810001 -3.0209999 -0.121
7.309 -3.0109999 -0.121
7.336 -3.0009999 -0.122
6.164 -2.5039999 -0.102
5.9809999 -2.4130001 -0.098999999
5.928 -2.3740001 -0.097999997
5.9000001 -2.346 -0.097000003
5.8930001 -2.326 -0.097000003
5.9050002 -2.3139999 -0.097000003
5.9050002 -2.2969999 -0.097000003
5.9099998 -2.2820001 -0.097000003
5.9429998 -2.277 -0.097999997
5.9549999 -2.2650001 -0.097999997
6.0339999 -2.2780001 -0.098999999
7.4829998 -2.803 -0.123
7.4780002 -2.78 -0.123
7.4910002 -2.763 -0.123
7.5100002 -2.7479999 -0.123
7.5170002 -2.7290001 -0.123
6.487 -2.336 -0.106
6.4219999 -2.2950001 -0.105
6.402 -2.2690001 -0.104
6.3959999 -2.2490001 -0.104
6.3850002 -2.2260001 -0.104
6.4000001 -2.2130001 -0.104
6.4099998 -2.198 -0.104
6.487 -2.2060001 -0.105
6.6950002 -2.2579999 -0.109
7.658 -2.5599999 -0.124
7.6739998 -2.5439999 -0.124
7.6939998 -2.5280001 -0.125
7.698 -2.507 -0.125
7.7210002 -2.493 -0.125
7.7389998 -2.4760001 -0.125
7.7340002 -2.4519999 -0.125
7.7579999 -2.438 -0.125
7.7719998 -2.4200001 -0.125
7.7849998 -2.402 -0.125
7.8169999 -2.3889999 -0.126
7.8270001 -2.3699999 -0.126
7.8270001 -2.3469999 -0.126
7.8470001 -2.3310001 -0.126
7.8579998 -2.312 -0.126
7.8559999 -2.2880001 -0.126
7.9050002 -2.28 -0.127
7.9109998 -2.2590001 -0.127
7.9320002 -2.2420001 -0.127
7.9429998 -2.223 -0.127
7.9559999 -2.2030001 -0.127
7.9689999 -2.184 -0.127
8.0039997 -2.171 -0.12800001
8.0229998 -2.1530001 -0.12800001
8.0200005 -2.1289999 -0.12800001
8.0270004 -2.108 -0.12800001
8.0530005 -2.092 -0.12800001
8.0699997 -2.073 -0.12800001
8.0790005 -2.053 -0.12800001
8.1029997 -2.0350001 -0.12800001
8.1099997 -2.0139999 -0.12800001
8.1429996 -1.999 -0.12899999
8.1829996 -1.985 -0.12899999
8.1820002 -1.962 -0.12899999
8.1870003 -1.9400001 -0.12899999
8.2180004 -1.924 -0.13
