# .PCD v0.7 - Point Cloud Data file format
VERSION 0.7
FIELDS x y z
SIZE 4 4 4
TYPE F F F
COUNT 1 1 1
WIDTH 1660
HEIGHT 1
VIEWPOINT 0 0 0 1 0 0 0
POINTS 1660
DATA ascii
8.073 -0.33899999 -0.461
8.0749998 -0.31600001 -0.461
7.638 0.221 -0.58600003
7.5900002 0.23100001 -0.583
7.586 0.242 -0.583
7.5409999 0.252 -0.579
7.5180001 0.26300001 -0.57800001
7.4990001 0.27500001 -0.57700002
7.507 0.287 -0.57700002
7.513 0.30000001 -0.57800001
7.4790001 0.31099999 -0.57599998
7.4780002 0.32300001 -0.57599998
7.4689999 0.33500001 -0.57499999
7.4590001 0.34799999 -0.57499999
7.448 0.36000001 -0.574
7.4460001 0.373 -0.574
7.421 0.38499999 -0.57200003
7.4390001 0.40000001 -0.574
7.427 0.41299999 -0.57300001
7.4219999 0.426 -0.57300001
7.4159999 0.44 -0.57300001
7.4089999 0.45300001 -0.57300001
7.421 0.46799999 -0.574
7.4250002 0.48300001 -0.57499999
7.4120002 0.49700001 -0.574
7.4050002 0.51099998 -0.574
7.402 0.52499998 -0.574
7.3969998 0.54000002 -0.574
7.4099998 0.55599999 -0.57499999
7.4130001 0.57200003 -0.57499999
7.4120002 0.58700001 -0.57599998
7.4190001 0.60299999 -0.57700002
7.4089999 0.61799997 -0.57599998
7.4169998 0.63499999 -0.57700002
7.4089999 0.64999998 -0.57700002
7.428 0.66799998 -0.579
7.4349999 0.685 -0.57999998
7.4289999 0.70099998 -0.57999998
7.4320002 0.71799999 -0.57999998
7.434 0.73400003 -0.58099997
7.4320002 0.75099999 -0.58099997
7.4549999 0.77100003 -0.583
7.4699998 0.78899997 -0.58499998
7.4660001 0.80599999 -0.58499998
7.4629998 0.824 -0.58499998
7.4619999 0.84100002 -0.58499998
7.4590001 0.85900003 -0.58600003
7.473 0.87800002 -0.58700001
7.467 0.89600003 -0.58700001
7.4650002 0.91399997 -0.588
7.4780002 0.93400002 -0.58899999
7.4840002 0.95300001 -0.58999997
7.494 0.97299999 -0.59100002
7.4889998 0.991 -0.59100002
7.4949999 1.011 -0.59200001
7.5139999 1.033 -0.59399998
7.4990001 1.05 -0.59399998
7.5219998 1.073 -0.59600002
7.5349998 1.094 -0.59799999
7.5289998 1.113 -0.59799999
7.54 1.1339999 -0.59899998
7.5489998 1.156 -0.60000002
7.5669999 1.179 -0.602
7.579 1.201 -0.60399997
7.5869999 1.223 -0.60500002
7.586 1.243 -0.60600001
7.6020002 1.267 -0.60699999
7.592 1.286 -0.60699999
7.592 1.307 -0.60799998
7.612 1.332 -0.61000001
7.6220002 1.355 -0.611
7.6370001 1.3789999 -0.61299998
7.6409998 1.402 -0.61400002
7.651 1.425 -0.616
7.6599998 1.449 -0.61699998
7.6550002 1.47 -0.61699998
7.6609998 1.494 -0.61799997
7.6589999 1.516 -0.61900002
7.6339998 1.533 -0.61799997
7.5910001 1.5470001 -0.61500001
7.573 1.566 -0.61400002
7.527 1.579 -0.611
7.5190001 1.6 -0.611
7.5050001 1.62 -0.611
7.5019999 1.642 -0.611
7.5029998 1.665 -0.61199999
7.539 1.696 -0.616
7.5799999 1.728 -0.62
7.6989999 1.78 -0.63
7.7750001 1.821 -0.63700002
7.783 1.847 -0.639
7.789 1.873 -0.63999999
7.8099999 1.903 -0.64200002
7.8039999 1.927 -0.64300001
7.7989998 1.95 -0.64300001
7.8039999 1.977 -0.64399999
7.8499999 2.0139999 -0.64899999
7.8330002 2.0350001 -0.648
7.8400002 2.062 -0.64999998
7.849 2.0899999 -0.65100002
7.7550001 2.0899999 -0.64399999
7.6100001 2.0769999 -0.63300002
7.566 2.0899999 -0.63
7.5700002 2.1159999 -0.63200003
7.5900002 2.1470001 -0.634
7.598 2.175 -0.63599998
7.5840001 2.197 -0.63499999
7.5970001 2.2260001 -0.63700002
7.6279998 2.2609999 -0.64099997
7.6739998 2.3010001 -0.64600003
7.7309999 2.345 -0.65100002
7.7979999 2.392 -0.65799999
7.9369998 2.4619999 -0.671
7.9549999 2.4960001 -0.67299998
7.96 2.5250001 -0.67500001
7.9699998 2.556 -0.676
7.987 2.5899999 -0.67900002
8.0010004 2.6229999 -0.68099999
8.0039997 2.652 -0.68199998
8.007 2.6819999 -0.68400002
8.0190001 2.7149999 -0.68599999
8.0439997 2.7520001 -0.68900001
8.0459995 2.7820001 -0.69
8.0419998 2.8099999 -0.69099998
8.0530005 2.8429999 -0.69300002
8.0570002 2.8740001 -0.69400001
8.0469999 2.901 -0.69400001
8.0559998 2.9330001 -0.69599998
8.0769997 2.971 -0.699
8.1090002 3.013 -0.70300001
8.1029997 3.0409999 -0.704
8.1110001 3.075 -0.70499998
8.1289997 3.112 -0.708
8.1219997 3.1400001 -0.70899999
8.132 3.175 -0.71100003
8.1529999 3.2149999 -0.71399999
8.1730003 3.2539999 -0.71700001
8.1619997 3.2809999 -0.71700001
8.1759996 3.3180001 -0.71899998
8.1800003 3.352 -0.72100002
8.2069998 3.3940001 -0.72399998
8.2030001 3.425 -0.72500002
8.2189999 3.464 -0.72799999
8.2220001 3.4979999 -0.72899997
8.2589998 3.546 -0.73400003
8.2729998 3.585 -0.736
8.2740002 3.618 -0.73799998
8.2980003 3.6619999 -0.741
8.2849998 3.6889999 -0.741
8.302 3.7309999 -0.74400002
8.3100004 3.7679999 -0.74599999
8.3210001 3.8069999 -0.74900001
8.3269997 3.8440001 -0.75099999
8.3360004 3.882 -0.75300002
8.3280001 3.9119999 -0.75300002
8.3369999 3.951 -0.755
8.3219995 3.9779999 -0.75599998
8.3389997 4.0209999 -0.75800002
8.3380003 4.0549998 -0.75999999
8.3599997 4.1009998 -0.76300001
8.3620005 4.1370001 -0.76499999
8.3699999 4.1760001 -0.76700002
8.3809996 4.217 -0.76899999
8.3920002 4.2579999 -0.77200001
8.3889999 4.2919998 -0.773
8.3850002 4.3260002 -0.77399999
8.3800001 4.3600001 -0.77499998
8.3809996 4.3959999 -0.77700001
8.382 4.4330001 -0.778
8.3870001 4.4720001 -0.77999997
8.408 4.5190001 -0.78399998
8.4029999 4.553 -0.78500003
8.4060001 4.592 -0.78600001
8.401 4.6259999 -0.78799999
8.4069996 4.6659999 -0.79000002
8.4060001 4.7030001 -0.79100001
8.4180002 4.7480001 -0.79400003
8.427 4.79 -0.796
8.4219999 4.8249998 -0.79699999
8.4139996 4.8579998 -0.79799998
8.4259996 4.9029999 -0.801
8.4219999 4.9390001 -0.80199999
8.427 4.98 -0.80400002
8.4309998 5.02 -0.80599999
8.4359999 5.0619998 -0.80800003
8.4399996 5.1030002 -0.81099999
8.441 5.1420002 -0.81199998
8.4589996 5.1919999 -0.81599998
8.4589996 5.2309999 -0.81699997
8.441 5.2589998 -0.81699997
8.4289999 5.2909999 -0.81800002
8.4399996 5.3369999 -0.82099998
8.4399996 5.3759999 -0.82200003
8.4139996 5.4000001 -0.82200003
8.415 5.4400001 -0.82300001
8.4069996 5.474 -0.824
8.3859997 5.5009999 -0.824
8.401 5.5500002 -0.82700002
8.3870001 5.5809999 -0.82800001
8.4020004 5.631 -0.83099997
8.4049997 5.6739998 -0.833
8.3990002 5.71 -0.83399999
8.3780003 5.7360001 -0.83399999
8.3959999 5.789 -0.838
8.3579998 5.803 -0.83600003
8.3669996 5.8509998 -0.838
8.3479996 5.8779998 -0.838
8.3389997 5.9130001 -0.83899999
8.3319998 5.9489999 -0.83999997
8.3050003 5.9699998 -0.83999997
8.276 5.9899998 -0.838
5.4460001 -3.6170001 -0.33000001
5.4749999 -3.6010001 -0.33199999
5.4889998 -3.576 -0.33199999
5.506 -3.553 -0.333
5.52 -3.527 -0.333
5.5469999 -3.51 -0.33399999
5.5679998 -3.49 -0.33500001
5.5900002 -3.47 -0.336
5.605 -3.4460001 -0.33700001
5.6129999 -3.4170001 -0.33700001
5.6149998 -3.385 -0.33700001
5.6370001 -3.3659999 -0.338
5.6570001 -3.345 -0.338
5.665 -3.3169999 -0.338
5.698 -3.3039999 -0.34
5.7259998 -3.289 -0.34099999
5.7189999 -3.253 -0.34099999
5.7340002 -3.2290001 -0.34099999
5.757 -3.211 -0.34200001
5.7649999 -3.184 -0.34200001
5.8000002 -3.1719999 -0.34400001
5.8169999 -3.151 -0.345
5.8239999 -3.1240001 -0.345
5.835 -3.099 -0.345
5.8499999 -3.076 -0.34599999
5.8629999 -3.053 -0.34599999
5.8860002 -3.0350001 -0.347
5.8920002 -3.0079999 -0.347
5.921 -2.993 -0.34799999
5.9349999 -2.971 -0.34900001
5.96 -2.9530001 -0.34999999
5.9710002 -2.9300001 -0.34999999
5.9749999 -2.902 -0.34999999
5.9860001 -2.8789999 -0.35100001
6.0110002 -2.862 -0.352
6.0229998 -2.839 -0.352
6.046 -2.8210001 -0.35299999
6.0580001 -2.7980001 -0.354
6.0619998 -2.7720001 -0.354
6.0710001 -2.7479999 -0.354
6.0809999 -2.7249999 -0.354
6.0939999 -2.7019999 -0.35499999
6.1090002 -2.6819999 -0.35499999
6.125 -2.661 -0.35600001
6.1570001 -2.648 -0.35699999
6.1729999 -2.6270001 -0.35800001
6.1950002 -2.6099999 -0.359
6.2189999 -2.5929999 -0.36000001
6.223 -2.5669999 -0.36000001
6.2360001 -2.546 -0.36000001
6.2610002 -2.53 -0.36199999
6.2680001 -2.506 -0.36199999
6.2909999 -2.4890001 -0.36300001
6.2880001 -2.461 -0.36199999
6.316 -2.4460001 -0.36399999
6.3340001 -2.427 -0.36500001
6.3390002 -2.4030001 -0.36500001
6.3740001 -2.391 -0.366
6.3839998 -2.369 -0.36700001
6.4050002 -2.3510001 -0.36700001
6.4169998 -2.3299999 -0.368
6.4260001 -2.3080001 -0.368
6.4419999 -2.2880001 -0.36899999
6.4590001 -2.27 -0.37
6.4720001 -2.2490001 -0.37
6.4910002 -2.2309999 -0.37099999
6.4990001 -2.2090001 -0.37099999
6.5209999 -2.1919999 -0.37200001
6.5370002 -2.1719999 -0.373
6.5500002 -2.152 -0.373
6.5679998 -2.1340001 -0.37400001
6.5840001 -2.115 -0.375
6.598 -2.096 -0.375
6.6199999 -2.0780001 -0.37599999
6.619 -2.0539999 -0.37599999
6.6170001 -2.03 -0.37599999
6.638 -2.013 -0.377
6.6589999 -1.995 -0.37799999
6.678 -1.978 -0.37799999
6.691 -1.9579999 -0.37900001
6.6999998 -1.938 -0.37900001
6.7179999 -1.92 -0.38
6.7319999 -1.901 -0.38100001
6.7350001 -1.8789999 -0.38100001
6.756 -1.862 -0.38100001
6.77 -1.8430001 -0.382
6.7750001 -1.822 -0.382
6.7870002 -1.803 -0.38299999
6.8099999 -1.786 -0.384
6.8270001 -1.768 -0.384
6.8200002 -1.745 -0.384
6.8369999 -1.727 -0.38499999
6.855 -1.71 -0.38499999
6.875 -1.693 -0.38600001
6.8940001 -1.676 -0.38699999
6.9070001 -1.6569999 -0.38800001
6.9180002 -1.638 -0.38800001
6.9439998 -1.623 -0.389
6.9450002 -1.602 -0.389
6.973 -1.587 -0.391
6.9809999 -1.567 -0.391
6.9970002 -1.55 -0.39199999
7.0149999 -1.533 -0.39199999
7.026 -1.5140001 -0.39300001
7.0370002 -1.495 -0.39300001
7.0679998 -1.4809999 -0.39500001
7.072 -1.461 -0.39500001
7.0910001 -1.4450001 -0.396
7.1009998 -1.426 -0.396
7.099 -1.405 -0.396
7.119 -1.3890001 -0.39700001
7.1350002 -1.372 -0.39700001
7.1389999 -1.352 -0.39700001
7.1700001 -1.3380001 -0.39899999
7.1939998 -1.323 -0.40000001
7.1859999 -1.301 -0.40000001
7.21 -1.286 -0.40099999
7.2270002 -1.2690001 -0.40200001
7.2389998 -1.252 -0.40200001
7.2399998 -1.233 -0.40200001
7.2449999 -1.214 -0.40200001
7.2820001 -1.201 -0.40400001
7.2820001 -1.182 -0.40400001
7.296 -1.165 -0.40400001
7.3119998 -1.148 -0.405
7.323 -1.131 -0.40599999
7.3400002 -1.115 -0.40599999
7.3400002 -1.096 -0.40599999
7.3639998 -1.081 -0.40700001
7.375 -1.064 -0.40799999
7.375 -1.045 -0.40799999
7.3889999 -1.029 -0.40799999
7.401 -1.012 -0.40900001
7.3829999 -0.991 -0.40799999
7.4229999 -0.97899997 -0.41
7.441 -0.963 -0.41100001
7.4400001 -0.94499999 -0.41
7.4569998 -0.92900002 -0.41100001
7.4660001 -0.912 -0.412
7.4770002 -0.89600003 -0.412
7.4850001 -0.87900001 -0.412
7.4889998 -0.86199999 -0.412
7.5110002 -0.84799999 -0.414
7.5289998 -0.83200002 -0.414
7.5430002 -0.81599998 -0.41499999
7.5440001 -0.79900002 -0.41499999
7.5549998 -0.78299999 -0.41499999
7.5689998 -0.76800001 -0.41600001
7.573 -0.75099999 -0.41600001
7.5869999 -0.736 -0.417
7.5949998 -0.72000003 -0.417
7.6110001 -0.70499998 -0.41800001
7.6339998 -0.69 -0.419
7.6370001 -0.67400002 -0.419
7.652 -0.65899998 -0.41999999
7.671 -0.64499998 -0.421
7.6830001 -0.62900001 -0.421
7.691 -0.61400002 -0.42199999
7.7020001 -0.59899998 -0.42199999
7.717 -0.58399999 -0.42300001
7.7220001 -0.56800002 -0.42300001
7.7249999 -0.55299997 -0.42300001
7.75 -0.53899997 -0.42399999
7.7490001 -0.523 -0.42399999
7.7649999 -0.509 -0.42500001
7.7709999 -0.49399999 -0.42500001
7.7880001 -0.47999999 -0.426
7.8010001 -0.465 -0.42699999
7.7979999 -0.44999999 -0.426
7.8119998 -0.43599999 -0.42699999
7.836 -0.42199999 -0.428
7.842 -0.40700001 -0.42899999
7.8520002 -0.39300001 -0.42899999
7.8629999 -0.37900001 -0.43000001
7.8870001 -0.366 -0.43099999
7.9109998 -0.352 -0.43200001
7.902 -0.33700001 -0.43200001
7.9239998 -0.324 -0.433
7.9349999 -0.31 -0.433
7.954 -0.296 -0.43399999
7.9749999 -0.28299999 -0.435
7.9990001 -0.27000001 -0.43599999
8.0179996 -0.25600001 -0.43700001
8.0249996 -0.243 -0.43799999
8.0550003 -0.23 -0.43900001
8.0909996 -0.21699999 -0.44100001
8.1000004 -0.20299999 -0.442
8.2349997 -0.193 -0.449
7.5669999 0.081 -0.56099999
7.579 0.094999999 -0.56199998
7.5999999 0.109 -0.56400001
7.5799999 0.123 -0.56199998
7.5869999 0.138 -0.56300002
7.5869999 0.152 -0.56300002
7.5780001 0.167 -0.56300002
7.5780001 0.182 -0.56300002
7.592 0.197 -0.56400001
7.599 0.213 -0.565
7.579 0.227 -0.56400001
7.5890002 0.243 -0.56400001
7.5640001 0.25799999 -0.56300002
7.5599999 0.27399999 -0.56300002
7.5469999 0.289 -0.56199998
7.5580001 0.30599999 -0.56300002
7.5469999 0.32100001 -0.56199998
7.5310001 0.33700001 -0.56199998
7.5380001 0.354 -0.56199998
7.5500002 0.37099999 -0.56400001
7.5370002 0.38699999 -0.56300002
7.5630002 0.405 -0.565
7.5349998 0.421 -0.56300002
7.5380001 0.43799999 -0.56400001
7.54 0.45500001 -0.56400001
7.5450001 0.47299999 -0.565
7.5430002 0.491 -0.565
7.533 0.50800002 -0.565
7.5430002 0.52600002 -0.56599998
7.546 0.54400003 -0.56599998
7.5370002 0.56199998 -0.56599998
7.5370002 0.57999998 -0.56599998
7.5289998 0.59799999 -0.56599998
7.552 0.61799997 -0.56800002
7.553 0.63700002 -0.56800002
7.5570002 0.65600002 -0.56900001
7.5770001 0.67699999 -0.57099998
7.5689998 0.69499999 -0.57099998
7.5640001 0.71399999 -0.57099998
7.598 0.736 -0.574
7.5840001 0.75400001 -0.57300001
7.6079998 0.77700001 -0.57499999
7.6160002 0.79699999 -0.57599998
7.6020002 0.815 -0.57599998
7.6020002 0.83499998 -0.57599998
7.6030002 0.85600001 -0.57700002
7.5970001 0.875 -0.57700002
7.5900002 0.89499998 -0.57599998
7.6090002 0.917 -0.57800001
7.6030002 0.93699998 -0.57800001
7.6149998 0.95899999 -0.57999998
7.612 0.98000002 -0.57999998
7.6129999 1.001 -0.57999998
7.6209998 1.023 -0.58200002
7.6300001 1.045 -0.583
7.6389999 1.068 -0.58399999
7.6389999 1.089 -0.58399999
7.6570001 1.114 -0.58600003
7.6589999 1.136 -0.58700001
7.6620002 1.158 -0.588
7.6659999 1.1799999 -0.588
7.6760001 1.204 -0.58999997
7.6880002 1.228 -0.59100002
7.6999998 1.252 -0.59299999
7.7049999 1.276 -0.59399998
7.7129998 1.299 -0.59500003
7.711 1.322 -0.59500003
7.7049999 1.3430001 -0.59500003
7.7189999 1.369 -0.597
7.7270002 1.393 -0.59799999
7.7319999 1.4170001 -0.59899998
7.7309999 1.4400001 -0.60000002
7.7519999 1.4680001 -0.602
7.7529998 1.4910001 -0.60299999
7.744 1.513 -0.60299999
7.6869998 1.525 -0.59899998
7.6370001 1.539 -0.59500003
7.5840001 1.551 -0.59200001
7.5700002 1.572 -0.59100002
7.5500002 1.591 -0.58999997
7.533 1.6109999 -0.58999997
7.527 1.633 -0.58999997
7.5120001 1.653 -0.58899999
7.5170002 1.678 -0.58999997
7.5440001 1.7079999 -0.59299999
7.678 1.763 -0.60399997
7.8429999 1.825 -0.61799997
7.8520002 1.853 -0.62
7.8629999 1.88 -0.62099999
7.8610001 1.905 -0.62199998
7.855 1.929 -0.62199998
7.869 1.9579999 -0.62400001
7.8740001 1.984 -0.625
7.8829999 2.0120001 -0.62599999
7.8909998 2.04 -0.62800002
7.8839998 2.0639999 -0.62800002
7.902 2.095 -0.63
7.9180002 2.125 -0.63200003
7.869 2.138 -0.62900001
7.6859999 2.1140001 -0.61500001
7.5910001 2.1129999 -0.60799998
7.5760002 2.1340001 -0.60799998
7.5900002 2.1630001 -0.61000001
7.6090002 2.194 -0.61199999
7.6090002 2.2190001 -0.61299998
7.5949998 2.2409999 -0.61199999
7.6129999 2.2720001 -0.61500001
7.6360002 2.3039999 -0.61699998
7.7290001 2.359 -0.62599999
7.8449998 2.421 -0.63599998
7.9229999 2.4719999 -0.64300001
7.9780002 2.516 -0.648
8.0039997 2.552 -0.65100002
7.994 2.576 -0.65100002
8.0190001 2.612 -0.65399998
8.0080004 2.6359999 -0.65399998
8.0290003 2.6700001 -0.65700001
8.0340004 2.7 -0.65799999
8.0410004 2.73 -0.66000003
8.0550003 2.763 -0.662
8.0579996 2.7920001 -0.66299999
8.0649996 2.822 -0.66500002
8.0819998 2.8559999 -0.667
8.0679998 2.8800001 -0.667
8.0869999 2.915 -0.66900003
8.0889997 2.944 -0.67000002
8.1009998 2.977 -0.67199999
8.1009998 3.006 -0.67299998
8.1129999 3.039 -0.67500001
8.1370001 3.0769999 -0.67799997
8.1440001 3.108 -0.68000001
8.1420002 3.1359999 -0.68099999
8.1520004 3.1689999 -0.68199998
8.1450005 3.1960001 -0.68300003
8.1820002 3.2390001 -0.68699998
8.1719999 3.2650001 -0.68699998
8.1999998 3.3050001 -0.69099998
8.2159996 3.3410001 -0.69300002
8.2060003 3.3659999 -0.69300002
8.2139997 3.3989999 -0.69499999
8.2209997 3.4319999 -0.69599998
8.2349997 3.467 -0.699
8.2519999 3.5039999 -0.70099998
8.2650003 3.54 -0.70300001
8.2729998 3.573 -0.70499998
8.2919998 3.612 -0.708
8.3199997 3.654 -0.71100003
8.3299999 3.6889999 -0.71399999
8.3439999 3.7249999 -0.71600002
8.3360004 3.7520001 -0.71600002
8.3590002 3.793 -0.71899998
8.3730001 3.829 -0.722
8.3859997 3.8659999 -0.72399998
8.3739996 3.891 -0.72399998
8.3909998 3.9300001 -0.727
8.3959999 3.9630001 -0.72799999
8.4130001 4.0019999 -0.73100001
8.4130001 4.0320001 -0.73199999
8.4029999 4.0580001 -0.73299998
8.4329996 4.1040001 -0.736
8.441 4.1389999 -0.73799998
8.4619999 4.1799998 -0.741
8.4630003 4.211 -0.74299997
8.4779997 4.25 -0.745
8.4829998 4.283 -0.74699998
8.5 4.323 -0.75
8.4919996 4.3499999 -0.75
8.4890003 4.3800001 -0.75099999
8.4890003 4.4109998 -0.75199997
8.5109997 4.4530001 -0.75599998
8.5240002 4.4920001 -0.75800002
8.5240002 4.5229998 -0.759
8.5509996 4.5689998 -0.76300001
8.5570002 4.6030002 -0.76499999
8.5749998 4.6440001 -0.76800001
8.5979996 4.6880002 -0.77100003
8.5950003 4.7179999 -0.77200001
8.5979996 4.7509999 -0.77399999
8.6040001 4.7849998 -0.77600002
8.6260004 4.829 -0.77899998
8.6389999 4.868 -0.78200001
8.6479998 4.9050002 -0.78399998
8.6560001 4.9400001 -0.78600001
8.6680002 4.9790001 -0.78799999
8.691 5.0229998 -0.792
8.691 5.0549998 -0.79299998
8.7089996 5.0970001 -0.796
8.7279997 5.1399999 -0.79900002
8.7270002 5.171 -0.801
8.7159996 5.1950002 -0.801
8.7349997 5.2379999 -0.80400002
8.7270002 5.2639999 -0.80500001
8.7550001 5.3130002 -0.80900002
8.7460003 5.3379998 -0.81
8.7600002 5.3779998 -0.81199998
8.7709999 5.4159999 -0.815
8.7670002 5.4450002 -0.81599998
8.8009996 5.4970002 -0.82099998
8.8199997 5.54 -0.824
8.8240004 5.5739999 -0.82599998
8.8249998 5.605 -0.82700002
8.8470001 5.6500001 -0.83099997
8.8450003 5.6799998 -0.83200002
8.8640003 5.723 -0.83499998
8.868 5.756 -0.83700001
8.8830004 5.7969999 -0.83999997
8.8909998 5.8330002 -0.84299999
8.9029999 5.8709998 -0.84500003
8.9139996 5.9089999 -0.84799999
8.9490004 5.9629998 -0.85299999
8.9350004 5.9840002 -0.85299999
8.9560003 6.0289998 -0.85600001
8.9399996 6.0479999 -0.85600001
8.9779997 6.1030002 -0.86199999
8.9589996 6.1209998 -0.861
8.9779997 6.1630001 -0.86500001
8.9989996 6.2069998 -0.86799997
8.9940004 6.2329998 -0.87
9.0710001 6.3169999 -0.87900001
5.7750001 -3.3629999 -0.329
5.7800002 -3.3499999 -0.33000001
5.7880001 -3.339 -0.33000001
5.7940001 -3.326 -0.33000001
5.8130002 -3.3210001 -0.331
5.8070002 -3.3010001 -0.331
5.803 -3.283 -0.33000001
5.8210001 -3.277 -0.331
5.8150001 -3.257 -0.331
5.8239999 -3.2460001 -0.331
5.8439999 -3.2409999 -0.33199999
5.8639998 -3.2349999 -0.333
5.869 -3.2219999 -0.333
5.8730001 -3.2079999 -0.333
5.8829999 -3.1960001 -0.33399999
5.8889999 -3.1830001 -0.33399999
5.8930001 -3.1689999 -0.33399999
5.9099998 -3.1619999 -0.33500001
5.9159999 -3.148 -0.33500001
5.9299998 -3.1389999 -0.336
5.9310002 -3.1229999 -0.336
5.9390001 -3.1099999 -0.336
5.9499998 -3.099 -0.336
5.9650002 -3.0899999 -0.33700001
5.9770002 -3.0799999 -0.338
5.9790001 -3.0639999 -0.338
5.9910002 -3.053 -0.338
5.9980001 -3.04 -0.338
6.0100002 -3.029 -0.33899999
6.0300002 -3.0220001 -0.34
6.0310001 -3.006 -0.34
6.0440001 -2.9949999 -0.34
6.0500002 -2.9809999 -0.34099999
6.0599999 -2.9679999 -0.34099999
6.072 -2.957 -0.34200001
6.0650001 -2.937 -0.34099999
6.066 -2.9200001 -0.34099999
6.0840001 -2.911 -0.34200001
6.0970001 -2.9000001 -0.34200001
6.1110001 -2.8889999 -0.34299999
6.1100001 -2.872 -0.34299999
6.1300001 -2.8640001 -0.34400001
6.1240001 -2.8429999 -0.34299999
6.1300001 -2.829 -0.34400001
6.1420002 -2.8169999 -0.34400001
6.1570001 -2.806 -0.345
6.1630001 -2.7909999 -0.345
6.164 -2.7739999 -0.345
6.1739998 -2.7609999 -0.345
6.191 -2.7509999 -0.34599999
6.2030001 -2.7390001 -0.347
6.2069998 -2.723 -0.347
6.2220001 -2.7119999 -0.347
6.2329998 -2.6989999 -0.34799999
6.2480001 -2.688 -0.34799999
6.2610002 -2.675 -0.34900001
6.2690001 -2.661 -0.34900001
6.2820001 -2.6489999 -0.34999999
6.2940001 -2.6359999 -0.34999999
6.2989998 -2.6199999 -0.35100001
6.3189998 -2.6099999 -0.352
6.3309999 -2.5969999 -0.352
6.3460002 -2.585 -0.35299999
6.3499999 -2.569 -0.35299999
6.3579998 -2.5539999 -0.35299999
6.3649998 -2.5380001 -0.35299999
6.3829999 -2.5280001 -0.354
6.3889999 -2.5120001 -0.354
6.401 -2.4979999 -0.35499999
6.4099998 -2.483 -0.35499999
6.4219999 -2.47 -0.35600001
6.4390001 -2.4579999 -0.35600001
6.448 -2.4430001 -0.35699999
6.4510002 -2.4260001 -0.35699999
6.4660001 -2.4130001 -0.35699999
6.4720001 -2.3970001 -0.35800001
6.4749999 -2.3789999 -0.35800001
6.4910002 -2.3670001 -0.35800001
6.5029998 -2.352 -0.359
6.5170002 -2.339 -0.36000001
6.5229998 -2.323 -0.36000001
6.5430002 -2.3110001 -0.361
6.54 -2.2909999 -0.36000001
6.566 -2.2820001 -0.36199999
6.5580001 -2.26 -0.361
6.566 -2.244 -0.361
6.5830002 -2.2309999 -0.36199999
6.5830002 -2.2130001 -0.36199999
6.5939999 -2.198 -0.36199999
6.6009998 -2.181 -0.36199999
6.6059999 -2.164 -0.36300001
6.6090002 -2.1459999 -0.36300001
6.631 -2.1340001 -0.36399999
6.631 -2.115 -0.36300001
6.6479998 -2.102 -0.36399999
6.6680002 -2.089 -0.36500001
6.6810002 -2.0739999 -0.366
6.6919999 -2.059 -0.366
6.6900001 -2.039 -0.366
6.6950002 -2.0220001 -0.366
6.7080002 -2.006 -0.36700001
6.7160001 -1.99 -0.36700001
6.7249999 -1.973 -0.36700001
6.7290001 -1.955 -0.36700001
6.737 -1.938 -0.36700001
6.7550001 -1.924 -0.368
6.7680001 -1.909 -0.36899999
6.7779999 -1.892 -0.36899999
6.7789998 -1.873 -0.36899999
6.7880001 -1.857 -0.36899999
6.8080001 -1.8430001 -0.37
6.816 -1.826 -0.37099999
6.8239999 -1.808 -0.37099999
6.8400002 -1.793 -0.37099999
6.8390002 -1.773 -0.37099999
6.8639998 -1.76 -0.37200001
6.8720002 -1.743 -0.373
6.8759999 -1.724 -0.373
6.8979998 -1.71 -0.37400001
6.8990002 -1.691 -0.37400001
6.9099998 -1.674 -0.37400001
6.9289999 -1.659 -0.375
6.9330001 -1.64 -0.375
6.9530001 -1.625 -0.37599999
6.96 -1.607 -0.37599999
6.973 -1.59 -0.377
6.9889998 -1.574 -0.377
7.0100002 -1.559 -0.37799999
7.0180001 -1.541 -0.37799999
7.0310001 -1.524 -0.37900001
7.0500002 -1.508 -0.38
7.066 -1.4910001 -0.38
7.073 -1.473 -0.38100001
7.085 -1.455 -0.38100001
7.1079998 -1.4400001 -0.382
7.1110001 -1.42 -0.382
7.1290002 -1.404 -0.38299999
7.1479998 -1.387 -0.384
7.1599998 -1.37 -0.384
7.1760001 -1.352 -0.38499999
7.1939998 -1.335 -0.38600001
7.2020001 -1.316 -0.38600001
7.2160001 -1.299 -0.38699999
7.2329998 -1.281 -0.38699999
7.2509999 -1.2640001 -0.38800001
7.2600002 -1.245 -0.38800001
7.2930002 -1.23 -0.38999999
7.2880001 -1.2079999 -0.389
7.2969999 -1.189 -0.38999999
7.3169999 -1.1720001 -0.391
7.3410001 -1.155 -0.39199999
7.3629999 -1.138 -0.39300001
7.368 -1.118 -0.39300001
7.3709998 -1.097 -0.39300001
7.4029999 -1.081 -0.39399999
7.4190001 -1.063 -0.39500001
7.4310002 -1.043 -0.39500001
7.4400001 -1.024 -0.396
7.4569998 -1.005 -0.396
7.474 -0.986 -0.39700001
7.4899998 -0.96700001 -0.398
7.5089998 -0.949 -0.39899999
7.5159998 -0.92799997 -0.39899999
7.5359998 -0.90899998 -0.40000001
7.5710001 -0.89200002 -0.40099999
7.5739999 -0.87099999 -0.40099999
7.5879998 -0.852 -0.40200001
7.6139998 -0.833 -0.403
7.6399999 -0.81400001 -0.40400001
7.6420002 -0.79299998 -0.40400001
7.6719999 -0.77399999 -0.405
7.7030001 -0.75599998 -0.40700001
7.7179999 -0.736 -0.40700001
7.7350001 -0.71499997 -0.40799999
7.7509999 -0.69499999 -0.40900001
7.7639999 -0.67500001 -0.40900001
7.7989998 -0.65600002 -0.41100001
7.7859998 -0.63300002 -0.41
7.8210001 -0.61299998 -0.412
7.8439999 -0.59299999 -0.41299999
7.8660002 -0.57300001 -0.414
7.8860002 -0.55199999 -0.414
7.8930001 -0.52999997 -0.41499999
7.9289999 -0.50999999 -0.41600001
7.9460001 -0.48899999 -0.417
7.974 -0.46799999 -0.41800001
7.9990001 -0.447 -0.419
8.0270004 -0.426 -0.421
8.0579996 -0.405 -0.42199999
8.1009998 -0.38499999 -0.42399999
8.1440001 -0.36399999 -0.426
8.2320004 -0.345 -0.43000001
8.0050001 0.20999999 -0.56999999
7.9050002 0.219 -0.56300002
7.921 0.23100001 -0.56400001
7.8779998 0.241 -0.56099999
7.8439999 0.252 -0.55900002
7.855 0.26499999 -0.56
7.829 0.27599999 -0.55800003
7.8249998 0.28799999 -0.55800003
7.8210001 0.301 -0.55800003
7.8000002 0.31299999 -0.55699998
7.7909999 0.32499999 -0.55599999
7.7919998 0.338 -0.55699998
7.8109999 0.352 -0.55800003
7.7909999 0.36500001 -0.55699998
7.8000002 0.37900001 -0.55800003
7.7969999 0.39199999 -0.55800003
7.802 0.40700001 -0.55900002
7.7880001 0.41999999 -0.55800003
7.7659998 0.433 -0.55699998
7.77 0.44800001 -0.55699998
7.7859998 0.463 -0.55800003
7.7849998 0.47799999 -0.55900002
7.7789998 0.49200001 -0.55800003
7.7839999 0.50800002 -0.55900002
7.7680001 0.52200001 -0.55800003
7.7639999 0.537 -0.55800003
7.7529998 0.55199999 -0.55800003
7.7410002 0.56599998 -0.55699998
7.756 0.583 -0.55900002
7.7529998 0.59899998 -0.55900002
7.7610002 0.616 -0.56
7.7600002 0.63200003 -0.56
7.7540002 0.648 -0.56
7.7589998 0.66500002 -0.56099999
7.7579999 0.68099999 -0.56099999
7.7540002 0.69800001 -0.56099999
7.7600002 0.71499997 -0.56199998
7.7659998 0.73299998 -0.56300002
7.7839999 0.75199997 -0.56400001
7.7740002 0.76899999 -0.56400001
7.7859998 0.78799999 -0.565
7.7789998 0.80500001 -0.565
7.7740002 0.82200003 -0.565
7.7810001 0.84100002 -0.56599998
7.777 0.85900003 -0.56599998
7.789 0.87900001 -0.56800002
7.7810001 0.89600003 -0.56699997
7.7639999 0.91299999 -0.56699997
7.7579999 0.93099999 -0.56699997
7.7740002 0.95200002 -0.56800002
7.7930002 0.97399998 -0.56999999
7.7779999 0.991 -0.56900001
7.7750001 1.01 -0.56999999
7.7789998 1.03 -0.56999999
7.7800002 1.05 -0.57099998
7.7800002 1.0700001 -0.57200003
7.79 1.091 -0.57300001
7.802 1.113 -0.574
7.7989998 1.133 -0.574
7.8080001 1.154 -0.57599998
7.8049998 1.174 -0.57599998
7.8239999 1.198 -0.57800001
7.8400002 1.221 -0.57999998
7.836 1.242 -0.57999998
7.8460002 1.265 -0.58099997
7.848 1.286 -0.58200002
7.8600001 1.3099999 -0.583
7.8470001 1.329 -0.583
7.8600001 1.353 -0.58499998
7.8629999 1.376 -0.58499998
7.8590002 1.397 -0.58600003
7.868 1.421 -0.58700001
7.8569999 1.441 -0.58700001
7.8649998 1.465 -0.588
7.8600001 1.487 -0.588
7.8369999 1.505 -0.58700001
7.7220001 1.505 -0.579
7.6409998 1.512 -0.574
7.6129999 1.529 -0.57200003
7.5890002 1.5470001 -0.57099998
7.5760002 1.566 -0.57099998
7.5450001 1.582 -0.56900001
7.5380001 1.604 -0.56900001
7.5289998 1.624 -0.56900001
7.5430002 1.65 -0.57099998
7.5469999 1.674 -0.57200003
7.6149998 1.7130001 -0.57800001
7.9159999 1.8049999 -0.60100001
7.961 1.84 -0.60500002
7.961 1.864 -0.60600001
7.9780002 1.8940001 -0.60799998
7.9710002 1.9170001 -0.60799998
7.9710002 1.942 -0.60900003
7.9790001 1.969 -0.611
7.9910002 1.998 -0.61199999
8.0080004 2.0280001 -0.61400002
8.0209999 2.0569999 -0.616
8.0089998 2.0799999 -0.616
8.0150003 2.1070001 -0.61699998
8.0030003 2.1300001 -0.61699998
8.0150003 2.1600001 -0.61900002
7.9419999 2.1670001 -0.61400002
7.6849999 2.122 -0.59500003
7.6220002 2.1300001 -0.59100002
7.5960002 2.148 -0.58999997
7.5749998 2.168 -0.58899999
7.5739999 2.1930001 -0.58999997
7.6110001 2.23 -0.59299999
7.6129999 2.256 -0.59399998
7.652 2.2939999 -0.59799999
7.7470002 2.349 -0.60699999
8.1049995 2.4860001 -0.63599998
8.1070004 2.5139999 -0.63700002
8.1149998 2.5450001 -0.63800001
8.118 2.5739999 -0.639
8.1300001 2.6070001 -0.64099997
8.1420002 2.6389999 -0.64300001
8.1350002 2.6659999 -0.64399999
8.1499996 2.7 -0.64600003
8.1420002 2.7260001 -0.64600003
8.1639996 2.763 -0.64899999
8.1809998 2.7980001 -0.65100002
8.1809998 2.8280001 -0.65200001
8.1890001 2.8599999 -0.65399998
8.1990004 2.8940001 -0.65600002
8.2049999 2.9260001 -0.65700001
8.224 2.9630001 -0.66000003
8.2340002 2.997 -0.662
8.2299995 3.026 -0.662
8.2480001 3.0639999 -0.66500002
8.2469997 3.0940001 -0.66600001
8.2690001 3.1340001 -0.66900003
8.2679996 3.164 -0.67000002
8.2860003 3.2019999 -0.67199999
8.2880001 3.2349999 -0.67400002
8.2840004 3.2650001 -0.67400002
8.3170004 3.3099999 -0.67799997
8.3249998 3.345 -0.68000001
8.3330002 3.381 -0.68199998
8.3520002 3.421 -0.68400002
8.3579998 3.4560001 -0.68599999
8.3739996 3.4949999 -0.68900001
8.3730001 3.527 -0.69
8.3940001 3.569 -0.69300002
8.3979998 3.6040001 -0.69400001
8.4250002 3.6489999 -0.69800001
8.4379997 3.688 -0.69999999
8.4870005 3.744 -0.70499998
8.4759998 3.773 -0.70499998
8.4759998 3.8069999 -0.70700002
8.4860001 3.846 -0.70899999
8.5050001 3.8889999 -0.71200001
8.5059996 3.924 -0.713
8.4910002 3.9519999 -0.713
8.5089998 3.9949999 -0.71600002
8.5179996 4.0349998 -0.71799999
8.5439997 4.0819998 -0.72100002
8.5380001 4.1149998 -0.722
8.5749998 4.1690001 -0.727
8.5699997 4.2020001 -0.72799999
8.5880003 4.2470002 -0.73100001
8.6059999 4.2919998 -0.73299998
8.6149998 4.3330002 -0.736
8.6129999 4.368 -0.73699999
8.6199999 4.4089999 -0.73900002
8.6099997 4.4400001 -0.73900002
8.6099997 4.4770002 -0.741
8.6219997 4.52 -0.74299997
8.6339998 4.5640001 -0.74599999
8.6470003 4.6090002 -0.74800003
8.6599998 4.6529999 -0.75099999
8.6899996 4.7069998 -0.755
8.6680002 4.7329998 -0.755
8.6859999 4.7810001 -0.75800002
8.6960001 4.8249998 -0.75999999
8.6999998 4.8660002 -0.76200002
8.71 4.9099998 -0.764
8.7250004 4.9569998 -0.76700002
8.7519999 5.0120001 -0.77100003
8.7360001 5.0409999 -0.77100003
8.7600002 5.0949998 -0.77499998
8.7629995 5.1360002 -0.77700001
8.7650003 5.177 -0.77899998
8.783 5.2280002 -0.78200001
8.7729998 5.2620001 -0.78200001
8.7740002 5.302 -0.78399998
8.7810001 5.3470001 -0.78600001
8.776 5.3839998 -0.78799999
8.7810001 5.428 -0.79000002
8.7969999 5.4790001 -0.79299998
8.8030005 5.5229998 -0.79500002
8.7869997 5.5539999 -0.79500002
8.8050003 5.6069999 -0.79900002
8.8100004 5.651 -0.801
8.8290005 5.7049999 -0.80400002
8.835 5.75 -0.80599999
8.8249998 5.7859998 -0.80699998
8.8360004 5.835 -0.81
8.8319998 5.875 -0.81099999
8.8369999 5.9200001 -0.81400001
8.8339996 5.961 -0.815
8.8380003 6.0050001 -0.81699997
8.8369999 6.0469999 -0.81900001
8.835 6.0890002 -0.82099998
8.8299999 6.1279998 -0.82200003
8.8409996 6.1789999 -0.82499999
8.8199997 6.2080002 -0.82499999
8.8109999 6.244 -0.82599998
8.7889996 6.2719998 -0.82499999
8.7709999 6.302 -0.82599998
8.7360001 6.3200002 -0.824
5.5190001 -3.6630001 -0.30599999
5.5370002 -3.6400001 -0.30700001
5.559 -3.619 -0.308
5.5799999 -3.598 -0.308
5.585 -3.566 -0.308
5.6160002 -3.552 -0.31
5.6269999 -3.5239999 -0.31
5.6539998 -3.507 -0.31099999
5.6690001 -3.483 -0.31200001
5.6739998 -3.4519999 -0.31099999
5.6859999 -3.4260001 -0.31200001
5.7010002 -3.402 -0.31200001
5.7199998 -3.3800001 -0.31299999
5.7480001 -3.3640001 -0.31400001
5.7639999 -3.3410001 -0.315
5.8010001 -3.3299999 -0.31600001
5.8080001 -3.302 -0.31600001
5.8140001 -3.273 -0.31600001
5.835 -3.253 -0.317
5.8429999 -3.2249999 -0.317
5.875 -3.2119999 -0.31900001
5.888 -3.188 -0.31900001
5.9029999 -3.164 -0.31999999
5.9190001 -3.142 -0.31999999
5.9349999 -3.119 -0.32100001
5.9450002 -3.0940001 -0.32100001
5.9780002 -3.0799999 -0.322
5.9899998 -3.056 -0.32300001
6.0079999 -3.036 -0.32300001
6.0190001 -3.0109999 -0.324
6.039 -2.9909999 -0.324
6.0489998 -2.9660001 -0.32499999
6.0469999 -2.9360001 -0.324
6.0669999 -2.9159999 -0.32499999
6.0890002 -2.898 -0.32600001
6.1079998 -2.878 -0.32699999
6.1269999 -2.8570001 -0.32699999
6.1389999 -2.8340001 -0.32800001
6.1599998 -2.816 -0.329
6.1669998 -2.79 -0.329
6.1760001 -2.766 -0.329
6.1919999 -2.7449999 -0.329
6.2049999 -2.723 -0.33000001
6.2340002 -2.707 -0.331
6.2550001 -2.6889999 -0.33199999
6.2680001 -2.6670001 -0.33199999
6.283 -2.6459999 -0.333
6.2950001 -2.6229999 -0.333
6.3280001 -2.6099999 -0.33500001
6.3429999 -2.589 -0.33500001
6.368 -2.572 -0.336
6.3899999 -2.5539999 -0.33700001
6.401 -2.5309999 -0.33700001
6.408 -2.507 -0.338
6.428 -2.4890001 -0.338
6.4530001 -2.4719999 -0.33899999
6.454 -2.4460001 -0.33899999
6.48 -2.4289999 -0.34
6.4910002 -2.408 -0.34099999
6.5079999 -2.388 -0.34099999
6.5289998 -2.3699999 -0.34200001
6.5510001 -2.352 -0.34299999
6.5650001 -2.3310001 -0.34400001
6.5799999 -2.3110001 -0.34400001
6.5900002 -2.289 -0.34400001
6.5890002 -2.2639999 -0.34400001
6.625 -2.2509999 -0.34599999
6.631 -2.2279999 -0.34599999
6.638 -2.2049999 -0.34599999
6.651 -2.1849999 -0.34599999
6.6529999 -2.161 -0.34599999
6.6820002 -2.1459999 -0.34799999
6.6939998 -2.125 -0.34799999
6.717 -2.108 -0.34900001
6.7309999 -2.0880001 -0.34900001
6.744 -2.0680001 -0.34999999
6.7509999 -2.0469999 -0.34999999
6.757 -2.0239999 -0.34999999
6.7779999 -2.007 -0.35100001
6.7810001 -1.984 -0.35100001
6.803 -1.967 -0.352
6.809 -1.946 -0.352
6.8239999 -1.926 -0.35299999
6.8559999 -1.9119999 -0.354
6.8579998 -1.89 -0.354
6.875 -1.8710001 -0.35499999
6.8899999 -1.852 -0.35499999
6.8979998 -1.832 -0.35499999
6.9130001 -1.813 -0.35600001
6.934 -1.796 -0.35699999
6.9439998 -1.776 -0.35699999
6.9699998 -1.76 -0.35800001
6.973 -1.739 -0.35800001
7.0009999 -1.724 -0.359
6.994 -1.7 -0.359
7.0180001 -1.684 -0.36000001
7.04 -1.6670001 -0.361
7.0570002 -1.649 -0.36199999
7.0819998 -1.633 -0.36300001
7.0840001 -1.612 -0.36300001
7.098 -1.5930001 -0.36300001
7.119 -1.577 -0.36399999
7.1259999 -1.557 -0.36399999
7.1459999 -1.54 -0.36500001
7.1560001 -1.521 -0.36500001
7.1830001 -1.505 -0.36700001
7.1849999 -1.485 -0.36700001
7.2030001 -1.4680001 -0.36700001
7.2309999 -1.452 -0.368
7.2389998 -1.433 -0.36899999
7.2459998 -1.414 -0.36899999
7.2670002 -1.397 -0.37
7.2680001 -1.377 -0.37
7.3000002 -1.363 -0.37099999
7.3189998 -1.346 -0.37200001
7.2919998 -1.321 -0.37
7.3109999 -1.304 -0.37099999
7.3319998 -1.288 -0.37200001
7.3449998 -1.27 -0.373
7.362 -1.2539999 -0.373
7.3800001 -1.237 -0.37400001
7.3800001 -1.217 -0.37400001
7.4070001 -1.202 -0.375
7.4250002 -1.186 -0.37599999
7.4250002 -1.166 -0.37599999
7.4439998 -1.15 -0.377
7.4520001 -1.132 -0.377
7.461 -1.114 -0.377
7.4879999 -1.099 -0.37799999
7.4949999 -1.081 -0.37900001
7.507 -1.064 -0.37900001
7.5089998 -1.046 -0.37900001
7.5310001 -1.03 -0.38
7.5570002 -1.015 -0.38100001
7.5479999 -0.99599999 -0.38100001
7.5700002 -0.98000002 -0.382
7.5869999 -0.96399999 -0.382
7.5960002 -0.94700003 -0.38299999
7.5970001 -0.92900002 -0.38299999
7.618 -0.91399997 -0.384
7.6079998 -0.89499998 -0.38299999
7.6329999 -0.88 -0.384
7.6350002 -0.86199999 -0.384
7.6490002 -0.84600002 -0.38499999
7.6820002 -0.83200002 -0.38600001
7.6890001 -0.815 -0.38600001
7.691 -0.79799998 -0.38600001
7.6869998 -0.78100002 -0.38600001
7.7030001 -0.76499999 -0.38699999
7.7259998 -0.75 -0.38800001
7.7329998 -0.73400003 -0.38800001
7.7470002 -0.71799999 -0.389
7.7639999 -0.70300001 -0.389
7.7740002 -0.68699998 -0.38999999
7.7810001 -0.671 -0.38999999
7.8119998 -0.65700001 -0.391
7.8130002 -0.64099997 -0.391
7.8309999 -0.62599999 -0.39199999
7.8520002 -0.611 -0.39300001
7.8410001 -0.59399998 -0.39199999
7.869 -0.57999998 -0.39399999
7.8759999 -0.565 -0.39399999
7.8920002 -0.55000001 -0.39500001
7.888 -0.53399998 -0.39399999
7.9239998 -0.51999998 -0.396
7.9299998 -0.505 -0.396
7.9369998 -0.49000001 -0.39700001
7.9679999 -0.47600001 -0.398
7.9689999 -0.461 -0.398
7.987 -0.447 -0.39899999
8.007 -0.43200001 -0.40000001
7.9990001 -0.417 -0.39899999
8.0439997 -0.40400001 -0.40099999
8.0530005 -0.389 -0.40200001
8.0509996 -0.37400001 -0.40200001
8.0749998 -0.361 -0.403
8.073 -0.34599999 -0.403
8.0900002 -0.33199999 -0.403
8.1339998 -0.31900001 -0.405
8.1389999 -0.30399999 -0.40599999
8.165 -0.29100001 -0.40700001
8.1940002 -0.278 -0.40799999
8.2080002 -0.264 -0.40900001
8.2650003 -0.25099999 -0.412
8.309 -0.23800001 -0.414
7.882 0.085000001 -0.54100001
7.8959999 0.1 -0.542
7.8940001 0.115 -0.542
7.855 0.12899999 -0.53899997
7.8660002 0.14399999 -0.54000002
7.8330002 0.15800001 -0.53799999
7.8119998 0.17299999 -0.537
7.796 0.18799999 -0.53600001
7.79 0.20299999 -0.53600001
7.7989998 0.219 -0.53600001
7.763 0.234 -0.53399998
7.776 0.25 -0.53500003
7.7740002 0.266 -0.53500003
7.7670002 0.28200001 -0.53500003
7.7690001 0.29800001 -0.53500003
7.7389998 0.31400001 -0.53299999
7.7399998 0.33000001 -0.53399998
7.7420001 0.347 -0.53399998
7.757 0.36500001 -0.53600001
7.7360001 0.38100001 -0.53399998
7.743 0.398 -0.53500003
7.7490001 0.41600001 -0.53600001
7.75 0.433 -0.53600001
7.7470002 0.45100001 -0.53600001
7.7340002 0.46799999 -0.53600001
7.744 0.486 -0.53600001
7.757 0.505 -0.53799999
7.73 0.52200001 -0.53600001
7.7410002 0.54100001 -0.537
7.7270002 0.55800003 -0.537
7.723 0.57599998 -0.537
7.7160001 0.59399998 -0.53600001
7.7179999 0.61299998 -0.537
7.7340002 0.63300002 -0.53799999
7.7160001 0.65100002 -0.537
7.7249999 0.671 -0.53799999
7.7280002 0.69099998 -0.53899997
7.7259998 0.70999998 -0.53899997
7.7179999 0.72899997 -0.53899997
7.7319999 0.75 -0.54000002
7.7220001 0.76800001 -0.54000002
7.7459998 0.79100001 -0.542
7.756 0.81199998 -0.54299998
7.7839999 0.83499998 -0.546
7.7690001 0.85399997 -0.54500002
7.7519999 0.87300003 -0.54400003
7.77 0.89499998 -0.546
7.7750001 0.917 -0.54699999
7.7779999 0.93800002 -0.54699999
7.7870002 0.95999998 -0.54799998
7.7810001 0.98000002 -0.54799998
7.7779999 1.001 -0.54900002
7.79 1.024 -0.55000001
7.7839999 1.045 -0.55000001
7.7870002 1.067 -0.551
7.7909999 1.089 -0.551
7.809 1.114 -0.55299997
7.8119998 1.136 -0.55400002
7.823 1.16 -0.55500001
7.835 1.184 -0.55599999
7.8429999 1.2079999 -0.55800003
7.8590002 1.232 -0.55900002
7.869 1.257 -0.56
7.8720002 1.28 -0.56099999
7.8850002 1.3049999 -0.56300002
7.8909998 1.329 -0.56400001
7.902 1.354 -0.565
7.8969998 1.377 -0.565
7.9000001 1.401 -0.56599998
7.9169998 1.427 -0.56800002
7.9130001 1.45 -0.56800002
7.9349999 1.478 -0.56999999
7.9330001 1.502 -0.57099998
7.9190001 1.523 -0.56999999
7.7350001 1.511 -0.55699998
7.6370001 1.515 -0.551
7.605 1.5319999 -0.54900002
7.5960002 1.553 -0.54900002
7.5710001 1.572 -0.54799998
7.5619998 1.5930001 -0.54799998
7.5539999 1.615 -0.54799998
7.5710001 1.642 -0.55000001
7.612 1.675 -0.55299997
8.0229998 1.791 -0.58399999
8.066 1.826 -0.588
8.073 1.853 -0.58899999
8.099 1.8839999 -0.59100002
8.1169996 1.914 -0.59299999
8.1280003 1.943 -0.59500003
8.1339998 1.971 -0.59600002
8.1289997 1.995 -0.59600002
8.1280003 2.0220001 -0.597
8.151 2.0539999 -0.59899998
8.1499996 2.0799999 -0.60000002
8.1590004 2.109 -0.60100001
8.1689997 2.138 -0.60299999
8.151 2.1600001 -0.602
7.7600002 2.082 -0.574
7.6129999 2.0680001 -0.56400001
7.5560002 2.0769999 -0.56
7.54 2.098 -0.56
7.5570002 2.1270001 -0.56199998
7.5710001 2.1570001 -0.56400001
7.625 2.197 -0.56800002
7.6750002 2.2379999 -0.57300001
7.7930002 2.2980001 -0.58200002
8.2819996 2.47 -0.62
8.2709999 2.4949999 -0.62
8.2919998 2.529 -0.62199998
8.3149996 2.5650001 -0.625
8.3219995 2.595 -0.62599999
8.316 2.622 -0.62599999
8.335 2.6559999 -0.62900001
8.3409996 2.687 -0.63
8.3549995 2.72 -0.63200003
8.3509998 2.747 -0.63300002
8.3690004 2.7820001 -0.63499999
8.3690004 2.8110001 -0.63599998
8.3940001 2.849 -0.63800001
8.3970003 2.8789999 -0.63999999
8.4289999 2.9189999 -0.64300001
8.4259996 2.947 -0.64399999
8.4359999 2.98 -0.64499998
8.4589996 3.0179999 -0.648
8.4449997 3.043 -0.648
8.4779997 3.085 -0.65100002
8.4860001 3.1170001 -0.653
8.4840002 3.1470001 -0.65399998
8.5080004 3.1849999 -0.65600002
8.507 3.2149999 -0.65700001
8.5240002 3.2520001 -0.66000003
8.5109997 3.277 -0.66000003
8.5369997 3.3180001 -0.66299999
8.5389996 3.349 -0.66399997
8.5530005 3.385 -0.66600001
8.5670004 3.421 -0.66799998
8.5939999 3.4630001 -0.671
8.5889997 3.4909999 -0.67199999
8.599 3.526 -0.67400002
8.6099997 3.562 -0.67500001
8.6020002 3.5899999 -0.676
8.6269999 3.631 -0.67900002
8.6450005 3.6700001 -0.68099999
8.6610003 3.7079999 -0.68400002
8.6759996 3.7460001 -0.68599999
8.6899996 3.783 -0.68800002
8.6940002 3.8169999 -0.69
8.6940002 3.848 -0.69099998
8.71 3.8870001 -0.69300002
8.7189999 3.9230001 -0.69499999
8.7290001 3.9590001 -0.69700003
8.7639999 4.007 -0.70099998
8.7790003 4.0450001 -0.70300001
8.7670002 4.072 -0.70300001
8.7580004 4.0999999 -0.704
8.7740002 4.1389999 -0.70599997
8.7700005 4.1690001 -0.70700002
8.7770004 4.2049999 -0.70899999
8.7969999 4.2470002 -0.71100003
8.7950001 4.2779999 -0.713
8.8199997 4.322 -0.71600002
8.8389997 4.3639998 -0.71899998
8.8430004 4.3979998 -0.72000003
8.8290005 4.4239998 -0.72000003
8.8299999 4.4569998 -0.72100002
8.835 4.4920001 -0.72299999
8.8540001 4.5339999 -0.72600001
8.849 4.5640001 -0.727
8.875 4.6100001 -0.73000002
8.8929996 4.652 -0.73299998
8.8959999 4.6859999 -0.73400003
8.8990002 4.7199998 -0.736
8.9020004 4.7540002 -0.73699999
8.9020004 4.7870002 -0.73900002
8.9139996 4.8260002 -0.741
8.9350004 4.8699999 -0.74400002
8.9350004 4.902 -0.745
8.9420004 4.9390001 -0.74699998
8.9449997 4.973 -0.74900001
8.9639997 5.0159998 -0.75099999
8.9619999 5.0479999 -0.75300002
8.9829998 5.092 -0.75599998
8.9890003 5.1290002 -0.75800002
8.9820004 5.1570001 -0.75800002
8.9919996 5.1950002 -0.75999999
9.0039997 5.2350001 -0.76300001
8.9899998 5.2589998 -0.76300001
8.9849997 5.289 -0.764
8.9919996 5.3249998 -0.76599997
9.0010004 5.3629999 -0.76800001
9.0030003 5.3959999 -0.76999998
9.0310001 5.4460001 -0.773
9.0200005 5.4720001 -0.77399999
9.0439997 5.5180001 -0.77700001
9.0439997 5.5510001 -0.77899998
9.0530005 5.5879998 -0.78100002
9.0469999 5.6170001 -0.78200001
9.0500002 5.651 -0.78299999
9.0760002 5.6989999 -0.787
9.0749998 5.73 -0.78799999
9.085 5.7680001 -0.79100001
9.0930004 5.8049998 -0.79299998
9.1049995 5.8449998 -0.79500002
9.1090002 5.8790002 -0.79699999
9.1540003 5.9400001 -0.80299997
9.1440001 5.9650002 -0.80299997
9.1529999 6.0019999 -0.80500001
9.1330004 6.0209999 -0.80500001
9.1459999 6.0599999 -0.80800003
9.1440001 6.0900002 -0.80900002
9.1680002 6.1370001 -0.81300002
9.1560001 6.1599998 -0.81300002
9.1709995 6.2020001 -0.81599998
9.1689997 6.2309999 -0.81699997
9.1969995 6.2810001 -0.82099998
9.1800003 6.3000002 -0.82099998
9.2019997 6.3449998 -0.82499999
9.198 6.3730001 -0.82599998
9.217 6.4159999 -0.829
9.2309999 6.4559999 -0.83200002
9.2390003 6.4910002 -0.83399999
9.2360001 6.5190001 -0.83499998
9.2309999 6.5450001 -0.83700001
9.2810001 6.6100001 -0.84299999
9.2690001 6.631 -0.84299999
5.869 -3.4200001 -0.30500001
5.8860002 -3.414 -0.30599999
5.8979998 -3.405 -0.30599999
5.9070001 -3.3929999 -0.30700001
5.9050002 -3.3759999 -0.30599999
5.921 -3.369 -0.30700001
5.921 -3.352 -0.30700001
5.941 -3.346 -0.308
5.954 -3.3369999 -0.308
5.9629998 -3.326 -0.30899999
5.9759998 -3.316 -0.30899999
5.9640002 -3.293 -0.30899999
5.9759998 -3.283 -0.30899999
5.9889998 -3.273 -0.31
5.994 -3.2590001 -0.31
5.9889998 -3.24 -0.30899999
6.0040002 -3.2309999 -0.31
6.0029998 -3.214 -0.31
6.0110002 -3.201 -0.31
6.0149999 -3.1860001 -0.31
6.0279999 -3.1760001 -0.31099999
6.0339999 -3.1619999 -0.31099999
6.0539999 -3.1559999 -0.31200001
6.0479999 -3.135 -0.31099999
6.0549998 -3.122 -0.31200001
6.0599999 -3.1070001 -0.31200001
6.0739999 -3.098 -0.31200001
6.073 -3.0799999 -0.31200001
6.0939999 -3.073 -0.31299999
6.0999999 -3.059 -0.31299999
6.1079998 -3.046 -0.31400001
6.1269999 -3.0380001 -0.31400001
6.1420002 -3.0280001 -0.315
6.1599998 -3.0190001 -0.31600001
6.1620002 -3.003 -0.31600001
6.1760001 -2.9920001 -0.31600001
6.1810002 -2.977 -0.31600001
6.1869998 -2.9630001 -0.317
6.1999998 -2.951 -0.317
6.204 -2.9349999 -0.317
6.2210002 -2.9260001 -0.31799999
6.2210002 -2.908 -0.31799999
6.2220001 -2.891 -0.31799999
6.2340002 -2.8789999 -0.31799999
6.2550001 -2.8699999 -0.31900001
6.263 -2.8559999 -0.31900001
6.256 -2.836 -0.31900001
6.2800002 -2.8280001 -0.31999999
6.2820001 -2.8110001 -0.31999999
6.2940001 -2.799 -0.31999999
6.3130002 -2.789 -0.32100001
6.3280001 -2.7780001 -0.322
6.3260002 -2.7590001 -0.322
6.355 -2.753 -0.32300001
6.3649998 -2.74 -0.32300001
6.3740001 -2.7249999 -0.324
6.3940001 -2.7160001 -0.324
6.4089999 -2.704 -0.32499999
6.4070001 -2.6849999 -0.32499999
6.4120002 -2.668 -0.32499999
6.4180002 -2.6530001 -0.32499999
6.4330001 -2.6400001 -0.32600001
6.448 -2.628 -0.32600001
6.46 -2.615 -0.32699999
6.4650002 -2.598 -0.32699999
6.4660001 -2.5799999 -0.32699999
6.4780002 -2.566 -0.32699999
6.5009999 -2.5569999 -0.32800001
6.5100002 -2.5420001 -0.329
6.5089998 -2.523 -0.32800001
6.5310001 -2.513 -0.329
6.5430002 -2.4990001 -0.33000001
6.5409999 -2.48 -0.33000001
6.5419998 -2.461 -0.329
6.5570002 -2.448 -0.33000001
6.5679998 -2.434 -0.33000001
6.5739999 -2.4170001 -0.331
6.5939999 -2.4059999 -0.331
6.6059999 -2.391 -0.33199999
6.6040001 -2.3710001 -0.33199999
6.6259999 -2.3599999 -0.333
6.6300001 -2.3429999 -0.333
6.638 -2.3269999 -0.333
6.6560001 -2.3139999 -0.33399999
6.6500001 -2.293 -0.333
6.6620002 -2.2780001 -0.33399999
6.6810002 -2.2650001 -0.33399999
6.6849999 -2.2479999 -0.33399999
6.698 -2.233 -0.33500001
6.7010002 -2.2149999 -0.33500001
6.7090001 -2.1989999 -0.33500001
6.7160001 -2.1819999 -0.33500001
6.7290001 -2.1670001 -0.336
6.7199998 -2.145 -0.33500001
6.7379999 -2.131 -0.336
6.7509999 -2.1159999 -0.336
6.7639999 -2.1010001 -0.33700001
6.7719998 -2.0840001 -0.33700001
6.7800002 -2.0669999 -0.33700001
6.79 -2.0510001 -0.338
6.8130002 -2.0380001 -0.33899999
6.8179998 -2.0209999 -0.33899999
6.8270001 -2.0039999 -0.33899999
6.835 -1.987 -0.33899999
6.8429999 -1.969 -0.34
6.8460002 -1.951 -0.34
6.8709998 -1.938 -0.34099999
6.8720002 -1.919 -0.34099999
6.875 -1.9 -0.34099999
6.9029999 -1.888 -0.34200001
6.9130001 -1.872 -0.34200001
6.9239998 -1.855 -0.34200001
6.927 -1.836 -0.34200001
6.934 -1.818 -0.34299999
6.9400001 -1.8 -0.34299999
6.9780002 -1.79 -0.34400001
6.9809999 -1.771 -0.34400001
6.9819999 -1.751 -0.34400001
7.0139999 -1.739 -0.34599999
7.0180001 -1.72 -0.34599999
7.0229998 -1.702 -0.34599999
7.04 -1.686 -0.347
7.0669999 -1.6720001 -0.34799999
7.0710001 -1.653 -0.34799999
7.0939999 -1.638 -0.34900001
7.1129999 -1.623 -0.34900001
7.105 -1.601 -0.34900001
7.1339998 -1.587 -0.34999999
7.1399999 -1.568 -0.34999999
7.151 -1.55 -0.35100001
7.164 -1.533 -0.35100001
7.1820002 -1.516 -0.352
7.1900001 -1.497 -0.352
7.204 -1.48 -0.35299999
7.2199998 -1.4630001 -0.35299999
7.2329998 -1.4450001 -0.354
7.2639999 -1.431 -0.35499999
7.2670002 -1.411 -0.35499999
7.2859998 -1.3940001 -0.35600001
7.296 -1.375 -0.35600001
7.3150001 -1.358 -0.35699999
7.3189998 -1.3380001 -0.35699999
7.3340001 -1.3200001 -0.35699999
7.3540001 -1.303 -0.35800001
7.3530002 -1.2819999 -0.35800001
7.3889999 -1.267 -0.359
7.4060001 -1.249 -0.36000001
7.4099998 -1.229 -0.36000001
7.4429998 -1.2130001 -0.361
7.4429998 -1.192 -0.361
7.4619999 -1.174 -0.36199999
7.48 -1.156 -0.36300001
7.5040002 -1.138 -0.36399999
7.5219998 -1.12 -0.36399999
7.527 -1.099 -0.36399999
7.5570002 -1.082 -0.366
7.5599999 -1.061 -0.366
7.5840001 -1.043 -0.36700001
7.6009998 -1.024 -0.36700001
7.6170001 -1.005 -0.368
7.6339998 -0.98500001 -0.36899999
7.652 -0.96600002 -0.36899999
7.6529999 -0.94499999 -0.36899999
7.6989999 -0.92900002 -0.37099999
7.7069998 -0.90799999 -0.37099999
7.7249999 -0.88800001 -0.37200001
7.7210002 -0.866 -0.37200001
7.7379999 -0.84600002 -0.37200001
7.7610002 -0.82700002 -0.373
7.7839999 -0.80699998 -0.37400001
7.816 -0.78799999 -0.375
7.8330002 -0.76800001 -0.37599999
7.8439999 -0.74699998 -0.37599999
7.8649998 -0.727 -0.377
7.9000001 -0.708 -0.37900001
7.9320002 -0.68800002 -0.38
7.9400001 -0.667 -0.38
7.9330001 -0.64399999 -0.38
7.974 -0.625 -0.38100001
8.0109997 -0.60500002 -0.38299999
8.0270004 -0.58399999 -0.384
8.0570002 -0.56300002 -0.38499999
8.0749998 -0.542 -0.38499999
8.0889997 -0.51999998 -0.38600001
8.1230001 -0.49900001 -0.38699999
8.1490002 -0.47799999 -0.38800001
8.1709995 -0.456 -0.389
8.1879997 -0.43399999 -0.38999999
8.2390003 -0.41299999 -0.39199999
8.2919998 -0.39300001 -0.39399999
8.3339996 -0.37099999 -0.396
8.3990002 -0.35100001 -0.39899999
8.0979996 0.214 -0.53200001
8.0579996 0.22499999 -0.52999997
8.0249996 0.236 -0.528
8.0089998 0.24699999 -0.52700001
8.0030003 0.259 -0.52700001
8.0010004 0.271 -0.52700001
7.9809999 0.28299999 -0.52600002
7.973 0.29499999 -0.52499998
7.974 0.308 -0.52600002
7.9720001 0.32100001 -0.52600002
7.9530001 0.333 -0.52499998
7.9580002 0.347 -0.52499998
7.9429998 0.36000001 -0.52399999
7.9499998 0.37400001 -0.52499998
7.9359999 0.38699999 -0.52399999
7.9260001 0.40000001 -0.52399999
7.934 0.41499999 -0.52499998
7.9400001 0.43000001 -0.52499998
7.9499998 0.44499999 -0.52600002
7.9380002 0.45899999 -0.52600002
7.9390001 0.47299999 -0.52600002
7.9359999 0.48800001 -0.52600002
7.928 0.50300002 -0.52600002
7.928 0.51800001 -0.52600002
7.9349999 0.53399998 -0.52700001
7.9400001 0.55000001 -0.52700001
7.9460001 0.56599998 -0.528
7.9450002 0.58200002 -0.528
7.9419999 0.59799999 -0.528
7.9349999 0.61400002 -0.528
7.9320002 0.63 -0.528
7.927 0.64600003 -0.528
7.9229999 0.66299999 -0.528
7.9369998 0.68099999 -0.52999997
7.928 0.69700003 -0.52899998
7.948 0.71600002 -0.53100002
7.9590001 0.73500001 -0.53200001
