# .PCD v0.7 - Point Cloud Data file format
VERSION 0.7
FIELDS x y z
SIZE 4 4 4
TYPE F F F
COUNT 1 1 1
WIDTH 1653
HEIGHT 1
VIEWPOINT 0 0 0 1 0 0 0
POINTS 1653
DATA ascii
9.1490002 6.0630002 -0.80800003
9.1590004 6.0999999 -0.81
9.1639996 6.1350002 -0.81199998
9.1780005 6.1750002 -0.815
9.1929998 6.2160001 -0.81800002
9.1870003 6.243 -0.81900001
9.1750002 6.2649999 -0.81900001
9.1879997 6.3049998 -0.82200003
9.2019997 6.3449998 -0.82499999
9.2329998 6.3969998 -0.829
9.2309999 6.4250002 -0.82999998
9.2379999 6.461 -0.833
9.2370005 6.4899998 -0.83399999
9.2449999 6.5250001 -0.83600003
9.2360001 6.5479999 -0.83700001
9.2559996 6.592 -0.83999997
9.276 6.6360002 -0.84399998
5.8829999 -3.4289999 -0.30599999
5.8829999 -3.4119999 -0.30599999
5.8899999 -3.4000001 -0.30599999
5.9050002 -3.392 -0.30700001
5.9120002 -3.3800001 -0.30700001
5.9169998 -3.3659999 -0.30700001
5.9200001 -3.352 -0.30700001
5.9299998 -3.3410001 -0.30700001
5.9510002 -3.336 -0.308
5.96 -3.3239999 -0.30899999
5.9679999 -3.312 -0.30899999
5.961 -3.2909999 -0.308
5.9689999 -3.279 -0.30899999
5.9759998 -3.266 -0.30899999
5.9949999 -3.26 -0.31
6.0009999 -3.2460001 -0.31
5.9959998 -3.227 -0.31
6.0149999 -3.22 -0.31
6.0229998 -3.2079999 -0.31099999
6.0300002 -3.194 -0.31099999
6.04 -3.1819999 -0.31099999
6.0370002 -3.164 -0.31099999
6.0510001 -3.154 -0.31200001
6.0580001 -3.141 -0.31200001
6.052 -3.1210001 -0.31099999
6.0650001 -3.1099999 -0.31200001
6.0739999 -3.098 -0.31200001
6.086 -3.0869999 -0.31299999
6.105 -3.079 -0.31400001
6.1059999 -3.062 -0.31400001
6.1069999 -3.0450001 -0.31299999
6.1389999 -3.0439999 -0.315
6.1430001 -3.029 -0.315
6.1529999 -3.016 -0.315
6.1599998 -3.0020001 -0.31600001
6.1789999 -2.994 -0.31600001
6.1869998 -2.98 -0.317
6.1929998 -2.9649999 -0.317
6.2059999 -2.954 -0.317
6.2069998 -2.937 -0.317
6.2270002 -2.928 -0.31799999
6.2259998 -2.9100001 -0.31799999
6.2280002 -2.8929999 -0.31799999
6.2329998 -2.878 -0.31799999
6.2480001 -2.8670001 -0.31900001
6.2589998 -2.8540001 -0.31900001
6.2789998 -2.846 -0.31999999
6.2779999 -2.8269999 -0.31999999
6.2870002 -2.8139999 -0.31999999
6.3130002 -2.8069999 -0.32100001
6.3140001 -2.79 -0.32100001
6.3260002 -2.777 -0.322
6.3239999 -2.7579999 -0.32100001
6.3520002 -2.7520001 -0.32300001
6.3590002 -2.737 -0.32300001
6.3709998 -2.724 -0.32300001
6.3860002 -2.7119999 -0.324
6.388 -2.6949999 -0.324
6.4130001 -2.687 -0.32499999
6.4190001 -2.671 -0.32499999
6.4289999 -2.6570001 -0.32600001
6.4320002 -2.6400001 -0.32600001
6.4419999 -2.6259999 -0.32600001
6.4590001 -2.6140001 -0.32699999
6.4629998 -2.598 -0.32699999
6.4770002 -2.585 -0.32699999
6.4899998 -2.5710001 -0.32800001
6.4980001 -2.556 -0.32800001
6.5100002 -2.5420001 -0.329
6.5229998 -2.5280001 -0.329
6.5320001 -2.513 -0.329
6.5349998 -2.4960001 -0.329
6.552 -2.483 -0.33000001
6.5609999 -2.4679999 -0.33000001
6.553 -2.4460001 -0.33000001
6.5650001 -2.4319999 -0.33000001
6.586 -2.421 -0.331
6.5970001 -2.4070001 -0.33199999
6.605 -2.391 -0.33199999
6.6090002 -2.3729999 -0.33199999
6.6279998 -2.3610001 -0.333
6.6230001 -2.3399999 -0.33199999
6.6459999 -2.3299999 -0.333
6.6550002 -2.3139999 -0.33399999
6.6550002 -2.2950001 -0.333
6.6609998 -2.2780001 -0.33399999
6.6859999 -2.267 -0.33500001
6.684 -2.247 -0.33399999
6.7049999 -2.2349999 -0.33500001
6.6960001 -2.2130001 -0.33500001
6.7090001 -2.1989999 -0.33500001
6.7129998 -2.181 -0.33500001
6.7259998 -2.1659999 -0.336
6.7329998 -2.1489999 -0.336
6.737 -2.131 -0.336
6.7540002 -2.1170001 -0.33700001
6.763 -2.0999999 -0.33700001
6.7709999 -2.0840001 -0.33700001
6.7880001 -2.0699999 -0.338
6.7909999 -2.0510001 -0.338
6.802 -2.0350001 -0.338
6.816 -2.02 -0.33899999
6.8270001 -2.0039999 -0.33899999
6.8270001 -1.984 -0.33899999
6.8449998 -1.97 -0.34
6.848 -1.951 -0.34
6.8699999 -1.938 -0.34099999
6.869 -1.918 -0.34
6.8870001 -1.904 -0.34099999
6.9000001 -1.888 -0.34200001
6.9169998 -1.873 -0.34200001
6.9099998 -1.851 -0.34200001
6.927 -1.836 -0.34200001
6.9320002 -1.817 -0.34299999
6.9450002 -1.801 -0.34299999
6.973 -1.789 -0.34400001
6.974 -1.7690001 -0.34400001
6.9759998 -1.75 -0.34400001
7.0110002 -1.739 -0.34599999
7.0029998 -1.717 -0.345
7.033 -1.704 -0.34599999
7.039 -1.686 -0.34599999
7.0580001 -1.67 -0.347
7.0630002 -1.651 -0.347
7.0869999 -1.637 -0.34799999
7.1129999 -1.623 -0.34900001
7.1170001 -1.603 -0.34900001
7.1209998 -1.584 -0.34900001
7.132 -1.566 -0.34999999
7.1570001 -1.551 -0.35100001
7.158 -1.531 -0.35100001
7.1880002 -1.517 -0.352
7.198 -1.499 -0.352
7.2160001 -1.482 -0.35299999
7.2270002 -1.464 -0.35299999
7.2490001 -1.448 -0.354
7.27 -1.432 -0.35499999
7.2740002 -1.4119999 -0.35499999
7.2919998 -1.395 -0.35600001
7.2880001 -1.373 -0.35600001
7.3049998 -1.3559999 -0.35600001
7.3299999 -1.34 -0.35699999
7.336 -1.3200001 -0.35699999
7.3600001 -1.304 -0.35800001
7.3639998 -1.283 -0.35800001
7.3769999 -1.265 -0.359
7.3909998 -1.2460001 -0.359
7.4219999 -1.2309999 -0.361
7.434 -1.212 -0.361
7.4499998 -1.193 -0.36199999
7.4619999 -1.174 -0.36199999
7.4790001 -1.156 -0.36300001
7.5089998 -1.1390001 -0.36399999
7.527 -1.12 -0.36500001
7.5310001 -1.1 -0.36500001
7.546 -1.081 -0.36500001
7.572 -1.063 -0.366
7.5770001 -1.0420001 -0.366
7.592 -1.023 -0.36700001
7.6300001 -1.007 -0.36899999
7.6329999 -0.98500001 -0.36899999
7.6360002 -0.96399999 -0.368
7.6589999 -0.94599998 -0.36899999
7.684 -0.92699999 -0.37
7.6999998 -0.90700001 -0.37099999
7.7270002 -0.88800001 -0.37200001
7.7270002 -0.86699998 -0.37200001
7.7319999 -0.84500003 -0.37200001
7.7459998 -0.82499999 -0.37200001
7.7839999 -0.80699998 -0.37400001
7.816 -0.78799999 -0.375
7.8369999 -0.76899999 -0.37599999
7.8439999 -0.74699998 -0.37599999
7.8769999 -0.72799999 -0.37799999
7.8930001 -0.70700002 -0.37799999
7.941 -0.68900001 -0.38
7.9460001 -0.667 -0.38100001
7.9380002 -0.64399999 -0.38
7.9710002 -0.62400001 -0.38100001
8.0200005 -0.60600001 -0.38299999
8.0249996 -0.583 -0.38299999
8.0500002 -0.56300002 -0.384
8.0670004 -0.54100001 -0.38499999
8.0950003 -0.51999998 -0.38600001
8.1169996 -0.49900001 -0.38699999
8.151 -0.47799999 -0.38800001
8.1619997 -0.456 -0.389
8.1990004 -0.435 -0.38999999
8.2449999 -0.414 -0.39199999
8.2880001 -0.39300001 -0.39399999
8.3280001 -0.37099999 -0.396
8.1370001 0.204 -0.53500003
8.1370001 0.215 -0.53500003
8.0290003 0.236 -0.528
8.0129995 0.24699999 -0.52700001
8.0010004 0.259 -0.52700001
7.9860001 0.271 -0.52600002
7.9759998 0.28299999 -0.52499998
7.987 0.296 -0.52600002
7.987 0.30899999 -0.52600002
7.9710002 0.32100001 -0.52499998
7.9580002 0.33399999 -0.52499998
7.967 0.347 -0.52600002
7.9419999 0.36000001 -0.52399999
7.9450002 0.37400001 -0.52499998
7.941 0.38699999 -0.52499998
7.9349999 0.40099999 -0.52399999
7.915 0.414 -0.523
7.9439998 0.43000001 -0.52499998
7.9299998 0.44299999 -0.52499998
7.9439998 0.45899999 -0.52600002
7.9520001 0.47400001 -0.52700001
7.9109998 0.48699999 -0.52399999
7.9320002 0.50300002 -0.52600002
7.9419999 0.51899999 -0.52700001
7.9320002 0.53399998 -0.52600002
7.934 0.55000001 -0.52700001
7.9369998 0.56599998 -0.52700001
7.948 0.58200002 -0.528
7.9520001 0.59899998 -0.52899998
7.9390001 0.61400002 -0.528
7.9310002 0.63 -0.528
7.9369998 0.64700001 -0.52899998
7.9289999 0.66299999 -0.52899998
7.928 0.68000001 -0.52899998
7.9460001 0.699 -0.53100002
7.9569998 0.71700001 -0.53200001
7.9559999 0.73400003 -0.53200001
7.948 0.75099999 -0.53200001
7.9640002 0.77100003 -0.53299999
7.9510002 0.787 -0.53299999
7.9460001 0.80500001 -0.53299999
7.9640002 0.82499999 -0.53399998
7.96 0.84299999 -0.53500003
7.9580002 0.861 -0.53500003
7.9559999 0.87900001 -0.53500003
7.9569998 0.898 -0.53600001
7.9629998 0.91799998 -0.53600001
7.9689999 0.93800002 -0.537
7.973 0.958 -0.53799999
7.9710002 0.977 -0.53799999
7.9679999 0.99599999 -0.53899997
7.9689999 1.016 -0.53899997
7.9640002 1.035 -0.53899997
7.973 1.056 -0.54000002
7.9710002 1.076 -0.54100001
7.9710002 1.096 -0.54100001
7.9850001 1.119 -0.542
8.0039997 1.142 -0.54400003
7.994 1.161 -0.54400003
8.0039997 1.184 -0.54500002
8.0039997 1.205 -0.546
8.0150003 1.228 -0.54699999
8.0150003 1.249 -0.54799998
8.0170002 1.271 -0.54799998
8.0220003 1.293 -0.54900002
8.0430002 1.319 -0.551
8.0480003 1.341 -0.55199999
8.0649996 1.3660001 -0.55400002
8.0649996 1.3890001 -0.55400002
8.066 1.411 -0.55500001
8.066 1.434 -0.55599999
8.0889997 1.461 -0.55800003
8.0790005 1.482 -0.55800003
8.1040001 1.51 -0.56
8.099 1.5319999 -0.56
8.1000004 1.556 -0.56099999
8.1260004 1.584 -0.56300002
8.1309996 1.609 -0.56400001
8.1219997 1.631 -0.56400001
8.1409998 1.659 -0.56599998
8.1490002 1.6849999 -0.56800002
8.1599998 1.711 -0.56900001
8.1610003 1.7359999 -0.56999999
8.184 1.765 -0.57200003
8.1759996 1.788 -0.57200003
8.1789999 1.814 -0.57300001
8.1870003 1.841 -0.574
8.1999998 1.869 -0.57599998
8.2139997 1.898 -0.57800001
8.2150002 1.924 -0.57800001
8.2290001 1.9529999 -0.57999998
8.2329998 1.979 -0.58099997
8.2440004 2.0079999 -0.583
8.2489996 2.036 -0.58399999
8.2580004 2.0639999 -0.58499998
8.2770004 2.095 -0.58700001
8.3009996 2.128 -0.58999997
8.2849998 2.151 -0.58899999
8.302 2.1819999 -0.59100002
8.3039999 2.21 -0.59200001
8.3199997 2.2420001 -0.59399998
8.3319998 2.273 -0.59600002
8.3310003 2.3 -0.597
8.3389997 2.3299999 -0.59799999
8.3529997 2.362 -0.60000002
8.3660002 2.3929999 -0.602
8.3760004 2.424 -0.60299999
8.3769999 2.4530001 -0.60399997
8.3889999 2.4849999 -0.60600001
8.4090004 2.52 -0.60799998
8.4020004 2.5469999 -0.60900003
8.4130001 2.579 -0.61000001
8.4230003 2.6110001 -0.61199999
8.4230003 2.641 -0.61299998
8.4309998 2.6730001 -0.61400002
8.434 2.7030001 -0.61500001
8.448 2.7379999 -0.61699998
8.4569998 2.77 -0.61900002
8.4790001 2.8080001 -0.62099999
8.4770002 2.8380001 -0.62199998
8.4910002 2.8729999 -0.62400001
8.5019999 2.9070001 -0.62599999
8.5200005 2.944 -0.62800002
8.5389996 2.9820001 -0.63099998
8.5459995 3.0150001 -0.63200003
8.5539999 3.05 -0.634
8.5740004 3.0880001 -0.63599998
8.5810003 3.122 -0.63800001
8.6009998 3.1619999 -0.63999999
8.6230001 3.2019999 -0.64300001
8.6079998 3.2290001 -0.64300001
8.6289997 3.2690001 -0.64600003
8.6350002 3.3039999 -0.64700001
8.6490002 3.342 -0.64899999
8.658 3.378 -0.65100002
8.6899996 3.424 -0.65499997
8.698 3.46 -0.65600002
8.6990004 3.494 -0.65700001
8.7049999 3.53 -0.65899998
8.7259998 3.573 -0.662
8.75 3.6159999 -0.66500002
8.7539997 3.652 -0.66600001
8.7519999 3.6860001 -0.667
8.0150003 3.4070001 -0.61199999
7.9029999 3.391 -0.60500002
7.8109999 3.382 -0.59799999
7.75 3.3859999 -0.59500003
7.6950002 3.3929999 -0.59200001
7.4530001 3.316 -0.574
7.3499999 3.3 -0.56699997
7.3080001 3.3110001 -0.565
7.2779999 3.3269999 -0.56400001
7.2659998 3.3510001 -0.56400001
7.2880001 3.391 -0.56699997
7.3899999 3.4690001 -0.57599998
8.9110003 4.2189999 -0.69499999
8.9239998 4.2620001 -0.69800001
8.9469995 4.3109999 -0.70099998
8.96 4.3540001 -0.70300001
8.96 4.3909998 -0.704
8.9779997 4.4380002 -0.70700002
8.9580002 4.4660001 -0.70700002
8.9940004 4.5209999 -0.71100003
8.9960003 4.5609999 -0.713
9.0170002 4.6100001 -0.71600002
9.0249996 4.6529999 -0.71799999
9.0279999 4.6929998 -0.71899998
9.0249996 4.73 -0.72000003
9.0430002 4.7779999 -0.72299999
9.04 4.816 -0.72399998
9.0559998 4.8639998 -0.727
9.0600004 4.9050002 -0.72899997
9.0620003 4.9460001 -0.73100001
9.0740004 4.9920001 -0.73299998
9.1059999 5.0500002 -0.73699999
9.1219997 5.099 -0.74000001
9.1219997 5.1399999 -0.741
9.1020002 5.1690001 -0.741
9.0959997 5.2059999 -0.74199998
9.1079998 5.2540002 -0.745
9.0900002 5.2849998 -0.745
9.0780001 5.3179998 -0.745
9.0889997 5.3660002 -0.74800003
9.1070004 5.4180002 -0.75099999
9.1169996 5.4650002 -0.75300002
9.1459999 5.5250001 -0.75700003
9.151 5.5700002 -0.759
9.1370001 5.6030002 -0.75999999
9.1370001 5.645 -0.76099998
9.1409998 5.6900001 -0.76300001
9.1339998 5.7290001 -0.764
9.1440001 5.777 -0.76700002
9.1520004 5.8249998 -0.76899999
9.1599998 5.8730001 -0.77100003
9.158 5.915 -0.773
9.1680002 5.9650002 -0.77499998
9.1660004 6.007 -0.77700001
9.158 6.0450001 -0.778
9.1379995 6.0760002 -0.778
9.1490002 6.1259999 -0.77999997
9.1479998 6.1690001 -0.78200001
9.1400003 6.2080002 -0.78299999
9.1289997 6.2449999 -0.78399998
9.1309996 6.2909999 -0.78600001
9.125 6.3299999 -0.787
9.1140003 6.3670001 -0.78799999
9.099 6.401 -0.78799999
9.099 6.4450002 -0.79000002
9.066 6.467 -0.78899997
9.0539999 6.5029998 -0.79000002
9.0340004 6.533 -0.79000002
5.5999999 -3.7149999 -0.28200001
5.6329999 -3.7 -0.28299999
5.6539998 -3.6789999 -0.28400001
5.6789999 -3.6600001 -0.285
5.6859999 -3.6289999 -0.285
5.7160001 -3.6129999 -0.28600001
5.7420001 -3.5940001 -0.287
5.7519999 -3.566 -0.287
5.7659998 -3.54 -0.287
5.783 -3.516 -0.28799999
5.796 -3.4909999 -0.28799999
5.8130002 -3.467 -0.289
5.8280001 -3.4419999 -0.289
5.842 -3.4170001 -0.28999999
5.8559999 -3.3929999 -0.28999999
5.8790002 -3.3729999 -0.29100001
5.8899999 -3.346 -0.29100001
5.9039998 -3.322 -0.29100001
5.9180002 -3.2969999 -0.292
5.9320002 -3.273 -0.292
5.9400001 -3.2460001 -0.292
5.9660001 -3.2279999 -0.29300001
5.9710002 -3.1989999 -0.29300001
5.9899998 -3.178 -0.294
6.0159998 -3.161 -0.29499999
6.0250001 -3.1340001 -0.29499999
6.0489998 -3.115 -0.296
6.0799999 -3.1010001 -0.29699999
6.0900002 -3.075 -0.29699999
6.1160002 -3.0580001 -0.29800001
6.1220002 -3.0309999 -0.29800001
6.1279998 -3.0039999 -0.29800001
6.145 -2.9820001 -0.29899999
6.1690001 -2.964 -0.30000001
6.1880002 -2.9430001 -0.30000001
6.1880002 -2.914 -0.30000001
6.211 -2.895 -0.301
6.2290001 -2.875 -0.30199999
6.2360001 -2.849 -0.30199999
6.2579999 -2.8299999 -0.30199999
6.2950001 -2.8180001 -0.30399999
6.3049998 -2.7939999 -0.30399999
6.322 -2.773 -0.30500001
6.3449998 -2.7550001 -0.30599999
6.362 -2.734 -0.30599999
6.375 -2.711 -0.30599999
6.3959999 -2.6919999 -0.30700001
6.4130001 -2.6719999 -0.308
6.4320002 -2.652 -0.308
6.4450002 -2.6289999 -0.30899999
6.4590001 -2.608 -0.30899999
6.4770002 -2.5869999 -0.31
6.493 -2.5669999 -0.31
6.5149999 -2.5480001 -0.31099999
6.5380001 -2.53 -0.31200001
6.5609999 -2.5120001 -0.31299999
6.5619998 -2.4860001 -0.31299999
6.5780001 -2.4660001 -0.31299999
6.5939999 -2.4449999 -0.31400001
6.6079998 -2.424 -0.31400001
6.6209998 -2.402 -0.315
6.6389999 -2.3829999 -0.315
6.6630001 -2.365 -0.31600001
6.665 -2.3399999 -0.31600001
6.677 -2.319 -0.31600001
6.698 -2.3010001 -0.317
6.6929998 -2.273 -0.317
6.723 -2.2579999 -0.31799999
6.7449999 -2.24 -0.31900001
6.7550001 -2.2190001 -0.31900001
6.7670002 -2.198 -0.31900001
6.77 -2.174 -0.31900001
6.7989998 -2.158 -0.31999999
6.8119998 -2.1370001 -0.32100001
6.8189998 -2.115 -0.32100001
6.8319998 -2.095 -0.32100001
6.8319998 -2.0710001 -0.32100001
6.8800001 -2.0610001 -0.32300001
6.8800001 -2.0369999 -0.32300001
6.8860002 -2.0150001 -0.32300001
6.8990002 -1.994 -0.32300001
6.9120002 -1.974 -0.324
6.9400001 -1.959 -0.32499999
6.954 -1.939 -0.32499999
6.9710002 -1.921 -0.32600001
6.9699998 -1.897 -0.32600001
7.0029998 -1.883 -0.32699999
6.9990001 -1.859 -0.32699999
7.0289998 -1.8430001 -0.32800001
7.0489998 -1.826 -0.329
7.04 -1.801 -0.32800001
7.066 -1.784 -0.329
7.079 -1.765 -0.33000001
7.1110001 -1.75 -0.331
7.125 -1.7309999 -0.331
7.151 -1.715 -0.33199999
7.1560001 -1.694 -0.33199999
7.1869998 -1.679 -0.33399999
7.1999998 -1.66 -0.33399999
7.184 -1.635 -0.333
7.23 -1.623 -0.33500001
7.2350001 -1.602 -0.33500001
7.243 -1.582 -0.33500001
7.244 -1.561 -0.33500001
7.277 -1.5470001 -0.33700001
7.2909999 -1.528 -0.33700001
7.3130002 -1.511 -0.338
7.309 -1.489 -0.338
7.3330002 -1.473 -0.33899999
7.3400002 -1.4529999 -0.33899999
7.368 -1.438 -0.34
7.375 -1.418 -0.34
7.3889999 -1.4 -0.34099999
7.4109998 -1.3839999 -0.34099999
7.4289999 -1.3660001 -0.34200001
7.4330001 -1.347 -0.34200001
7.4429998 -1.3279999 -0.34200001
7.4569998 -1.3099999 -0.34299999
7.4809999 -1.294 -0.34400001
7.4889998 -1.275 -0.34400001
7.5029998 -1.258 -0.345
7.5240002 -1.2410001 -0.345
7.539 -1.224 -0.34599999
7.539 -1.204 -0.34599999
7.5630002 -1.188 -0.347
7.572 -1.17 -0.347
7.5869999 -1.153 -0.34799999
7.6040001 -1.136 -0.34799999
7.6139998 -1.118 -0.34900001
7.631 -1.102 -0.34900001
7.6370001 -1.0829999 -0.34900001
7.652 -1.066 -0.34999999
7.671 -1.05 -0.35100001
7.6739998 -1.0319999 -0.35100001
7.6799998 -1.0140001 -0.35100001
7.7030001 -0.99800003 -0.352
7.7129998 -0.98100001 -0.352
7.723 -0.963 -0.352
7.737 -0.94700003 -0.35299999
7.757 -0.93099999 -0.354
7.7610002 -0.91299999 -0.354
7.7610002 -0.89499998 -0.354
7.7870002 -0.88 -0.35499999
7.7940001 -0.86299998 -0.35499999
7.809 -0.847 -0.35499999
7.8249998 -0.83099997 -0.35600001
7.8200002 -0.81199998 -0.35600001
7.8429999 -0.79699999 -0.35699999
7.8520002 -0.78100002 -0.35699999
7.8670001 -0.76499999 -0.35800001
7.8839998 -0.74900001 -0.35800001
7.9050002 -0.73400003 -0.359
7.902 -0.71600002 -0.359
7.9380002 -0.70300001 -0.36000001
7.948 -0.68599999 -0.361
7.9559999 -0.67000002 -0.361
7.9559999 -0.65399998 -0.361
7.9790001 -0.639 -0.36199999
8.0100002 -0.625 -0.36300001
8.0319996 -0.61000001 -0.36399999
8.0760002 -0.59600002 -0.366
8.0760002 -0.57999998 -0.366
8.0600004 -0.56300002 -0.36500001
8.0649996 -0.54699999 -0.36500001
8.0810003 -0.53200001 -0.366
8.1020002 -0.51700002 -0.36700001
8.1120005 -0.50199997 -0.36700001
8.1289997 -0.48699999 -0.368
8.1210003 -0.47099999 -0.36700001
8.1420002 -0.456 -0.368
8.1700001 -0.442 -0.36899999
8.1709995 -0.42699999 -0.36899999
8.2069998 -0.41299999 -0.37099999
8.2309999 -0.39899999 -0.37200001
8.2320004 -0.384 -0.37200001
8.2729998 -0.37 -0.37400001
8.276 -0.35600001 -0.37400001
8.2950001 -0.34099999 -0.37400001
8.349 -0.32800001 -0.377
8.3640003 -0.31400001 -0.377
8.4219999 -0.301 -0.38
8.4790001 -0.28799999 -0.382
8.415 -0.27200001 -0.37900001
8.5459995 -0.26100001 -0.38499999
7.9640002 0.086999997 -0.50199997
7.987 0.102 -0.50400001
7.9910002 0.117 -0.50400001
7.9959998 0.132 -0.505
8.0039997 0.148 -0.50599998
8.0170002 0.163 -0.50599998
8.0039997 0.178 -0.50599998
8.0030003 0.19400001 -0.50599998
7.994 0.20999999 -0.50599998
8.0030003 0.226 -0.50599998
7.9879999 0.242 -0.50599998
7.9980001 0.25799999 -0.50599998
7.993 0.27399999 -0.50599998
7.9970002 0.29100001 -0.50700003
7.9990001 0.308 -0.50700003
7.993 0.32499999 -0.50700003
7.9829998 0.34099999 -0.50700003
8.0100002 0.36000001 -0.509
7.9899998 0.37599999 -0.50800002
8.0030003 0.39500001 -0.509
7.9809999 0.41100001 -0.50700003
8.0030003 0.43000001 -0.509
8.0059996 0.44800001 -0.50999999
8.0050001 0.46700001 -0.50999999
8.0120001 0.48500001 -0.50999999
8.0019999 0.50300002 -0.50999999
8 0.52200001 -0.50999999
8.0209999 0.542 -0.51200002
8.0249996 0.56099999 -0.51300001
8.0319996 0.58099997 -0.51300001
8.026 0.59899998 -0.51300001
8.0480003 0.62 -0.51499999
8.0489998 0.63999999 -0.51499999
8.0389996 0.65899998 -0.51499999
8.0369997 0.67900002 -0.51499999
8.026 0.69700003 -0.51499999
8.0670004 0.72100002 -0.51800001
8.0609999 0.741 -0.51800001
8.0629997 0.76200002 -0.51800001
8.0699997 0.78299999 -0.51899999
8.073 0.80400002 -0.51999998
8.0570002 0.82300001 -0.51899999
8.0699997 0.84500003 -0.51999998
8.0760002 0.86699998 -0.52100003
8.052 0.88499999 -0.51999998
8.0749998 0.90899998 -0.52200001
8.0620003 0.92900002 -0.52100003
8.0719995 0.95200002 -0.52200001
8.0609999 0.972 -0.52200001
8.0869999 0.99699998 -0.52399999
8.0909996 1.02 -0.52499998
8.0799999 1.04 -0.52499998
8.1000004 1.0650001 -0.52600002
8.1090002 1.089 -0.52700001
8.1059999 1.1109999 -0.528
8.1070004 1.133 -0.528
8.1059999 1.156 -0.52899998
8.118 1.181 -0.52999997
8.1210003 1.204 -0.53100002
8.1230001 1.227 -0.53100002
8.1160002 1.249 -0.53100002
8.1280003 1.275 -0.53299999
8.1330004 1.299 -0.53299999
8.1429996 1.324 -0.53500003
8.1520004 1.349 -0.53600001
8.1619997 1.375 -0.537
8.1709995 1.4 -0.53799999
8.1669998 1.424 -0.53799999
8.1560001 1.446 -0.53799999
8.1719999 1.473 -0.54000002
8.1940002 1.501 -0.542
8.1990004 1.527 -0.54299998
8.2060003 1.553 -0.54400003
8.2130003 1.579 -0.54500002
8.2229996 1.6059999 -0.546
8.2370005 1.6339999 -0.54699999
8.2399998 1.66 -0.54799998
8.2290001 1.683 -0.54799998
8.2390003 1.71 -0.54900002
8.2580004 1.74 -0.551
8.2670002 1.767 -0.55199999
8.2580004 1.791 -0.55199999
8.2819996 1.822 -0.55500001
8.2770004 1.847 -0.55500001
8.2980003 1.878 -0.55699998
8.2950001 1.903 -0.55699998
8.2989998 1.9299999 -0.55800003
8.3129997 1.96 -0.56
8.3179998 1.988 -0.56099999
8.3199997 2.0150001 -0.56199998
8.3360004 2.046 -0.56300002
8.3369999 2.073 -0.56400001
8.3549995 2.1040001 -0.56599998
8.3590002 2.132 -0.56699997
8.3879995 2.1670001 -0.56999999
8.3789997 2.1919999 -0.56999999
8.3809996 2.22 -0.57099998
8.3940001 2.2509999 -0.57200003
8.3990002 2.28 -0.57300001
8.4119997 2.3110001 -0.57499999
8.4250002 2.3429999 -0.57700002
8.427 2.372 -0.57800001
8.4449997 2.405 -0.579
8.4490004 2.434 -0.58099997
8.474 2.47 -0.583
8.4720001 2.497 -0.58399999
8.4709997 2.526 -0.58399999
8.4840002 2.5580001 -0.58600003
8.4940004 2.5899999 -0.58700001
8.4799995 2.615 -0.58700001
8.4969997 2.6489999 -0.58899999
8.4890003 2.675 -0.58999997
8.5200005 2.714 -0.59299999
8.5240002 2.744 -0.59399998
8.5430002 2.78 -0.59600002
8.5319996 2.806 -0.59600002
8.5489998 2.8410001 -0.59799999
8.5530005 2.872 -0.59899998
8.5710001 2.9070001 -0.60100001
8.5869999 2.9430001 -0.60299999
8.6090002 2.98 -0.60600001
8.6099997 3.0109999 -0.60600001
8.6239996 3.046 -0.60799998
8.6450005 3.0829999 -0.611
8.6560001 3.118 -0.61199999
8.6660004 3.152 -0.61400002
8.684 3.1889999 -0.616
8.6899996 3.2219999 -0.61699998
8.6940002 3.2539999 -0.61900002
8.7139997 3.2920001 -0.62099999
8.7080002 3.3210001 -0.62199998
8.7250004 3.359 -0.62400001
8.7399998 3.395 -0.62599999
8.7419996 3.427 -0.62699997
8.7510004 3.4619999 -0.62800002
8.7720003 3.5020001 -0.63099998
8.7869997 3.539 -0.63300002
8.7860003 3.5699999 -0.634
8.8070002 3.6099999 -0.63599998
8.8219995 3.648 -0.639
8.842 3.688 -0.64099997
8.8339996 3.717 -0.64099997
8.8439999 3.753 -0.64300001
8.0939999 3.464 -0.58899999
7.8979998 3.4089999 -0.57599998
7.8270001 3.4059999 -0.57200003
7.763 3.4059999 -0.56800002
7.717 3.414 -0.56599998
7.665 3.4189999 -0.56300002
7.4369998 3.3440001 -0.54699999
7.3379998 3.3269999 -0.54000002
7.2909999 3.332 -0.53799999
7.2620001 3.345 -0.537
7.2519999 3.3670001 -0.537
7.2740002 3.404 -0.53899997
7.3429999 3.4630001 -0.54500002
9.0439997 4.2979999 -0.67299998
9.0369997 4.3280001 -0.67299998
9.0600004 4.3720002 -0.676
9.085 4.4180002 -0.67900002
9.1009998 4.4580002 -0.68199998
9.0959997 4.4889998 -0.68199998
9.1280003 4.539 -0.68599999
9.1389999 4.5770001 -0.68800002
9.1169996 4.5999999 -0.68800002
9.1210003 4.6350002 -0.68900001
9.1619997 4.6900001 -0.69300002
9.1669998 4.7259998 -0.69499999
9.1780005 4.7649999 -0.69700003
9.1890001 4.8039999 -0.699
9.2010002 4.8449998 -0.70099998
9.2299995 4.8930001 -0.704
9.2539997 4.9400001 -0.708
9.2379999 4.9650002 -0.708
9.2629995 5.013 -0.71100003
9.2700005 5.0500002 -0.71200001
9.3039999 5.1030002 -0.71600002
9.3149996 5.1430001 -0.71799999
9.3290005 5.1849999 -0.72100002
9.3699999 5.2410002 -0.72500002
9.3649998 5.2729998 -0.72600001
9.3590002 5.303 -0.727
9.3839998 5.3520002 -0.73000002
9.3929996 5.3909998 -0.73199999
9.3959999 5.427 -0.73400003
9.4110003 5.4689999 -0.736
9.4239998 5.5110002 -0.73900002
9.427 5.5469999 -0.74000001
9.4580002 5.599 -0.74400002
9.474 5.6430001 -0.74699998
9.5089998 5.697 -0.75099999
9.5159998 5.7360001 -0.75300002
9.507 5.7639999 -0.75300002
9.5369997 5.8169999 -0.75700003
9.5319996 5.848 -0.75800002
9.5349998 5.8839998 -0.75999999
9.5509996 5.927 -0.76200002
9.5749998 5.9759998 -0.76599997
9.5839996 6.0149999 -0.76800001
9.5959997 6.0570002 -0.76999998
9.5959997 6.0910001 -0.77200001
9.6110001 6.1329999 -0.77399999
9.6309996 6.1799998 -0.77700001
9.6210003 6.2069998 -0.778
9.6339998 6.2490001 -0.77999997
9.6400003 6.2859998 -0.78200001
9.6359997 6.3169999 -0.78299999
9.6540003 6.362 -0.78600001
9.6599998 6.3990002 -0.78799999
9.6750002 6.4419999 -0.79100001
9.6949997 6.4879999 -0.79400003
9.7130003 6.533 -0.79699999
9.7209997 6.5710001 -0.79900002
9.7110004 6.5970001 -0.80000001
9.7480001 6.6550002 -0.80400002
9.743 6.6830001 -0.80599999
9.743 6.7150002 -0.80699998
9.7410002 6.7459998 -0.80800003
9.7770004 6.803 -0.81300002
9.7440004 6.8119998 -0.81199998
9.8129997 6.8920002 -0.81900001
5.9819999 -3.4890001 -0.28099999
5.9949999 -3.48 -0.28099999
6.0040002 -3.4679999 -0.28200001
6.0170002 -3.4590001 -0.28200001
6.013 -3.4400001 -0.28200001
6.0380001 -3.438 -0.28299999
6.039 -3.421 -0.28299999
6.046 -3.408 -0.28299999
6.04 -3.388 -0.28299999
6.052 -3.378 -0.28299999
6.0609999 -3.3659999 -0.28299999
6.0500002 -3.3429999 -0.28299999
6.0440001 -3.323 -0.28200001
6.0700002 -3.3199999 -0.28299999
6.0960002 -3.3169999 -0.285
6.0960002 -3.3 -0.28400001
6.0970001 -3.2839999 -0.28400001
6.105 -3.27 -0.285
6.1160002 -3.2590001 -0.285
6.132 -3.2509999 -0.28600001
6.145 -3.24 -0.28600001
6.1459999 -3.223 -0.28600001
6.1529999 -3.2090001 -0.28600001
6.1729999 -3.2030001 -0.287
6.164 -3.181 -0.28600001
6.1820002 -3.1719999 -0.287
6.184 -3.1559999 -0.287
6.1890001 -3.141 -0.287
6.1989999 -3.128 -0.28799999
6.2140002 -3.118 -0.28799999
6.223 -3.105 -0.28799999
6.2379999 -3.095 -0.289
6.237 -3.0769999 -0.289
6.2529998 -3.0669999 -0.289
6.2529998 -3.049 -0.289
6.2709999 -3.04 -0.28999999
6.276 -3.0250001 -0.28999999
6.2909999 -3.0139999 -0.29100001
6.29 -2.9960001 -0.28999999
6.2989998 -2.9820001 -0.29100001
6.3179998 -2.973 -0.29100001
6.3249998 -2.9579999 -0.292
6.3249998 -2.9400001 -0.292
6.3379998 -2.9289999 -0.292
6.3470001 -2.914 -0.292
6.3579998 -2.901 -0.29300001
6.381 -2.8940001 -0.294
6.3870001 -2.878 -0.294
6.3990002 -2.865 -0.294
6.4070001 -2.8510001 -0.294
6.4190001 -2.8380001 -0.29499999
6.4310002 -2.825 -0.29499999
6.4380002 -2.809 -0.29499999
6.4419999 -2.793 -0.29499999
6.4650002 -2.7839999 -0.296
6.4650002 -2.766 -0.296
6.4879999 -2.757 -0.29699999
6.4920001 -2.74 -0.29699999
6.493 -2.7219999 -0.29699999
6.5190001 -2.7149999 -0.29800001
6.5190001 -2.6960001 -0.29800001
6.5339999 -2.6830001 -0.29800001
6.5450001 -2.6689999 -0.29899999
6.5510001 -2.6530001 -0.29899999
6.5700002 -2.642 -0.30000001
6.585 -2.6289999 -0.30000001
6.5819998 -2.609 -0.30000001
6.5970001 -2.596 -0.301
6.5960002 -2.5769999 -0.30000001
6.6160002 -2.566 -0.301
6.6360002 -2.5550001 -0.30199999
6.6360002 -2.536 -0.30199999
6.6560001 -2.5239999 -0.303
6.6690001 -2.51 -0.303
6.6609998 -2.4879999 -0.30199999
6.6810002 -2.4760001 -0.303
6.6960001 -2.4630001 -0.30399999
6.6869998 -2.441 -0.303
6.6989999 -2.4260001 -0.30399999
6.697 -2.4059999 -0.303
6.711 -2.392 -0.30399999
6.724 -2.3770001 -0.30399999
6.7379999 -2.3629999 -0.30500001
6.7420001 -2.345 -0.30500001
6.75 -2.329 -0.30500001
6.7620001 -2.313 -0.30500001
6.7849998 -2.302 -0.30599999
6.7740002 -2.279 -0.30599999
6.7930002 -2.266 -0.30599999
6.8049998 -2.25 -0.30700001
6.8130002 -2.233 -0.30700001
6.8080001 -2.2119999 -0.30700001
6.823 -2.198 -0.30700001
6.8280001 -2.1800001 -0.30700001
6.8530002 -2.168 -0.308
6.868 -2.1530001 -0.30899999
6.8649998 -2.1329999 -0.308
6.8850002 -2.119 -0.30899999
6.888 -2.1010001 -0.30899999
6.8920002 -2.082 -0.30899999
6.921 -2.0710001 -0.31
6.9169998 -2.0510001 -0.31
6.9320002 -2.0350001 -0.31
6.9489999 -2.02 -0.31099999
6.9489999 -2.0009999 -0.31099999
6.9619999 -1.985 -0.31099999
6.9679999 -1.966 -0.31099999
6.987 -1.952 -0.31200001
7.0079999 -1.938 -0.31299999
7.0120001 -1.919 -0.31299999
7.0149999 -1.9 -0.31299999
7.0339999 -1.885 -0.31400001
7.0469999 -1.868 -0.31400001
7.0580001 -1.851 -0.31400001
7.0630002 -1.832 -0.31400001
7.0949998 -1.8200001 -0.31600001
7.1079998 -1.804 -0.31600001
7.112 -1.784 -0.31600001
7.1500001 -1.773 -0.31799999
7.1430001 -1.751 -0.317
7.1529999 -1.734 -0.31799999
7.21 -1.727 -0.31999999
7.2049999 -1.705 -0.31999999
7.2280002 -1.6900001 -0.31999999
7.2350001 -1.671 -0.31999999
7.2259998 -1.649 -0.31999999
7.2540002 -1.6339999 -0.32100001
7.283 -1.62 -0.322
7.2859998 -1.6 -0.322
7.2919998 -1.581 -0.322
7.302 -1.562 -0.322
7.3280001 -1.5470001 -0.32300001
7.3400002 -1.529 -0.324
7.3470001 -1.5089999 -0.324
7.3629999 -1.492 -0.32499999
7.3730001 -1.473 -0.32499999
7.3909998 -1.456 -0.32499999
7.3889999 -1.434 -0.32499999
7.4200001 -1.419 -0.32600001
7.4359999 -1.401 -0.32699999
7.448 -1.382 -0.32699999
7.4640002 -1.364 -0.32800001
7.4770002 -1.345 -0.32800001
7.5040002 -1.329 -0.329
7.513 -1.309 -0.329
7.5229998 -1.29 -0.33000001
7.5469999 -1.272 -0.331
7.5799999 -1.257 -0.33199999
7.586 -1.2359999 -0.33199999
7.5939999 -1.216 -0.33199999
7.618 -1.198 -0.333
7.6230001 -1.178 -0.333
7.6259999 -1.156 -0.333
7.6529999 -1.1390001 -0.33399999
7.6739998 -1.12 -0.33500001
7.6919999 -1.101 -0.33500001
7.7010002 -1.081 -0.336
7.7189999 -1.061 -0.336
7.7309999 -1.041 -0.33700001
7.7519999 -1.022 -0.33700001
7.7690001 -1.002 -0.338
7.789 -0.98299998 -0.33899999
7.8039999 -0.963 -0.33899999
7.8270001 -0.94400001 -0.34
7.8369999 -0.92299998 -0.34
7.8600001 -0.903 -0.34099999
7.8800001 -0.88300002 -0.34200001
7.895 -0.86299998 -0.34200001
7.9159999 -0.84299999 -0.34299999
7.948 -0.824 -0.34400001
7.9590001 -0.80199999 -0.34400001
7.9699998 -0.78100002 -0.345
7.9970002 -0.76099998 -0.34599999
8.0290003 -0.741 -0.347
8.0369997 -0.72000003 -0.347
8.0679998 -0.69999999 -0.34799999
8.1210003 -0.68099999 -0.34999999
8.1219997 -0.65899998 -0.34999999
8.1300001 -0.63599998 -0.34999999
8.1680002 -0.616 -0.352
8.1610003 -0.59299999 -0.35100001
8.1990004 -0.57200003 -0.35299999
8.2150002 -0.55000001 -0.35299999
8.2489996 -0.52899998 -0.354
8.2620001 -0.50700003 -0.35499999
8.2770004 -0.484 -0.35499999
8.3050003 -0.463 -0.35600001
8.3450003 -0.44100001 -0.35800001
8.3570004 -0.419 -0.35800001
8.3830004 -0.396 -0.359
8.434 -0.375 -0.361
8.4510002 -0.352 -0.361
8.4870005 -0.329 -0.36300001
8.3610001 0.177 -0.50400001
8.382 0.189 -0.505
8.3319998 0.199 -0.50199997
8.2740002 0.20900001 -0.49900001
8.2609997 0.22 -0.498
8.2469997 0.23199999 -0.498
8.2279997 0.243 -0.49700001
8.2069998 0.255 -0.49599999
8.1859999 0.26699999 -0.49399999
8.2069998 0.28 -0.49599999
8.1780005 0.292 -0.49399999
8.1759996 0.30500001 -0.49399999
8.1899996 0.31799999 -0.495
8.1780005 0.331 -0.495
8.1700001 0.34400001 -0.495
8.1759996 0.35800001 -0.495
8.1610003 0.37099999 -0.49399999
8.1870003 0.38600001 -0.49599999
8.1750002 0.40000001 -0.49599999
8.1730003 0.414 -0.49599999
8.1809998 0.42899999 -0.49599999
8.1719999 0.44400001 -0.49599999
8.191 0.45899999 -0.498
8.1940002 0.47499999 -0.498
8.184 0.48899999 -0.498
8.1800003 0.505 -0.498
8.1800003 0.51999998 -0.498
8.1730003 0.53500003 -0.498
8.1829996 0.55199999 -0.49900001
8.191 0.56900001 -0.49900001
8.1890001 0.58499998 -0.5
8.2030001 0.602 -0.50099999
8.1940002 0.61799997 -0.5
8.2040005 0.63599998 -0.50099999
8.1990004 0.65200001 -0.50099999
8.2130003 0.671 -0.50300002
8.2089996 0.68800002 -0.50300002
8.2159996 0.70599997 -0.50300002
8.2180004 0.72399998 -0.50400001
8.2320004 0.74299997 -0.505
8.217 0.759 -0.50400001
8.2360001 0.77899998 -0.50599998
8.2259998 0.79699999 -0.50599998
8.2209997 0.815 -0.50599998
8.2440004 0.83600003 -0.50800002
8.2410002 0.85399997 -0.50800002
8.2390003 0.87300003 -0.50800002
8.2519999 0.89300001 -0.509
8.2349997 0.91100001 -0.509
8.2600002 0.93300003 -0.51099998
8.2419996 0.95099998 -0.50999999
8.2550001 0.972 -0.51099998
8.2530003 0.99199998 -0.51099998
8.2620001 1.013 -0.51200002
8.2679996 1.034 -0.51300001
8.2659998 1.054 -0.514
8.2779999 1.076 -0.51499999
8.2810001 1.097 -0.51499999
8.2749996 1.117 -0.51499999
8.2880001 1.14 -0.51700002
8.2939997 1.1619999 -0.51800001
8.302 1.1849999 -0.51899999
8.2989998 1.206 -0.51899999
8.3109999 1.229 -0.51999998
8.3079996 1.251 -0.51999998
8.3079996 1.273 -0.52100003
8.3140001 1.296 -0.52200001
8.3240004 1.3200001 -0.523
8.3269997 1.3430001 -0.52399999
8.323 1.365 -0.52399999
8.3249998 1.388 -0.52499998
8.3219995 1.41 -0.52499998
8.3190002 1.433 -0.52499998
8.3549995 1.462 -0.528
8.3509998 1.485 -0.52899998
8.3540001 1.5089999 -0.52899998
8.3629999 1.534 -0.52999997
8.3649998 1.558 -0.53100002
8.3629999 1.582 -0.53200001
8.3690004 1.607 -0.53299999
8.3699999 1.632 -0.53299999
8.3669996 1.656 -0.53399998
8.3889999 1.6849999 -0.53600001
8.3900003 1.709 -0.53600001
8.3920002 1.735 -0.537
8.4110003 1.7640001 -0.53899997
8.3900003 1.784 -0.53799999
8.4110003 1.814 -0.54000002
8.4060001 1.839 -0.54100001
8.4280005 1.869 -0.54299998
8.434 1.896 -0.54400003
8.4490004 1.926 -0.54500002
8.4549999 1.9529999 -0.54699999
8.4630003 1.9809999 -0.54799998
8.4499998 2.0050001 -0.54799998
8.4549999 2.033 -0.54900002
8.4779997 2.0650001 -0.551
8.4980001 2.0969999 -0.55299997
8.4940004 2.1229999 -0.55299997
8.5059996 2.1530001 -0.55500001
8.5159998 2.1830001 -0.55599999
8.5179996 2.211 -0.55699998
8.5170002 2.2390001 -0.55800003
8.5340004 2.2709999 -0.56
8.5430002 2.3010001 -0.56099999
8.5690002 2.336 -0.56300002
8.5690002 2.365 -0.56400001
8.5760002 2.395 -0.56599998
8.5780001 2.425 -0.56599998
8.6129999 2.4630001 -0.56999999
8.6029997 2.49 -0.56999999
8.6160002 2.5220001 -0.57099998
8.618 2.552 -0.57200003
8.6169996 2.5810001 -0.57300001
8.625 2.6140001 -0.57499999
8.6199999 2.642 -0.57499999
8.6339998 2.6760001 -0.57700002
8.6420002 2.7090001 -0.57800001
8.632 2.7360001 -0.57800001
8.6330004 2.766 -0.579
8.6540003 2.8039999 -0.58200002
8.6669998 2.8380001 -0.583
8.6689997 2.8699999 -0.58399999
8.7089996 2.914 -0.588
8.7159996 2.948 -0.58999997
8.7340002 2.9860001 -0.59200001
8.7250004 3.0139999 -0.59200001
8.7399998 3.0510001 -0.59399998
8.7700005 3.0929999 -0.597
8.776 3.128 -0.59799999
8.783 3.1619999 -0.60000002
8.8039999 3.2019999 -0.602
8.8030005 3.2349999 -0.60299999
8.8170004 3.273 -0.60500002
8.8199997 3.3069999 -0.60600001
8.8290005 3.3429999 -0.60799998
8.835 3.3789999 -0.60900003
8.8409996 3.415 -0.611
8.8649998 3.4579999 -0.61299998
8.8769999 3.4960001 -0.61500001
8.9029999 3.5409999 -0.61799997
8.9029999 3.575 -0.61900002
8.9169998 3.615 -0.62099999
8.9230003 3.652 -0.62300003
8.9379997 3.6930001 -0.625
8.9650002 3.7390001 -0.62800002
8.9829998 3.7809999 -0.63
9.0200005 3.8329999 -0.634
8.0489998 3.4519999 -0.56699997
7.8829999 3.4119999 -0.55599999
7.8109999 3.4119999 -0.55199999
7.7470002 3.415 -0.54799998
7.684 3.418 -0.54500002
7.4619999 3.349 -0.52999997
7.349 3.3280001 -0.523
7.3049998 3.3380001 -0.52100003
7.2690001 3.3510001 -0.51899999
7.2579999 3.375 -0.51899999
7.2740002 3.4130001 -0.52100003
7.414 3.5090001 -0.53200001
9.191 4.388 -0.66100001
9.1890001 4.4250002 -0.66299999
9.2019997 4.4699998 -0.66500002
9.2259998 4.52 -0.66799998
9.2360001 4.5630002 -0.67000002
9.2460003 4.6069999 -0.67199999
9.2799997 4.6630001 -0.67500001
9.2469997 4.6859999 -0.67400002
9.2659998 4.7350001 -0.67699999
9.2790003 4.7810001 -0.67900002
9.2919998 4.8280001 -0.68199998
9.3210001 4.8829999 -0.685
9.3100004 4.9169998 -0.68599999
9.3439999 4.9759998 -0.69
9.3470001 5.0180001 -0.69099998
9.3730001 5.073 -0.69400001
9.3769999 5.1160002 -0.69599998
9.3830004 5.1599998 -0.69800001
9.408 5.2150002 -0.70099998
9.4200001 5.2639999 -0.704
9.4560003 5.3260002 -0.708
9.4569998 5.368 -0.70899999
9.4589996 5.4120002 -0.71100003
9.4580002 5.454 -0.71200001
9.4540005 5.494 -0.713
9.4530001 5.5359998 -0.71499997
9.4750004 5.592 -0.71799999
9.4790001 5.6370001 -0.72000003
9.4949999 5.6900001 -0.722
9.5 5.7360001 -0.72399998
9.507 5.7839999 -0.727
9.5159998 5.8330002 -0.72899997
9.5220003 5.881 -0.73100001
9.5380001 5.9349999 -0.73400003
9.5459995 5.9840002 -0.736
9.5369997 6.0229998 -0.73699999
9.5600004 6.0819998 -0.74000001
9.5649996 6.1300001 -0.74199998
9.5530005 6.1680002 -0.74299997
9.5640001 6.2199998 -0.745
9.5640001 6.2649999 -0.74699998
9.566 6.3119998 -0.74900001
9.54 6.3400002 -0.74800003
9.5489998 6.3920002 -0.75099999
9.5349998 6.428 -0.75099999
9.54 6.4770002 -0.75300002
9.5469999 6.5279999 -0.755
9.5279999 6.5609999 -0.75599998
9.5170002 6.5999999 -0.75599998
9.5220003 6.6490002 -0.75800002
9.5179996 6.6929998 -0.75999999
9.5030003 6.7290001 -0.75999999
9.4969997 6.7719998 -0.76200002
9.4709997 6.7989998 -0.76099998
9.4610004 6.8390002 -0.76200002
5.7199998 -3.7920001 -0.259
5.7470002 -3.773 -0.25999999
5.7659998 -3.7490001 -0.25999999
5.7930002 -3.7309999 -0.26100001
5.7940001 -3.6960001 -0.26100001
5.8070002 -3.668 -0.26100001
5.8179998 -3.6400001 -0.26100001
5.8130002 -3.602 -0.26100001
5.855 -3.5929999 -0.26199999
5.882 -3.575 -0.26300001
5.8979998 -3.55 -0.264
5.901 -3.517 -0.26300001
5.941 -3.507 -0.26499999
5.961 -3.4849999 -0.266
5.9780002 -3.461 -0.266
5.9959998 -3.438 -0.266
6.006 -3.411 -0.26699999
6.0339999 -3.3929999 -0.26800001
6.0450001 -3.3659999 -0.26800001
6.0560002 -3.3399999 -0.26800001
6.079 -3.3199999 -0.26899999
6.0910001 -3.2939999 -0.26899999
6.1139998 -3.2739999 -0.27000001
6.132 -3.2520001 -0.27000001
6.145 -3.2260001 -0.27000001
6.152 -3.1989999 -0.271
6.1739998 -3.178 -0.271
6.1960001 -3.1589999 -0.27200001
6.2090001 -3.1340001 -0.27200001
6.2360001 -3.1159999 -0.273
6.2389998 -3.0869999 -0.273
6.2550001 -3.0639999 -0.273
6.2719998 -3.0420001 -0.27399999
6.2950001 -3.023 -0.27500001
6.3109999 -3 -0.27500001
6.3130002 -2.971 -0.27500001
6.3540001 -2.961 -0.27599999
6.368 -2.937 -0.27700001
6.3779998 -2.9130001 -0.27700001
6.401 -2.8940001 -0.278
6.4120002 -2.869 -0.278
6.4219999 -2.8440001 -0.278
6.4549999 -2.8299999 -0.27900001
6.4650002 -2.806 -0.28
6.4759998 -2.7809999 -0.28
6.4920001 -2.76 -0.28
6.5050001 -2.737 -0.28099999
6.526 -2.717 -0.28099999
6.5489998 -2.6989999 -0.28200001
6.5549998 -2.6730001 -0.28200001
6.5879998 -2.6589999 -0.28299999
6.6040001 -2.6370001 -0.28400001
6.6139998 -2.6140001 -0.28400001
6.6230001 -2.5899999 -0.28400001
6.6440001 -2.5699999 -0.285
6.6630001 -2.5510001 -0.285
6.6810002 -2.53 -0.28600001
6.6989999 -2.51 -0.28600001
6.7150002 -2.4890001 -0.287
6.7150002 -2.4619999 -0.287
6.7189999 -2.437 -0.287
6.7550001 -2.424 -0.28799999
6.7690001 -2.402 -0.28799999
6.7779999 -2.3789999 -0.28799999
6.7690001 -2.3499999 -0.28799999
6.822 -2.342 -0.28999999
6.8109999 -2.313 -0.289
6.8239999 -2.2920001 -0.28999999
6.8319998 -2.2690001 -0.28999999
6.8530002 -2.25 -0.28999999
6.8670001 -2.2290001 -0.29100001
6.8740001 -2.2060001 -0.29100001
6.8839998 -2.1849999 -0.29100001
6.915 -2.1689999 -0.292
6.9299998 -2.1489999 -0.29300001
6.9349999 -2.1259999 -0.29300001
6.9489999 -2.1059999 -0.29300001
6.9770002 -2.0899999 -0.294
6.9770002 -2.0650001 -0.294
6.9910002 -2.0450001 -0.294
7.0170002 -2.0280001 -0.29499999
7.0120001 -2.003 -0.29499999
7.0300002 -1.984 -0.29499999
7.0640001 -1.97 -0.29699999
7.0700002 -1.947 -0.29699999
7.0830002 -1.927 -0.29699999
7.0939999 -1.9069999 -0.29699999
7.1149998 -1.8890001 -0.29800001
7.1209998 -1.867 -0.29800001
7.164 -1.855 -0.30000001
7.1890001 -1.8380001 -0.301
7.1939998 -1.817 -0.301
7.2059999 -1.796 -0.301
7.2319999 -1.78 -0.30199999
7.243 -1.76 -0.30199999
7.2490001 -1.739 -0.30199999
7.2820001 -1.724 -0.303
7.296 -1.705 -0.30399999
7.3130002 -1.686 -0.30399999
7.3200002 -1.665 -0.30500001
7.3309999 -1.646 -0.30500001
7.3439999 -1.626 -0.30500001
7.3610001 -1.608 -0.30599999
7.3720002 -1.589 -0.30599999
7.3730001 -1.567 -0.30599999
7.401 -1.551 -0.30700001
7.4120002 -1.5319999 -0.30700001
7.4299998 -1.5140001 -0.308
7.4549999 -1.498 -0.30899999
7.4530001 -1.476 -0.30899999
7.4780002 -1.46 -0.30899999
7.4749999 -1.438 -0.30899999
7.48 -1.418 -0.30899999
7.5250001 -1.405 -0.31099999
7.546 -1.388 -0.31200001
7.5469999 -1.368 -0.31200001
7.5650001 -1.35 -0.31200001
7.5830002 -1.3329999 -0.31299999
7.586 -1.313 -0.31299999
7.5999999 -1.295 -0.31299999
7.6209998 -1.278 -0.31400001
7.6389999 -1.261 -0.31400001
7.6560001 -1.243 -0.315
7.6589999 -1.224 -0.315
7.6859999 -1.2079999 -0.31600001
7.678 -1.187 -0.31600001
7.6960001 -1.17 -0.31600001
7.7189999 -1.154 -0.317
7.73 -1.136 -0.317
7.7540002 -1.12 -0.31799999
7.7709999 -1.103 -0.31900001
7.7740002 -1.084 -0.31900001
7.789 -1.067 -0.31900001
7.8010001 -1.049 -0.31999999
7.8200002 -1.033 -0.31999999
7.8260002 -1.0140001 -0.31999999
7.8429999 -0.99800003 -0.32100001
7.8460002 -0.97899997 -0.32100001
7.862 -0.963 -0.32100001
7.8829999 -0.94700003 -0.322
7.8860002 -0.92799997 -0.322
7.8990002 -0.912 -0.32300001
7.9130001 -0.89499998 -0.32300001
7.921 -0.87800002 -0.32300001
7.9380002 -0.861 -0.324
7.9679999 -0.84600002 -0.32499999
7.9629998 -0.82800001 -0.32499999
7.9860001 -0.81199998 -0.32600001
8.0019999 -0.796 -0.32600001
8.0279999 -0.78100002 -0.32699999
8.0419998 -0.76499999 -0.32699999
8.0430002 -0.74699998 -0.32699999
8.0670004 -0.73199999 -0.32800001
8.0620003 -0.71399999 -0.32800001
8.0970001 -0.69999999 -0.329
8.0979996 -0.68300003 -0.329
8.1020002 -0.66600001 -0.329
8.1309996 -0.65200001 -0.33000001
8.1529999 -0.63700002 -0.331
8.1599998 -0.62 -0.331
8.1689997 -0.60399997 -0.33199999
8.1960001 -0.58899999 -0.333
8.2229996 -0.57499999 -0.33399999
8.2419996 -0.56 -0.33399999
8.2469997 -0.54400003 -0.33500001
8.2469997 -0.52700001 -0.33399999
8.2690001 -0.51200002 -0.33500001
8.3000002 -0.498 -0.336
8.3070002 -0.48199999 -0.33700001
8.3109999 -0.46700001 -0.33700001
8.3380003 -0.45199999 -0.338
8.3369999 -0.43700001 -0.338
8.3739996 -0.42300001 -0.33899999
8.3900003 -0.40799999 -0.34
8.4110003 -0.39300001 -0.34
8.4350004 -0.37900001 -0.34099999
8.4790001 -0.36500001 -0.34299999
8.4779997 -0.34999999 -0.34299999
8.5 -0.336 -0.34400001
8.5179996 -0.32100001 -0.34400001
8.552 -0.30700001 -0.34599999
8.5950003 -0.294 -0.347
8.7250004 -0.28299999 -0.35299999
8.6809998 -0.266 -0.35100001
8.1190004 0.090000004 -0.46799999
8.1490002 0.106 -0.47
8.1330004 0.12 -0.46900001
8.1660004 0.13600001 -0.47099999
8.1560001 0.15099999 -0.47099999
8.1409998 0.167 -0.47
8.1560001 0.183 -0.47099999
8.1409998 0.198 -0.47
8.1549997 0.215 -0.47099999
8.1470003 0.23100001 -0.47099999
8.1359997 0.24699999 -0.47099999
8.1330004 0.26300001 -0.47099999
8.1420002 0.28099999 -0.47099999
8.1459999 0.29800001 -0.472
8.125 0.31400001 -0.47099999
8.151 0.33199999 -0.47299999
8.1569996 0.34999999 -0.47299999
8.1619997 0.368 -0.47400001
8.1700001 0.38600001 -0.47400001
8.1759996 0.40400001 -0.47499999
8.1660004 0.421 -0.47499999
8.1730003 0.44 -0.47499999
8.1730003 0.458 -0.47600001
8.165 0.477 -0.47499999
8.1700001 0.495 -0.47600001
8.1890001 0.51599997 -0.477
8.1739998 0.53399998 -0.477
8.1789999 0.55299997 -0.477
8.1920004 0.57300001 -0.47799999
8.2030001 0.59299999 -0.479
8.198 0.61299998 -0.479
8.2019997 0.63300002 -0.47999999
8.1929998 0.65200001 -0.47999999
8.1990004 0.67199999 -0.47999999
8.224 0.69499999 -0.48199999
8.2279997 0.71600002 -0.48300001
8.2329998 0.73699999 -0.48300001
8.2290001 0.75700003 -0.48300001
8.2440004 0.77899998 -0.48500001
8.2539997 0.801 -0.486
8.2390003 0.82099998 -0.48500001
8.2639999 0.84399998 -0.48699999
8.2690001 0.866 -0.48800001
8.2670002 0.88800001 -0.48800001
8.2639999 0.90899998 -0.48800001
8.2650003 0.93099999 -0.48899999
8.2709999 0.95300001 -0.48899999
8.2799997 0.977 -0.49000001
8.2950001 1.001 -0.49200001
8.2840004 1.022 -0.491
8.3009996 1.046 -0.493
8.3070002 1.0700001 -0.49399999
8.302 1.092 -0.49399999
8.3129997 1.1160001 -0.495
8.3249998 1.141 -0.49599999
8.335 1.165 -0.49700001
8.3389997 1.189 -0.498
8.3509998 1.214 -0.49900001
8.3509998 1.238 -0.49900001
8.3719997 1.265 -0.50099999
8.3789997 1.29 -0.50199997
8.3879995 1.3150001 -0.50300002
8.3979998 1.341 -0.50400001
8.3940001 1.365 -0.50400001
8.3999996 1.39 -0.505
8.3950005 1.414 -0.505
8.4160004 1.442 -0.50700003
8.4230003 1.4680001 -0.50800002
8.434 1.495 -0.509
8.4309998 1.5190001 -0.50999999
8.4449997 1.5470001 -0.51099998
8.4549999 1.574 -0.51200002
8.4709997 1.603 -0.514
8.4639997 1.627 -0.514
8.4709997 1.654 -0.51499999
8.474 1.6799999 -0.51499999
8.4910002 1.71 -0.51700002
8.4890003 1.735 -0.51800001
8.5050001 1.765 -0.51899999
8.5279999 1.796 -0.52100003
8.5349998 1.824 -0.52200001
8.5430002 1.852 -0.523
8.559 1.882 -0.52499998
8.5579996 1.909 -0.52499998
8.5679998 1.938 -0.52700001
8.5769997 1.967 -0.528
8.5930004 1.998 -0.52899998
8.573 2.0209999 -0.52899998
8.6020002 2.0550001 -0.53100002
8.618 2.0869999 -0.53299999
8.6379995 2.119 -0.53500003
8.6289997 2.145 -0.53500003
8.6490002 2.178 -0.537
8.6619997 2.2090001 -0.53799999
8.6759996 2.2409999 -0.54000002
8.6800003 2.27 -0.54100001
8.6999998 2.3039999 -0.54299998
8.7180004 2.3369999 -0.54400003
8.7379999 2.3710001 -0.546
8.7440004 2.402 -0.54699999
8.7279997 2.4260001 -0.54699999
8.7489996 2.461 -0.54900002
8.75 2.4909999 -0.55000001
8.7650003 2.5239999 -0.55199999
8.783 2.559 -0.55400002
8.8009996 2.5940001 -0.55500001
8.809 2.6259999 -0.55699998
8.8179998 2.658 -0.55800003
8.8290005 2.691 -0.55900002
8.8500004 2.7279999 -0.56199998
8.849 2.757 -0.56199998
8.8430004 2.786 -0.56300002
8.8640003 2.823 -0.565
8.8649998 2.8529999 -0.56599998
8.9029999 2.8959999 -0.56900001
8.8879995 2.9219999 -0.56900001
8.9020004 2.957 -0.56999999
8.9049997 2.9890001 -0.57099998
8.9209995 3.0250001 -0.57300001
8.9230003 3.0569999 -0.574
8.9300003 3.0899999 -0.57599998
8.9560003 3.131 -0.57800001
8.9689999 3.1659999 -0.57999998
8.9759998 3.2 -0.58099997
8.9659996 3.2279999 -0.58099997
8.9849997 3.267 -0.583
8.9910002 3.3 -0.58499998
8.9980001 3.335 -0.58600003
9.0150003 3.3729999 -0.588
9.0279999 3.4100001 -0.58999997
9.0530005 3.451 -0.59200001
9.0459995 3.4809999 -0.59299999
9.0679998 3.5209999 -0.59500003
9.0819998 3.559 -0.597
9.1020002 3.599 -0.59899998
9.1149998 3.6370001 -0.60100001
9.1370001 3.6789999 -0.60299999
9.1560001 3.7190001 -0.60600001
9.1700001 3.7579999 -0.60799998
9.1750002 3.793 -0.60900003
9.191 3.832 -0.611
9.2229996 3.8789999 -0.61400002
9.2299995 3.915 -0.61500001
9.2489996 3.957 -0.61799997
9.2650003 3.997 -0.62
9.2869997 4.04 -0.62199998
7.8670001 3.451 -0.528
7.7779999 3.4400001 -0.523
7.71 3.438 -0.51899999
7.625 3.428 -0.514
7.4000001 3.3529999 -0.5
7.3130002 3.3410001 -0.495
7.2750001 3.3499999 -0.493
7.244 3.362 -0.49200001
7.2249999 3.3789999 -0.491
7.237 3.4119999 -0.493
7.2810001 3.4590001 -0.49700001
7.572 3.625 -0.51800001
9.4399996 4.553 -0.64600003
9.4560003 4.5960002 -0.64899999
9.4630003 4.6339998 -0.64999998
9.4759998 4.6750002 -0.65200001
9.4940004 4.7189999 -0.65499997
9.4940004 4.7529998 -0.65600002
9.5279999 4.8049998 -0.65899998
9.5439997 4.848 -0.66100001
9.5609999 4.8920002 -0.66399997
9.5760002 4.9349999 -0.66600001
9.5799999 4.9720001 -0.667
9.5930004 5.0139999 -0.67000002
9.5950003 5.0500002 -0.671
9.6199999 5.098 -0.67400002
9.6420002 5.145 -0.67699999
9.6409998 5.1799998 -0.67799997
9.6639996 5.2280002 -0.68000001
9.6829996 5.2729998 -0.68300003
9.6920004 5.3140001 -0.685
9.7010002 5.3540001 -0.68699998
9.7150002 5.3969998 -0.68900001
9.7379999 5.4450002 -0.69199997
9.7360001 5.4790001 -0.69300002
9.7449999 5.52 -0.69499999
9.7419996 5.5539999 -0.69599998
9.7629995 5.6009998 -0.699
9.7609997 5.6350002 -0.69999999
9.7670002 5.6739998 -0.70099998
9.7849998 5.7199998 -0.704
9.8000002 5.7639999 -0.70599997
9.816 5.809 -0.70899999
9.8319998 5.8540001 -0.71100003
9.8339996 5.8899999 -0.713
9.849 5.9349999 -0.71499997
9.8579998 5.9759998 -0.71700001
9.8599997 6.0120001 -0.71899998
9.8649998 6.0500002 -0.72000003
9.8590002 6.0809999 -0.72100002
9.8859997 6.1329999 -0.72500002
9.8839998 6.1669998 -0.72600001
9.8959999 6.2090001 -0.72799999
9.9029999 6.2480001 -0.73000002
9.9250002 6.2969999 -0.73299998
9.9209995 6.3299999 -0.73400003
9.9309998 6.3699999 -0.736
9.9499998 6.4169998 -0.73900002
9.9399996 6.4450002 -0.73900002
9.9569998 6.4910002 -0.74199998
9.9680004 6.5320001 -0.74400002
9.9799995 6.5739999 -0.74699998
10.014 6.631 -0.75099999
10.019 6.6690001 -0.75199997
9.9899998 6.6830001 -0.75199997
10.01 6.7309999 -0.755
10.021 6.7719998 -0.75700003
10.003 6.7930002 -0.75700003
10.023 6.8400002 -0.75999999
10.046 6.8889999 -0.76300001
10.07 6.9390001 -0.76599997
10.06 6.9650002 -0.76700002
10.137 7.0510001 -0.77399999
10.114 7.0679998 -0.77399999
10.093 7.086 -0.77399999
6.0809999 -3.549 -0.255
6.0879998 -3.5369999 -0.255
6.0939999 -3.523 -0.255
6.0970001 -3.5079999 -0.255
6.1100001 -3.4979999 -0.25600001
6.1170001 -3.4849999 -0.25600001
6.125 -3.473 -0.25600001
6.1350002 -3.461 -0.257
6.1389999 -3.447 -0.257
6.1469998 -3.4330001 -0.257
6.1589999 -3.4230001 -0.257
6.1500001 -3.401 -0.257
6.1599998 -3.3889999 -0.257
6.1700001 -3.3770001 -0.257
6.1830001 -3.3670001 -0.25799999
6.1849999 -3.3510001 -0.25799999
