# .PCD v0.7 - Point Cloud Data file format
VERSION 0.7
FIELDS x y z
SIZE 4 4 4
TYPE F F F
COUNT 1 1 1
WIDTH 1803
HEIGHT 1
VIEWPOINT 0 0 0 1 0 0 0
POINTS 1803
DATA ascii
17.767 2.592 0.66900003
17.841 2.652 0.67199999
17.923 2.7149999 0.67500001
17.997999 2.777 0.67799997
18.049999 2.836 0.68000001
18.066 2.8900001 0.68000001
18.128 2.9519999 0.68300003
18.143 3.006 0.68400002
18.202999 3.069 0.68599999
18.379999 3.152 0.69300002
18.458 3.2190001 0.69599998
18.570999 3.293 0.69999999
18.669001 3.3659999 0.704
18.711 3.428 0.70599997
18.700001 3.4820001 0.70599997
18.775 3.552 0.70899999
18.822001 3.6170001 0.71100003
18.853001 3.6789999 0.71200001
18.893999 3.744 0.71399999
19.003 3.823 0.71799999
19.017 3.8840001 0.71899998
19.138 3.967 0.72399998
19.141001 4.026 0.72399998
19.167 4.0910001 0.72500002
19.266001 4.171 0.72899997
19.278999 4.2340002 0.73000002
19.443001 4.3299999 0.73699999
19.490999 4.402 0.73900002
19.548 4.4759998 0.741
19.67 4.5650001 0.74599999
19.85 4.6700001 0.75300002
19.721001 4.7649999 0.74900001
19.731001 4.8299999 0.74900001
19.774 4.9029999 0.75099999
19.893 4.9970002 0.75599998
19.857 5.052 0.755
15.523 5.3520002 0.59899998
15.352 5.3460002 0.59299999
15.249 5.3629999 0.58899999
15.173 5.3889999 0.58700001
15.119 5.4229999 0.58499998
15.183 5.4990001 0.588
14.792 5.8790002 0.57700002
14.593 5.8520002 0.56999999
7.3210001 4.2649999 0.29899999
7.2220001 4.2329998 0.29499999
7.1719999 4.2290001 0.294
7.119 4.223 0.292
7.053 4.21 0.289
6.994 4.1999998 0.287
6.9619999 4.2049999 0.28600001
6.9159999 4.2020001 0.285
6.881 4.2049999 0.28400001
6.8579998 4.2160001 0.28299999
6.8309999 4.224 0.28200001
6.8249998 4.244 0.28200001
6.802 4.2540002 0.28200001
6.7940001 4.2719998 0.28200001
6.7810001 4.2880001 0.28099999
6.77 4.3049998 0.28099999
6.7709999 4.3299999 0.28200001
6.7639999 4.349 0.28200001
6.776 4.3800001 0.28200001
6.7680001 4.3979998 0.28200001
6.7399998 4.4029999 0.28200001
6.7189999 4.4130001 0.28099999
6.6960001 4.4200001 0.28
6.6820002 4.434 0.28
6.6919999 4.4640002 0.28099999
6.6939998 4.487 0.28099999
6.7150002 4.5240002 0.28299999
6.783 4.5929999 0.28600001
10.795 7.4530001 0.45699999
10.754 7.46 0.456
10.732 7.48 0.456
10.688 7.4840002 0.454
10.65 7.4920001 0.45300001
10.609 7.4970002 0.45199999
10.578 7.5089998 0.45100001
10.572 7.5380001 0.45100001
10.552 7.5580001 0.45100001
10.514 7.5630002 0.44999999
10.508 7.592 0.44999999
10.484 7.6069999 0.44999999
10.466 7.6259999 0.449
4.2270002 -2.5050001 0.205
4.2449999 -2.503 0.206
4.2350001 -2.4860001 0.206
4.2480001 -2.4809999 0.206
4.2480001 -2.4690001 0.206
4.2529998 -2.4590001 0.207
4.2639999 -2.4530001 0.207
4.2659998 -2.4419999 0.207
4.2750001 -2.4349999 0.208
4.2789998 -2.425 0.208
4.2820001 -2.414 0.208
4.2849998 -2.404 0.208
4.2880001 -2.3929999 0.208
4.2940001 -2.3840001 0.208
4.3060002 -2.378 0.20900001
4.3010001 -2.3629999 0.20900001
4.316 -2.359 0.20900001
4.3270001 -2.352 0.20999999
4.3400002 -2.3469999 0.211
4.3520002 -2.3399999 0.211
4.3590002 -2.332 0.212
4.3559999 -2.3169999 0.211
4.3730001 -2.313 0.212
4.3979998 -2.3139999 0.213
4.415 -2.3099999 0.214
4.4200001 -2.3 0.214
4.4250002 -2.29 0.215
4.4650002 -2.2969999 0.21699999
4.533 -2.319 0.22
4.6719999 -2.3759999 0.227
10.526 -5.323 0.51099998
4.5809999 -2.303 0.222
10.448 -5.2540002 0.50700003
4.4450002 -2.2219999 0.215
10.569 -5.2839999 0.51300001
4.4050002 -2.1889999 0.213
4.3909998 -2.1689999 0.213
4.3990002 -2.1600001 0.213
4.382 -2.1389999 0.212
4.3930001 -2.132 0.213
4.3990002 -2.122 0.213
4.4299998 -2.1240001 0.215
4.4840002 -2.1370001 0.21699999
4.6199999 -2.188 0.22400001
10.63 -4.973 0.51499999
10.637 -4.9450002 0.51599997
10.635 -4.9130001 0.51599997
10.661 -4.8930001 0.51700002
10.693 -4.8769999 0.51800001
10.713 -4.855 0.51899999
10.722 -4.8270001 0.51999998
10.745 -4.8060002 0.52100003
10.776 -4.7880001 0.52200001
10.774 -4.756 0.52200001
10.791 -4.7319999 0.523
10.838 -4.7210002 0.52499998
10.858 -4.698 0.52600002
10.911 -4.6890001 0.528
10.923 -4.6620002 0.52899998
10.913 -4.6259999 0.528
10.949 -4.6090002 0.52999997
10.969 -4.585 0.53100002
10.991 -4.5630002 0.53200001
10.993 -4.5310001 0.53200001
11.041 -4.5180001 0.53399998
11.066 -4.4959998 0.53500003
11.114 -4.4840002 0.53799999
11.119 -4.4530001 0.53799999
11.173 -4.4419999 0.54000002
11.214 -4.4260001 0.542
11.427 -4.4759998 0.55299997
11.449 -4.4180002 0.55400002
11.339 -4.342 0.54799998
11.291 -4.2909999 0.546
11.303 -4.2620001 0.546
11.319 -4.2350001 0.54699999
11.336 -4.2090001 0.54799998
11.368 -4.1869998 0.54900002
11.393 -4.1630001 0.55000001
11.418 -4.1389999 0.55199999
11.421 -4.1069999 0.55199999
11.459 -4.0869999 0.55299997
11.486 -4.0630002 0.55500001
11.508 -4.0370002 0.55599999
11.551 -4.0180001 0.55800003
11.571 -3.9920001 0.55900002
11.585 -3.9630001 0.55900002
11.598 -3.9330001 0.56
11.62 -3.9070001 0.56099999
11.642 -3.8800001 0.56199998
11.67 -3.8559999 0.56300002
11.711 -3.835 0.565
11.74 -3.8110001 0.56599998
11.77 -3.786 0.56800002
11.803 -3.7620001 0.56900001
11.971 -3.7809999 0.57700002
11.94 -3.7360001 0.57599998
11.976 -3.7130001 0.57700002
11.978 -3.6789999 0.57700002
11.981 -3.645 0.57700002
11.957 -3.6029999 0.57599998
12.032 -3.5899999 0.57999998
12.064 -3.5650001 0.58099997
12.101 -3.54 0.583
12.152 -3.52 0.58499998
12.182 -3.493 0.58600003
12.275 -3.484 0.59100002
12.313 -3.4590001 0.59299999
12.389 -3.4449999 0.59600002
12.352 -3.3989999 0.59399998
12.44 -3.3870001 0.59799999
12.695 -3.4189999 0.611
12.549 -3.3440001 0.60399997
12.559 -3.3099999 0.60399997
12.652 -3.2980001 0.60799998
13.428 -3.1110001 0.64499998
13.443 -3.076 0.64499998
13.472 -3.0439999 0.64700001
13.489 -3.0090001 0.64700001
13.505 -2.973 0.648
13.574 -2.9489999 0.65100002
13.621 -2.9200001 0.653
13.623 -2.881 0.653
13.683 -2.8540001 0.65600002
13.669 -2.812 0.65499997
13.732 -2.7850001 0.65799999
13.81 -2.7609999 0.662
13.808 -2.721 0.662
13.825 -2.684 0.662
13.921 -2.6630001 0.667
14.031 -2.6440001 0.67199999
14.038 -2.605 0.67199999
14.028 -2.562 0.67199999
14.038 -2.5239999 0.67199999
14.054 -2.4860001 0.67299998
14.078 -2.45 0.67400002
14.237 -2.437 0.68099999
14.122 -2.3759999 0.676
14.398 -2.3399999 0.68900001
14.328 -2.2869999 0.685
14.352 -2.25 0.68599999
14.364 -2.21 0.68699998
14.397 -2.174 0.68800002
14.421 -2.1359999 0.68900001
14.517 -2.109 0.69400001
14.522 -2.0680001 0.69400001
14.566 -2.0320001 0.69599998
14.542 -1.987 0.69499999
14.631 -1.957 0.699
14.682 -1.9220001 0.70099998
14.757 -1.8890001 0.704
12.955 0.23100001 0.61199999
12.906 0.26699999 0.61000001
12.898 0.30399999 0.60900003
12.896 0.34099999 0.60900003
12.89 0.37799999 0.60900003
12.872 0.414 0.60799998
12.878 0.45100001 0.60799998
12.885 0.48800001 0.60799998
12.895 0.52499998 0.60799998
12.891 0.56199998 0.60799998
12.884 0.59899998 0.60699999
12.893 0.63599998 0.60799998
12.898 0.67299998 0.60799998
12.897 0.70999998 0.60799998
12.895 0.74699998 0.60699999
12.906 0.78399998 0.60799998
12.922 0.82200003 0.60799998
12.924 0.85900003 0.60799998
12.893 0.89399999 0.60699999
12.776 0.118 0.51200002
12.791 0.13 0.51200002
12.784 0.142 0.51200002
12.78 0.154 0.51099998
12.772 0.16599999 0.50999999
12.772 0.17900001 0.50999999
12.766 0.192 0.50999999
12.771 0.206 0.50999999
12.759 0.22 0.509
12.746 0.233 0.50800002
12.761 0.248 0.50800002
12.744 0.26300001 0.50700003
12.755 0.278 0.50800002
12.752 0.29300001 0.50700003
12.745 0.30899999 0.50700003
12.748 0.32499999 0.50700003
12.736 0.34099999 0.50599998
12.741 0.35800001 0.50599998
12.728 0.37400001 0.505
12.734 0.39199999 0.505
12.733 0.40900001 0.505
12.726 0.42699999 0.505
12.718 0.44499999 0.50400001
12.719 0.463 0.50400001
12.725 0.48199999 0.50400001
12.725 0.50099999 0.50400001
12.726 0.51999998 0.50400001
12.725 0.54000002 0.50300002
12.71 0.55900002 0.50300002
12.711 0.57999998 0.50300002
12.707 0.60000002 0.50199997
12.715 0.62099999 0.50300002
12.703 0.64099997 0.50199997
12.74 0.66500002 0.50300002
12.779 0.68800002 0.505
12.852 0.71399999 0.50700003
12.892 0.73900002 0.509
12.921 0.764 0.50999999
12.964 0.78899997 0.51200002
12.968 0.81300002 0.51200002
12.966 0.83700001 0.51200002
12.955 0.86000001 0.51099998
12.958 0.884 0.51099998
12.943 0.90799999 0.50999999
12.931 0.93199998 0.50999999
12.911 0.95499998 0.509
12.913 0.98100001 0.509
12.916 1.006 0.509
12.917 1.0319999 0.509
12.922 1.059 0.509
12.929 1.086 0.50999999
12.938 1.113 0.50999999
12.954 1.141 0.51099998
12.997 1.1720001 0.51200002
13.037 1.204 0.514
17.756001 1.64 0.69999999
13.031 1.2309999 0.514
17.746 1.677 0.69999999
13.038 1.26 0.514
17.826 1.723 0.70300001
13.062 1.291 0.51499999
17.801001 1.7589999 0.70200002
13.109 1.324 0.51700002
17.851999 1.803 0.704
13.199 1.362 0.51999998
17.865 1.844 0.704
13.302 1.403 0.52399999
17.915001 1.8890001 0.70700002
17.902 1.928 0.70599997
18.014 1.9809999 0.71100003
18.051001 2.027 0.71200001
18.076 2.0710001 0.713
18.23 2.132 0.71899998
18.201 2.171 0.71799999
18.351 2.2320001 0.72399998
18.438 2.2869999 0.72799999
18.5 2.339 0.73000002
18.573999 2.3940001 0.73400003
18.601999 2.4430001 0.73500001
18.629 2.4920001 0.736
18.677 2.5450001 0.73799998
18.712 2.596 0.74000001
18.705 2.642 0.73900002
18.757999 2.697 0.74199998
18.834999 2.756 0.745
18.812 2.8010001 0.74400002
18.868999 2.858 0.74699998
18.844999 2.904 0.74599999
18.882999 2.9590001 0.74800003
18.969999 3.023 0.75099999
19.011999 3.0799999 0.75300002
18.968 3.1240001 0.75199997
19.058001 3.1900001 0.75599998
19.056 3.2409999 0.75599998
19.094999 3.3 0.75800002
19.174 3.3659999 0.76099998
19.155001 3.4159999 0.76099998
19.194 3.4760001 0.76200002
19.236 3.5369999 0.764
19.249001 3.5940001 0.76499999
19.271999 3.6530001 0.76700002
19.433001 3.7379999 0.773
19.517 3.8099999 0.77700001
19.599001 3.8829999 0.78100002
19.712999 5.2350001 0.79500002
19.739 5.3060002 0.79699999
19.726 5.3670001 0.79699999
19.849001 5.4650002 0.80199999
15.48 5.3839998 0.63599998
15.364 5.3990002 0.63200003
15.312 5.4369998 0.63099998
14.806 5.7519999 0.61500001
14.774 5.796 0.61500001
14.672 5.8109999 0.611
14.542 5.8150001 0.60600001
14.724 5.9450002 0.61400002
7.3639998 4.3280001 0.32499999
7.2140002 4.2719998 0.31900001
7.152 4.2680001 0.31600001
7.0910001 4.2639999 0.31400001
7.0250001 4.257 0.31200001
6.9569998 4.2470002 0.30899999
6.9190001 4.256 0.308
6.8720002 4.2589998 0.30599999
6.8280001 4.263 0.30500001
6.803 4.2789998 0.30399999
6.7719998 4.2909999 0.303
6.7639999 4.3179998 0.303
10.99 7.0149999 0.493
6.7420001 4.335 0.303
10.955 7.0440001 0.49200001
6.7249999 4.3559999 0.30199999
10.899 7.0599999 0.49000001
6.7189999 4.3839998 0.303
10.849 7.079 0.48899999
6.698 4.402 0.30199999
10.803 7.0999999 0.48800001
6.7010002 4.4359999 0.303
10.791 7.1430001 0.48800001
6.6989999 4.467 0.303
10.756 7.171 0.48699999
6.6789999 4.4850001 0.303
10.717 7.197 0.486
6.6570001 4.5019999 0.30199999
10.69 7.23 0.486
6.631 4.5159998 0.30199999
10.662 7.2620001 0.48500001
6.6030002 4.5289998 0.301
10.625 7.2880001 0.484
6.585 4.5489998 0.30000001
10.601 7.323 0.484
6.5879998 4.5830002 0.301
10.581 7.3610001 0.484
6.5819998 4.6110001 0.301
10.548 7.3899999 0.48300001
6.5840001 4.645 0.30199999
10.526 7.4250002 0.48300001
6.6279998 4.7080002 0.30399999
10.482 7.4460001 0.48199999
6.7020001 4.7940001 0.308
10.458 7.4809999 0.48199999
10.424 7.5079999 0.48100001
4.0809999 -2.6819999 0.211
4.105 -2.6719999 0.212
4.1160002 -2.654 0.212
4.1209998 -2.632 0.212
4.1269999 -2.6099999 0.212
4.1440001 -2.596 0.213
4.1620002 -2.582 0.214
4.1729999 -2.5639999 0.214
4.1859999 -2.5480001 0.215
4.1989999 -2.5320001 0.215
4.2080002 -2.5120001 0.215
4.2160001 -2.493 0.21600001
4.2319999 -2.4790001 0.21600001
4.2420001 -2.461 0.21699999
4.2529998 -2.4430001 0.21699999
4.2729998 -2.431 0.21799999
4.2909999 -2.418 0.219
4.296 -2.398 0.219
4.2979999 -2.375 0.219
4.3270001 -2.369 0.22
4.348 -2.3570001 0.221
4.3839998 -2.3540001 0.223
4.3990002 -2.339 0.22400001
4.4239998 -2.3299999 0.22499999
4.4949999 -2.3440001 0.228
4.6830001 -2.418 0.23800001
4.73 -2.4189999 0.23999999
10.366 -5.3000002 0.52600002
4.4450002 -2.2509999 0.22499999
10.413 -5.2719998 0.528
4.3889999 -2.2 0.222
4.3790002 -2.174 0.222
4.3730001 -2.1500001 0.221
4.3769999 -2.131 0.221
4.3860002 -2.1140001 0.222
4.4320002 -2.115 0.22400001
4.5630002 -2.1559999 0.23
10.814 -5.059 0.546
10.656 -4.9349999 0.53799999
10.653 -4.8839998 0.537
10.702 -4.8579998 0.54000002
10.747 -4.829 0.542
10.776 -4.7940001 0.54299998
10.811 -4.7610002 0.54400003
10.836 -4.724 0.54500002
10.886 -4.698 0.54799998
10.927 -4.6669998 0.54900002
10.971 -4.6389999 0.551
10.996 -4.6020002 0.55199999
11.033 -4.5700002 0.55400002
11.074 -4.54 0.55599999
11.104 -4.5050001 0.55699998
11.133 -4.4699998 0.55800003
11.166 -4.4369998 0.56
11.247 -4.4229999 0.56300002
11.302 -4.3979998 0.56599998
11.386 -4.3839998 0.56999999
11.503 -4.3829999 0.57599998
11.456 -4.3189998 0.57300001
11.395 -4.25 0.56999999
11.419 -4.2140002 0.57099998
11.473 -4.1890001 0.57300001
11.495 -4.152 0.574
11.543 -4.1240001 0.57599998
11.557 -4.085 0.57700002
11.598 -4.0549998 0.579
11.659 -4.0320001 0.58099997
11.676 -3.994 0.58200002
11.732 -3.9690001 0.58499998
11.773 -3.9389999 0.58700001
11.786 -3.9000001 0.58700001
11.847 -3.8759999 0.58999997
11.901 -3.8499999 0.59200001
11.93 -3.8169999 0.59399998
12.06 -3.8150001 0.60000002
12.171 -3.763 0.60500002
12.167 -3.7190001 0.60500002
12.255 -3.7030001 0.60900003
12.346 -3.687 0.61299998
12.318 -3.6359999 0.61199999
12.465 -3.6370001 0.61900002
12.603 -3.6340001 0.625
12.696 -3.618 0.63
12.833 -3.6129999 0.63700002
13.396 -3.55 0.66399997
13.4 -3.5079999 0.66399997
13.431 -3.473 0.66500002
13.413 -3.425 0.66399997
13.419 -3.3840001 0.66399997
13.456 -3.3510001 0.66600001
13.481 -3.3150001 0.667
13.557 -3.2490001 0.67000002
13.523 -3.1989999 0.66900003
13.614 -3.1789999 0.67299998
13.673 -3.151 0.676
13.732 -3.1229999 0.67900002
13.776 -3.092 0.68099999
13.775 -3.0510001 0.68000001
13.794 -3.0139999 0.68099999
13.811 -2.977 0.68199998
13.869 -2.9489999 0.685
13.888 -2.9119999 0.685
13.964 -2.888 0.68900001
13.948 -2.845 0.68800002
14.032 -2.822 0.69199997
14.082 -2.7920001 0.69499999
14.13 -2.7620001 0.69700003
14.143 -2.7249999 0.69700003
14.287 -2.7119999 0.704
14.25 -2.6659999 0.70200002
14.311 -2.599 0.70499998
14.308 -2.5599999 0.70499998
14.351 -2.529 0.70700002
14.39 -2.497 0.70899999
14.432 -2.4660001 0.71100003
14.575 -2.375 0.71799999
14.479 -2.322 0.713
14.471 -2.283 0.71200001
14.609 -2.2679999 0.71899998
14.615 -2.2309999 0.71899998
14.615 -2.1949999 0.71899998
14.736 -2.1760001 0.72500002
14.675 -2.1300001 0.722
14.719 -2.0999999 0.72399998
14.846 -2.0810001 0.73000002
14.795 -2.0380001 0.72799999
14.856 -2.01 0.73100001
14.937 -1.985 0.73500001
12.986 0.082000002 0.64099997
12.865 0.1 0.63499999
12.835 0.117 0.634
12.824 0.134 0.63300002
12.823 0.152 0.63300002
12.829 0.169 0.634
12.821 0.186 0.63300002
12.832 0.20299999 0.634
12.852 0.22 0.63499999
12.856 0.236 0.63499999
12.861 0.25299999 0.63599998
12.867 0.26899999 0.63599998
12.869 0.285 0.63599998
12.872 0.301 0.63700002
12.872 0.317 0.63700002
12.889 0.333 0.63800001
12.901 0.34900001 0.63800001
12.939 0.36500001 0.63999999
12.969 0.382 0.64200002
12.974 0.39700001 0.64200002
12.993 0.412 0.64300001
13.01 0.428 0.64399999
12.695 0.17900001 0.542
12.721 0.20200001 0.54299998
12.725 0.22499999 0.54299998
12.721 0.248 0.542
12.724 0.27200001 0.542
12.726 0.296 0.542
12.725 0.31999999 0.542
12.713 0.34299999 0.54100001
12.722 0.368 0.542
12.715 0.39300001 0.54100001
12.714 0.41800001 0.54100001
12.71 0.44299999 0.54100001
12.702 0.46799999 0.54000002
12.711 0.49399999 0.54000002
12.703 0.51999998 0.54000002
12.709 0.546 0.54000002
12.692 0.57200003 0.53899997
12.709 0.60000002 0.54000002
12.721 0.62699997 0.54000002
12.731 0.65499997 0.54100001
12.792 0.68599999 0.54299998
12.866 0.71799999 0.546
12.887 0.74800003 0.54699999
12.912 0.778 0.54799998
12.921 0.80699998 0.54799998
12.915 0.83600003 0.54799998
12.907 0.86500001 0.54699999
12.894 0.89399999 0.54699999
12.882 0.92299998 0.546
12.871 0.95200002 0.546
12.854 0.98100001 0.54500002
12.845 1.011 0.54500002
12.859 1.0420001 0.54500002
12.879 1.075 0.546
12.891 1.107 0.546
12.902 1.1390001 0.54699999
12.913 1.1720001 0.54699999
12.932 1.206 0.54799998
12.951 1.24 0.54900002
17.948 1.7180001 0.76099998
12.964 1.273 0.55000001
17.903999 1.7589999 0.759
12.979 1.307 0.55000001
18.006001 1.814 0.76300001
13.015 1.344 0.55199999
17.978001 1.857 0.76200002
13.042 1.38 0.55299997
18.014 1.906 0.764
13.095 1.419 0.55500001
18.160999 1.969 0.76999998
13.157 1.46 0.55800003
18.233999 2.0239999 0.773
18.372 2.0869999 0.77899998
13.282 1.543 0.56300002
18.408001 2.1389999 0.78100002
13.147 1.562 0.55800003
18.448999 2.1919999 0.78299999
12.998 1.579 0.551
18.482 2.2449999 0.78399998
13.155 1.633 0.55800003
18.535999 2.3010001 0.78600001
18.622999 2.3610001 0.79000002
18.705999 2.4219999 0.79400003
18.684999 2.47 0.79299998
18.77 2.5320001 0.79699999
18.799 2.5880001 0.79799998
18.882999 2.651 0.80199999
18.93 2.71 0.80400002
18.955999 2.766 0.80500001
19.009001 2.8269999 0.80800003
19.042999 2.885 0.80900002
19.024 2.9360001 0.80900002
19.091999 3.0009999 0.81199998
19.226999 3.0769999 0.81800002
19.233 3.1329999 0.81800002
19.239 3.1889999 0.81800002
19.261999 3.2479999 0.81999999
19.34 3.3169999 0.82300001
19.437 3.391 0.82800001
19.506001 3.46 0.83099997
19.528 3.5209999 0.83200002
19.503 3.5739999 0.83099997
19.615 3.6530001 0.83600003
19.618 3.7119999 0.83600003
19.695 3.7850001 0.83999997
19.806 3.8659999 0.84500003
21.045 4.6869998 0.90100002
21.072001 4.7589998 0.903
21.202999 5.1230001 0.91000003
21.141001 5.1750002 0.90799999
21.222 5.263 0.912
19.726999 5.1459999 0.84899998
19.635 5.1859999 0.84600002
19.664 5.2579999 0.84799999
19.645 5.3169999 0.847
19.823999 5.4299998 0.85500002
17.917999 5.2639999 0.77600002
17.870001 5.309 0.77399999
15.118 5.7940001 0.66600001
14.836 5.7389998 0.65499997
14.651 5.7189999 0.64700001
14.649 5.77 0.64700001
14.628 5.8140001 0.64700001
14.513 5.8200002 0.64200002
14.624 5.9169998 0.648
7.4679999 4.3499999 0.347
7.256 4.2529998 0.338
7.1799998 4.2340002 0.33500001
7.1339998 4.2319999 0.333
7.0809999 4.2270002 0.331
7.0240002 4.2179999 0.32800001
6.9720001 4.211 0.32600001
6.9400001 4.217 0.32499999
6.9089999 4.2220001 0.324
6.8709998 4.224 0.32300001
6.836 4.2270002 0.32100001
6.8169999 4.2389998 0.32100001
6.8109999 4.2589998 0.32100001
6.7909999 4.2709999 0.31999999
6.776 4.2859998 0.31999999
6.7690001 4.3049998 0.31999999
6.7579999 4.3210001 0.31999999
6.7529998 4.3410001 0.31999999
6.7709999 4.3769999 0.32100001
6.7690001 4.3990002 0.322
6.7329998 4.3990002 0.31999999
6.7049999 4.4039998 0.31900001
6.684 4.4120002 0.31900001
6.684 4.4359999 0.31900001
10.845 7.197 0.51800001
6.6810002 4.4559999 0.31900001
10.763 7.1789999 0.51499999
6.6869998 4.4829998 0.31999999
10.716 7.184 0.51300001
6.7150002 4.5240002 0.322
10.683 7.198 0.51200002
6.7789998 4.5900002 0.32499999
10.666 7.2220001 0.51200002
10.639 7.2399998 0.51200002
10.632 7.27 0.51200002
10.615 7.2940001 0.51200002
10.602 7.3210001 0.51200002
10.584 7.342 0.51099998
10.56 7.3610001 0.51099998
10.528 7.3730001 0.50999999
10.528 7.4060001 0.51099998
10.506 7.4250002 0.50999999
10.484 7.4429998 0.50999999
10.485 7.4770002 0.50999999
10.469 7.4980001 0.50999999
10.454 7.5209999 0.50999999
10.445 7.5469999 0.50999999
10.432 7.5700002 0.50999999
10.408 7.5840001 0.50999999
4.2119999 -2.4979999 0.22400001
4.217 -2.4890001 0.22400001
4.223 -2.4809999 0.22499999
4.2340002 -2.4749999 0.22499999
4.2389998 -2.4660001 0.22499999
4.2379999 -2.4530001 0.22499999
4.244 -2.444 0.226
4.2550001 -2.438 0.226
4.2600002 -2.4289999 0.227
4.2729998 -2.4230001 0.227
4.2709999 -2.4100001 0.227
4.2729998 -2.3989999 0.227
4.2750001 -2.388 0.227
4.2810001 -2.378 0.227
4.2919998 -2.372 0.228
4.2969999 -2.3629999 0.228
4.3080001 -2.3559999 0.229
4.3150001 -2.3469999 0.229
4.3330002 -2.345 0.23
4.3319998 -2.3310001 0.23
4.3439999 -2.325 0.23100001
4.3449998 -2.313 0.23100001
4.3660002 -2.3110001 0.23199999
4.3759999 -2.3039999 0.23199999
4.402 -2.3050001 0.234
4.4070001 -2.2950001 0.234
4.421 -2.289 0.235
4.4429998 -2.2869999 0.236
4.4850001 -2.296 0.23800001
4.5549998 -2.319 0.242
4.7389998 -2.398 0.252
10.907 -5.4879999 0.579
4.5079999 -2.2550001 0.23899999
10.896 -5.4510002 0.579
4.4169998 -2.1960001 0.234
4.3899999 -2.1700001 0.233
4.395 -2.1600001 0.233
4.395 -2.1470001 0.233
4.3909998 -2.132 0.233
4.3959999 -2.122 0.233
4.3959999 -2.109 0.233
4.4260001 -2.1110001 0.235
4.4759998 -2.1210001 0.237
4.6040001 -2.1689999 0.244
11.062 -5.145 0.58700001
11.023 -5.0949998 0.58499998
11.035 -5.0679998 0.58499998
11.043 -5.039 0.58600003
11.078 -5.0229998 0.588
11.091 -4.9959998 0.588
11.114 -4.974 0.58899999
11.134 -4.9510002 0.58999997
11.131 -4.9159999 0.58999997
11.17 -4.901 0.59200001
11.215 -4.888 0.59399998
11.232 -4.8629999 0.59500003
11.281 -4.8509998 0.59799999
11.266 -4.8109999 0.597
11.27 -4.7800002 0.597
11.309 -4.763 0.59899998
11.344 -4.7449999 0.60100001
11.354 -4.7160001 0.60100001
11.379 -4.6929998 0.60299999
11.4 -4.6680002 0.60399997
11.42 -4.6430001 0.60500002
11.44 -4.6170001 0.60600001
11.474 -4.5970001 0.60699999
11.527 -4.585 0.61000001
11.613 -4.585 0.61400002
11.636 -4.5599999 0.616
11.626 -4.5219998 0.61500001
11.617 -4.4850001 0.61400002
11.606 -4.4460001 0.61400002
11.64 -4.4260001 0.61500001
11.691 -4.4109998 0.61799997
11.679 -4.3720002 0.61699998
11.733 -4.3579998 0.62
11.736 -4.3249998 0.62
11.766 -4.302 0.62199998
11.797 -4.2779999 0.62300003
11.796 -4.243 0.62300003
11.836 -4.223 0.625
11.874 -4.2020001 0.62699997
11.906 -4.1789999 0.62900001
11.91 -4.145 0.62900001
11.936 -4.119 0.63
12.003 -4.1079998 0.634
12.007 -4.0739999 0.634
12.043 -4.0510001 0.63599998
12.111 -4.0380001 0.639
12.127 -4.0079999 0.63999999
12.218 -4.0029998 0.64399999
12.347 -4.0089998 0.65100002
12.328 -3.967 0.64999998
13.373 -3.681 0.704
13.372 -3.641 0.70300001
13.367 -3.6010001 0.70300001
13.397 -3.5710001 0.704
13.424 -3.539 0.70599997
13.51 -3.5220001 0.70999998
13.54 -3.4519999 0.71200001
13.529 -3.4100001 0.71100003
13.549 -3.375 0.71200001
13.594 -3.3469999 0.71399999
13.672 -3.3269999 0.71799999
13.694 -3.2920001 0.71899998
13.726 -3.26 0.72100002
13.749 -3.2260001 0.722
13.79 -3.1960001 0.72399998
13.786 -3.155 0.72299999
13.846 -3.1289999 0.72600001
13.862 -3.092 0.727
13.886 -3.0569999 0.72799999
13.918 -3.0239999 0.73000002
13.932 -2.987 0.73000002
13.975 -2.9560001 0.73299998
14.009 -2.9219999 0.73400003
14.049 -2.8900001 0.736
14.156 -2.8710001 0.74199998
14.204 -2.8399999 0.74400002
14.245 -2.8069999 0.74599999
14.285 -2.7739999 0.74800003
14.38 -2.7509999 0.75300002
14.367 -2.707 0.75199997
14.428 -2.677 0.755
14.407 -2.631 0.75400001
14.479 -2.6029999 0.75800002
14.467 -2.559 0.75700003
14.534 -2.529 0.75999999
14.541 -2.4879999 0.75999999
14.746 -2.3110001 0.76999998
14.78 -2.2739999 0.77200001
14.848 -2.2420001 0.77499998
14.945 -2.2130001 0.77999997
12.895 0.23199999 0.66500002
12.826 0.26800001 0.66100001
12.808 0.30399999 0.66000003
12.812 0.34099999 0.66000003
12.808 0.37799999 0.66000003
12.808 0.414 0.66000003
12.821 0.45100001 0.66000003
12.814 0.48800001 0.66000003
12.828 0.52499998 0.66100001
12.816 0.56099999 0.66000003
12.831 0.59899998 0.66000003
12.816 0.63499999 0.65899998
12.821 0.67199999 0.66000003
12.839 0.70899999 0.66000003
12.843 0.74599999 0.66000003
12.856 0.78399998 0.66100001
12.866 0.82099998 0.66100001
12.869 0.85799998 0.66100001
12.869 0.89499998 0.66100001
12.641 0.12 0.56599998
12.649 0.131 0.56599998
12.644 0.14300001 0.56599998
12.65 0.155 0.56599998
12.64 0.167 0.565
12.644 0.18000001 0.565
12.643 0.193 0.565
12.651 0.207 0.565
12.633 0.22 0.56400001
12.642 0.234 0.56400001
12.645 0.248 0.56400001
12.647 0.26300001 0.56300002
12.65 0.278 0.56300002
12.647 0.29300001 0.56300002
12.655 0.30899999 0.56300002
12.647 0.32499999 0.56199998
12.64 0.34099999 0.56199998
12.655 0.35800001 0.56199998
12.654 0.37400001 0.56199998
12.656 0.39199999 0.56199998
12.649 0.40900001 0.56199998
12.661 0.42699999 0.56199998
12.658 0.44499999 0.56199998
12.655 0.463 0.56099999
12.662 0.48199999 0.56099999
12.662 0.50099999 0.56099999
12.664 0.51999998 0.56099999
12.669 0.54000002 0.56099999
12.665 0.55900002 0.56099999
12.67 0.57999998 0.56099999
12.666 0.60000002 0.56099999
12.671 0.62099999 0.56099999
12.671 0.64200002 0.56099999
12.69 0.66399997 0.56099999
12.727 0.68699998 0.56300002
12.825 0.71499997 0.56699997
12.888 0.741 0.56999999
12.889 0.76300001 0.56999999
12.89 0.78600001 0.56999999
12.88 0.80900002 0.56900001
12.89 0.833 0.56999999
12.868 0.85600001 0.56900001
12.833 0.87699997 0.56699997
12.817 0.90100002 0.56599998
12.818 0.92500001 0.56599998
12.799 0.94800001 0.565
12.809 0.97399998 0.56599998
12.812 1 0.56599998
12.817 1.026 0.56599998
12.811 1.051 0.56599998
12.818 1.0779999 0.56599998
12.833 1.105 0.56699997
12.861 1.1339999 0.56800002
12.889 1.164 0.56900001
12.883 1.191 0.56900001
12.932 1.223 0.57099998
12.939 1.251 0.57200003
12.97 1.283 0.57300001
13 1.314 0.57499999
13.005 1.3430001 0.57499999
19.372999 2.0009999 0.85699999
13.035 1.376 0.57599998
19.327999 2.04 0.85500002
13.109 1.413 0.57999998
19.237 2.0739999 0.85100001
13.159 1.448 0.58200002
19.325001 2.1270001 0.85500002
13.135 1.476 0.58099997
19.414 2.181 0.85900003
13.138 1.506 0.58099997
19.356001 2.22 0.85600001
13.013 1.522 0.57599998
19.438999 2.2739999 0.86000001
13 1.551 0.57499999
19.457001 2.322 0.861
13.059 1.589 0.57800001
19.402 2.362 0.85900003
19.565001 2.428 0.866
19.402 2.4549999 0.85900003
19.415001 2.503 0.86000001
19.431999 2.553 0.861
19.419001 2.599 0.861
19.452 2.651 0.86199999
19.496 2.7060001 0.86400002
19.559999 2.7639999 0.86799997
13.027 1.874 0.57800001
19.658001 2.8280001 0.87199998
13.084 1.915 0.58099997
19.638 2.875 0.87199998
19.721001 2.938 0.875
19.76 2.9949999 0.87699997
19.785 3.05 0.87900001
19.822001 3.108 0.88099998
19.808001 3.158 0.88099998
19.889999 3.224 0.88499999
19.848 3.27 0.88300002
19.826 3.319 0.88200003
20.462999 3.4820001 0.91100001
20.337999 3.516 0.90600002
20.476 3.596 0.912
20.628 3.6789999 0.92000002
21.757999 4.7600002 0.977
21.833 4.842 0.98100001
21.684 4.8740001 0.97500002
21.693001 4.9419999 0.97600001
19.735001 5.177 0.89399999
19.702999 5.2319999 0.89300001
19.608 5.2709999 0.88999999
19.607 5.335 0.88999999
19.611 5.4000001 0.89099997
19.698 5.4889998 0.89600003
18.162001 5.2420001 0.82800001
17.954 5.2420001 0.81900001
17.753 5.244 0.81099999
17.649 5.2729998 0.80599999
17.693001 5.3460002 0.80900002
14.897 5.7309999 0.69599998
14.699 5.71 0.68800002
14.665 5.7529998 0.68699998
14.68 5.8140001 0.68800002
14.6 5.8390002 0.685
7.2680001 4.2709999 0.36199999
7.1690001 4.2449999 0.35699999
7.119 4.2480001 0.35499999
7.0609999 4.2459998 0.35299999
7 4.2410002 0.35100001
6.9400001 4.237 0.34799999
6.915 4.2540002 0.347
6.8610001 4.2519999 0.345
6.8270001 4.2620001 0.34400001
6.7950001 4.2740002 0.34299999
6.7750001 4.2930002 0.34200001
11.039 6.9949999 0.55800003
6.7509999 4.309 0.34200001
10.886 6.9489999 0.551
6.7410002 4.335 0.34200001
10.832 6.9660001 0.55000001
6.7259998 4.3569999 0.34200001
10.807 7 0.54900002
6.7080002 4.3759999 0.34099999
10.769 7.027 0.54799998
6.7030001 4.4050002 0.34200001
10.742 7.0599999 0.54799998
6.7030001 4.4369998 0.34200001
10.707 7.0879998 0.54699999
6.6939998 4.4629998 0.34200001
10.695 7.131 0.54699999
6.671 4.4790001 0.34200001
10.675 7.1690001 0.54699999
6.638 4.4899998 0.34099999
10.638 7.1950002 0.546
6.619 4.5079999 0.34
10.607 7.2249999 0.54500002
6.5939999 4.5229998 0.33899999
10.576 7.2550001 0.54500002
6.599 4.559 0.34
10.566 7.3000002 0.54500002
6.5960002 4.5890002 0.34099999
10.531 7.3260002 0.54400003
6.6139998 4.6329999 0.34200001
10.507 7.3610001 0.54400003
6.6539998 4.6939998 0.345
10.493 7.402 0.54400003
6.7729998 4.8109999 0.352
10.459 7.4289999 0.54299998
10.434 7.4640002 0.54299998
10.4 7.4910002 0.542
4.0630002 -2.6700001 0.229
10.926 -7.178 0.616
4.0799999 -2.655 0.229
11 -7.158 0.62
4.0890002 -2.6359999 0.23
11.083 -7.1430001 0.62400001
4.1100001 -2.6240001 0.23100001
11.087 -7.0780001 0.62300003
4.1290002 -2.6110001 0.23199999
4.1370001 -2.5910001 0.23199999
4.1479998 -2.573 0.23199999
4.1599998 -2.556 0.233
4.1830001 -2.5450001 0.234
4.1820002 -2.52 0.234
4.198 -2.506 0.234
4.2080002 -2.4879999 0.235
4.2210002 -2.4719999 0.235
4.2360001 -2.457 0.236
4.2490001 -2.4400001 0.237
4.2620001 -2.425 0.237
4.277 -2.4100001 0.23800001
4.2859998 -2.392 0.23800001
4.2969999 -2.375 0.23899999
4.3239999 -2.3670001 0.23999999
4.3429999 -2.3540001 0.241
4.3709998 -2.346 0.242
4.3990002 -2.3380001 0.244
4.434 -2.3340001 0.245
4.4980001 -2.345 0.249
4.6690001 -2.411 0.25799999
4.5700002 -2.336 0.25299999
10.788 -5.5149999 0.597
4.4060001 -2.23 0.243
10.871 -5.5029998 0.60100001
4.3639998 -2.187 0.241
4.3670001 -2.168 0.241
4.382 -2.154 0.242
4.3839998 -2.1329999 0.242
4.3920002 -2.1159999 0.242
4.4120002 -2.105 0.243
4.5180001 -2.1340001 0.249
11.054 -5.118 0.60799998
11.041 -5.0619998 0.60699999
11.09 -5.033 0.61000001
11.116 -4.9949999 0.611
11.173 -4.9699998 0.61299998
11.171 -4.9190001 0.61299998
11.208 -4.8860002 0.61500001
11.254 -4.8559999 0.61699998
11.33 -4.8390002 0.62099999
11.376 -4.809 0.62300003
11.352 -4.75 0.62199998
11.357 -4.704 0.62099999
11.428 -4.684 0.625
11.491 -4.6620002 0.62800002
11.511 -4.6220002 0.62900001
11.549 -4.5890002 0.63099998
11.591 -4.5580001 0.63300002
11.626 -4.5240002 0.63499999
11.705 -4.506 0.639
11.745 -4.474 0.64099997
11.75 -4.4289999 0.64099997
11.778 -4.3930001 0.64200002
11.82 -4.3610001 0.64399999
11.862 -4.3299999 0.64600003
11.925 -4.3070002 0.64899999
11.955 -4.2709999 0.64999998
11.975 -4.2319999 0.65100002
12.014 -4.1999998 0.653
12.093 -4.1820002 0.65700001
12.162 -4.1589999 0.66100001
12.244 -4.1420002 0.66500002
12.341 -4.1290002 0.67000002
13.411 -3.8670001 0.72500002
13.495 -3.845 0.73000002
13.408 -3.7750001 0.72500002
13.427 -3.7349999 0.72500002
13.507 -3.7130001 0.73000002
13.474 -3.6589999 0.72799999
13.617 -3.6530001 0.73500001
13.714 -3.6340001 0.74000001
13.762 -3.6029999 0.74299997
13.672 -3.5350001 0.73799998
13.718 -3.503 0.74000001
13.774 -3.473 0.74299997
13.823 -3.4419999 0.745
13.873 -3.411 0.74800003
13.942 -3.3840001 0.75099999
13.899 -3.3310001 0.74900001
13.949 -3.3 0.75099999
14.023 -3.2750001 0.755
13.985 -3.223 0.75300002
14.041 -3.194 0.75599998
14.059 -3.155 0.75700003
14.119 -3.1270001 0.75999999
14.18 -3.098 0.76300001
14.216 -3.0639999 0.76499999
14.289 -3.0380001 0.76800001
14.344 -3.0079999 0.77100003
14.348 -2.9679999 0.77100003
14.395 -2.9360001 0.77399999
14.43 -2.902 0.77499998
14.516 -2.878 0.77999997
14.528 -2.839 0.77999997
14.509 -2.7950001 0.77899998
14.708 -2.7920001 0.79000002
14.642 -2.7390001 0.78600001
14.708 -2.711 0.78899997
14.634 -2.658 0.78500003
14.681 -2.6259999 0.78799999
14.74 -2.5969999 0.79100001
15.057 -2.415 0.80699998
15.058 -2.3759999 0.80699998
15.084 -2.342 0.80900002
12.896 0.082000002 0.69199997
12.84 0.098999999 0.68900001
12.823 0.117 0.68900001
12.821 0.134 0.68900001
12.823 0.15099999 0.68900001
12.839 0.169 0.69
12.847 0.186 0.69
12.865 0.20299999 0.69099998
12.873 0.22 0.69199997
12.874 0.237 0.69199997
12.87 0.25299999 0.69199997
12.893 0.27000001 0.69300002
12.893 0.28600001 0.69400001
12.908 0.30199999 0.69499999
12.929 0.31799999 0.69599998
12.955 0.33500001 0.69700003
12.989 0.35100001 0.699
13.02 0.368 0.70099998
13.068 0.384 0.704
13.085 0.40000001 0.70499998
13.121 0.41600001 0.70700002
13.148 0.43200001 0.70899999
12.63 0.18000001 0.59899998
12.642 0.20299999 0.59899998
12.646 0.226 0.59899998
12.647 0.249 0.59899998
12.651 0.27200001 0.59899998
12.649 0.296 0.59899998
12.645 0.31900001 0.59899998
12.657 0.34400001 0.59899998
12.658 0.368 0.59899998
12.666 0.39300001 0.59899998
12.666 0.41800001 0.59899998
12.672 0.44299999 0.59899998
12.668 0.46799999 0.59899998
12.669 0.49399999 0.59899998
12.669 0.51999998 0.59899998
12.671 0.546 0.59899998
12.666 0.57200003 0.59799999
12.673 0.59899998 0.59799999
12.675 0.62699997 0.59799999
12.686 0.65399998 0.59899998
12.712 0.68300003 0.60000002
12.793 0.71499997 0.60399997
12.887 0.74900001 0.60799998
12.886 0.778 0.60799998
12.878 0.80599999 0.60799998
12.858 0.83399999 0.60699999
12.863 0.86299998 0.60699999
12.833 0.89099997 0.60500002
12.801 0.91799998 0.60399997
12.794 0.94700003 0.60299999
12.78 0.97600001 0.60299999
12.765 1.005 0.602
12.771 1.036 0.602
12.79 1.068 0.60299999
12.793 1.1 0.60299999
12.802 1.132 0.60399997
12.826 1.165 0.60500002
12.866 1.201 0.60699999
12.884 1.234 0.60799998
12.914 1.2690001 0.60900003
19.406 1.908 0.91600001
12.942 1.3049999 0.61000001
19.333 1.949 0.912
12.967 1.34 0.61199999
19.388 2.0039999 0.91500002
12.982 1.375 0.61199999
19.355 2.05 0.91299999
13.003 1.41 0.61299998
19.429001 2.1070001 0.917
13.061 1.45 0.616
19.409 2.155 0.91600001
13.108 1.489 0.61900002
19.384001 2.2030001 0.91500002
13.143 1.528 0.62
19.468 2.263 0.91900003
13.098 1.557 0.61799997
19.495001 2.3180001 0.92000002
13.058 1.587 0.616
19.584 2.3800001 0.92500001
13.038 1.619 0.616
19.577999 2.431 0.92500001
13.115 1.664 0.61900002
19.559 2.4809999 0.92400002
19.594 2.5380001 0.926
19.582001 2.5899999 0.92500001
19.690001 2.6570001 0.93099999
19.691999 2.711 0.93099999
19.711 2.7679999 0.93199998
19.882999 2.8469999 0.94
13.11 1.914 0.62
19.941999 2.911 0.94300002
13.019 1.937 0.616
19.961 2.9690001 0.94400001
19.950001 3.0239999 0.94400001
20.076 3.099 0.94999999
19.993 3.1429999 0.94700003
19.987 3.1989999 0.94700003
20.106001 3.276 0.95200002
20.459999 3.392 0.97000003
20.41 3.4430001 0.96700001
20.427999 3.5050001 0.96899998
20.455 3.569 0.97000003
20.58 3.651 0.97600001
21.664 4.164 1.03
21.636999 4.224 1.029
21.613001 4.2839999 1.028
21.889999 4.4050002 1.0420001
21.892 4.4720001 1.0420001
21.995001 4.6279998 1.048
21.929001 4.6810002 1.045
21.739 4.7080002 1.0369999
21.725 4.7719998 1.036
21.691 4.8319998 1.035
21.740999 4.9109998 1.038
19.792999 5.099 0.94999999
19.67 5.131 0.94499999
19.643999 5.1880002 0.94400001
19.607 5.2420001 0.94300002
19.566 5.2950001 0.94099998
19.625999 5.3759999 0.94499999
19.702999 5.4619999 0.949
18.153999 5.152 0.875
17.93 5.1479998 0.86500001
17.771999 5.1620002 0.85799998
17.632999 5.1799998 0.852
17.569 5.2199998 0.84899998
17.636 5.2989998 0.85299999
14.844 5.7420001 0.73199999
14.79 5.7729998 0.73000002
14.883 5.862 0.73500001
14.835 5.8959999 0.73299998
7.3540001 4.2839999 0.38299999
7.2140002 4.2280002 0.37599999
7.1560001 4.2199998 0.37400001
7.1079998 4.217 0.37200001
7.0510001 4.2080002 0.36899999
7.0089998 4.2090001 0.36700001
6.967 4.2080002 0.36500001
6.9310002 4.211 0.36399999
6.8990002 4.2160001 0.36300001
6.8709998 4.224 0.36199999
6.8460002 4.2329998 0.361
6.8130002 4.237 0.36000001
6.802 4.2540002 0.359
6.789 4.27 0.359
6.7750001 4.2849998 0.359
6.7620001 4.3000002 0.359
6.7509999 4.3169999 0.359
6.7509999 4.3410001 0.359
6.7529998 4.3649998 0.36000001
6.7529998 4.388 0.36000001
6.7259998 4.3940001 0.359
6.704 4.4029999 0.35800001
6.6820002 4.4120002 0.35800001
10.967 7.2410002 0.58700001
6.6750002 4.4299998 0.35800001
10.783 7.1560001 0.57800001
6.6719999 4.4510002 0.35800001
10.729 7.1570001 0.57599998
6.6890001 4.4850001 0.359
10.719 7.1869998 0.57599998
6.73 4.5349998 0.36199999
10.695 7.2069998 0.57499999
6.8439999 4.6350002 0.36899999
10.673 7.2270002 0.57499999
10.671 7.2620001 0.57599998
10.652 7.2849998 0.57499999
10.636 7.309 0.57499999
10.617 7.3309999 0.57499999
10.596 7.3509998 0.57499999
10.576 7.3730001 0.574
10.555 7.3920002 0.574
10.542 7.4169998 0.574
10.526 7.4400001 0.574
10.518 7.4679999 0.574
10.519 7.5019999 0.57499999
10.513 7.5310001 0.57499999
10.485 7.5440001 0.574
10.489 7.579 0.57499999
10.462 7.592 0.57499999
10.444 7.612 0.574
4.1389999 -2.457 0.23899999
4.1469998 -2.45 0.23999999
4.152 -2.441 0.23999999
4.1589999 -2.4330001 0.23999999
4.1620002 -2.4230001 0.241
4.1599998 -2.4089999 0.23999999
4.1729999 -2.405 0.241
4.1849999 -2.4000001 0.242
4.1900001 -2.391 0.242
4.1950002 -2.381 0.242
4.2030001 -2.3740001 0.243
4.2059999 -2.3629999 0.243
4.204 -2.3499999 0.243
4.217 -2.345 0.244
4.2210002 -2.335 0.244
4.2270002 -2.325 0.244
4.2449999 -2.323 0.245
4.2690001 -2.3239999 0.24600001
4.2930002 -2.325 0.248
4.3109999 -2.3210001 0.249
4.3299999 -2.319 0.25
4.3460002 -2.3150001 0.25099999
4.3579998 -2.309 0.25099999
4.369 -2.302 0.252
4.375 -2.2920001 0.252
4.3870001 -2.286 0.25299999
4.3909998 -2.2750001 0.25299999
4.4130001 -2.2739999 0.255
4.4450002 -2.277 0.25600001
4.4910002 -2.2869999 0.259
4.5739999 -2.3169999 0.264
4.7059999 -2.369 0.271
4.5689998 -2.2869999 0.26300001
4.4349999 -2.207 0.25600001
4.3940001 -2.174 0.25299999
4.388 -2.158 0.25299999
4.3850002 -2.1440001 0.25299999
4.3870001 -2.132 0.25299999
4.395 -2.1229999 0.25299999
4.4000001 -2.112 0.25299999
4.4299998 -2.1140001 0.255
4.4679999 -2.119 0.257
4.6009998 -2.168 0.26499999
11.408 -5.3099999 0.65700001
11.379 -5.263 0.65600002
11.389 -5.2340002 0.65600002
11.426 -5.2179999 0.65799999
11.455 -5.197 0.66000003
11.46 -5.1659999 0.66000003
11.484 -5.1430001 0.66100001
11.496 -5.1139998 0.662
11.53 -5.0960002 0.66399997
11.568 -5.079 0.66600001
11.588 -5.053 0.667
11.626 -5.0359998 0.66900003
11.615 -4.9970002 0.66799998
11.64 -4.974 0.67000002
11.656 -4.947 0.671
11.707 -4.934 0.67299998
11.709 -4.9000001 0.67299998
11.729 -4.8740001 0.67400002
11.75 -4.849 0.676
11.787 -4.829 0.67799997
11.815 -4.8060002 0.67900002
11.853 -4.7870002 0.68099999
11.915 -4.777 0.685
11.949 -4.7550001 0.68599999
12.02 -4.7480001 0.69
12.054 -4.7270002 0.69199997
12.085 -4.7030001 0.69400001
12.074 -4.664 0.69300002
12.092 -4.6350002 0.69400001
12.138 -4.6170001 0.69700003
12.173 -4.5949998 0.699
12.205 -4.5710001 0.69999999
12.294 -4.5689998 0.70499998
12.287 -4.5300002 0.70499998
12.314 -4.5040002 0.70599997
12.4 -4.4990001 0.71100003
12.478 -4.4910002 0.71600002
12.538 -4.4759998 0.71899998
12.647 -4.4770002 0.72500002
12.726 -4.4679999 0.72899997
12.728 -4.4320002 0.72899997
12.862 -4.4029999 0.73699999
12.809 -4.348 0.73400003
12.965 -4.3629999 0.74299997
12.995 -4.335 0.74400002
13.077 -4.2859998 0.74900001
13.116 -4.2610002 0.75099999
13.508 -4.112 0.77200001
13.496 -4.0689998 0.77200001
13.467 -4.0209999 0.76999998
13.462 -3.98 0.76899999
13.481 -3.947 0.76999998
13.562 -3.931 0.77499998
13.59 -3.8989999 0.77600002
13.554 -3.8499999 0.77399999
13.538 -3.806 0.773
13.626 -3.7909999 0.778
13.68 -3.766 0.78100002
13.704 -3.733 0.78200001
13.748 -3.7049999 0.78500003
13.81 -3.6819999 0.78799999
13.879 -3.6600001 0.792
13.937 -3.553 0.79500002
13.93 -3.5109999 0.79400003
13.945 -3.4749999 0.79500002
14.034 -3.4560001 0.80000001
14.141 -3.4419999 0.80599999
14.11 -3.3929999 0.80400002
14.129 -3.3570001 0.80500001
14.21 -3.335 0.80900002
14.178 -3.286 0.80699998
14.17 -3.243 0.80699998
14.241 -3.2179999 0.81099999
14.392 -3.211 0.81900001
14.41 -3.1730001 0.81999999
14.41 -3.131 0.81999999
14.353 -3.0780001 0.81599998
14.464 -3.0599999 0.82300001
14.586 -2.9170001 0.829
14.602 -2.878 0.82999998
14.752 -2.865 0.838
14.81 -2.8329999 0.84100002
14.765 -2.7820001 0.838
14.749 -2.7360001 0.83700001
14.868 -2.7149999 0.84399998
12.986 -0.20900001 0.72799999
13.092 -0.17299999 0.73400003
12.937 0.235 0.72299999
12.838 0.27000001 0.71799999
12.826 0.30700001 0.71700001
12.824 0.34400001 0.71600002
12.823 0.38 0.71600002
12.832 0.417 0.71700001
12.86 0.45500001 0.71799999
12.856 0.49200001 0.71799999
12.86 0.52899998 0.71799999
12.852 0.565 0.71700001
12.86 0.602 0.71700001
12.867 0.63999999 0.71700001
12.88 0.67699999 0.71799999
12.894 0.71499997 0.71899998
12.904 0.75199997 0.71899998
12.93 0.79100001 0.72000003
12.943 0.829 0.72100002
12.946 0.866 0.72100002
12.941 0.903 0.72000003
12.64 0.123 0.62599999
12.65 0.134 0.62599999
12.638 0.146 0.625
12.641 0.15800001 0.625
12.65 0.17 0.625
12.632 0.183 0.62400001
12.646 0.19599999 0.625
12.636 0.20900001 0.62400001
12.64 0.223 0.62400001
12.637 0.236 0.62300003
12.646 0.25099999 0.62300003
12.642 0.26499999 0.62300003
12.645 0.28 0.62300003
12.647 0.296 0.62300003
12.631 0.31099999 0.62199998
12.631 0.32699999 0.62099999
12.635 0.34299999 0.62099999
12.645 0.36000001 0.62199998
12.645 0.37599999 0.62099999
12.647 0.39300001 0.62099999
12.654 0.41100001 0.62099999
12.662 0.42899999 0.62199998
12.657 0.447 0.62099999
12.655 0.465 0.62099999
12.656 0.484 0.62099999
12.662 0.50300002 0.62099999
12.669 0.52200001 0.62099999
12.675 0.542 0.62099999
12.672 0.56199998 0.62099999
12.673 0.58200002 0.62099999
12.669 0.602 0.62099999
12.668 0.62199998 0.62099999
12.676 0.64399999 0.62099999
12.694 0.66600001 0.62199998
12.725 0.68900001 0.62300003
12.793 0.71499997 0.62599999
12.884 0.74199998 0.63099998
12.898 0.76599997 0.63099998
12.905 0.78899997 0.63200003
12.88 0.81099999 0.63
12.855 0.833 0.62900001
12.823 0.85399997 0.62699997
12.783 0.87599999 0.625
12.74 0.89700001 0.62300003
12.723 0.92000002 0.62199998
12.709 0.94300002 0.62199998
12.707 0.96799999 0.62199998
12.72 0.99400002 0.62199998
12.718 1.0190001 0.62199998
12.745 1.0470001 0.62300003
12.753 1.074 0.62400001
12.765 1.101 0.62400001
12.783 1.1289999 0.625
12.821 1.159 0.62699997
12.88 1.192 0.63
12.917 1.223 0.63200003
12.947 1.253 0.634
12.957 1.283 0.634
12.991 1.314 0.63599998
12.987 1.3430001 0.63599998
20.789 2.1500001 1.018
12.997 1.373 0.63599998
20.58 2.174 1.008
13.08 1.411 0.64099997
20.59 2.221 1.0089999
13.16 1.45 0.64499998
20.538 2.2620001 1.006
20.660999 2.323 1.013
20.587999 2.3629999 1.0089999
20.531 2.404 1.007
20.528999 2.4519999 1.007
13.228 1.6109999 0.64899999
20.589001 2.5079999 1.01
13.188 1.638 0.64700001
20.627001 2.562 1.012
20.691999 2.619 1.015
20.733999 2.675 1.018
20.736 2.7260001 1.018
20.669001 2.7679999 1.015
20.657 2.8169999 1.015
20.575001 2.8570001 1.011
20.660999 2.921 1.016
20.764 2.9879999 1.021
20.818001 3.049 1.024
20.820999 3.1029999 1.025
20.771 3.1489999 1.022
20.777 3.204 1.023
20.783001 3.2590001 1.024
20.693001 3.3 1.02
20.684999 3.3529999 1.02
20.652 3.4030001 1.0190001
20.693001 3.4660001 1.021
21.761999 3.763 1.075
21.701 3.812 1.072
21.756001 3.881 1.075
21.705 3.9330001 1.073
21.643999 3.9820001 1.071
21.629 4.04 1.071
21.707001 4.1160002 1.075
21.716999 4.1789999 1.076
21.825001 4.263 1.082
21.900999 4.3400002 1.086
21.982 4.4200001 1.091
22.042999 4.4959998 1.095
22.087999 4.5700002 1.098
22.187 4.6560001 1.103
22.141001 4.7119999 1.102
22.004 4.7480001 1.095
21.924 4.7969999 1.092
21.878 4.8520002 1.09
21.837 4.9089999 1.089
19.77 5.1230001 0.99400002
19.653 5.1560001 0.98799998
19.591 5.2030001 0.986
19.593 5.2670002 0.98699999
19.549999 5.3189998 0.98500001
19.570999 5.3889999 0.98699999
19.687 5.4860001 0.99400002
18.091999 5.1620002 0.91500002
17.915001 5.171 0.90700001
17.754999 5.184 0.89899999
17.629 5.2069998 0.89399999
17.544001 5.2410002 0.88999999
17.593 5.316 0.89300001
14.97 5.7589998 0.778
14.824 5.7589998 0.77100003
7.303 4.2919998 0.405
7.1760001 4.25 0.398
7.1149998 4.2459998 0.396
7.0650001 4.2480001 0.39300001
6.9990001 4.2399998 0.38999999
6.947 4.2410002 0.38800001
6.9109998 4.2509999 0.38699999
6.8720002 4.2589998 0.38499999
6.848 4.276 0.384
6.8060002 4.2810001 0.38299999
6.7709999 4.2909999 0.38100001
6.7589998 4.3150001 0.38100001
10.907 6.9629998 0.616
6.7470002 4.3379998 0.38100001
10.858 6.9829998 0.61400002
6.7270002 4.3579998 0.38100001
10.819 7.0079999 0.61299998
6.71 4.3779998 0.38
10.804 7.0500002 0.61299998
6.6929998 4.3990002 0.38
10.772 7.0799999 0.61199999
6.6929998 4.4310002 0.38100001
10.759 7.1220002 0.61199999
6.6960001 4.4650002 0.382
10.741 7.1620002 0.61199999
6.665 4.4759998 0.38
10.702 7.1869998 0.611
6.6430001 4.493 0.38
10.681 7.224 0.611
6.6079998 4.5009999 0.37900001
10.644 7.2509999 0.61000001
6.5960002 4.5250001 0.37799999
10.613 7.2810001 0.60900003
6.5999999 4.559 0.37900001
10.611 7.3309999 0.61000001
6.585 4.5819998 0.37900001
10.577 7.3590002 0.60900003
6.6009998 4.625 0.38100001
10.561 7.3990002 0.60900003
6.6399999 4.6849999 0.384
10.534 7.4320002 0.60900003
6.7319999 4.783 0.38999999
10.494 7.4549999 0.60799998
10.476 7.494 0.60799998
10.439 7.5190001 0.60699999
3.997 -2.625 0.244
10.904 -7.1620002 0.66600001
4.0209999 -2.6159999 0.245
10.963 -7.1329999 0.66900003
4.026 -2.5940001 0.245
11.029 -7.1069999 0.67199999
4.0440001 -2.5810001 0.24600001
11.075 -7.0689998 0.67400002
4.053 -2.562 0.24600001
4.0710001 -2.549 0.24699999
4.0879998 -2.5350001 0.248
4.092 -2.5139999 0.248
4.1090002 -2.5 0.249
4.1199999 -2.4820001 0.249
4.1300001 -2.4649999 0.25
4.1409998 -2.447 0.25
4.1630001 -2.437 0.25099999
4.171 -2.4189999 0.252
4.2020001 -2.4130001 0.25299999
4.23 -2.4059999 0.255
4.2649999 -2.4030001 0.257
4.2810001 -2.3889999 0.25799999
4.2979999 -2.375 0.25799999
4.3189998 -2.3629999 0.25999999
4.329 -2.346 0.25999999
4.3449998 -2.332 0.26100001
4.368 -2.3210001 0.26199999
4.402 -2.3169999 0.264
4.4419999 -2.3150001 0.266
4.5219998 -2.3340001 0.271
4.652 -2.3770001 0.278
4.4640002 -2.2590001 0.26699999
4.375 -2.1919999 0.26100001
4.3660002 -2.1670001 0.26100001
4.375 -2.1500001 0.26100001
4.381 -2.132 0.26100001
4.3909998 -2.1159999 0.26199999
4.4159999 -2.1059999 0.26300001
4.4910002 -2.1210001 0.26800001
11.471 -5.3109999 0.68300003
11.412 -5.2309999 0.67900002
11.446 -5.1939998 0.68099999
11.487 -5.1599998 0.68300003
11.521 -5.1240001 0.685
11.569 -5.0929999 0.68699998
11.605 -5.0580001 0.68900001
11.64 -5.0209999 0.69099998
11.694 -4.994 0.69400001
11.707 -4.9489999 0.69400001
11.752 -4.9169998 0.69599998
11.79 -4.882 0.69800001
11.841 -4.8530002 0.70099998
11.861 -4.8109999 0.70200002
11.9 -4.777 0.704
12.04 -4.783 0.71200001
12.074 -4.7470002 0.71399999
12.133 -4.7199998 0.71700001
12.166 -4.684 0.71799999
12.281 -4.678 0.72500002
12.295 -4.6339998 0.72500002
12.362 -4.6100001 0.72899997
12.461 -4.598 0.73500001
12.562 -4.585 0.74000001
12.558 -4.5349998 0.74000001
12.643 -4.5170002 0.74400002
12.77 -4.513 0.75199997
12.767 -4.4629998 0.75099999
12.868 -4.4489999 0.75700003
12.922 -4.4190001 0.75999999
13.031 -4.408 0.76599997
13.026 -4.3569999 0.76499999
13.577 -4.1490002 0.796
13.533 -4.0879998 0.79299998
13.58 -4.0549998 0.79500002
13.619 -4.02 0.79699999
13.665 -3.987 0.80000001
13.641 -3.9330001 0.79799998
13.639 -3.8859999 0.79799998
13.719 -3.8629999 0.80199999
13.806 -3.8410001 0.80699998
13.883 -3.816 0.81099999
13.958 -3.79 0.815
14.089 -3.78 0.82300001
14.102 -3.6459999 0.82300001
14.09 -3.598 0.82200003
14.159 -3.5699999 0.82599998
14.226 -3.543 0.82999998
14.223 -3.497 0.829
14.355 -3.4849999 0.83700001
14.389 -3.448 0.83899999
14.48 -3.293 0.84299999
14.574 -3.2709999 0.84799999
14.754 -3.1800001 0.85799998
14.816 -3.1500001 0.86199999
14.868 -2.99 0.86400002
14.876 -2.9489999 0.86400002
13.064 -0.40099999 0.75599998
12.942 -0.375 0.74900001
12.88 -0.352 0.74599999
12.848 -0.329 0.74400002
12.826 -0.308 0.74299997
12.828 -0.287 0.74299997
12.813 -0.26499999 0.74199998
12.816 -0.245 0.74199998
12.792 -0.22400001 0.741
12.754 -0.20299999 0.73900002
12.746 -0.183 0.73799998
12.766 -0.163 0.74000001
12.806 -0.14399999 0.74199998
12.902 -0.125 0.74800003
13.101 0.119 0.75999999
13.088 0.13699999 0.75999999
12.627 0.182 0.65899998
12.644 0.205 0.65899998
12.646 0.228 0.65899998
12.644 0.25099999 0.65899998
12.649 0.27399999 0.65899998
12.664 0.29800001 0.66000003
12.659 0.32100001 0.65899998
12.662 0.345 0.65899998
12.655 0.37 0.65899998
12.66 0.39399999 0.65899998
12.668 0.419 0.65899998
12.663 0.44400001 0.65899998
12.671 0.47 0.65899998
12.679 0.49599999 0.65899998
12.677 0.52200001 0.65899998
12.68 0.54799998 0.65899998
12.672 0.574 0.65899998
12.686 0.602 0.65899998
12.699 0.62900001 0.66000003
12.709 0.65700001 0.66000003
12.757 0.68699998 0.66299999
12.845 0.72000003 0.667
12.9 0.75099999 0.67000002
12.884 0.77899998 0.66900003
12.876 0.80699998 0.66900003
12.84 0.83399999 0.667
12.791 0.86000001 0.66399997
12.765 0.88700002 0.66299999
12.715 0.91299999 0.66000003
12.692 0.94099998 0.65899998
12.689 0.97100002 0.65899998
12.699 1.001 0.65899998
12.709 1.0319999 0.66000003
