# .PCD v0.7 - Point Cloud Data file format
VERSION 0.7
FIELDS x y z
SIZE 4 4 4
TYPE F F F
COUNT 1 1 1
WIDTH 1778
HEIGHT 1
VIEWPOINT 0 0 0 1 0 0 0
POINTS 1778
DATA ascii
6.421 -3.7460001 -0.15800001
6.4359999 -3.7190001 -0.15899999
6.401 -3.6630001 -0.15800001
6.441 -3.6500001 -0.15800001
6.5009999 -3.648 -0.16
6.5219998 -3.625 -0.16
6.5359998 -3.5969999 -0.16
6.5510001 -3.5699999 -0.16
6.5650001 -3.5439999 -0.16
6.5910001 -3.523 -0.161
6.6069999 -3.497 -0.161
6.6279998 -3.473 -0.161
6.6409998 -3.4460001 -0.162
6.6620002 -3.424 -0.162
6.6799998 -3.3989999 -0.162
6.6960001 -3.3740001 -0.162
6.7030001 -3.3440001 -0.162
6.724 -3.3210001 -0.163
6.7420001 -3.2969999 -0.163
6.7509999 -3.2690001 -0.163
6.7680001 -3.2449999 -0.163
6.7789998 -3.217 -0.163
6.7969999 -3.194 -0.163
6.8169999 -3.171 -0.164
6.8390002 -3.1500001 -0.164
6.8600001 -3.128 -0.164
6.8720002 -3.1010001 -0.16500001
6.9060001 -3.085 -0.16500001
6.9159999 -3.059 -0.16500001
6.9289999 -3.033 -0.16500001
6.9390001 -3.007 -0.16500001
6.9619999 -2.9860001 -0.16599999
6.9749999 -2.961 -0.16599999
6.9920001 -2.937 -0.16599999
7.006 -2.9130001 -0.16599999
7.0110002 -2.885 -0.16599999
7.0440001 -2.869 -0.167
7.0619998 -2.846 -0.167
7.0700002 -2.8199999 -0.167
7.0929999 -2.799 -0.168
7.1030002 -2.7739999 -0.168
7.1199999 -2.7509999 -0.168
7.145 -2.7320001 -0.168
7.1659999 -2.71 -0.169
7.178 -2.6860001 -0.169
7.1859999 -2.6600001 -0.169
7.2080002 -2.6400001 -0.169
7.23 -2.619 -0.17
7.2410002 -2.595 -0.17
7.2610002 -2.5739999 -0.17
7.2779999 -2.552 -0.17
7.3010001 -2.5320001 -0.171
7.3130002 -2.5079999 -0.171
7.3499999 -2.493 -0.17200001
7.3579998 -2.4679999 -0.17200001
7.3889999 -2.451 -0.17200001
7.3969998 -2.4260001 -0.17200001
7.428 -2.4089999 -0.17299999
7.4530001 -2.3900001 -0.17299999
7.4590001 -2.365 -0.17299999
7.4749999 -2.3429999 -0.17299999
7.4959998 -2.323 -0.17399999
7.4990001 -2.2969999 -0.17399999
7.526 -2.279 -0.17399999
7.5250001 -2.2520001 -0.17399999
7.566 -2.2379999 -0.175
7.5929999 -2.2190001 -0.175
7.6090002 -2.198 -0.176
7.6300001 -2.178 -0.176
7.6469998 -2.1570001 -0.176
7.6560001 -2.1329999 -0.176
7.6830001 -2.115 -0.177
7.7119999 -2.0969999 -0.177
7.7249999 -2.075 -0.177
7.7350001 -2.052 -0.178
7.757 -2.033 -0.178
7.7719998 -2.0120001 -0.178
7.803 -1.994 -0.17900001
7.8169999 -1.973 -0.17900001
7.8319998 -1.952 -0.17900001
7.8720002 -1.937 -0.18000001
7.8800001 -1.914 -0.18000001
7.9099998 -1.897 -0.18099999
7.9159999 -1.874 -0.18099999
7.9299998 -1.852 -0.18099999
7.9619999 -1.835 -0.18099999
7.973 -1.814 -0.18099999
8.0039997 -1.7970001 -0.182
8.0109997 -1.774 -0.182
8.0159998 -1.751 -0.182
8.0360003 -1.732 -0.182
8.0559998 -1.712 -0.183
8.0749998 -1.693 -0.183
8.1000004 -1.674 -0.184
8.1190004 -1.655 -0.184
8.1300001 -1.6339999 -0.184
8.1619997 -1.617 -0.185
8.1829996 -1.598 -0.185
8.191 -1.576 -0.185
8.2270002 -1.5599999 -0.186
8.2290001 -1.5369999 -0.186
8.2449999 -1.518 -0.186
8.2580004 -1.497 -0.186
8.2700005 -1.477 -0.186
8.2849998 -1.457 -0.186
8.3249998 -1.442 -0.18700001
8.323 -1.419 -0.18700001
8.342 -1.4 -0.18700001
8.3649998 -1.382 -0.18799999
8.3669996 -1.36 -0.18799999
8.3999996 -1.3430001 -0.18799999
8.4239998 -1.325 -0.189
8.4320002 -1.3049999 -0.189
8.46 -1.288 -0.189
8.4770002 -1.2690001 -0.19
8.5080004 -1.252 -0.19
8.5139999 -1.2309999 -0.19
8.5279999 -1.212 -0.191
8.5389996 -1.192 -0.191
8.5690002 -1.175 -0.191
8.5869999 -1.1569999 -0.192
8.599 -1.138 -0.192
8.6000004 -1.117 -0.192
8.6090002 -1.097 -0.192
8.6409998 -1.081 -0.192
8.6490002 -1.061 -0.193
8.6750002 -1.044 -0.193
8.6780005 -1.024 -0.193
8.6920004 -1.006 -0.193
8.6999998 -0.986 -0.193
8.7329998 -0.97000003 -0.19400001
8.7379999 -0.95099998 -0.19400001
8.7489996 -0.93199998 -0.19400001
8.7810001 -0.91600001 -0.19499999
8.8059998 -0.89899999 -0.19499999
8.8199997 -0.88099998 -0.19499999
8.8430004 -0.86299998 -0.19599999
8.8470001 -0.84399998 -0.19599999
8.8699999 -0.82700002 -0.19599999
8.8830004 -0.80900002 -0.197
8.9069996 -0.79299998 -0.197
8.9049997 -0.773 -0.197
8.9180002 -0.75599998 -0.197
8.9499998 -0.74000001 -0.198
8.9449997 -0.72000003 -0.197
8.96 -0.70300001 -0.198
8.9750004 -0.68599999 -0.198
9.0010004 -0.66900003 -0.198
9.0139999 -0.65200001 -0.199
9.0360003 -0.63499999 -0.199
9.059 -0.61900002 -0.2
9.0690002 -0.602 -0.2
9.0909996 -0.58499998 -0.2
9.1199999 -0.56900001 -0.20100001
9.1269999 -0.55199999 -0.20100001
9.1370001 -0.53500003 -0.20100001
9.1529999 -0.51800001 -0.20100001
9.1719999 -0.50199997 -0.20100001
9.1960001 -0.486 -0.20200001
9.2379999 -0.47099999 -0.20299999
9.2329998 -0.45300001 -0.20299999
9.2860003 -0.43900001 -0.204
9.29 -0.42199999 -0.204
9.3050003 -0.40599999 -0.204
9.3719997 -0.39199999 -0.205
9.3579998 -0.37400001 -0.205
9.3509998 -0.35699999 -0.205
9.4370003 -0.34400001 -0.207
8.875 0.104 -0.32300001
8.8950005 0.121 -0.324
8.9139996 0.13699999 -0.32499999
8.9280005 0.154 -0.32499999
8.9189997 0.171 -0.32499999
8.9280005 0.18799999 -0.32499999
8.9390001 0.205 -0.32600001
8.9420004 0.223 -0.32600001
8.941 0.23999999 -0.32699999
8.9399996 0.25799999 -0.32699999
8.9399996 0.27599999 -0.32699999
8.9449997 0.294 -0.32699999
8.9499998 0.31299999 -0.32800001
8.9580002 0.331 -0.32800001
8.9530001 0.34999999 -0.32800001
8.9639997 0.36899999 -0.329
8.96 0.38800001 -0.329
8.9580002 0.40700001 -0.329
8.967 0.42699999 -0.329
8.9709997 0.447 -0.33000001
8.9860001 0.46700001 -0.331
8.9989996 0.48800001 -0.331
8.9949999 0.50800002 -0.331
8.9969997 0.528 -0.33199999
8.9940004 0.54799998 -0.33199999
9.0209999 0.57099998 -0.333
9.0209999 0.59200001 -0.333
9.0450001 0.61400002 -0.33500001
9.0419998 0.63499999 -0.33500001
9.0550003 0.65799999 -0.33500001
9.0559998 0.67900002 -0.336
9.0670004 0.70200002 -0.336
9.0640001 0.72399998 -0.33700001
9.0950003 0.74800003 -0.338
9.1029997 0.77100003 -0.33899999
9.1140003 0.79500002 -0.33899999
9.1120005 0.81699997 -0.33899999
9.1149998 0.83999997 -0.34
9.1400003 0.86500001 -0.34099999
9.1429996 0.889 -0.34200001
9.1719999 0.91500002 -0.34299999
9.1660004 0.93800002 -0.34299999
9.1999998 0.96499997 -0.345
9.2049999 0.99000001 -0.345
9.1940002 1.013 -0.345
9.2130003 1.039 -0.34599999
9.2220001 1.064 -0.347
9.2279997 1.089 -0.347
9.2489996 1.117 -0.34799999
9.2670002 1.1440001 -0.34999999
9.2779999 1.17 -0.34999999
9.29 1.197 -0.35100001
9.2930002 1.223 -0.352
9.3170004 1.251 -0.35299999
9.3319998 1.279 -0.354
9.3509998 1.308 -0.35499999
9.3409996 1.332 -0.35499999
9.3620005 1.362 -0.35600001
9.4020004 1.3940001 -0.35800001
9.4040003 1.421 -0.35800001
9.4309998 1.452 -0.36000001
9.4549999 1.483 -0.361
9.4630003 1.511 -0.36199999
9.4799995 1.541 -0.36300001
9.4899998 1.5700001 -0.36399999
9.4980001 1.599 -0.36500001
9.5249996 1.631 -0.366
9.5500002 1.664 -0.36700001
9.5450001 1.691 -0.368
9.566 1.723 -0.36899999
9.5799999 1.7539999 -0.37
9.6009998 1.7869999 -0.37099999
9.6040001 1.816 -0.37200001
9.6169996 1.848 -0.373
9.6370001 1.881 -0.37400001
9.6540003 1.913 -0.375
9.6730003 1.946 -0.37599999
9.6759996 1.977 -0.377
9.6999998 2.0109999 -0.37799999
9.7270002 2.0469999 -0.38
9.7320004 2.0780001 -0.38100001
9.7379999 2.1099999 -0.38100001
9.7580004 2.1440001 -0.38299999
9.7609997 2.1760001 -0.38299999
9.776 2.21 -0.384
9.8190002 2.25 -0.38699999
9.816 2.2809999 -0.38699999
9.8319998 2.316 -0.38800001
9.8549995 2.352 -0.38999999
9.868 2.3870001 -0.391
9.8900003 2.424 -0.39199999
9.9069996 2.46 -0.39300001
9.9219999 2.4960001 -0.39399999
9.9429998 2.533 -0.396
9.9650002 2.5710001 -0.39700001
9.9569998 2.602 -0.398
9.9799995 2.6400001 -0.39899999
9.9809999 2.6730001 -0.40000001
9.9849997 2.707 -0.40000001
10.012 2.747 -0.40200001
7.6869998 2.1340001 -0.30899999
7.566 2.1259999 -0.30500001
7.5159998 2.1370001 -0.303
7.5089998 2.1600001 -0.303
7.4629998 2.1719999 -0.30199999
7.3899999 2.175 -0.29899999
7.3590002 2.191 -0.29899999
7.3319998 2.2079999 -0.29800001
7.3179998 2.2279999 -0.29800001
7.3210001 2.2539999 -0.29800001
7.3499999 2.2869999 -0.30000001
7.414 2.3329999 -0.303
7.6389999 2.4300001 -0.31299999
10.219 3.2850001 -0.419
10.249 3.3299999 -0.421
10.218 3.355 -0.421
10.214 3.3889999 -0.421
10.221 3.4260001 -0.42199999
10.224 3.4630001 -0.42300001
10.249 3.507 -0.42500001
10.266 3.5480001 -0.426
10.285 3.5910001 -0.42699999
10.308 3.6340001 -0.42899999
10.334 3.6800001 -0.43099999
10.356 3.724 -0.433
10.361 3.7620001 -0.433
10.35 3.7939999 -0.43399999
10.372 3.839 -0.435
10.357 3.8699999 -0.43599999
10.372 3.9119999 -0.43700001
10.411 3.964 -0.43900001
10.43 4.0079999 -0.44100001
10.457 4.0549998 -0.44299999
10.491 4.1059999 -0.44499999
10.501 4.1469998 -0.44600001
10.513 4.1900001 -0.447
10.531 4.2340002 -0.449
10.559 4.283 -0.45100001
10.582 4.3299999 -0.45300001
10.602 4.3769999 -0.454
10.61 4.4180002 -0.456
10.656 4.4749999 -0.458
10.684 4.526 -0.46000001
10.708 4.5749998 -0.46200001
10.725 4.6209998 -0.46399999
10.76 4.6739998 -0.46599999
10.775 4.7199998 -0.46799999
10.797 4.7690001 -0.46900001
10.827 4.8210001 -0.472
10.863 4.8769999 -0.47400001
10.873 4.921 -0.47499999
10.918 4.9809999 -0.47799999
10.934 5.0279999 -0.47999999
10.954 5.0770001 -0.48199999
10.974 5.1259999 -0.48300001
11.026 5.191 -0.48699999
11.035 5.2350001 -0.48800001
11.041 5.2779999 -0.48899999
11.066 5.3309999 -0.491
11.081 5.3790002 -0.493
11.11 5.4330001 -0.495
11.119 5.4780002 -0.49599999
11.132 5.5250001 -0.498
11.139 5.5700002 -0.49900001
11.175 5.6279998 -0.50099999
11.18 5.6719999 -0.50300002
11.211 5.7290001 -0.505
11.232 5.7800002 -0.50700003
11.236 5.823 -0.50800002
11.244 5.869 -0.509
11.258 5.9169998 -0.51099998
11.28 5.9699998 -0.51300001
11.304 6.0240002 -0.51499999
11.312 6.0700002 -0.51700002
11.32 6.1149998 -0.51800001
11.331 6.1630001 -0.51899999
11.335 6.2059999 -0.52100003
11.349 6.2550001 -0.52200001
11.36 6.303 -0.52399999
11.365 6.3470001 -0.52499998
11.391 6.4029999 -0.52700001
11.391 6.4439998 -0.528
11.39 6.4850001 -0.52899998
11.413 6.539 -0.53100002
11.437 6.5939999 -0.53399998
11.425 6.6290002 -0.53399998
11.437 6.677 -0.53600001
11.468 6.737 -0.53799999
11.468 6.7779999 -0.53899997
11.46 6.8150001 -0.54000002
11.476 6.8649998 -0.542
11.44 6.8839998 -0.54100001
11.445 6.9289999 -0.54299998
9.8240004 6.7610002 -0.48899999
9.6610003 6.6810002 -0.48199999
9.632 6.6919999 -0.48100001
9.6260004 6.7189999 -0.48199999
9.6490002 6.7670002 -0.484
6.5689998 -3.846 -0.146
6.579 -3.8340001 -0.146
6.5890002 -3.8210001 -0.146
6.598 -3.8080001 -0.146
6.6160002 -3.8 -0.147
6.6269999 -3.7869999 -0.147
6.6209998 -3.766 -0.147
6.6430001 -3.7590001 -0.147
6.6529999 -3.7460001 -0.147
6.658 -3.73 -0.147
6.6799998 -3.724 -0.148
6.677 -3.7030001 -0.147
6.6900001 -3.6919999 -0.148
6.704 -3.6800001 -0.148
6.7010002 -3.6600001 -0.148
6.7140002 -3.648 -0.148
6.7150002 -3.6289999 -0.148
6.73 -3.618 -0.148
6.7360001 -3.6029999 -0.148
6.7509999 -3.5910001 -0.148
6.7600002 -3.5769999 -0.148
6.7680001 -3.562 -0.149
6.7729998 -3.5450001 -0.149
6.7839999 -3.5320001 -0.149
6.7909999 -3.516 -0.149
6.7859998 -3.494 -0.149
6.8070002 -3.4860001 -0.149
6.8150001 -3.47 -0.149
6.8109999 -3.4489999 -0.149
6.8249998 -3.437 -0.149
6.8319998 -3.421 -0.149
6.8410001 -3.405 -0.149
6.8590002 -3.395 -0.149
6.862 -3.3770001 -0.149
6.869 -3.3599999 -0.149
6.8899999 -3.3510001 -0.15000001
6.8979998 -3.335 -0.15000001
6.9060001 -3.319 -0.15000001
6.914 -3.303 -0.15000001
6.9349999 -3.293 -0.15000001
6.9419999 -3.277 -0.15000001
6.9429998 -3.257 -0.15000001
6.9549999 -3.243 -0.15099999
6.9650002 -3.2279999 -0.15099999
6.9790001 -3.214 -0.15099999
6.98 -3.1949999 -0.15099999
6.9990001 -3.1830001 -0.15099999
7.013 -3.1700001 -0.15099999
7.0219998 -3.154 -0.15099999
7.0300002 -3.1370001 -0.15099999
7.0440001 -3.1229999 -0.152
7.0580001 -3.109 -0.152
7.0580001 -3.089 -0.152
7.073 -3.075 -0.152
7.072 -3.0539999 -0.152
7.0939999 -3.043 -0.152
7.1020002 -3.026 -0.152
7.1170001 -3.0120001 -0.152
7.1290002 -2.997 -0.153
7.1339998 -2.9790001 -0.153
7.1500001 -2.9649999 -0.153
7.1599998 -2.948 -0.153
7.1669998 -2.9300001 -0.153
7.1849999 -2.9170001 -0.153
7.198 -2.902 -0.154
7.2129998 -2.8870001 -0.154
7.2290001 -2.8729999 -0.154
7.2329998 -2.8540001 -0.154
7.2270002 -2.8310001 -0.154
7.25 -2.819 -0.154
7.2690001 -2.8050001 -0.154
7.2750001 -2.7869999 -0.154
7.283 -2.7690001 -0.154
7.289 -2.75 -0.154
7.296 -2.7320001 -0.155
7.3099999 -2.7160001 -0.155
7.3239999 -2.7 -0.155
7.3390002 -2.6849999 -0.155
7.3499999 -2.6670001 -0.155
7.348 -2.6459999 -0.155
7.3709998 -2.6329999 -0.155
7.3720002 -2.612 -0.155
7.381 -2.5940001 -0.155
7.3909998 -2.576 -0.156
7.4180002 -2.5639999 -0.156
7.4239998 -2.5450001 -0.156
7.4369998 -2.5280001 -0.156
7.448 -2.51 -0.156
7.4699998 -2.4960001 -0.15700001
7.5009999 -2.4849999 -0.15700001
7.5040002 -2.4649999 -0.15700001
7.5120001 -2.4460001 -0.15700001
7.5289998 -2.4300001 -0.15700001
7.552 -2.415 -0.15800001
7.5609999 -2.3970001 -0.15800001
7.5760002 -2.3800001 -0.15800001
7.5869999 -2.3610001 -0.15800001
7.6030002 -2.345 -0.15800001
7.6100001 -2.325 -0.15800001
7.6300001 -2.309 -0.15899999
7.6339998 -2.289 -0.15899999
7.631 -2.266 -0.15899999
7.6550002 -2.2509999 -0.15899999
7.6659999 -2.2320001 -0.15899999
7.6950002 -2.2190001 -0.16
7.7129998 -2.2019999 -0.16
7.7160001 -2.1800001 -0.16
7.723 -2.161 -0.16
7.756 -2.1470001 -0.16
7.7670002 -2.128 -0.161
7.7820001 -2.1099999 -0.161
7.796 -2.092 -0.161
7.8130002 -2.0739999 -0.161
7.8260002 -2.0550001 -0.161
7.8460002 -2.0380001 -0.162
7.8579998 -2.0179999 -0.162
7.855 -1.995 -0.162
7.8829999 -1.98 -0.162
7.888 -1.959 -0.162
7.927 -1.9450001 -0.163
7.9549999 -1.9299999 -0.163
7.948 -1.905 -0.163
7.9790001 -1.89 -0.163
7.9759998 -1.867 -0.163
8.0019999 -1.85 -0.164
8.0150003 -1.83 -0.164
8.0340004 -1.811 -0.164
8.059 -1.794 -0.164
8.0860004 -1.777 -0.16500001
8.0880003 -1.7539999 -0.16500001
8.1219997 -1.739 -0.16500001
8.132 -1.7180001 -0.16500001
8.1459999 -1.697 -0.16599999
8.1639996 -1.678 -0.16599999
8.1750002 -1.6569999 -0.16599999
8.2150002 -1.642 -0.167
8.2130003 -1.618 -0.16599999
8.2320004 -1.598 -0.167
8.2639999 -1.581 -0.167
8.2880001 -1.562 -0.168
8.3079996 -1.5420001 -0.168
8.3240004 -1.521 -0.168
8.3310003 -1.499 -0.168
8.349 -1.478 -0.168
8.3719997 -1.4579999 -0.169
8.3920002 -1.438 -0.169
8.4300003 -1.421 -0.17
8.4359999 -1.398 -0.17
8.4460001 -1.376 -0.17
8.4709997 -1.355 -0.17
8.4890003 -1.334 -0.17
8.5010004 -1.312 -0.17
8.5459995 -1.295 -0.171
8.5710001 -1.274 -0.17200001
8.6029997 -1.2539999 -0.17200001
8.6059999 -1.2309999 -0.17200001
8.6350002 -1.21 -0.17299999
8.6450005 -1.187 -0.17299999
8.6879997 -1.168 -0.17299999
8.6929998 -1.1440001 -0.17299999
8.7080002 -1.122 -0.17299999
8.7299995 -1.1 -0.17399999
8.7629995 -1.079 -0.17399999
8.7659998 -1.054 -0.17399999
8.7969999 -1.033 -0.175
8.8219995 -1.011 -0.175
8.8430004 -0.98900002 -0.175
8.8959999 -0.96899998 -0.176
8.908 -0.94499999 -0.176
8.9300003 -0.92199999 -0.177
8.9569998 -0.89999998 -0.177
8.9809999 -0.87699997 -0.177
9.0030003 -0.85399997 -0.178
9.0360003 -0.83099997 -0.178
9.0600004 -0.80800003 -0.17900001
9.0760002 -0.78299999 -0.17900001
9.1079998 -0.75999999 -0.17900001
9.1199999 -0.736 -0.17900001
9.1730003 -0.71399999 -0.18000001
9.1809998 -0.68800002 -0.18000001
9.2069998 -0.66399997 -0.18099999
9.2290001 -0.63999999 -0.18099999
9.2720003 -0.61699998 -0.182
9.3339996 -0.59399998 -0.183
9.3629999 -0.56999999 -0.183
9.3520002 -0.54299998 -0.183
9.4049997 -0.51899999 -0.184
9.5150003 -0.498 -0.186
9.4980001 -0.47 -0.185
9.5389996 -0.44600001 -0.186
9.3120003 0.161 -0.315
9.2580004 0.171 -0.31400001
9.2939997 0.184 -0.315
9.2550001 0.19499999 -0.31400001
9.257 0.207 -0.31400001
9.243 0.219 -0.31400001
9.2139997 0.23100001 -0.31299999
9.2110004 0.243 -0.31299999
9.2019997 0.25600001 -0.31299999
9.184 0.26800001 -0.31200001
9.1859999 0.28200001 -0.31200001
9.1739998 0.29499999 -0.31200001
9.1639996 0.308 -0.31200001
9.1689997 0.322 -0.31200001
9.1660004 0.336 -0.31200001
9.1750002 0.35100001 -0.31299999
9.1680002 0.36500001 -0.31299999
9.165 0.38 -0.31299999
9.1590004 0.39399999 -0.31299999
9.1750002 0.41 -0.31299999
9.1800003 0.426 -0.31400001
9.1660004 0.44100001 -0.31400001
9.1739998 0.45699999 -0.31400001
9.1969995 0.47400001 -0.315
9.184 0.49000001 -0.315
9.191 0.50599998 -0.315
9.1899996 0.523 -0.315
9.1929998 0.54000002 -0.31600001
9.2299995 0.55900002 -0.317
9.2110004 0.57499999 -0.317
9.2259998 0.59399998 -0.31799999
9.224 0.611 -0.31799999
9.2489996 0.63099998 -0.31900001
9.2329998 0.648 -0.31799999
9.2299995 0.66600001 -0.31900001
9.2460003 0.685 -0.31900001
9.2419996 0.70300001 -0.31999999
9.2580004 0.72299999 -0.31999999
9.2620001 0.74299997 -0.32100001
9.2799997 0.76300001 -0.322
9.2860003 0.78299999 -0.322
9.3140001 0.80599999 -0.32300001
9.3030005 0.824 -0.32300001
9.3140001 0.84500003 -0.324
9.3179998 0.866 -0.324
9.3400002 0.889 -0.32499999
9.3549995 0.91100001 -0.32600001
9.3529997 0.93099999 -0.32600001
9.3610001 0.95300001 -0.32699999
9.3889999 0.977 -0.32800001
9.3879995 0.99900001 -0.329
9.3900003 1.021 -0.329
9.4119997 1.045 -0.33000001
9.4130001 1.067 -0.33000001
9.4379997 1.092 -0.33199999
9.4379997 1.115 -0.33199999
9.4460001 1.1390001 -0.333
9.4700003 1.164 -0.33399999
9.474 1.188 -0.33399999
9.4879999 1.2130001 -0.33500001
9.4980001 1.238 -0.336
9.5059996 1.262 -0.336
9.5240002 1.289 -0.33700001
9.5480003 1.316 -0.33899999
9.5469999 1.34 -0.33899999
9.5760002 1.369 -0.34
9.5880003 1.395 -0.34099999
9.5900002 1.421 -0.34200001
9.6140003 1.449 -0.34299999
9.6190004 1.475 -0.34400001
9.6450005 1.505 -0.345
9.6630001 1.534 -0.34599999
9.6709995 1.561 -0.347
9.698 1.591 -0.34799999
9.7130003 1.62 -0.34900001
9.724 1.649 -0.34999999
9.7399998 1.678 -0.35100001
9.7600002 1.709 -0.352
9.7749996 1.739 -0.35299999
9.7880001 1.768 -0.354
9.8009996 1.798 -0.35499999
9.8039999 1.827 -0.35499999
9.8269997 1.859 -0.35699999
9.835 1.8890001 -0.35800001
9.8620005 1.923 -0.359
9.8699999 1.9529999 -0.36000001
9.875 1.983 -0.36000001
9.8900003 2.0150001 -0.361
9.8999996 2.046 -0.36199999
9.9110003 2.0780001 -0.36300001
9.9209995 2.109 -0.36399999
9.9460001 2.145 -0.366
9.934 2.1719999 -0.366
9.9700003 2.21 -0.36700001
9.9829998 2.243 -0.368
9.9879999 2.2750001 -0.36899999
10.006 2.3099999 -0.37
10.028 2.346 -0.37200001
10.043 2.381 -0.373
10.055 2.415 -0.37400001
10.079 2.4530001 -0.375
10.097 2.4890001 -0.377
10.102 2.523 -0.377
10.115 2.5580001 -0.37799999
10.145 2.598 -0.38
10.127 2.6259999 -0.38
10.163 2.668 -0.382
10.182 2.7060001 -0.38299999
10.213 2.7479999 -0.38499999
10.249 2.7920001 -0.38699999
7.914 2.1819999 -0.29899999
7.6399999 2.131 -0.289
7.546 2.1300001 -0.28600001
7.5250001 2.1500001 -0.28600001
7.507 2.1700001 -0.28600001
7.487 2.1889999 -0.285
7.414 2.1930001 -0.28299999
7.3629999 2.2030001 -0.28200001
7.3270001 2.217 -0.28099999
7.3169999 2.24 -0.28099999
7.316 2.2639999 -0.28099999
7.335 2.296 -0.28200001
7.3779998 2.335 -0.285
7.5050001 2.402 -0.28999999
10.415 3.3329999 -0.40200001
10.44 3.378 -0.40400001
10.442 3.415 -0.405
10.433 3.4489999 -0.405
10.428 3.4849999 -0.40599999
10.447 3.5280001 -0.40700001
10.456 3.569 -0.40799999
10.469 3.6110001 -0.41
10.503 3.661 -0.412
10.515 3.7030001 -0.41299999
10.524 3.7449999 -0.414
10.526 3.7839999 -0.41499999
10.531 3.825 -0.41600001
10.558 3.8740001 -0.41800001
10.548 3.9089999 -0.41800001
10.549 3.9489999 -0.419
10.579 4 -0.421
10.607 4.0500002 -0.42300001
10.633 4.0999999 -0.42399999
10.648 4.1459999 -0.426
10.669 4.1950002 -0.42699999
10.681 4.2410002 -0.42899999
10.691 4.2859998 -0.43000001
10.717 4.3369999 -0.43200001
10.753 4.3940001 -0.43399999
10.771 4.4429998 -0.43599999
10.806 4.4990001 -0.43799999
10.83 4.552 -0.44
10.851 4.6030002 -0.442
10.885 4.6599998 -0.44400001
10.883 4.7020001 -0.44499999
10.916 4.7600002 -0.447
10.928 4.809 -0.44800001
10.959 4.8660002 -0.44999999
11.016 4.9359999 -0.454
11.027 4.9850001 -0.45500001
11.059 5.0440001 -0.45699999
11.069 5.0939999 -0.45899999
11.096 5.152 -0.461
11.117 5.2069998 -0.46200001
11.159 5.2719998 -0.465
11.181 5.329 -0.46700001
11.177 5.3730001 -0.46799999
11.21 5.4359999 -0.47
11.216 5.4850001 -0.47099999
11.225 5.5370002 -0.47299999
11.238 5.5900002 -0.47400001
11.26 5.6490002 -0.47600001
11.278 5.7059999 -0.47799999
11.29 5.7589998 -0.47999999
11.305 5.8150001 -0.48100001
11.312 5.8670001 -0.48300001
11.328 5.9239998 -0.484
11.331 5.974 -0.486
11.361 6.039 -0.48800001
11.354 6.085 -0.48899999
11.367 6.1409998 -0.49000001
11.37 6.1919999 -0.491
11.383 6.25 -0.493
11.39 6.303 -0.495
11.384 6.3499999 -0.495
11.397 6.408 -0.49700001
11.399 6.46 -0.498
11.416 6.52 -0.5
11.43 6.579 -0.50199997
11.434 6.6329999 -0.50300002
11.434 6.684 -0.50400001
11.459 6.7509999 -0.50700003
11.446 6.7950001 -0.50700003
11.461 6.8559999 -0.509
11.46 6.9070001 -0.50999999
11.487 6.9759998 -0.51200002
11.454 7.0089998 -0.51200002
11.455 7.0630002 -0.51300001
11.353 7.052 -0.50999999
9.7880001 6.6339998 -0.45199999
9.7469997 6.6529999 -0.45100001
9.7060003 6.6719999 -0.45100001
9.7250004 6.7319999 -0.45300001
9.6440001 6.9109998 -0.454
9.533 6.8790002 -0.44999999
6.2729998 -4.1469998 -0.126
6.3130002 -4.1329999 -0.127
6.3390002 -4.1110001 -0.127
6.369 -4.0900002 -0.12800001
6.388 -4.0630002 -0.12800001
6.4099998 -4.0380001 -0.12800001
6.427 -4.0100002 -0.12800001
6.4520001 -3.987 -0.12899999
6.4749999 -3.9630001 -0.12899999
6.5009999 -3.941 -0.12899999
6.5149999 -3.911 -0.12899999
6.5349998 -3.8859999 -0.13
6.553 -3.859 -0.13
6.5619998 -3.8269999 -0.13
6.5809999 -3.8010001 -0.13
6.5890002 -3.7679999 -0.13
6.6079998 -3.743 -0.13
6.6329999 -3.721 -0.131
6.6539998 -3.697 -0.131
6.677 -3.674 -0.131
6.6919999 -3.6459999 -0.131
6.71 -3.6199999 -0.131
6.7329998 -3.5969999 -0.132
6.7379999 -3.5650001 -0.132
6.75 -3.536 -0.132
6.776 -3.5150001 -0.132
6.79 -3.4879999 -0.132
6.8039999 -3.461 -0.132
6.8299999 -3.4400001 -0.133
6.836 -3.4089999 -0.132
6.8579998 -3.3859999 -0.133
6.882 -3.3640001 -0.133
6.8969998 -3.3380001 -0.133
6.921 -3.316 -0.133
6.928 -3.2869999 -0.133
6.9549999 -3.267 -0.134
6.9650002 -3.2390001 -0.134
6.98 -3.2130001 -0.134
7.0050001 -3.1919999 -0.134
7.0229998 -3.1689999 -0.13500001
7.0489998 -3.148 -0.13500001
7.0630002 -3.122 -0.13500001
7.0640001 -3.0910001 -0.13500001
7.0890002 -3.0699999 -0.13500001
7.1059999 -3.046 -0.13500001
7.132 -3.026 -0.13600001
7.1420002 -2.9990001 -0.13600001
7.1609998 -2.977 -0.13600001
7.191 -2.9579999 -0.13600001
7.2020001 -2.9319999 -0.13600001
7.2270002 -2.9119999 -0.13699999
7.2329998 -2.8829999 -0.13699999
7.2610002 -2.865 -0.13699999
7.2859998 -2.8440001 -0.13699999
7.2940001 -2.8169999 -0.13699999
7.2979999 -2.789 -0.13699999
7.3299999 -2.7720001 -0.138
7.3369999 -2.7449999 -0.138
7.355 -2.7219999 -0.138
7.382 -2.7030001 -0.138
7.4000001 -2.6800001 -0.139
7.408 -2.654 -0.139
7.4260001 -2.632 -0.139
7.447 -2.6110001 -0.139
7.4860001 -2.596 -0.14
7.4860001 -2.5669999 -0.14
7.5149999 -2.549 -0.14
7.5440001 -2.53 -0.14
7.5419998 -2.5009999 -0.14
7.5640001 -2.4809999 -0.14
7.5949998 -2.4630001 -0.141
7.6100001 -2.4400001 -0.141
7.645 -2.4230001 -0.142
7.651 -2.398 -0.142
7.6810002 -2.3800001 -0.142
7.7030001 -2.359 -0.142
7.717 -2.336 -0.142
7.71 -2.3069999 -0.142
7.7509999 -2.2920001 -0.14300001
7.7789998 -2.273 -0.14300001
7.7810001 -2.247 -0.14300001
7.8169999 -2.2309999 -0.14399999
7.8150001 -2.204 -0.14300001
7.8390002 -2.184 -0.14399999
7.8839998 -2.1700001 -0.145
7.8909998 -2.1459999 -0.145
7.908 -2.1240001 -0.145
7.9180002 -2.1010001 -0.145
7.9359999 -2.0799999 -0.145
7.96 -2.0599999 -0.145
7.9860001 -2.0409999 -0.146
8.0150003 -2.023 -0.146
8.0389996 -2.003 -0.146
8.0480003 -1.98 -0.146
8.0600004 -1.9579999 -0.147
8.085 -1.939 -0.147
8.1120005 -1.92 -0.147
8.1309996 -1.899 -0.148
8.1450005 -1.878 -0.148
8.1610003 -1.8559999 -0.148
8.1750002 -1.835 -0.148
8.2089996 -1.818 -0.148
8.2290001 -1.798 -0.149
8.2519999 -1.778 -0.149
8.2639999 -1.757 -0.149
8.276 -1.735 -0.149
8.2860003 -1.7130001 -0.149
8.323 -1.696 -0.15000001
8.3330002 -1.675 -0.15000001
8.3620005 -1.656 -0.15000001
8.3850002 -1.637 -0.15099999
8.4069996 -1.618 -0.15099999
8.4440002 -1.601 -0.152
8.4499998 -1.579 -0.152
8.4569998 -1.557 -0.152
8.4619999 -1.535 -0.152
8.4890003 -1.516 -0.152
8.5050001 -1.4960001 -0.152
8.5229998 -1.476 -0.152
8.54 -1.456 -0.153
8.5819998 -1.441 -0.153
8.5900002 -1.419 -0.153
8.5950003 -1.397 -0.153
8.6169996 -1.3789999 -0.154
8.632 -1.358 -0.154
8.6680002 -1.342 -0.154
8.6809998 -1.322 -0.154
8.7040005 -1.303 -0.155
8.7130003 -1.2819999 -0.155
8.7229996 -1.262 -0.155
8.7489996 -1.244 -0.155
8.75 -1.222 -0.155
8.776 -1.204 -0.156
8.7849998 -1.184 -0.156
8.8030005 -1.165 -0.156
8.835 -1.148 -0.156
8.8529997 -1.1289999 -0.15700001
8.868 -1.11 -0.15700001
8.8909998 -1.092 -0.15700001
8.8870001 -1.0700001 -0.15700001
8.9099998 -1.052 -0.15700001
8.9359999 -1.034 -0.15800001
8.9370003 -1.0140001 -0.15700001
8.96 -0.99599999 -0.15800001
8.9919996 -0.97899997 -0.15800001
8.9989996 -0.95899999 -0.15800001
9.0430002 -0.94400001 -0.15899999
9.0480003 -0.92400002 -0.15899999
9.0620003 -0.90499997 -0.15899999
9.0799999 -0.88700002 -0.15899999
9.099 -0.86900002 -0.16
9.1129999 -0.85100001 -0.16
9.1359997 -0.833 -0.16
9.1529999 -0.815 -0.16
9.1680002 -0.79699999 -0.161
9.1890001 -0.77899998 -0.161
9.2080002 -0.76200002 -0.161
9.224 -0.74400002 -0.161
9.2410002 -0.72600001 -0.162
9.2609997 -0.708 -0.162
9.2709999 -0.69 -0.162
9.2700005 -0.671 -0.162
9.3009996 -0.65499997 -0.162
9.2919998 -0.63599998 -0.162
9.3240004 -0.61900002 -0.163
9.3470001 -0.602 -0.163
9.3620005 -0.58499998 -0.163
9.3710003 -0.56800002 -0.163
9.4069996 -0.55199999 -0.164
9.4379997 -0.53500003 -0.164
9.4519997 -0.51800001 -0.164
9.4879999 -0.50199997 -0.16500001
9.5410004 -0.48699999 -0.16599999
9.5290003 -0.46900001 -0.16599999
9.5860004 -0.454 -0.16599999
9.5860004 -0.419 -0.16599999
9.6610003 -0.405 -0.168
9.1029997 0.108 -0.28400001
9.1300001 0.125 -0.285
9.1490002 0.142 -0.28600001
9.1639996 0.15899999 -0.28600001
9.1619997 0.176 -0.28600001
9.1719999 0.19400001 -0.287
9.1739998 0.212 -0.287
9.1800003 0.23 -0.287
9.1829996 0.248 -0.28799999
9.1870003 0.266 -0.28799999
9.1999998 0.285 -0.28799999
9.1829996 0.303 -0.28799999
9.2060003 0.32300001 -0.289
9.191 0.34099999 -0.289
9.1969995 0.36000001 -0.289
9.2139997 0.38 -0.28999999
9.2119999 0.40000001 -0.28999999
9.2349997 0.421 -0.29100001
9.2370005 0.44100001 -0.29100001
9.2270002 0.46000001 -0.29100001
9.2419996 0.48100001 -0.292
9.243 0.50199997 -0.292
9.2639999 0.52399999 -0.29300001
9.2690001 0.54500002 -0.29300001
9.283 0.56699997 -0.294
9.2840004 0.588 -0.294
9.2950001 0.61000001 -0.29499999
9.3190002 0.634 -0.296
9.3190002 0.65600002 -0.296
9.323 0.67799997 -0.29699999
9.335 0.70099998 -0.29699999
9.3280001 0.72299999 -0.29699999
9.3529997 0.74699998 -0.29800001
9.3610001 0.77100003 -0.29899999
9.375 0.79500002 -0.30000001
9.3669996 0.81699997 -0.30000001
9.3879995 0.84200001 -0.301
9.4020004 0.86699998 -0.301
9.4060001 0.89099997 -0.30199999
9.4320002 0.917 -0.303
9.4359999 0.94199997 -0.303
9.4490004 0.96700001 -0.30399999
9.4790001 0.995 -0.30500001
9.4879999 1.02 -0.30599999
9.5 1.0470001 -0.30700001
9.5089998 1.073 -0.30700001
9.5310001 1.1 -0.308
9.5430002 1.127 -0.30899999
9.552 1.153 -0.31
9.5609999 1.1799999 -0.31
9.5699997 1.207 -0.31099999
9.5930004 1.2359999 -0.31200001
9.5889997 1.262 -0.31200001
9.6029997 1.29 -0.31299999
9.632 1.321 -0.31400001
9.6389999 1.348 -0.315
9.6529999 1.377 -0.31600001
9.6739998 1.4069999 -0.317
9.6940002 1.437 -0.31799999
9.7139997 1.4680001 -0.31900001
9.7309999 1.498 -0.31999999
9.7379999 1.527 -0.31999999
9.7559996 1.558 -0.32100001
9.7860003 1.591 -0.32300001
9.8199997 1.625 -0.324
9.8269997 1.654 -0.32499999
9.835 1.6849999 -0.32499999
9.8730001 1.72 -0.32699999
9.8579998 1.7460001 -0.32699999
9.9029999 1.784 -0.329
9.9090004 1.814 -0.33000001
9.915 1.845 -0.33000001
9.9370003 1.8789999 -0.331
9.9729996 1.916 -0.333
9.9890003 1.949 -0.33399999
10 1.982 -0.33500001
10.015 2.0150001 -0.336
10.017 2.046 -0.336
10.038 2.0810001 -0.338
10.061 2.1170001 -0.33899999
10.057 2.1470001 -0.33899999
10.086 2.1849999 -0.34099999
10.095 2.2179999 -0.34099999
10.099 2.2509999 -0.34200001
10.12 2.2869999 -0.34299999
10.151 2.326 -0.345
10.158 2.3599999 -0.345
10.174 2.3959999 -0.34599999
10.188 2.431 -0.347
10.203 2.4679999 -0.34799999
10.219 2.5039999 -0.34999999
10.24 2.5420001 -0.35100001
10.241 2.575 -0.35100001
10.248 2.6099999 -0.352
10.283 2.6530001 -0.354
10.304 2.6919999 -0.35499999
10.342 2.7349999 -0.35699999
10.365 2.7750001 -0.35800001
10.406 2.8199999 -0.36000001
7.7989998 2.1389999 -0.27000001
7.6149998 2.1140001 -0.264
7.5510001 2.1210001 -0.26199999
7.5240002 2.1389999 -0.26199999
7.5159998 2.1619999 -0.26199999
7.5180001 2.187 -0.26300001
7.4489999 2.1919999 -0.26100001
7.3730001 2.1949999 -0.25799999
7.3410001 2.21 -0.25799999
7.3189998 2.2279999 -0.257
7.3260002 2.2550001 -0.25799999
7.3280001 2.28 -0.25799999
7.3379998 2.3080001 -0.259
7.408 2.3559999 -0.26199999
10.641 3.3840001 -0.377
7.6609998 2.4619999 -0.27200001
10.616 3.4119999 -0.37599999
10.664 3.464 -0.37900001
10.638 3.4920001 -0.37900001
10.662 3.536 -0.38
10.651 3.569 -0.38
10.651 3.6059999 -0.38100001
10.654 3.6440001 -0.382
10.667 3.6860001 -0.38299999
10.67 3.724 -0.384
10.658 3.757 -0.384
10.673 3.799 -0.38499999
10.674 3.8369999 -0.38600001
10.697 3.8829999 -0.38699999
10.713 3.9260001 -0.38800001
10.725 3.9679999 -0.38999999
10.745 4.0139999 -0.391
10.765 4.059 -0.39199999
10.777 4.1020002 -0.39399999
10.789 4.145 -0.39500001
10.803 4.1880002 -0.396
10.829 4.237 -0.398
10.864 4.289 -0.40000001
10.868 4.3299999 -0.40000001
10.89 4.3769999 -0.40200001
10.893 4.4169998 -0.403
10.913 4.4650002 -0.40400001
10.927 4.5100002 -0.40599999
10.974 4.5689998 -0.40799999
10.991 4.6149998 -0.40900001
11.034 4.6729999 -0.412
11.051 4.7199998 -0.41299999
11.105 4.783 -0.41600001
11.112 4.8260002 -0.417
11.138 4.8779998 -0.419
11.156 4.9260001 -0.41999999
11.193 4.9829998 -0.42199999
11.212 5.0320001 -0.42399999
11.216 5.0749998 -0.42500001
11.253 5.132 -0.42699999
11.262 5.177 -0.428
11.293 5.2319999 -0.43000001
11.323 5.2880001 -0.43200001
11.32 5.3280001 -0.433
11.329 5.3730001 -0.43399999
11.359 5.4289999 -0.43599999
11.388 5.4840002 -0.43799999
11.393 5.5279999 -0.43900001
11.437 5.5910001 -0.442
11.45 5.6399999 -0.44299999
11.441 5.677 -0.44400001
11.469 5.7329998 -0.44600001
11.486 5.783 -0.447
11.497 5.8309999 -0.449
11.519 5.8839998 -0.44999999
11.536 5.9349999 -0.45199999
11.556 5.9879999 -0.454
11.569 6.0370002 -0.45500001
11.562 6.0760002 -0.456
11.594 6.1350002 -0.458
11.58 6.1700001 -0.458
11.604 6.2249999 -0.46000001
11.651 6.2919998 -0.463
11.651 6.335 -0.46399999
11.643 6.3730001 -0.46399999
11.676 6.434 -0.46700001
11.695 6.4860001 -0.46799999
11.711 6.5380001 -0.47
11.728 6.5900002 -0.472
11.755 6.6479998 -0.47400001
11.773 6.7010002 -0.47499999
11.802 6.7600002 -0.477
11.816 6.8109999 -0.479
11.835 6.8649998 -0.48100001
11.836 6.908 -0.48199999
11.861 6.9650002 -0.484
11.909 7.0370002 -0.48699999
11.919 7.085 -0.48800001
11.99 7.171 -0.49200001
9.7130003 6.7470002 -0.42300001
9.6660004 6.7449999 -0.42199999
9.6470003 6.7639999 -0.42199999
9.6490002 6.796 -0.42300001
9.5860004 6.7820001 -0.421
9.552 6.789 -0.41999999
9.526 6.8000002 -0.41999999
9.4870005 6.802 -0.419
9.4680004 6.8179998 -0.419
9.4610004 6.842 -0.41999999
9.4519997 6.8649998 -0.41999999
9.4309998 6.8790002 -0.41999999
6.7090001 -3.9319999 -0.117
6.7179999 -3.918 -0.117
6.7399998 -3.9119999 -0.117
6.7449999 -3.8959999 -0.117
6.743 -3.8759999 -0.117
6.763 -3.868 -0.117
6.7709999 -3.8540001 -0.117
6.7859998 -3.8429999 -0.117
6.7859998 -3.8239999 -0.117
6.7839999 -3.8039999 -0.117
6.7909999 -3.789 -0.117
6.8119998 -3.7809999 -0.117
6.8270001 -3.77 -0.118
6.8340001 -3.7550001 -0.118
6.8319998 -3.734 -0.118
6.848 -3.723 -0.118
6.8460002 -3.7030001 -0.118
6.8610001 -3.6919999 -0.118
6.868 -3.6760001 -0.118
6.8779998 -3.661 -0.118
6.8720002 -3.6389999 -0.118
6.888 -3.628 -0.118
6.9000001 -3.6140001 -0.118
6.9050002 -3.5969999 -0.118
6.9180002 -3.5840001 -0.118
6.9219999 -3.566 -0.118
6.9349999 -3.5539999 -0.118
6.9450002 -3.539 -0.118
6.9320002 -3.513 -0.118
6.9460001 -3.5 -0.118
6.9580002 -3.4860001 -0.118
6.9689999 -3.471 -0.118
6.9850001 -3.4590001 -0.118
6.9899998 -3.4419999 -0.118
7.0040002 -3.4289999 -0.119
7.0170002 -3.415 -0.119
7.033 -3.4030001 -0.119
7.0430002 -3.3870001 -0.119
7.059 -3.375 -0.119
7.0760002 -3.3629999 -0.119
7.0760002 -3.342 -0.119
7.085 -3.326 -0.119
7.0960002 -3.3110001 -0.119
7.099 -3.2920001 -0.119
7.1149998 -3.279 -0.12
7.1360002 -3.2679999 -0.12
7.1430001 -3.2509999 -0.12
7.1479998 -3.233 -0.12
7.1599998 -3.217 -0.12
7.1799998 -3.2060001 -0.12
7.1890001 -3.1889999 -0.12
7.1960001 -3.171 -0.12
7.198 -3.152 -0.12
7.2140002 -3.138 -0.12
7.23 -3.1240001 -0.121
7.2319999 -3.1040001 -0.121
7.2470002 -3.0899999 -0.121
7.2610002 -3.075 -0.121
7.2579999 -3.053 -0.121
7.289 -3.0450001 -0.121
7.2909999 -3.0250001 -0.121
7.316 -3.0139999 -0.121
7.3260002 -2.997 -0.121
7.3390002 -2.9809999 -0.121
7.3449998 -2.9630001 -0.122
7.3579998 -2.947 -0.122
7.3740001 -2.9319999 -0.122
7.3699999 -2.9089999 -0.122
7.3979998 -2.8989999 -0.122
7.4219999 -2.8870001 -0.122
7.427 -2.868 -0.122
7.4359999 -2.8499999 -0.122
7.4549999 -2.836 -0.123
7.448 -2.8110001 -0.122
7.4569998 -2.793 -0.122
7.4840002 -2.7820001 -0.123
7.4980001 -2.7650001 -0.123
7.5050001 -2.7460001 -0.123
7.533 -2.7349999 -0.123
7.546 -2.7179999 -0.123
7.559 -2.701 -0.123
7.5739999 -2.6849999 -0.124
7.5830002 -2.6659999 -0.124
7.585 -2.645 -0.124
7.6279998 -2.638 -0.124
7.6300001 -2.6170001 -0.124
7.6199999 -2.5910001 -0.124
7.6479998 -2.579 -0.124
7.6459999 -2.556 -0.124
7.6810002 -2.546 -0.125
7.6880002 -2.526 -0.125
7.7010002 -2.5079999 -0.125
7.724 -2.494 -0.125
7.7360001 -2.4749999 -0.125
7.7410002 -2.4549999 -0.125
7.7579999 -2.438 -0.125
7.7680001 -2.4189999 -0.125
7.8049998 -2.408 -0.126
7.7919998 -2.381 -0.125
7.8280001 -2.3699999 -0.126
7.8330002 -2.349 -0.126
7.8530002 -2.3329999 -0.126
7.8709998 -2.3150001 -0.126
7.8790002 -2.2950001 -0.126
7.8990002 -2.2780001 -0.127
7.9169998 -2.2609999 -0.127
7.9180002 -2.2379999 -0.127
7.941 -2.2219999 -0.127
7.9489999 -2.2019999 -0.127
7.9780002 -2.187 -0.127
8.0039997 -2.171 -0.12800001
8.0229998 -2.1530001 -0.12800001
8.033 -2.1329999 -0.12800001
8.0360003 -2.1110001 -0.12800001
8.0539999 -2.092 -0.12800001
8.0880003 -2.0780001 -0.12800001
8.0860004 -2.0539999 -0.12800001
8.1059999 -2.036 -0.12800001
8.1230001 -2.017 -0.12899999
8.1450005 -1.999 -0.12899999
8.1759996 -1.984 -0.12899999
8.1899996 -1.964 -0.12899999
8.1960001 -1.942 -0.12899999
8.2159996 -1.923 -0.13
8.2480001 -1.9069999 -0.13
8.2550001 -1.885 -0.13
8.2860003 -1.869 -0.13
8.2980003 -1.848 -0.13
8.309 -1.826 -0.13
8.3140001 -1.804 -0.13
8.3339996 -1.784 -0.131
8.3529997 -1.7640001 -0.131
8.375 -1.745 -0.131
8.4029999 -1.727 -0.131
8.4230003 -1.707 -0.132
8.4250002 -1.684 -0.132
8.4379997 -1.6619999 -0.132
8.4709997 -1.645 -0.132
8.4989996 -1.626 -0.132
8.5220003 -1.6059999 -0.133
8.533 -1.584 -0.133
8.5530005 -1.563 -0.133
8.5629997 -1.54 -0.133
8.5909996 -1.521 -0.133
8.6090002 -1.5 -0.133
8.6169996 -1.477 -0.133
8.6359997 -1.455 -0.134
8.6750002 -1.437 -0.134
8.6990004 -1.416 -0.134
8.7130003 -1.3940001 -0.134
8.7299995 -1.372 -0.13500001
8.7620001 -1.352 -0.13500001
8.7880001 -1.331 -0.13500001
8.7989998 -1.308 -0.13500001
8.816 -1.285 -0.13500001
8.8459997 -1.265 -0.13600001
8.8649998 -1.242 -0.13600001
8.8979998 -1.221 -0.13600001
8.9139996 -1.198 -0.13600001
8.9180002 -1.173 -0.13600001
8.948 -1.152 -0.13699999
8.9820004 -1.131 -0.13699999
9.0120001 -1.109 -0.138
9.0209999 -1.085 -0.138
9.0480003 -1.062 -0.138
9.0869999 -1.041 -0.138
9.118 -1.0190001 -0.139
9.125 -0.99400002 -0.139
9.1529999 -0.97100002 -0.139
9.1890001 -0.949 -0.139
9.1969995 -0.92299998 -0.139
9.2390003 -0.90100002 -0.14
9.2700005 -0.87800002 -0.14
9.2840004 -0.85299999 -0.14
9.3170004 -0.82999998 -0.141
9.3459997 -0.80599999 -0.141
9.3850002 -0.78299999 -0.141
9.3640003 -0.75400001 -0.141
9.3739996 -0.72899997 -0.141
9.427 -0.70599997 -0.142
9.4510002 -0.68099999 -0.142
9.4879999 -0.65700001 -0.142
9.559 -0.63499999 -0.14300001
9.599 -0.61000001 -0.14399999
9.6230001 -0.58499998 -0.14399999
9.6800003 -0.56099999 -0.145
9.7250004 -0.53600001 -0.145
9.7489996 -0.509 -0.146
9.5869999 0.192 -0.27599999
9.5769997 0.204 -0.27599999
9.5679998 0.21600001 -0.27500001
9.5469999 0.228 -0.27500001
9.5349998 0.241 -0.27500001
9.526 0.25400001 -0.27500001
9.5139999 0.26699999 -0.27399999
9.5100002 0.28 -0.27399999
9.4949999 0.29300001 -0.27399999
9.4729996 0.30599999 -0.27399999
9.4779997 0.32100001 -0.27399999
9.4790001 0.33500001 -0.27399999
9.4870005 0.34999999 -0.27500001
9.4540005 0.36300001 -0.27399999
9.4709997 0.37900001 -0.27399999
9.4750004 0.39399999 -0.27500001
9.4899998 0.41 -0.27500001
9.4750004 0.42500001 -0.27500001
9.474 0.44100001 -0.27500001
9.4729996 0.45699999 -0.27500001
9.4659996 0.47299999 -0.27500001
9.4779997 0.49000001 -0.27599999
9.5 0.50800002 -0.27700001
9.5019999 0.52499998 -0.27700001
9.5019999 0.542 -0.27700001
9.5179996 0.56 -0.278
9.5139999 0.57800001 -0.278
9.5310001 0.597 -0.27900001
9.5279999 0.61400002 -0.27900001
9.552 0.634 -0.28
9.5609999 0.653 -0.28
9.5690002 0.67199999 -0.28099999
9.5579996 0.69 -0.28099999
9.5710001 0.70999998 -0.28099999
9.5860004 0.73100001 -0.28200001
9.5900002 0.75099999 -0.28200001
9.6169996 0.773 -0.28299999
9.6230001 0.79299998 -0.28400001
9.6120005 0.81199998 -0.28400001
9.6190004 0.833 -0.28400001
9.632 0.85500002 -0.285
9.6429996 0.87599999 -0.285
9.6499996 0.898 -0.28600001
9.6479998 0.91900003 -0.28600001
9.6499996 0.94 -0.28600001
9.6969995 0.96700001 -0.28799999
9.7130003 0.99000001 -0.289
9.7130003 1.012 -0.289
9.7379999 1.0369999 -0.28999999
9.7390003 1.059 -0.29100001
9.7530003 1.084 -0.29100001
9.7550001 1.107 -0.292
9.7519999 1.1289999 -0.292
9.7629995 1.154 -0.29300001
9.7729998 1.179 -0.29300001
9.7670002 1.202 -0.29300001
9.7939997 1.229 -0.294
9.79 1.252 -0.29499999
9.809 1.279 -0.296
9.8260002 1.3049999 -0.296
9.8199997 1.329 -0.29699999
9.8409996 1.357 -0.29800001
9.8669996 1.386 -0.29899999
9.8719997 1.4119999 -0.29899999
9.8769999 1.438 -0.30000001
9.8999996 1.467 -0.301
9.9169998 1.495 -0.30199999
9.9230003 1.522 -0.30199999
9.9399996 1.551 -0.303
9.9519997 1.58 -0.30399999
9.9630003 1.608 -0.30500001
9.9829998 1.638 -0.30599999
10.001 1.669 -0.30700001
9.9949999 1.6950001 -0.30700001
10.003 1.724 -0.308
10.016 1.7539999 -0.308
10.041 1.786 -0.30899999
10.057 1.817 -0.31
10.058 1.846 -0.31099999
10.079 1.878 -0.31200001
10.089 1.909 -0.31299999
10.103 1.9400001 -0.31400001
10.131 1.975 -0.315
10.149 2.0079999 -0.31600001
10.172 2.0420001 -0.317
10.189 2.076 -0.31799999
10.187 2.105 -0.31799999
10.195 2.1370001 -0.31900001
10.225 2.174 -0.32100001
10.242 2.2079999 -0.322
10.25 2.2409999 -0.322
10.269 2.276 -0.32300001
10.284 2.3110001 -0.324
10.295 2.345 -0.32499999
10.316 2.381 -0.32600001
10.327 2.4159999 -0.32699999
10.341 2.451 -0.32800001
10.354 2.487 -0.329
10.364 2.5220001 -0.33000001
10.384 2.5599999 -0.331
10.372 2.589 -0.331
10.382 2.625 -0.33199999
10.414 2.6670001 -0.33399999
10.425 2.7030001 -0.33500001
10.458 2.7449999 -0.336
10.472 2.783 -0.33700001
10.506 2.826 -0.33899999
10.515 2.8640001 -0.34
10.546 2.9070001 -0.34099999
7.908 2.2060001 -0.25600001
7.631 2.154 -0.248
7.5549998 2.158 -0.24600001
7.5209999 2.1730001 -0.245
7.5139999 2.197 -0.245
7.527 2.2260001 -0.24600001
7.494 2.2420001 -0.245
7.375 2.2320001 -0.242
7.3340001 2.244 -0.241
7.3099999 2.2620001 -0.23999999
7.302 2.2850001 -0.241
7.3039999 2.3110001 -0.241
7.3330002 2.346 -0.243
7.388 2.3889999 -0.245
10.842 3.507 -0.359
10.846 3.546 -0.36000001
10.866 3.5910001 -0.36199999
10.88 3.635 -0.36300001
10.858 3.6659999 -0.36300001
10.862 3.7060001 -0.36300001
10.869 3.7479999 -0.36399999
10.852 3.7809999 -0.36399999
10.838 3.816 -0.36500001
10.864 3.865 -0.366
10.872 3.908 -0.36700001
10.904 3.9590001 -0.36899999
10.918 4.0050001 -0.37
10.93 4.0500002 -0.37099999
10.931 4.0910001 -0.37200001
10.949 4.1389999 -0.373
10.969 4.1869998 -0.375
10.977 4.2319999 -0.37599999
11.017 4.289 -0.37799999
11.088 4.3590002 -0.38100001
11.102 4.4070001 -0.382
11.096 4.447 -0.38299999
11.132 4.5040002 -0.38499999
11.169 4.5619998 -0.38699999
11.195 4.6160002 -0.389
11.229 4.6739998 -0.391
11.278 4.7379999 -0.39300001
11.312 4.7969999 -0.39500001
11.31 4.8410001 -0.396
11.335 4.8959999 -0.39700001
11.369 4.9559999 -0.39899999
11.389 5.0100002 -0.40099999
11.412 5.066 -0.403
11.424 5.1170001 -0.40400001
11.464 5.1810002 -0.40599999
11.48 5.2350001 -0.40799999
11.504 5.2930002 -0.40900001
11.529 5.3509998 -0.41100001
11.566 5.415 -0.41299999
11.573 5.467 -0.414
11.579 5.5170002 -0.41600001
11.597 5.573 -0.417
11.616 5.631 -0.419
11.651 5.6960001 -0.421
11.664 5.7509999 -0.42199999
11.679 5.8080001 -0.42399999
11.683 5.8590002 -0.42500001
11.688 5.9109998 -0.426
11.713 5.973 -0.428
11.725 6.0289998 -0.42899999
11.751 6.0929999 -0.43099999
11.757 6.1459999 -0.43200001
11.791 6.2150002 -0.43399999
11.805 6.2729998 -0.43599999
11.844 6.3460002 -0.43799999
11.848 6.3990002 -0.44
11.88 6.4679999 -0.442
11.882 6.5209999 -0.44299999
11.912 6.5900002 -0.44499999
11.936 6.6560001 -0.447
11.948 6.7160001 -0.44800001
11.957 6.7740002 -0.44999999
11.984 6.8429999 -0.45199999
12.01 6.9109998 -0.454
12.014 6.967 -0.45500001
12.019 7.0240002 -0.456
12.059 7.1020002 -0.45899999
12.148 7.21 -0.463
9.8889999 6.6059999 -0.39199999
9.8500004 6.6269999 -0.391
9.5950003 6.875 -0.38999999
9.5139999 6.8629999 -0.38699999
6.4219999 -4.243 -0.097999997
6.448 -4.2189999 -0.097999997
6.4829998 -4.2020001 -0.097999997
6.506 -4.177 -0.098999999
6.527 -4.1500001 -0.098999999
6.5539999 -4.1269999 -0.098999999
6.5689998 -4.0970001 -0.098999999
6.586 -4.0679998 -0.098999999
6.6129999 -4.046 -0.098999999
6.6279998 -4.0159998 -0.098999999
6.645 -3.987 -0.1
6.6729999 -3.9660001 -0.1
6.6820002 -3.9330001 -0.1
6.7059999 -3.9089999 -0.1
6.7360001 -3.888 -0.1
6.7490001 -3.858 -0.1
6.757 -3.826 -0.1
6.7789998 -3.8010001 -0.1
6.7839999 -3.767 -0.1
6.809 -3.744 -0.101
6.8280001 -3.7179999 -0.101
6.8400002 -3.6889999 -0.101
6.8660002 -3.6670001 -0.101
6.875 -3.6359999 -0.101
6.8899999 -3.608 -0.101
6.9060001 -3.5810001 -0.101
6.9190001 -3.553 -0.101
6.9460001 -3.5309999 -0.101
6.9580002 -3.503 -0.102
6.9879999 -3.483 -0.102
7.0009999 -3.4560001 -0.102
7.026 -3.4330001 -0.102
7.0599999 -3.4159999 -0.102
7.0700002 -3.3870001 -0.102
7.086 -3.3610001 -0.103
7.1040001 -3.336 -0.103
7.1240001 -3.3110001 -0.103
7.1350002 -3.2839999 -0.103
7.151 -3.2579999 -0.103
7.1799998 -3.2379999 -0.103
7.2010002 -3.2149999 -0.103
7.2199998 -3.191 -0.104
7.2259998 -3.161 -0.104
7.2410002 -3.135 -0.104
7.2729998 -3.1170001 -0.104
7.283 -3.0899999 -0.104
7.303 -3.066 -0.104
7.3200002 -3.0420001 -0.104
7.349 -3.0220001 -0.104
7.3709998 -3 -0.105
7.3979998 -2.98 -0.105
7.4039998 -2.951 -0.105
7.4089999 -2.9219999 -0.105
7.4380002 -2.9030001 -0.105
7.4629998 -2.882 -0.105
7.4899998 -2.862 -0.106
7.5019999 -2.836 -0.106
7.5079999 -2.8080001 -0.106
7.5359998 -2.789 -0.106
7.5580001 -2.767 -0.106
7.5809999 -2.7449999 -0.106
7.6040001 -2.724 -0.106
7.6149998 -2.698 -0.107
7.652 -2.6819999 -0.107
7.6729999 -2.6600001 -0.107
7.6919999 -2.6370001 -0.107
7.7119999 -2.615 -0.107
7.7280002 -2.5910001 -0.108
7.7360001 -2.5650001 -0.108
7.7579999 -2.5439999 -0.108
7.7789998 -2.5220001 -0.108
7.7950001 -2.4990001 -0.108
7.8270001 -2.4809999 -0.108
7.8460002 -2.4579999 -0.108
7.8800001 -2.441 -0.109
7.8909998 -2.4159999 -0.109
7.9180002 -2.3959999 -0.109
7.9310002 -2.3729999 -0.109
7.9660001 -2.355 -0.11
7.9879999 -2.3340001 -0.11
7.9920001 -2.3080001 -0.11
8.0299997 -2.2909999 -0.11
8.0410004 -2.267 -0.11
8.059 -2.2449999 -0.11
8.0930004 -2.227 -0.111
8.099 -2.2019999 -0.111
8.1140003 -2.1789999 -0.111
8.1330004 -2.158 -0.111
8.1540003 -2.1370001 -0.111
8.1689997 -2.1140001 -0.111
8.1949997 -2.0940001 -0.111
8.2159996 -2.073 -0.112
8.2440004 -2.0539999 -0.112
8.2690001 -2.0339999 -0.112
8.2819996 -2.0120001 -0.112
8.316 -1.994 -0.113
8.3290005 -1.971 -0.113
8.368 -1.955 -0.113
8.375 -1.931 -0.113
8.3809996 -1.906 -0.113
8.4060001 -1.887 -0.113
8.4399996 -1.869 -0.114
8.4639997 -1.849 -0.114
8.4709997 -1.826 -0.114
8.493 -1.8049999 -0.114
8.507 -1.783 -0.114
8.5290003 -1.763 -0.114
8.5489998 -1.743 -0.115
8.5530005 -1.719 -0.114
8.5869999 -1.701 -0.115
8.6190004 -1.683 -0.115
8.6219997 -1.659 -0.115
8.6450005 -1.6390001 -0.115
8.6590004 -1.618 -0.115
8.6750002 -1.597 -0.116
8.6730003 -1.573 -0.115
8.7069998 -1.5549999 -0.116
8.7309999 -1.536 -0.116
8.7379999 -1.5140001 -0.116
8.7629995 -1.495 -0.116
8.7810001 -1.474 -0.116
8.8050003 -1.455 -0.117
8.8339996 -1.437 -0.117
8.8400002 -1.415 -0.117
8.8640003 -1.395 -0.117
8.8950005 -1.377 -0.117
8.8920002 -1.354 -0.117
8.9099998 -1.334 -0.117
8.9280005 -1.314 -0.118
8.9460001 -1.295 -0.118
8.9580002 -1.274 -0.118
8.9809999 -1.255 -0.118
9.0019999 -1.2359999 -0.118
9.0349998 -1.2180001 -0.119
9.0480003 -1.198 -0.119
9.0640001 -1.178 -0.119
9.0799999 -1.158 -0.119
9.0979996 -1.1390001 -0.119
9.1059999 -1.118 -0.119
9.132 -1.1 -0.119
9.1560001 -1.082 -0.12
9.1780005 -1.063 -0.12
9.1960001 -1.044 -0.12
9.2250004 -1.026 -0.12
9.2480001 -1.008 -0.121
9.2510004 -0.98699999 -0.12
9.2609997 -0.96700001 -0.121
9.2810001 -0.949 -0.121
9.2860003 -0.92900002 -0.121
9.3219995 -0.912 -0.121
9.3330002 -0.89200002 -0.121
9.3409996 -0.87300003 -0.121
9.3590002 -0.85399997 -0.121
9.3800001 -0.83600003 -0.122
9.3879995 -0.81699997 -0.122
9.4180002 -0.80000001 -0.122
9.4569998 -0.78299999 -0.122
9.4860001 -0.76599997 -0.123
9.4960003 -0.74699998 -0.123
9.54 -0.73100001 -0.123
9.5360003 -0.71100003 -0.123
9.5579996 -0.69300002 -0.123
9.5769997 -0.67500001 -0.123
9.5900002 -0.65700001 -0.124
9.5970001 -0.63800001 -0.124
9.6230001 -0.62099999 -0.124
9.6280003 -0.60299999 -0.124
9.6850004 -0.58700001 -0.125
9.6809998 -0.56900001 -0.124
9.7089996 -0.55199999 -0.125
9.7449999 -0.53500003 -0.125
9.7910004 -0.51899999 -0.126
9.8400002 -0.50300002 -0.126
9.8439999 -0.48500001 -0.126
9.9020004 -0.47 -0.127
9.3579998 0.113 -0.243
9.3959999 0.13 -0.245
9.4090004 0.147 -0.245
9.4020004 0.16500001 -0.245
9.4200001 0.183 -0.24600001
9.408 0.2 -0.24600001
9.4069996 0.21799999 -0.24600001
9.4069996 0.237 -0.24600001
9.4130001 0.255 -0.24600001
9.4200001 0.27399999 -0.24699999
9.4180002 0.29300001 -0.24699999
9.4110003 0.31200001 -0.24699999
9.4130001 0.331 -0.24699999
9.4160004 0.34999999 -0.24699999
9.427 0.37 -0.248
9.4429998 0.391 -0.248
9.4280005 0.41 -0.248
9.4420004 0.43099999 -0.249
9.4530001 0.45199999 -0.249
9.4540005 0.47299999 -0.249
9.4510002 0.493 -0.25
9.4709997 0.51499999 -0.25
9.4729996 0.537 -0.25099999
9.4960003 0.55900002 -0.25099999
9.4989996 0.58099997 -0.252
9.5109997 0.60299999 -0.252
9.5059996 0.625 -0.252
9.5249996 0.648 -0.25299999
9.5480003 0.67199999 -0.25400001
9.552 0.69499999 -0.25400001
9.5539999 0.71799999 -0.255
9.566 0.74199998 -0.255
9.5790005 0.76599997 -0.25600001
9.5880003 0.79000002 -0.25600001
9.6140003 0.81599998 -0.257
9.6190004 0.83999997 -0.25799999
9.6370001 0.86500001 -0.25799999
9.6239996 0.88800001 -0.25799999
9.6389999 0.91399997 -0.259
9.6639996 0.94099998 -0.25999999
9.6680002 0.96499997 -0.25999999
9.6850004 0.99199998 -0.26100001
9.7069998 1.0190001 -0.26199999
9.743 1.048 -0.26300001
9.7559996 1.075 -0.264
9.7589998 1.101 -0.264
9.7740002 1.1289999 -0.26499999
9.7849998 1.156 -0.266
9.7670002 1.1799999 -0.26499999
9.79 1.209 -0.266
9.8059998 1.237 -0.26699999
9.8310003 1.267 -0.26800001
9.8439999 1.296 -0.26899999
9.8579998 1.325 -0.27000001
9.8769999 1.354 -0.27000001
9.8920002 1.3839999 -0.271
9.915 1.415 -0.27200001
9.9289999 1.444 -0.273
9.9490004 1.475 -0.27399999
9.9540005 1.5039999 -0.27399999
9.9750004 1.536 -0.27500001
9.9940004 1.567 -0.27599999
10.018 1.6 -0.27700001
10.04 1.632 -0.278
10.063 1.665 -0.27900001
10.064 1.694 -0.27900001
10.086 1.727 -0.28
10.086 1.757 -0.28099999
10.104 1.79 -0.28200001
10.124 1.823 -0.28299999
10.177 1.863 -0.285
10.177 1.8940001 -0.285
10.211 1.9299999 -0.28600001
10.223 1.964 -0.287
10.249 2 -0.28799999
10.284 2.0380001 -0.28999999
10.319 2.076 -0.29100001
