# .PCD v0.7 - Point Cloud Data file format
VERSION 0.7
FIELDS x y z
SIZE 4 4 4
TYPE F F F
COUNT 1 1 1
WIDTH 2065
HEIGHT 1
VIEWPOINT 0 0 0 1 0 0 0
POINTS 2065
DATA ascii
10.424 -1.3890001 1.001
12.449 -1.622 1.1950001
12.405 -1.581 1.191
12.411 -1.545 1.191
12.409 -1.5089999 1.191
12.444 -1.478 1.194
12.474 -1.4450001 1.196
12.511 -1.413 1.199
12.566 -1.383 1.204
12.633 -1.354 1.21
12.883 -1.3430001 1.234
12.952 -0.45300001 1.233
12.847 -0.412 1.222
12.745 -0.37200001 1.212
12.715 -0.33500001 1.209
12.69 -0.29699999 1.206
12.697 -0.26100001 1.207
12.714 -0.22499999 1.2079999
12.718 -0.18799999 1.2079999
12.763 -0.152 1.212
12.845 -0.116 1.219
13.097 -0.079999998 1.243
13.229 0.82300001 1.207
13.153 0.84200001 1.2
13.151 0.866 1.2
13.092 0.88599998 1.194
13.037 0.90600002 1.189
13.009 0.92900002 1.187
12.993 0.95200002 1.186
12.987 0.977 1.1849999
12.989 1.002 1.186
13.023 1.03 1.189
13.076 1.0599999 1.194
13.099 1.0880001 1.196
13.117 1.1160001 1.198
13.115 1.143 1.198
13.1 1.168 1.197
13.139 1.199 1.201
13.197 1.232 1.206
13.155 1.256 1.2029999
13.23 1.2920001 1.21
13.215 1.348 1.209
22.921 2.3380001 2.098
13.245 1.38 1.212
22.865999 2.382 2.0929999
22.830999 2.4289999 2.0910001
22.819 2.4790001 2.0899999
22.825001 2.5320001 2.0910001
22.834 2.5840001 2.0929999
22.843 2.638 2.0940001
22.854 2.6919999 2.096
22.848 2.7449999 2.096
22.851 2.799 2.0969999
22.862 2.855 2.099
22.871 2.9100001 2.1010001
22.863001 2.964 2.1010001
22.874001 3.0209999 2.1029999
22.884001 3.079 2.105
11.344 1.554 1.044
22.933001 3.142 2.1099999
11.16 1.556 1.027
11.085 1.574 1.021
11.007 1.59 1.0140001
10.967 1.612 1.011
10.942 1.637 1.0089999
10.915 1.661 1.007
10.907 1.688 1.007
10.894 1.714 1.006
10.901 1.744 1.007
10.899 1.772 1.008
10.883 1.799 1.007
10.858 1.824 1.005
10.847 1.851 1.005
10.839 1.8789999 1.005
10.876 1.915 1.0089999
23.243 4.0939999 2.1559999
11.006 1.969 1.021
23.007 4.1149998 2.135
22.975 4.1729999 2.1340001
22.973 4.237 2.135
7.5139999 1.4069999 0.69800001
23.073 4.3200002 2.1459999
7.3769999 1.402 0.68599999
7.3119998 1.41 0.68099999
7.2880001 1.426 0.67900002
7.257 1.441 0.676
7.2470002 1.46 0.676
7.25 1.4809999 0.67699999
7.2340002 1.499 0.676
7.2550001 1.525 0.67799997
7.2870002 1.553 0.68199998
7.3049998 1.579 0.68400002
7.3150001 1.603 0.685
7.3039999 1.622 0.685
7.3260002 1.649 0.68699998
7.3530002 1.678 0.69099998
7.415 1.714 0.69700003
7.4949999 1.756 0.70499998
11.383 6.3390002 1.194
11.238 6.3080001 1.1799999
11.191 6.3319998 1.177
11.185 6.3779998 1.179
11.179 6.4250002 1.1799999
11.185 6.4790001 1.183
11.234 6.5580001 1.1900001
29.416 19.218 3.2019999
29.26 19.254999 3.191
28.358 19.618999 3.1340001
28.184999 19.636999 3.1199999
27.992001 19.639999 3.105
27.905001 19.716 3.1010001
27.757999 19.749001 3.0910001
27.593 19.768 3.079
27.414 19.775999 3.0650001
10.234 -1.6950001 0.99400002
10.245 -1.67 0.995
10.259 -1.646 0.99599999
10.336 -1.632 1.0039999
10.32 -1.602 1.002
10.27 -1.569 0.99699998
10.266 -1.5420001 0.99699998
10.253 -1.5140001 0.995
10.257 -1.489 0.995
10.288 -1.4680001 0.99800003
10.292 -1.443 0.99800003
10.312 -1.421 1
10.331 -1.398 1.002
10.37 -1.3789999 1.006
10.449 -1.364 1.013
12.543 -1.608 1.216
12.449 -1.566 1.207
12.417 -1.533 1.204
12.4 -1.501 1.202
12.425 -1.476 1.204
12.419 -1.446 1.2029999
12.438 -1.42 1.205
12.473 -1.395 1.2079999
12.485 -1.368 1.21
12.52 -1.344 1.2130001
12.565 -1.321 1.217
12.601 -1.2970001 1.22
12.681 -1.277 1.228
12.852 -1.266 1.245
12.925 -1.245 1.252
13.037 -1.227 1.262
13.061 -0.35499999 1.2640001
12.941 -0.33000001 1.252
12.855 -0.30599999 1.244
12.799 -0.28400001 1.239
12.756 -0.26199999 1.235
12.766 -0.241 1.2359999
12.773 -0.221 1.237
12.779 -0.20100001 1.237
12.833 -0.18099999 1.243
12.866 -0.161 1.2460001
12.907 -0.142 1.25
13.016 -0.123 1.26
12.934 0.204 1.222
12.979 0.227 1.226
12.969 0.25 1.225
12.97 0.27399999 1.225
13.017 0.29800001 1.229
13.028 0.32300001 1.23
13.115 0.34900001 1.238
13.081 0.373 1.234
13.165 0.92699999 1.242
13.1 0.95300001 1.2359999
13.092 0.98199999 1.235
13.094 1.013 1.2359999
13.142 1.048 1.24
13.329 1.094 1.258
22.993999 2.3380001 2.174
22.875999 2.3829999 2.164
22.823 2.4360001 2.1589999
22.813 2.493 2.1589999
22.804001 2.55 2.1589999
22.815001 2.6099999 2.1600001
22.802 2.668 2.1600001
22.806999 2.7279999 2.161
22.830999 2.7909999 2.164
22.844 2.8529999 2.1659999
22.854 2.9159999 2.168
22.841 2.9749999 2.1670001
22.849001 3.0369999 2.1689999
22.854 3.0999999 2.1700001
22.875 3.165 2.1730001
11.228 1.584 1.067
22.98 3.2420001 2.184
11.12 1.599 1.057
11.038 1.618 1.049
10.964 1.638 1.043
10.933 1.664 1.04
10.898 1.689 1.0369999
10.891 1.7180001 1.0369999
10.88 1.748 1.0369999
10.881 1.779 1.0369999
10.873 1.809 1.0369999
10.847 1.835 1.035
10.839 1.865 1.035
10.84 1.897 1.035
10.898 1.939 1.041
23.063 4.1040001 2.204
22.981001 4.1560001 2.198
22.971001 4.2220001 2.198
7.6240001 1.424 0.73000002
23.021999 4.2989998 2.204
7.408 1.405 0.70899999
7.3109999 1.409 0.69999999
7.2779999 1.424 0.69800001
7.2620001 1.443 0.69599998
7.2540002 1.4630001 0.69599998
7.2410002 1.482 0.69499999
7.2509999 1.506 0.69700003
7.2610002 1.531 0.69800001
7.3000002 1.561 0.70200002
7.302 1.584 0.70300001
7.3169999 1.61 0.70499998
7.3270001 1.635 0.70599997
7.3610001 1.665 0.70999998
7.4159999 1.701 0.71600002
7.5079999 1.7460001 0.72500002
10.255 -1.663 1.0319999
10.207 -1.626 1.027
10.272 -1.6059999 1.034
10.292 -1.579 1.035
10.269 -1.546 1.033
10.259 -1.515 1.031
10.267 -1.4859999 1.0319999
10.28 -1.4579999 1.033
10.305 -1.432 1.035
10.335 -1.406 1.038
10.392 -1.3839999 1.043
10.636 -1.385 1.068
12.438 -1.584 1.248
12.412 -1.545 1.245
12.431 -1.511 1.247
12.445 -1.477 1.248
12.455 -1.442 1.249
12.513 -1.4119999 1.2539999
12.558 -1.381 1.258
12.693 -1.359 1.272
12.866 -1.341 1.289
13.034 -0.41600001 1.296
12.926 -0.37599999 1.285
12.851 -0.336 1.277
12.84 -0.29899999 1.276
12.853 -0.26199999 1.277
12.91 -0.226 1.2819999
12.973 -0.19 1.288
13.064 -0.153 1.2970001
22.893 1.904 2.1989999
22.834 1.946 2.1930001
22.802999 1.989 2.191
22.799 2.036 2.191
22.809 2.0840001 2.1919999
22.827999 2.1340001 2.1949999
22.812 2.181 2.194
22.808001 2.2290001 2.194
22.802999 2.2780001 2.194
22.798 2.3269999 2.194
22.805 2.378 2.1949999
22.808001 2.4289999 2.1960001
22.839001 2.483 2.2
22.829 2.5339999 2.2
22.832001 2.586 2.201
22.836 2.6389999 2.2019999
22.847 2.6930001 2.204
22.844999 2.7460001 2.204
22.844 2.8 2.2049999
22.862 2.8559999 2.2079999
22.861 2.911 2.2090001
22.865999 2.967 2.21
22.877001 3.023 2.2119999
22.862 3.0769999 2.2119999
22.884001 3.1370001 2.2149999
11.214 1.5650001 1.086
22.981001 3.207 2.2249999
11.117 1.579 1.077
11.039 1.596 1.0700001
10.986 1.6160001 1.0650001
10.953 1.6390001 1.062
10.919 1.6619999 1.0599999
10.902 1.688 1.059
10.884 1.7130001 1.057
10.885 1.742 1.058
10.853 1.766 1.056
10.849 1.794 1.056
10.839 1.821 1.0549999
10.84 1.851 1.056
10.841 1.88 1.057
10.9 1.92 1.063
23.08 4.066 2.2520001
11.069 1.98 1.08
22.981001 4.112 2.244
22.983999 4.1760001 2.2449999
22.992001 4.2420001 2.2479999
7.5900002 1.421 0.74199998
23.049999 4.3169999 2.2550001
7.4190001 1.41 0.72600001
7.3210001 1.4119999 0.71700001
7.276 1.424 0.713
7.2550001 1.441 0.71100003
7.2589998 1.4630001 0.71200001
7.2519999 1.482 0.71200001
7.2350001 1.5 0.71100003
7.2470002 1.524 0.713
7.2600002 1.548 0.71399999
7.2849998 1.575 0.71700001
7.2909999 1.598 0.71899998
7.3049998 1.623 0.72100002
7.3169999 1.648 0.722
7.362 1.6799999 0.727
7.415 1.715 0.73299998
7.4980001 1.757 0.74199998
29.278 19.271999 3.3629999
29.288 19.417999 3.3699999
27.787001 19.775 3.2590001
27.570999 19.757 3.24
10.383 -1.72 1.054
10.191 -1.661 1.034
10.16 -1.63 1.031
10.207 -1.6109999 1.036
10.279 -1.596 1.043
10.271 -1.569 1.0420001
10.248 -1.539 1.039
10.249 -1.5140001 1.039
10.247 -1.488 1.039
10.268 -1.465 1.041
10.295 -1.444 1.044
10.309 -1.42 1.045
10.32 -1.397 1.046
10.371 -1.3789999 1.051
10.416 -1.36 1.0549999
10.581 -1.3559999 1.072
12.471 -1.569 1.263
12.446 -1.536 1.26
12.452 -1.508 1.261
12.435 -1.477 1.2589999
12.422 -1.446 1.258
12.443 -1.42 1.26
12.473 -1.395 1.263
12.495 -1.369 1.265
12.543 -1.346 1.2690001
12.614 -1.326 1.276
12.678 -1.304 1.283
12.797 -1.288 1.295
12.899 -1.27 1.3049999
13.021 -1.2539999 1.317
22.674 -1.847 2.293
22.636999 -1.7970001 2.289
22.575001 -1.7460001 2.283
22.639999 -1.705 2.289
13.315 -0.294 1.346
13.077 -0.26800001 1.322
13.122 -0.24699999 1.327
13.177 -0.206 1.3329999
13.151 -0.185 1.33
13.737 0.66799998 1.36
13.715 0.69599998 1.358
13.724 0.72500002 1.359
22.82 1.985 2.263
22.782 2.0369999 2.26
22.784 2.0929999 2.26
22.785 2.148 2.2609999
22.777 2.204 2.2609999
22.795 2.2620001 2.263
22.782 2.3180001 2.2620001
22.785999 2.3759999 2.263
22.791 2.434 2.2639999
22.797001 2.493 2.266
22.805 2.552 2.267
22.802 2.6110001 2.267
22.823 2.6730001 2.27
22.829 2.733 2.2720001
22.83 2.793 2.2720001
22.841 2.855 2.2739999
22.844 2.9159999 2.2750001
22.851999 2.9779999 2.277
22.844 3.039 2.277
22.854 3.102 2.279
22.860001 3.165 2.28
11.346 1.602 1.132
22.896 3.2320001 2.2850001
11.151 1.605 1.113
23.188 3.3369999 2.3150001
11.052 1.6210001 1.104
10.987 1.642 1.098
10.95 1.6670001 1.094
10.91 1.692 1.091
10.886 1.7180001 1.089
10.865 1.7460001 1.087
10.861 1.776 1.087
10.839 1.804 1.086
10.825 1.832 1.085
10.833 1.865 1.086
10.858 1.901 1.089
10.946 1.948 1.099
23.014 4.0970001 2.3099999
22.979 4.158 2.3080001
22.976 4.2249999 2.309
7.664 1.432 0.76999998
23.028999 4.302 2.316
7.4850001 1.42 0.75300002
7.3449998 1.416 0.73900002
7.289 1.427 0.73400003
7.2670002 1.444 0.73199999
7.2540002 1.4630001 0.73100001
7.243 1.483 0.73100001
7.2529998 1.507 0.73199999
7.2490001 1.529 0.73199999
7.2740002 1.556 0.73500001
7.2919998 1.582 0.73699999
7.3000002 1.607 0.73900002
7.3299999 1.636 0.74199998
7.3649998 1.6670001 0.74599999
7.4400001 1.707 0.75400001
7.527 1.75 0.764
10.197 -1.624 1.071
10.171 -1.59 1.068
10.237 -1.571 1.075
10.257 -1.544 1.077
10.247 -1.513 1.075
10.257 -1.484 1.076
10.269 -1.456 1.077
10.298 -1.4299999 1.08
10.334 -1.405 1.0829999
10.384 -1.382 1.0880001
10.601 -1.38 1.1109999
12.436 -1.5829999 1.303
12.415 -1.545 1.3
12.43 -1.51 1.301
12.449 -1.476 1.303
12.468 -1.443 1.3049999
12.543 -1.415 1.312
12.617 -1.387 1.319
12.791 -1.369 1.337
12.934 -1.347 1.352
22.634001 -2.1600001 2.3640001
22.603001 -2.092 2.3599999
22.569 -2.023 2.3559999
22.552999 -1.957 2.3540001
22.6 -1.895 2.358
13.158 -0.26699999 1.364
13.06 -0.227 1.354
22.900999 1.954 2.3080001
22.844999 1.995 2.303
22.83 2.0409999 2.302
22.829 2.0880001 2.302
22.833 2.1370001 2.303
22.813 2.1830001 2.302
22.820999 2.233 2.303
22.813 2.2809999 2.303
22.82 2.3310001 2.3039999
22.841 2.3840001 2.3069999
22.833 2.434 2.3069999
22.851 2.487 2.3099999
22.864 2.54 2.312
22.875999 2.5929999 2.3139999
22.885 2.6470001 2.3150001
22.886 2.7 2.316
22.872 2.7509999 2.316
22.913 2.8099999 2.3210001
22.945999 2.869 2.325
22.944 2.9230001 2.326
22.955 2.98 2.3280001
22.941999 3.0339999 2.3280001
22.958 3.092 2.3299999
22.952 3.148 2.3310001
11.358 1.586 1.154
23.052 3.2190001 2.342
11.142 1.5829999 1.132
11.053 1.599 1.124
10.996 1.618 1.119
10.962 1.641 1.1160001
10.929 1.664 1.113
10.894 1.687 1.11
10.869 1.712 1.108
10.867 1.74 1.109
10.849 1.766 1.107
10.846 1.794 1.108
10.824 1.819 1.1059999
10.832 1.85 1.108
10.864 1.885 1.1109999
10.971 1.933 1.123
23.132 4.0770001 2.369
23.055 4.1269999 2.362
23.054001 4.1900001 2.3640001
23.08 4.2589998 2.368
7.5999999 1.424 0.77999997
23.191 4.3449998 2.381
7.4559999 1.418 0.76599997
7.3590002 1.42 0.75599998
7.2870002 1.427 0.74900001
7.277 1.446 0.74900001
7.2529998 1.462 0.74699998
7.2420001 1.4809999 0.74599999
7.2449999 1.502 0.74699998
7.2509999 1.525 0.74800003
7.25 1.546 0.74900001
7.2800002 1.574 0.75300002
7.2969999 1.6 0.755
7.3099999 1.624 0.75700003
7.348 1.655 0.76099998
7.388 1.686 0.76599997
7.461 1.726 0.77399999
7.5869999 1.778 0.78799999
12.431 -8.1529999 1.3940001
12.524 -8.1359997 1.404
12.592 -8.1020002 1.41
12.656 -8.066 1.416
12.746 -8.0459995 1.425
12.848 -8.033 1.4349999
12.956 -8.0229998 1.446
13.065 -8.0139999 1.457
10.374 -1.691 1.098
10.225 -1.64 1.082
10.156 -1.603 1.075
10.169 -1.579 1.076
10.223 -1.561 1.081
10.256 -1.54 1.085
10.242 -1.512 1.0829999
10.245 -1.487 1.0829999
10.282 -1.467 1.087
10.283 -1.442 1.087
10.303 -1.42 1.089
10.318 -1.397 1.09
10.349 -1.376 1.094
10.412 -1.359 1.1
10.603 -1.359 1.12
12.49 -1.571 1.319
12.469 -1.539 1.317
12.447 -1.507 1.314
12.441 -1.477 1.314
12.439 -1.448 1.313
12.438 -1.419 1.313
12.465 -1.3940001 1.316
12.483 -1.368 1.318
12.54 -1.346 1.323
12.608 -1.325 1.331
12.676 -1.304 1.337
12.831 -1.291 1.354
12.988 -1.279 1.37
22.688 -1.847 2.3929999
22.629999 -1.796 2.3859999
23.014999 2.0039999 2.391
22.893 2.049 2.3789999
22.864 2.102 2.3770001
22.837999 2.1559999 2.375
22.843 2.2130001 2.3759999
22.816999 2.267 2.3729999
22.829 2.325 2.375
22.809999 2.381 2.3740001
22.825001 2.4400001 2.3759999
22.830999 2.4990001 2.3770001
22.853001 2.5599999 2.3800001
22.879 2.622 2.3840001
22.892 2.6830001 2.3859999
22.864 2.7390001 2.3840001
22.839001 2.796 2.382
22.837999 2.8570001 2.3829999
23.052999 2.9449999 2.4059999
23.131001 3.079 2.4159999
23.097 3.1370001 2.4130001
23.112 3.2019999 2.4159999
11.248 1.62 1.176
11.093 1.628 1.161
11.009 1.646 1.152
10.972 1.671 1.149
10.926 1.6950001 1.145
10.894 1.721 1.142
10.869 1.747 1.14
10.838 1.773 1.137
10.827 1.802 1.137
10.823 1.8329999 1.137
10.847 1.868 1.14
10.891 1.908 1.145
11.059 1.969 1.163
7.7129998 1.441 0.81300002
7.5159998 1.427 0.792
7.3709998 1.421 0.77700001
7.3060002 1.4299999 0.77100003
7.2680001 1.4450001 0.76700002
7.2579999 1.465 0.76700002
7.2480001 1.485 0.76599997
7.257 1.508 0.76800001
7.2459998 1.528 0.76700002
7.256 1.553 0.76899999
7.296 1.584 0.773
7.3200002 1.612 0.77600002
7.3520002 1.641 0.77999997
7.3850002 1.6720001 0.78399998
7.4569998 1.711 0.792
7.6160002 1.772 0.81
12.766 -7.6539998 1.443
12.791 -7.631 1.4450001
12.837 -7.6209998 1.45
12.883 -7.6100001 1.455
12.933 -7.6020002 1.461
13.001 -7.6030002 1.4680001
13.108 -7.6279998 1.48
15.06 -7.0180001 1.688
15.088 -6.9860001 1.691
15.094 -6.9439998 1.692
15.066 -6.8860002 1.688
15.076 -6.8449998 1.689
15.183 -6.849 1.701
10.289 -1.638 1.126
10.16 -1.5880001 1.112
10.142 -1.556 1.109
10.237 -1.54 1.119
10.25 -1.513 1.1210001
10.255 -1.484 1.1210001
10.265 -1.455 1.122
10.289 -1.429 1.124
10.32 -1.403 1.127
10.403 -1.3839999 1.136
12.487 -1.625 1.363
12.474 -1.587 1.3609999
12.423 -1.545 1.355
12.439 -1.511 1.357
12.445 -1.475 1.357
12.455 -1.4400001 1.358
12.511 -1.41 1.363
12.585 -1.382 1.3710001
12.785 -1.367 1.393
22.6 -2.0899999 2.4590001
22.594 -2.0239999 2.457
14.563 0.58200002 1.535
14.533 0.602 1.531
14.519 0.62300003 1.53
14.498 0.64399999 1.527
14.491 0.66600001 1.526
14.513 0.69 1.529
14.552 0.71499997 1.533
23.104 2.1159999 2.4389999
23.027 2.1570001 2.4319999
23.024 2.2049999 2.4319999
22.966999 2.2490001 2.427
22.934 2.2950001 2.424
22.896 2.3410001 2.421
22.906 2.3929999 2.4219999
22.93 2.4460001 2.4260001
22.975 2.5020001 2.431
23.153 2.5739999 2.451
22.903 2.6500001 2.4260001
22.778 2.6889999 2.414
22.737 2.737 2.4100001
22.790001 2.7969999 2.4170001
11.317 1.609 1.204
11.135 1.6109999 1.186
11.037 1.625 1.176
10.985 1.645 1.171
10.95 1.668 1.168
10.93 1.693 1.166
10.899 1.717 1.163
10.871 1.7410001 1.161
10.844 1.766 1.159
10.854 1.796 1.161
10.839 1.823 1.16
10.856 1.855 1.1619999
10.919 1.895 1.17
11.113 1.959 1.191
7.6719999 1.438 0.82499999
7.552 1.436 0.81199998
7.4070001 1.4299999 0.79699999
7.3249998 1.4349999 0.78899997
7.2940001 1.45 0.78600001
7.27 1.466 0.78399998
7.2600002 1.485 0.78399998
7.244 1.503 0.78200001
7.244 1.524 0.78299999
7.237 1.544 0.78299999
7.2690001 1.572 0.787
7.2979999 1.6 0.79100001
7.3270001 1.628 0.79400003
7.362 1.658 0.79900002
7.4000001 1.6900001 0.80400002
7.4689999 1.728 0.81199998
7.7020001 1.806 0.838
35.289001 18.281 4.2270002
35.278 18.427 4.2329998
12.341 -8.0930004 1.442
12.411 -8.0620003 1.449
12.461 -8.0170002 1.4529999
12.531 -7.9860001 1.46
12.601 -7.954 1.467
12.7 -7.9400001 1.477
12.815 -7.9359999 1.489
12.88 -7.9000001 1.495
12.964 -7.8759999 1.5039999
13.03 -7.8410001 1.51
13.148 -7.8369999 1.523
13.317 -7.862 1.541
14.841 -7.5040002 1.697
14.848 -7.4349999 1.697
15.024 -6.9499998 1.709
14.967 -6.855 1.701
15.041 -6.8200002 1.709
15.104 -6.7800002 1.715
15.115 -6.717 1.715
15.309 -6.7350001 1.7359999
10.406 -1.669 1.147
10.184 -1.607 1.122
10.137 -1.574 1.117
10.135 -1.548 1.1160001
10.208 -1.533 1.124
10.255 -1.5140001 1.1289999
10.259 -1.489 1.1289999
10.271 -1.466 1.131
10.272 -1.4400001 1.131
10.299 -1.419 1.133
10.317 -1.396 1.135
10.352 -1.376 1.1390001
10.447 -1.363 1.149
12.471 -1.598 1.372
12.445 -1.5650001 1.369
12.466 -1.538 1.3710001
12.459 -1.508 1.37
12.464 -1.48 1.37
12.433 -1.447 1.367
12.438 -1.419 1.367
12.465 -1.3940001 1.37
12.457 -1.365 1.369
12.498 -1.341 1.373
12.548 -1.318 1.3789999
12.629 -1.299 1.387
12.882 -1.296 1.415
14.511 0.50300002 1.574
14.426 0.52899998 1.5650001
14.439 0.55800003 1.566
14.423 0.58600003 1.564
14.422 0.61500001 1.564
14.435 0.64499998 1.5650001
14.447 0.676 1.567
14.534 0.70999998 1.576
23.028 2.3469999 2.5050001
22.964001 2.3989999 2.4990001
22.922001 2.4519999 2.4949999
22.903 2.5090001 2.494
22.926001 2.5699999 2.497
23.023001 2.6400001 2.5079999
23.013 2.6989999 2.5079999
22.867001 2.7420001 2.493
22.771 2.79 2.483
22.778 2.8510001 2.4849999
11.19 1.643 1.225
11.042 1.652 1.209
10.988 1.674 1.2029999
10.952 1.7 1.2
10.915 1.725 1.197
10.884 1.751 1.194
10.851 1.776 1.191
10.854 1.808 1.192
10.841 1.837 1.191
10.89 1.877 1.197
10.998 1.927 1.209
7.6110001 1.4450001 0.83899999
7.441 1.4349999 0.82099998
7.348 1.439 0.81099999
7.3060002 1.4529999 0.80699998
7.2589998 1.465 0.80199999
7.25 1.4859999 0.80199999
7.2529998 1.508 0.80299997
7.2470002 1.529 0.80199999
7.256 1.553 0.80400002
7.2909999 1.5829999 0.80800003
7.3270001 1.614 0.81300002
7.3670001 1.645 0.81800002
7.4039998 1.677 0.82300001
7.4980001 1.721 0.83399999
12.74 -7.645 1.498
12.773 -7.6269999 1.502
12.802 -7.6069999 1.505
12.83 -7.586 1.508
12.875 -7.5739999 1.513
12.907 -7.5549998 1.517
12.955 -7.5440001 1.522
13.015 -7.5409999 1.529
13.08 -7.54 1.536
13.14 -7.5349998 1.543
13.203 -7.5320001 1.55
13.296 -7.546 1.561
13.409 -7.5700002 1.574
15.002 -7.085 1.751
14.831 -6.96 1.7309999
14.824 -6.9120002 1.729
14.9 -6.9029999 1.738
22.239 -5.4260001 2.5510001
22.23 -5.3579998 2.549
22.253 -5.2329998 2.5510001
22.254 -5.1680002 2.55
10.202 -1.594 1.161
10.128 -1.553 1.152
10.155 -1.528 1.155
10.225 -1.5089999 1.163
10.261 -1.484 1.1670001
10.269 -1.455 1.1670001
10.278 -1.427 1.168
10.333 -1.404 1.174
10.425 -1.386 1.184
12.402 -1.613 1.408
12.442 -1.582 1.4119999
12.443 -1.5470001 1.4119999
12.442 -1.51 1.4119999
12.442 -1.474 1.411
12.459 -1.4400001 1.413
12.46 -1.404 1.4119999
12.521 -1.374 1.419
12.732 -1.3609999 1.443
14.62 0.62900001 1.609
14.491 0.64600003 1.595
14.533 0.67000002 1.599
14.551 0.69300002 1.601
14.592 0.71799999 1.6059999
23.047001 2.5639999 2.549
23.007 2.612 2.546
22.999001 2.6630001 2.546
23.037001 2.721 2.5510001
23.176001 2.7920001 2.5680001
11.225 1.625 1.249
11.093 1.6339999 1.235
11.019 1.651 1.227
10.962 1.671 1.222
10.931 1.694 1.219
10.914 1.72 1.2180001
10.898 1.7460001 1.217
10.891 1.774 1.217
10.901 1.8049999 1.2180001
10.923 1.837 1.222
10.997 1.88 1.2309999
7.7350001 1.472 0.86900002
7.4970002 1.448 0.84299999
7.3990002 1.45 0.833
7.3299999 1.457 0.82599998
7.2940001 1.471 0.82200003
7.27 1.487 0.81999999
7.2509999 1.505 0.81900001
7.2480001 1.525 0.81900001
7.2490001 1.5470001 0.81999999
7.2839999 1.576 0.824
7.3130002 1.604 0.82800001
7.349 1.6339999 0.833
7.388 1.665 0.838
7.4180002 1.694 0.84200001
7.5510001 1.748 0.85799998
35.480999 18.233 4.4380002
35.287998 18.285 4.421
35.192001 18.386999 4.4169998
34.650002 18.554001 4.3699999
34.634998 18.695999 4.375
12.345 -8.0950003 1.5
12.411 -8.0620003 1.506
12.462 -8.0179996 1.511
12.521 -7.98 1.517
12.583 -7.9429998 1.523
12.642 -7.9039998 1.529
12.724 -7.8800001 1.5369999
12.795 -7.848 1.545
12.892 -7.8319998 1.5549999
12.98 -7.8109999 1.564
13.083 -7.7979999 1.576
13.207 -7.796 1.589
13.363 -7.8130002 1.607
14.929 -6.9060001 1.765
14.861 -6.8060002 1.756
14.945 -6.777 1.765
15.658 -6.48 1.84
15.629 -6.402 1.836
15.835 -6.4190001 1.859
22.226 -5.5349998 2.5650001
22.224001 -5.4650002 2.5639999
10.249 -1.618 1.174
10.139 -1.574 1.161
10.119 -1.545 1.159
10.15 -1.524 1.1619999
10.194 -1.505 1.1670001
10.239 -1.4859999 1.1720001
10.279 -1.467 1.176
10.275 -1.441 1.176
10.282 -1.416 1.176
10.316 -1.396 1.1799999
10.372 -1.378 1.186
10.5 -1.37 1.201
12.394 -1.5880001 1.4170001
12.395 -1.558 1.4170001
12.454 -1.536 1.424
12.468 -1.5089999 1.425
12.458 -1.479 1.424
12.429 -1.447 1.42
12.427 -1.418 1.42
12.463 -1.393 1.424
12.448 -1.363 1.4220001
12.489 -1.34 1.426
12.528 -1.316 1.431
12.572 -1.2920001 1.436
12.724 -1.28 1.4529999
22.556 -2.122 2.575
22.594 -2.0769999 2.579
22.527 -2.0220001 2.572
22.556999 -1.977 2.575
14.675 0.51099998 1.661
14.522 0.53399998 1.6440001
14.498 0.56199998 1.641
14.473 0.58999997 1.638
14.486 0.62 1.6390001
14.483 0.64899999 1.6390001
14.501 0.68000001 1.641
23.041 2.704 2.6210001
23.024 2.763 2.6199999
23.002001 2.8199999 2.619
23.080999 2.891 2.6289999
11.277 1.6569999 1.288
11.081 1.659 1.266
11.011 1.679 1.2589999
10.97 1.7029999 1.255
10.937 1.729 1.252
10.912 1.756 1.249
10.915 1.788 1.25
10.934 1.822 1.253
10.972 1.86 1.258
11.191 1.929 1.284
7.5830002 1.4630001 0.87300003
7.4499998 1.46 0.85900003
7.355 1.4630001 0.84799999
7.3039999 1.475 0.84299999
7.2800002 1.492 0.83999997
7.2740002 1.513 0.83999997
7.2709999 1.535 0.84100002
7.2870002 1.5599999 0.84299999
7.3200002 1.59 0.847
7.349 1.619 0.85100001
7.3709998 1.647 0.85399997
7.4190001 1.6799999 0.861
7.5609999 1.7359999 0.87800002
12.847 -7.7160001 1.5700001
12.885 -7.6999998 1.575
12.894 -7.6680002 1.576
12.936 -7.6550002 1.58
12.944 -7.6209998 1.581
12.99 -7.6100001 1.586
13.043 -7.6020002 1.5930001
13.143 -7.6209998 1.605
13.201 -7.6160002 1.6109999
13.266 -7.6139998 1.619
13.374 -7.6360002 1.632
13.512 -7.6750002 1.649
14.989 -7.0380001 1.817
14.883 -6.9439998 1.804
14.919 -6.9159999 1.808
15.122 -6.9650002 1.832
15.5 -6.6300001 1.874
15.431 -6.5539999 1.865
15.464 -6.5219998 1.869
15.56 -6.5159998 1.88
15.69 -6.5240002 1.895
15.844 -6.5409999 1.913
22.301001 -5.507 2.658
22.165001 -5.408 2.641
22.24 -5.3610001 2.6500001
10.349 -1.617 1.223
10.138 -1.554 1.198
10.107 -1.52 1.194
10.175 -1.501 1.202
10.239 -1.48 1.209
10.258 -1.4529999 1.211
10.277 -1.426 1.2130001
10.325 -1.403 1.2180001
10.444 -1.388 1.232
12.401 -1.613 1.4630001
12.439 -1.581 1.467
12.436 -1.545 1.466
12.447 -1.51 1.467
12.446 -1.474 1.466
12.44 -1.437 1.465
12.468 -1.404 1.4680001
12.502 -1.3710001 1.472
12.651 -1.351 1.489
22.410999 -2.329 2.6370001
22.448999 -2.267 2.641
22.48 -2.2049999 2.6440001
22.509001 -2.1429999 2.6459999
13.501 0.50400001 1.551
13.432 0.52100003 1.5420001
13.4 0.53899997 1.539
13.386 0.55800003 1.5369999
13.376 0.57700002 1.536
13.513 0.60399997 1.551
23.164 2.901 2.6789999
23.132 2.9519999 2.677
23.162001 3.0120001 2.681
23.237 3.0780001 2.691
11.175 1.59 1.2970001
11.077 1.604 1.286
11.032 1.626 1.281
10.998 1.649 1.278
10.996 1.677 1.279
10.963 1.7 1.275
10.961 1.728 1.276
10.956 1.756 1.276
10.993 1.791 1.281
11.066 1.8329999 1.29
23.32 4.3730001 2.734
23.264999 4.428 2.7290001
23.27 4.4949999 2.7320001
7.7589998 1.521 0.91100001
23.351 4.5780001 2.744
7.474 1.4859999 0.87800002
7.3899999 1.4910001 0.86900002
7.3369999 1.501 0.86400002
7.3119998 1.518 0.861
7.2930002 1.535 0.86000001
7.3060002 1.559 0.86199999
7.3270001 1.586 0.86500001
7.3410001 1.6109999 0.86799997
7.3709998 1.6390001 0.87199998
7.3829999 1.664 0.87400001
7.4200001 1.6950001 0.87900001
7.4889998 1.734 0.88800001
7.5219998 1.7640001 0.89300001
7.4910002 1.78 0.88999999
7.5029998 1.806 0.89200002
12.364 -8.1079998 1.559
12.446 -8.085 1.568
12.494 -8.0380001 1.573
12.548 -7.9970002 1.5779999
12.6 -7.9530001 1.584
12.683 -7.9299998 1.5930001
12.761 -7.9029999 1.601
12.845 -7.8790002 1.61
12.931 -7.8559999 1.62
13.032 -7.842 1.631
13.145 -7.835 1.6440001
13.241 -7.8169999 1.654
13.354 -7.8080001 1.6670001
14.964 -6.8540001 1.836
14.964 -6.7849998 1.835
15.144 -6.7989998 1.8559999
15.51 -6.4190001 1.893
15.508 -6.3530002 1.891
15.637 -6.3390002 1.906
15.847 -6.3579998 1.931
22.138 -5.5830002 2.6530001
22.125999 -5.5100002 2.651
22.302 -5.4840002 2.671
22.343 -5.4250002 2.675
22.250999 -5.3330002 2.664
22.174 -5.2470002 2.654
10.537 -1.6900001 1.253
10.322 -1.6289999 1.227
10.184 -1.581 1.211
10.124 -1.546 1.2029999
10.127 -1.521 1.2029999
10.163 -1.501 1.2079999
10.22 -1.483 1.214
10.259 -1.464 1.219
10.262 -1.439 1.219
10.289 -1.4170001 1.222
10.319 -1.396 1.225
10.379 -1.3789999 1.232
10.526 -1.373 1.249
12.418 -1.591 1.474
12.427 -1.562 1.475
12.452 -1.536 1.478
12.456 -1.507 1.478
12.459 -1.479 1.478
12.432 -1.447 1.475
12.432 -1.418 1.474
12.45 -1.392 1.476
12.459 -1.364 1.477
12.493 -1.34 1.4809999
12.542 -1.317 1.487
12.595 -1.295 1.493
22.323 -2.2449999 2.6459999
22.254 -2.1889999 2.638
22.264 -2.142 2.6389999
22.365 -2.1029999 2.651
22.459999 -2.0639999 2.6619999
22.486 -2.0179999 2.665
22.52 -1.973 2.668
13.376 0.221 1.579
13.39 0.245 1.581
13.361 0.26800001 1.577
13.351 0.29100001 1.576
13.341 0.315 1.574
13.315 0.33899999 1.571
13.28 0.36300001 1.567
13.299 0.38800001 1.569
13.303 0.414 1.569
13.291 0.43900001 1.568
13.274 0.46399999 1.5650001
13.274 0.49000001 1.5650001
13.297 0.51700002 1.568
13.329 0.54500002 1.572
13.404 0.57499999 1.581
23.113001 3.082 2.7460001
23.132999 3.148 2.75
23.160999 3.214 2.7539999
11.147 1.608 1.326
11.043 1.623 1.3150001
11.004 1.648 1.311
10.982 1.675 1.309
10.98 1.706 1.309
10.978 1.737 1.309
10.976 1.767 1.3099999
11.001 1.803 1.313
11.128 1.855 1.329
23.365999 4.098 2.796
23.268 4.1490002 2.786
23.325001 4.2270002 2.7939999
23.295 4.29 2.7920001
23.315001 4.3629999 2.796
23.364 4.441 2.8039999
7.5819998 1.5089999 0.91100001
7.4380002 1.503 0.89399999
7.369 1.511 0.88700002
7.3309999 1.526 0.88300002
7.3280001 1.5470001 0.88300002
7.335 1.571 0.884
7.3569999 1.598 0.88800001
7.3709998 1.624 0.88999999
7.381 1.649 0.89200002
7.3930001 1.675 0.89399999
7.4359999 1.7079999 0.89999998
7.4439998 1.733 0.90100002
7.428 1.753 0.89999998
7.46 1.784 0.90499997
7.6599998 1.8559999 0.93000001
15.671 -6.7069998 1.966
15.482 -6.5799999 1.942
15.5 -6.5409999 1.943
15.598 -6.5359998 1.955
15.713 -6.5370002 1.969
15.863 -6.552 1.988
22.242001 -5.428 2.75
22.228001 -5.3590002 2.747
22.243 -5.2979999 2.7479999
22.156 -5.1469998 2.7360001
22.135 -5.0770001 2.733
10.398 -1.624 1.275
10.192 -1.562 1.25
10.116 -1.521 1.24
10.144 -1.4960001 1.243
10.202 -1.475 1.25
10.256 -1.4529999 1.256
10.266 -1.424 1.257
10.313 -1.401 1.262
10.442 -1.388 1.278
12.415 -1.614 1.5190001
12.417 -1.5779999 1.5190001
12.43 -1.543 1.52
12.437 -1.508 1.52
12.418 -1.47 1.518
12.425 -1.434 1.518
12.472 -1.403 1.523
12.531 -1.374 1.53
22.353001 -2.3859999 2.7290001
22.246 -2.3099999 2.7149999
22.35 -2.2550001 2.727
22.427 -2.198 2.7360001
22.492001 -2.1389999 2.743
22.502001 -2.075 2.743
22.51 -2.01 2.743
11.265 1.576 1.3609999
11.081 1.5779999 1.339
11.032 1.599 1.334
11.001 1.622 1.331
10.98 1.647 1.329
10.964 1.673 1.3279999
10.991 1.705 1.332
11.005 1.7359999 1.334
11.072 1.776 1.3430001
11.199 1.826 1.36
23.959999 4.4949999 2.9260001
23.812 4.5339999 2.9100001
23.924 4.6230001 2.9260001
7.5120001 1.538 0.921
7.4070001 1.538 0.90899998
7.3579998 1.549 0.90399998
7.3590002 1.571 0.90499997
7.3639998 1.594 0.90600002
7.3649998 1.6160001 0.90700001
7.3790002 1.641 0.90899998
7.3740001 1.663 0.90899998
7.3649998 1.683 0.90899998
7.3889999 1.711 0.91299999
7.4000001 1.7359999 0.91500002
7.3860002 1.756 0.91399997
7.401 1.7819999 0.917
7.4580002 1.819 0.92500001
7.5320001 1.8609999 0.935
7.6479998 1.913 0.94999999
12.366 -8.1099997 1.618
12.43 -8.0740004 1.624
12.491 -8.0369997 1.631
12.558 -8.0030003 1.638
12.616 -7.9629998 1.6440001
12.698 -7.9390001 1.653
12.792 -7.9219999 1.664
12.872 -7.8959999 1.673
12.961 -7.8740001 1.683
13.084 -7.8730001 1.698
13.205 -7.8709998 1.712
15.779 -6.5310001 1.9960001
15.582 -6.3829999 1.97
15.7 -6.3649998 1.984
15.895 -6.3779998 2.0079999
10.509 -1.6849999 1.296
10.367 -1.636 1.278
10.243 -1.59 1.262
10.15 -1.55 1.251
10.131 -1.521 1.248
10.155 -1.499 1.251
10.193 -1.479 1.255
10.241 -1.461 1.261
10.253 -1.437 1.262
10.264 -1.413 1.2640001
10.314 -1.395 1.27
10.39 -1.38 1.279
10.553 -1.377 1.299
12.4 -1.5880001 1.526
12.398 -1.558 1.525
12.416 -1.531 1.527
12.451 -1.506 1.5319999
12.437 -1.476 1.53
12.414 -1.444 1.527
12.409 -1.415 1.526
12.451 -1.391 1.531
12.454 -1.363 1.531
12.503 -1.341 1.5369999
12.556 -1.318 1.543
12.661 -1.301 1.556
13.38 0.223 1.643
13.422 0.24699999 1.648
13.397 0.27000001 1.645
13.401 0.294 1.645
13.441 0.31999999 1.65
13.464 0.345 1.653
11.108 1.603 1.375
11.022 1.6210001 1.365
10.98 1.645 1.3609999
10.972 1.675 1.36
10.959 1.704 1.359
10.978 1.737 1.362
11.013 1.774 1.368
11.146 1.827 1.385
7.6090002 1.561 0.95300001
7.4580002 1.553 0.935
7.4159999 1.566 0.93000001
7.4029999 1.586 0.92900002
7.3829999 1.605 0.92699999
7.3790002 1.627 0.92699999
7.3600001 1.645 0.92500001
7.3629999 1.669 0.92699999
7.3670001 1.693 0.92799997
7.3649998 1.716 0.92799997
7.3829999 1.743 0.93099999
7.3839998 1.766 0.93199998
7.4099998 1.796 0.93599999
7.4450002 1.8279999 0.94099998
7.546 1.877 0.95499998
19.115 -7.0440001 2.474
19.018999 -6.9520001 2.46
19.091 -6.921 2.4690001
22.291 -5.3759999 2.855
22.287001 -5.309 2.8529999
10.399 -1.624 1.321
10.254 -1.571 1.302
10.134 -1.523 1.2869999
10.136 -1.494 1.2869999
10.197 -1.473 1.294
10.244 -1.45 1.3
10.258 -1.4220001 1.301
10.314 -1.4 1.308
10.446 -1.388 1.324
12.397 -1.6109999 1.571
12.388 -1.573 1.5700001
12.412 -1.54 1.572
12.407 -1.5039999 1.571
12.412 -1.4680001 1.571
12.423 -1.433 1.572
12.483 -1.404 1.58
12.548 -1.375 1.587
11.171 1.564 1.403
11.054 1.575 1.3890001
11.003 1.595 1.3839999
10.972 1.619 1.381
10.947 1.643 1.378
10.951 1.6720001 1.3789999
10.951 1.7 1.38
10.993 1.735 1.386
11.047 1.772 1.3940001
11.207 1.8279999 1.415
7.5949998 1.622 0.97100002
7.4759998 1.619 0.95700002
7.4070001 1.626 0.949
7.382 1.643 0.94599998
7.3629999 1.661 0.94400001
7.3590002 1.682 0.94499999
7.3610001 1.705 0.94599998
7.355 1.726 0.94599998
7.3569999 1.749 0.94700003
7.3590002 1.773 0.94800001
7.3670001 1.7970001 0.94999999
7.3829999 1.824 0.95300001
7.4489999 1.864 0.96200001
12.455 -8.1680002 1.687
12.532 -8.1400003 1.696
12.619 -8.1190004 1.706
12.683 -8.0830002 1.714
12.774 -8.0640001 1.724
12.867 -8.0450001 1.735
12.975 -8.0349998 1.748
19.174 -6.9229999 2.4960001
19.006001 -6.789 2.473
19.062 -6.7350001 2.48
10.491 -1.682 1.339
10.345 -1.632 1.321
10.267 -1.594 1.3099999
10.148 -1.549 1.295
10.134 -1.521 1.293
10.149 -1.498 1.295
10.189 -1.479 1.299
10.242 -1.461 1.306
10.237 -1.4349999 1.3049999
10.263 -1.413 1.308
10.3 -1.393 1.313
10.374 -1.378 1.322
10.563 -1.378 1.346
12.406 -1.5880001 1.581
12.38 -1.556 1.577
12.377 -1.526 1.577
12.415 -1.502 1.581
12.426 -1.474 1.582
12.395 -1.442 1.5779999
12.394 -1.413 1.5779999
12.428 -1.388 1.582
12.438 -1.3609999 1.5829999
12.503 -1.34 1.591
12.585 -1.321 1.602
12.657 -1.3 1.6109999
11.094 1.602 1.427
11.007 1.62 1.4170001
10.969 1.645 1.413
10.962 1.674 1.4119999
10.937 1.701 1.41
10.971 1.737 1.415
10.986 1.771 1.418
11.081 1.818 1.431
7.6230001 1.6339999 0.99400002
7.473 1.625 0.97500002
7.4070001 1.6339999 0.96700001
7.3720002 1.649 0.963
7.3590002 1.669 0.96200001
7.3449998 1.688 0.96100003
7.3429999 1.711 0.96200001
7.3470001 1.735 0.963
7.329 1.7539999 0.96100003
7.3470001 1.781 0.96399999
7.382 1.813 0.97000003
7.4549999 1.855 0.98000002
18.966 -6.9920001 2.54
18.941999 -6.927 2.536
18.968 -6.8800001 2.539
19.191999 -6.9039998 2.569
10.356 -1.617 1.362
10.221 -1.566 1.344
10.14 -1.524 1.3329999
10.142 -1.495 1.332
10.206 -1.474 1.34
10.238 -1.449 1.344
10.245 -1.42 1.345
10.311 -1.399 1.353
10.472 -1.391 1.374
12.396 -1.61 1.626
12.371 -1.571 1.622
12.397 -1.538 1.625
12.409 -1.503 1.626
12.397 -1.465 1.624
12.424 -1.432 1.627
12.494 -1.404 1.636
12.574 -1.376 1.646
11.115 1.584 1.451
11.024 1.599 1.4400001
10.973 1.62 1.434
10.952 1.6440001 1.432
10.96 1.674 1.434
10.972 1.704 1.436
10.994 1.7359999 1.4400001
11.023 1.77 1.4450001
11.185 1.825 1.467
7.5170002 1.651 1
7.4359999 1.655 0.99000001
7.3779998 1.665 0.98299998
7.362 1.683 0.98199999
7.349 1.7029999 0.98100001
7.3369999 1.723 0.98000002
7.3319998 1.744 0.98100001
7.3169999 1.763 0.97899997
7.3260002 1.788 0.98100001
7.3429999 1.8150001 0.98500001
7.3699999 1.845 0.98900002
7.4499998 1.8890001 1.001
12.503 -8.1999998 1.752
12.581 -8.1730003 1.762
12.663 -8.1479998 1.772
12.738 -8.1190004 1.781
12.829 -8.0979996 1.7920001
12.914 -8.0749998 1.802
13.051 -8.0830002 1.819
13.355 -8.0369997 1.857
13.408 -7.9920001 1.863
13.472 -7.954 1.87
19.233 -6.9439998 2.5899999
19.030001 -6.7979999 2.562
19.129 -6.7589998 2.5739999
22.204 -4.9850001 2.948
22.135 -4.9029999 2.938
22.398001 -4.895 2.9719999
10.589 -1.698 1.398
10.343 -1.632 1.3660001
10.244 -1.59 1.352
10.165 -1.552 1.342
10.14 -1.522 1.3380001
10.132 -1.495 1.337
10.151 -1.473 1.339
10.213 -1.456 1.347
10.241 -1.4349999 1.35
10.238 -1.41 1.35
10.282 -1.39 1.3559999
10.357 -1.375 1.365
10.552 -1.376 1.391
12.442 -1.5930001 1.64
12.357 -1.552 1.628
12.356 -1.523 1.628
12.397 -1.499 1.633
12.391 -1.469 1.632
12.39 -1.441 1.632
12.384 -1.411 1.631
12.422 -1.387 1.636
12.435 -1.36 1.637
12.503 -1.34 1.646
12.562 -1.318 1.654
12.623 -1.296 1.661
11.053 1.628 1.477
10.986 1.648 1.4680001
10.965 1.676 1.466
10.956 1.705 1.466
10.973 1.739 1.469
11.008 1.775 1.474
11.135 1.8279999 1.492
7.6919999 1.673 1.0420001
7.4629998 1.647 1.012
7.3930001 1.654 1.003
7.3600001 1.669 0.99900001
7.3499999 1.6900001 0.99800003
7.3379998 1.71 0.99800003
7.3280001 1.7309999 0.99699998
7.3280001 1.7539999 0.99800003
7.3379998 1.78 1
7.3369999 1.803 1
7.3629999 1.8329999 1.005
7.4510002 1.8789999 1.018
7.7259998 1.973 1.056
14.893 -7.0999999 2.079
14.836 -7.0289998 2.0710001
14.888 -7.0089998 2.0780001
19.121 -7.052 2.648
19.075001 -6.9790001 2.641
22.087 -4.8080001 3.02
22.068001 -4.7389998 3.016
22.297001 -4.723 3.0469999
10.329 -1.612 1.404
10.181 -1.559 1.383
10.127 -1.521 1.376
10.107 -1.489 1.373
10.155 -1.466 1.3789999
10.204 -1.444 1.385
10.235 -1.418 1.3890001
10.291 -1.396 1.396
10.46 -1.388 1.419
12.416 -1.612 1.683
12.338 -1.566 1.6720001
12.357 -1.5319999 1.674
12.377 -1.498 1.677
12.377 -1.462 1.676
12.406 -1.429 1.6799999
12.484 -1.402 1.6900001
12.575 -1.376 1.702
11.159 1.62 1.512
11.07 1.635 1.501
11.03 1.6569999 1.4960001
11.015 1.683 1.495
11.034 1.714 1.498
11.052 1.7460001 1.502
11.174 1.795 1.5190001
7.4980001 1.67 1.036
7.401 1.67 1.023
7.3769999 1.687 1.021
7.3429999 1.702 1.017
7.3330002 1.722 1.016
7.3200002 1.742 1.016
7.3169999 1.763 1.016
7.323 1.788 1.018
7.3239999 1.811 1.0190001
7.3319998 1.836 1.021
7.3670001 1.868 1.027
7.4650002 1.9170001 1.0420001
7.6440001 1.987 1.068
12.496 -8.1960001 1.8099999
12.577 -8.1709995 1.8200001
12.654 -8.1429996 1.83
12.735 -8.1169996 1.84
12.827 -8.0979996 1.851
12.937 -8.0900002 1.8660001
13.113 -8.1219997 1.8890001
14.917 -6.9720001 2.1040001
14.89 -6.8899999 2.099
22.066 -4.954 3.027
21.966999 -4.8660002 3.013
22.017 -4.8119998 3.0190001
10.34 -1.631 1.411
10.216 -1.585 1.393
10.128 -1.546 1.381
10.108 -1.517 1.378
10.103 -1.4910001 1.377
10.119 -1.4680001 1.3789999
10.158 -1.448 1.3839999
10.208 -1.4299999 1.391
10.231 -1.408 1.3940001
10.255 -1.387 1.397
10.314 -1.37 1.405
10.478 -1.3660001 1.427
12.395 -1.557 1.688
12.354 -1.522 1.682
12.36 -1.494 1.682
12.373 -1.467 1.684
12.379 -1.439 1.6849999
12.383 -1.411 1.6849999
12.4 -1.3839999 1.687
12.432 -1.36 1.691
12.507 -1.34 1.701
12.592 -1.3200001 1.7130001
12.673 -1.301 1.724
11.149 1.674 1.545
11.071 1.693 1.535
11.069 1.724 1.535
11.111 1.762 1.5420001
11.28 1.8200001 1.566
7.6090002 1.679 1.069
7.4320002 1.663 1.045
7.3779998 1.674 1.038
7.3530002 1.691 1.035
7.3239999 1.7079999 1.0319999
7.3140001 1.729 1.0319999
7.3179998 1.752 1.033
7.3150001 1.775 1.033
7.3319998 1.802 1.0369999
7.3379998 1.827 1.038
7.3600001 1.8559999 1.0420001
7.4419999 1.901 1.0549999
7.6030002 1.967 1.0779999
19.714001 -6.8039999 2.8139999
19.747 -6.756 2.8180001
19.986 -6.7779999 2.852
22.030001 -4.796 3.1110001
21.999001 -4.7249999 3.105
22.146999 -4.691 3.1259999
10.365 -1.617 1.455
10.168 -1.557 1.427
10.085 -1.515 1.415
10.09 -1.4859999 1.415
10.111 -1.46 1.418
10.177 -1.439 1.426
10.217 -1.415 1.432
10.276 -1.393 1.4400001
10.407 -1.381 1.4579999
12.352 -1.567 1.729
12.338 -1.529 1.727
12.374 -1.497 1.7309999
12.388 -1.4630001 1.733
12.41 -1.429 1.735
12.484 -1.401 1.745
12.592 -1.377 1.76
7.618 1.697 1.091
7.4530001 1.683 1.068
7.3839998 1.689 1.059
7.3410001 1.702 1.054
7.3280001 1.721 1.053
7.323 1.743 1.053
7.3070002 1.762 1.052
7.3130002 1.786 1.053
7.3179998 1.8099999 1.0549999
7.3340001 1.837 1.058
7.3600001 1.867 1.063
7.3940001 1.899 1.069
7.546 1.962 1.092
12.438 -8.1590004 1.86
12.516 -8.132 1.87
12.583 -8.0979996 1.878
12.666 -8.073 1.8890001
12.738 -8.0419998 1.898
12.83 -8.0229998 1.91
12.941 -8.0159998 1.925
19.67 -6.6539998 2.819
19.82 -6.631 2.839
22.311001 -5.0089998 3.1600001
22.07 -4.8889999 3.125
22.184999 -4.849 3.1400001
10.387 -1.638 1.4630001
10.209 -1.584 1.437
10.125 -1.545 1.425
10.085 -1.513 1.42
10.085 -1.488 1.419
10.11 -1.466 1.423
10.158 -1.448 1.429
10.187 -1.427 1.433
10.216 -1.406 1.437
10.249 -1.385 1.441
10.309 -1.369 1.45
10.481 -1.3660001 1.473
12.452 -1.564 1.75
12.362 -1.523 1.737
12.35 -1.493 1.735
12.369 -1.466 1.738
12.369 -1.437 1.738
12.382 -1.41 1.739
12.428 -1.387 1.745
12.452 -1.3609999 1.749
12.511 -1.339 1.757
12.599 -1.321 1.7690001
12.685 -1.301 1.781
7.4770002 1.674 1.089
7.3909998 1.678 1.077
7.3569999 1.693 1.073
7.3410001 1.712 1.071
7.323 1.7309999 1.0700001
7.3179998 1.753 1.0700001
7.3249998 1.778 1.072
7.3369999 1.804 1.074
7.3530002 1.832 1.077
7.3800001 1.862 1.082
7.4920001 1.914 1.099
19.174999 -7.079 2.8299999
19.035 -6.9699998 2.809
19.058001 -6.9219999 2.812
19.667999 -6.849 2.898
19.618 -6.7729998 2.8900001
19.688999 -6.7389998 2.9000001
19.881001 -6.7449999 2.927
22.219 -4.7719998 3.2360001
22.166 -4.6950002 3.2279999
22.187 -4.6350002 3.23
22.278 -4.5879998 3.2420001
22.361 -4.539 3.253
22.625 -4.527 3.2909999
10.166 -1.556 1.472
10.103 -1.517 1.462
10.086 -1.485 1.459
10.117 -1.46 1.464
10.17 -1.438 1.471
10.21 -1.414 1.476
10.271 -1.392 1.485
10.413 -1.381 1.505
12.406 -1.573 1.7920001
12.34 -1.528 1.7819999
12.361 -1.495 1.784
12.384 -1.461 1.7869999
12.434 -1.431 1.794
12.512 -1.403 1.804
12.6 -1.377 1.817
7.5539999 1.706 1.1210001
7.4260001 1.7 1.102
7.368 1.709 1.095
7.3540001 1.728 1.094
7.3299999 1.745 1.091
7.3249998 1.767 1.091
7.3169999 1.7869999 1.091
7.3340001 1.8150001 1.095
7.3509998 1.842 1.098
7.3829999 1.873 1.104
7.4949999 1.926 1.122
12.4 -8.1339998 1.913
12.471 -8.1029997 1.9220001
12.542 -8.0719995 1.931
12.616 -8.0430002 1.941
12.719 -8.0310001 1.955
12.848 -8.0360003 1.973
12.969 -8.0340004 1.99
19.049999 -6.8070002 2.822
19.118999 -6.757 2.8310001
19.716999 -6.671 2.914
19.886 -6.6539998 2.938
22.15 -4.9070001 3.234
22.114 -4.8330002 3.2279999
22.127001 -4.7709999 3.2290001
22.205 -4.723 3.24
22.313 -4.6799998 3.2550001
10.355 -1.633 1.5039999
10.185 -1.58 1.479
10.113 -1.543 1.4680001
10.096 -1.515 1.466
10.083 -1.487 1.4630001
10.115 -1.467 1.4680001
10.154 -1.447 1.473
10.175 -1.425 1.476
10.217 -1.406 1.482
10.258 -1.386 1.488
10.361 -1.375 1.502
12.47 -1.536 1.807
12.382 -1.4960001 1.794
12.402 -1.469 1.7970001
12.392 -1.439 1.795
12.418 -1.414 1.799
12.445 -1.388 1.803
12.474 -1.363 1.807
12.531 -1.341 1.8150001
12.649 -1.325 1.832
7.4640002 1.6950001 1.125
7.3920002 1.702 1.115
7.349 1.715 1.11
7.3390002 1.7359999 1.109
7.3390002 1.7589999 1.11
7.3299999 1.78 1.109
7.355 1.809 1.114
7.381 1.839 1.119
7.4580002 1.882 1.131
19.143999 -7.0710001 2.9130001
19.018 -6.967 2.8929999
19.061001 -6.9260001 2.8989999
19.216 -6.9250002 2.9219999
21.726999 -7.375 3.2980001
21.743999 -7.316 3.3
22.271999 -4.7839999 3.3440001
22.218 -4.7069998 3.335
22.264 -4.651 3.3410001
22.374001 -4.6079998 3.3570001
10.163 -1.5549999 1.517
10.102 -1.517 1.507
10.094 -1.4859999 1.506
10.119 -1.46 1.5089999
10.156 -1.4349999 1.5140001
10.203 -1.4119999 1.521
10.285 -1.393 1.5319999
10.521 -1.395 1.567
12.459 -1.5420001 1.854
12.44 -1.5039999 1.851
12.456 -1.469 1.853
12.465 -1.434 1.854
12.511 -1.402 1.86
12.79 -1.396 1.901
7.5419998 1.727 1.158
7.4200001 1.722 1.14
7.3839998 1.7359999 1.136
7.3740001 1.756 1.135
7.3730001 1.779 1.136
7.368 1.801 1.136
7.381 1.827 1.1390001
7.427 1.862 1.148
7.5999999 1.929 1.176
12.455 -8.1709995 1.98
12.544 -8.1520004 1.993
12.61 -8.1169996 2.0009999
12.713 -8.1049995 2.016
12.832 -8.1040001 2.033
19.212999 -6.8649998 2.9330001
19.302999 -6.823 2.9460001
10.211 -1.584 1.528
10.127 -1.545 1.515
10.108 -1.516 1.512
10.106 -1.4910001 1.512
10.127 -1.4680001 1.5140001
10.148 -1.446 1.517
10.181 -1.426 1.522
10.231 -1.4069999 1.529
10.302 -1.392 1.54
10.446 -1.386 1.561
12.625 -1.466 1.885
12.531 -1.426 1.8710001
12.489 -1.393 1.864
12.476 -1.363 1.862
12.496 -1.337 1.865
12.522 -1.311 1.868
12.641 -1.295 1.886
7.5 1.727 1.17
7.4190001 1.732 1.158
7.3909998 1.749 1.154
7.414 1.778 1.159
7.414 1.801 1.16
7.447 1.8329999 1.166
7.5510001 1.882 1.183
10.203 -1.561 1.569
10.125 -1.52 1.556
10.114 -1.488 1.554
10.133 -1.461 1.557
10.182 -1.439 1.564
10.238 -1.4170001 1.572
10.377 -1.405 1.5930001
12.704 -1.497 1.947
12.495 -1.436 1.914
12.48 -1.398 1.911
12.492 -1.363 1.9119999
7.592 1.785 1.207
7.4970002 1.786 1.193
7.4970002 1.809 1.194
7.5320001 1.841 1.2
7.6040001 1.883 1.2130001
31.496 12.643 5.2930002
31.382999 12.719 5.2810001
31.371 12.836 5.2870002
31.371 12.957 5.2940001
10.377 -1.609 1.599
10.182 -1.553 1.569
10.137 -1.52 1.561
10.135 -1.495 1.561
10.152 -1.472 1.563
10.185 -1.451 1.568
10.215 -1.4299999 1.572
10.294 -1.416 1.584
10.398 -1.405 1.6
12.697 -1.415 1.951
12.499 -1.365 1.921
12.49 -1.335 1.919
12.47 -1.3049999 1.916
12.488 -1.279 1.918
12.559 -1.258 1.929
31.413 11.979 5.2820001
31.415001 12.091 5.2880001
31.377001 12.188 5.2880001
31.386999 12.303 5.296
31.433001 12.546 5.316
31.389999 12.641 5.3150001
31.379999 12.749 5.3200002
31.445 12.888 5.3369999
31.417 12.99 5.3390002
10.387 -1.589 1.6440001
10.203 -1.531 1.614
10.164 -1.495 1.607
10.197 -1.47 1.612
10.236 -1.446 1.618
10.323 -1.428 1.631
10.482 -1.419 1.656
12.561 -1.443 1.98
12.465 -1.395 1.964
12.436 -1.3559999 1.959
12.473 -1.323 1.965
31.297001 10.705 5.3169999
31.274 10.81 5.3200002
31.275 10.924 5.3270001
31.257 11.031 5.3299999
31.250999 11.143 5.336
31.247999 11.256 5.3429999
31.24 11.368 5.348
31.26 11.491 5.3590002
31.266001 11.609 5.3670001
31.256001 11.722 5.3720002
31.287001 11.851 5.3850002
31.281 11.966 5.3909998
31.273001 12.081 5.3969998
31.285 12.204 5.4060001
31.337999 12.344 5.4229999
31.322001 12.458 5.428
31.285999 12.563 5.4289999
31.323 12.699 5.4429998
31.322001 12.82 5.4510002
31.343 12.951 5.4619999
10.47 -1.651 1.66
10.386 -1.6109999 1.647
10.304 -1.571 1.633
10.237 -1.535 1.623
10.201 -1.5039999 1.6160001
10.222 -1.482 1.62
10.272 -1.4630001 1.627
10.329 -1.446 1.636
10.42 -1.433 1.65
12.524 -1.367 1.98
12.497 -1.335 1.976
12.468 -1.304 1.971
12.455 -1.275 1.969
12.474 -1.249 1.971
12.605 -1.235 1.992
31.296 9.9809999 5.3270001
31.288 10.085 5.3309999
31.275999 10.188 5.3340001
31.238001 10.282 5.3330002
31.238001 10.39 5.3390002
31.216 10.49 5.3400002
31.235001 10.604 5.349
31.226999 10.709 5.3540001
31.254 10.827 5.3639998
31.254999 10.936 5.3699999
31.264999 11.048 5.3769999
31.311001 11.173 5.3909998
31.313 11.284 5.3969998
31.27 11.378 5.3959999
31.292999 11.496 5.4060001
31.309999 11.612 5.415
31.332001 11.731 5.4250002
31.313999 11.835 5.428
31.330999 11.952 5.4369998
31.341 12.067 5.4450002
31.334 12.176 5.4499998
31.347 12.292 5.4590001
31.466999 12.452 5.4860001
31.379999 12.529 5.4770002
10.417 -1.654 1.696
10.363 -1.615 1.687
10.311 -1.577 1.678
10.272 -1.541 1.671
10.241 -1.506 1.666
10.273 -1.4809999 1.67
10.35 -1.461 1.683
10.515 -1.454 1.709
12.541 -1.403 2.033
12.445 -1.3559999 2.017
12.438 -1.319 2.0150001
12.563 -1.295 2.0350001
31.287001 8.7629995 5.3709998
31.179001 8.8360004 5.3579998
31.204 8.9469995 5.368
31.193001 9.0480003 5.3720002
31.165001 9.1450005 5.3730001
31.152 9.2460003 5.3769999
31.160999 9.3549995 5.3850002
31.179001 9.4659996 5.3940001
31.186001 9.5749998 5.401
31.129999 9.665 5.3979998
31.134001 9.7740002 5.4050002
31.167 9.8929996 5.4169998
31.139999 9.993 5.4190001
31.150999 10.106 5.427
31.150999 10.215 5.4330001
31.177 10.334 5.4450002
31.194 10.451 5.454
31.188 10.56 5.46
31.188 10.672 5.467
31.205 10.79 5.4759998
31.201 10.902 5.4829998
31.202 11.015 5.4899998
31.222 11.137 5.5
31.218 11.25 5.507
31.207001 11.36 5.5120001
31.256001 11.494 5.5279999
31.237 11.603 5.5320001
31.236 11.719 5.539
31.275999 11.851 5.5539999
31.274 11.968 5.5609999
31.264999 12.082 5.5669999
31.296 12.213 5.5799999
31.287001 12.329 5.586
31.306 12.456 5.5970001
31.291 12.571 5.6020002
31.322001 12.704 5.6160002
31.32 12.824 5.6230001
31.332001 12.951 5.6339998
10.446 -1.728 1.704
10.345 -1.684 1.687
10.305 -1.651 1.681
10.287 -1.6210001 1.677
10.271 -1.592 1.674
10.257 -1.564 1.6720001
10.28 -1.541 1.675
10.31 -1.52 1.6799999
10.358 -1.501 1.687
10.514 -1.497 1.712
12.548 -1.284 2.039
12.512 -1.252 2.033
12.564 -1.23 2.0409999
31.181 7.7849998 5.369
31.152 7.8779998 5.368
31.118999 7.9699998 5.3670001
31.122999 8.0710001 5.3720002
31.128 8.1730003 5.3779998
31.094 8.2650003 5.3759999
31.118 8.3719997 5.3850002
31.108 8.4709997 5.388
31.103001 8.5719995 5.3920002
31.103001 8.6739998 5.3969998
31.106001 8.7770004 5.4029999
31.162001 8.8959999 5.4169998
31.16 8.9989996 5.4219999
31.143 9.0979996 5.4239998
31.128 9.1969995 5.4260001
31.167 9.3129997 5.4380002
31.18 9.4209995 5.4460001
31.171 9.5229998 5.4489999
31.169001 9.6280003 5.454
31.202 9.743 5.4650002
31.153 9.8330002 5.4619999
31.190001 9.9510002 5.474
31.155001 10.046 5.474
31.235001 10.179 5.493
31.183001 10.269 5.4899998
31.205 10.383 5.4990001
31.212 10.493 5.506
31.216 10.602 5.513
31.236 10.716 5.5219998
31.247 10.829 5.5300002
31.25 10.938 5.5359998
31.264 11.052 5.5450001
31.250999 11.156 5.5489998
31.254999 11.267 5.5549998
31.235001 11.369 5.5580001
31.288 11.499 5.5739999
31.292 11.61 5.5809999
31.305 11.726 5.5890002
31.341999 11.85 5.6020002
31.362 11.969 5.612
31.302999 12.057 5.6079998
31.323999 12.177 5.618
26.559999 -10.069 4.5349998
26.525 -9.9759998 4.5279999
26.573 -9.9139996 4.5349998
10.352 -1.674 1.733
10.278 -1.632 1.72
10.262 -1.599 1.717
10.254 -1.568 1.715
10.268 -1.54 1.717
10.319 -1.517 1.725
10.505 -1.5140001 1.756
31.125 6.5799999 5.395
31.075001 6.6609998 5.3899999
31.070999 6.7519999 5.3940001
31.069 6.8439999 5.3979998
31.065001 6.9369998 5.4029999
31.115 7.0419998 5.4159999
31.065001 7.125 5.4120002
31.024 7.21 5.4099998
31.014 7.303 5.4130001
31.044001 7.4060001 5.4229999
31.07 7.5089998 5.4330001
31.086 7.6100001 5.441
31.068001 7.7030001 5.4429998
31.017 7.7880001 5.4390001
31.061001 7.8969998 5.4520001
31.087999 8.0030003 5.4619999
31.02 8.085 5.4559999
31.065001 8.1960001 5.4689999
31.048 8.2930002 5.4720001
31.051001 8.3940001 5.4780002
31.049999 8.4949999 5.4840002
31.052999 8.5979996 5.4899998
31.058001 8.7019997 5.4959998
31.073 8.809 5.5050001
31.069 8.9119997 5.5100002
31.091999 9.0220003 5.52
31.07 9.1199999 5.5219998
31.087999 9.2309999 5.5320001
31.117001 9.3450003 5.5430002
31.112 9.4490004 5.5489998
31.1 9.552 5.553
31.103001 9.6610003 5.5599999
31.115 9.7720003 5.5679998
31.128 9.8839998 5.5770001
31.120001 9.9899998 5.5819998
31.160999 10.113 5.5960002
31.143 10.217 5.5999999
31.157 10.332 5.6090002
31.163 10.444 5.6170001
31.174 10.559 5.6259999
31.186001 10.675 5.6350002
31.193001 10.79 5.6440001
31.166 10.894 5.6459999
31.195999 11.018 5.6589999
31.169001 11.122 5.6609998
31.194 11.245 5.6729999
