# .PCD v0.7 - Point Cloud Data file format
VERSION 0.7
FIELDS x y z
SIZE 4 4 4
TYPE F F F
COUNT 1 1 1
WIDTH 1900
HEIGHT 1
VIEWPOINT 0 0 0 1 0 0 0
POINTS 1900
DATA ascii
12.739 0.34799999 0.68699998
12.733 0.36399999 0.68599999
12.735 0.38100001 0.68599999
12.743 0.39899999 0.68599999
12.752 0.41600001 0.68599999
12.769 0.435 0.68699998
12.774 0.45300001 0.68699998
12.777 0.472 0.68699998
12.785 0.491 0.68699998
12.781 0.509 0.68699998
12.796 0.52899998 0.68800002
12.8 0.54900002 0.68800002
12.803 0.56900001 0.68800002
12.817 0.58999997 0.68800002
12.806 0.61000001 0.68800002
12.835 0.63200003 0.68900001
12.838 0.65399998 0.68900001
12.879 0.67699999 0.69099998
12.908 0.70099998 0.69300002
12.913 0.72299999 0.69300002
12.907 0.745 0.69300002
12.895 0.76700002 0.69199997
12.902 0.79100001 0.69199997
12.882 0.81300002 0.69099998
12.851 0.83399999 0.68900001
12.823 0.85600001 0.68800002
12.776 0.87699997 0.685
12.736 0.898 0.68300003
12.707 0.92000002 0.68199998
12.703 0.94400001 0.68099999
12.712 0.97000003 0.68199998
12.723 0.99599999 0.68300003
12.729 1.021 0.68300003
12.754 1.049 0.68400002
12.776 1.077 0.685
12.797 1.105 0.68699998
12.826 1.1339999 0.68800002
12.87 1.165 0.69099998
12.895 1.194 0.69199997
12.907 1.223 0.69300002
20.888 1.979 1.122
12.932 1.253 0.69400001
20.818001 2.0179999 1.118
12.951 1.283 0.69499999
20.951 2.076 1.125
12.975 1.314 0.69700003
20.955999 2.122 1.126
12.979 1.3430001 0.69700003
13.002 1.374 0.699
21.416 2.2639999 1.151
12.995 1.403 0.69800001
21.134001 2.2820001 1.136
13.055 1.439 0.70200002
21.058001 2.3210001 1.132
13.147 1.479 0.70700002
21.076 2.372 1.133
21.080999 2.421 1.1339999
21.57 2.527 1.16
21.582001 2.579 1.161
21.671 2.641 1.166
21.794001 2.7079999 1.173
21.862 2.7690001 1.177
21.848 2.8199999 1.177
21.877001 2.8770001 1.179
21.843 2.9260001 1.177
21.788 2.973 1.175
21.849001 3.036 1.178
21.738001 3.075 1.173
21.712 3.1259999 1.1720001
22.215 3.2550001 1.199
22.153 3.303 1.196
22.18 3.3640001 1.198
22.24 3.431 1.202
22.24 3.4890001 1.2029999
22.273001 3.553 1.205
22.306999 3.618 1.207
22.294001 3.675 1.207
22.218 3.7219999 1.204
22.205 3.78 1.2029999
22.153 3.832 1.201
22.139999 3.8900001 1.201
22.142 3.951 1.202
22.156 4.0149999 1.2029999
22.228001 4.0900002 1.2079999
22.259001 4.1589999 1.21
22.32 4.2329998 1.214
22.379999 4.3080001 1.2180001
22.224001 4.3410001 1.21
22.431 4.4460001 1.222
22.476 4.52 1.225
22.482 4.5869999 1.226
22.5 4.6560001 1.228
22.457001 4.7129998 1.226
22.424999 4.7729998 1.225
19.73 5.1760001 1.09
19.615 5.21 1.085
19.625 5.276 1.086
19.575001 5.3260002 1.084
19.627001 5.4050002 1.0880001
18.209999 5.1950002 1.012
17.964001 5.1849999 0.99900001
17.827999 5.2059999 0.99299997
17.736 5.2389998 0.98799998
17.665001 5.2779999 0.98500001
17.787001 5.3740001 0.99299997
17.489 5.586 0.98100001
17.351999 5.6030002 0.97399998
17.423 5.6869998 0.97899997
17.441 5.7550001 0.98100001
17.320999 5.776 0.97500002
7.882 3.911 0.46700001
7.7870002 3.8959999 0.46200001
7.7459998 3.908 0.46000001
7.717 3.9260001 0.45899999
7.704 3.9530001 0.45899999
7.7119999 3.99 0.46000001
7.73 4.0320001 0.46200001
7.7270002 4.0640001 0.46200001
7.7049999 4.085 0.461
7.6739998 4.1020002 0.46000001
7.6490002 4.1220002 0.45899999
7.612 4.1350002 0.458
7.5679998 4.1440001 0.456
7.5279999 4.1550002 0.454
7.5209999 4.1849999 0.454
7.5139999 4.2140002 0.45500001
7.5320001 4.2579999 0.45699999
7.6100001 4.336 0.46200001
11.28 6.5279999 0.68699998
11.26 6.5669999 0.68699998
10.516 -6.9060001 0.69099998
10.546 -6.8590002 0.69199997
10.589 -6.822 0.69499999
10.649 -6.7950001 0.69800001
10.673 -6.7459998 0.699
10.712 -6.7059999 0.70099998
10.784 -6.6869998 0.70499998
10.801 -6.6339998 0.70599997
10.835 -6.5910001 0.70700002
10.888 -6.5599999 0.70999998
10.9 -6.5040002 0.70999998
10.931 -6.46 0.71200001
10.968 -6.4200001 0.71399999
10.987 -6.3699999 0.71399999
11.023 -6.3299999 0.71600002
11.087 -6.3049998 0.72000003
11.115 -6.2600002 0.72100002
11.162 -6.2259998 0.72399998
11.233 -6.2059999 0.72799999
11.27 -6.1659999 0.73000002
11.274 -6.1090002 0.73000002
11.275 -6.0500002 0.72899997
11.322 -6.0170002 0.73199999
11.368 -5.9829998 0.73400003
11.378 -5.9299998 0.73400003
11.409 -5.888 0.736
11.446 -5.8499999 0.73799998
11.49 -5.8150001 0.74000001
11.54 -5.783 0.74299997
11.576 -5.744 0.745
11.597 -5.698 0.74599999
11.616 -5.651 0.74699998
11.638 -5.6059999 0.74800003
11.681 -5.5710001 0.75
11.748 -5.5479999 0.75400001
11.807 -5.5209999 0.75700003
11.816 -5.4699998 0.75700003
11.879 -5.4439998 0.76099998
11.958 -5.4260001 0.76599997
11.959 -5.3720002 0.76499999
12.03 -5.3499999 0.76899999
12.076 -5.316 0.77200001
12.092 -5.2690001 0.773
12.172 -5.2509999 0.77700001
12.257 -5.2329998 0.78200001
12.29 -5.1939998 0.78399998
12.351 -5.1669998 0.78799999
12.374 -5.1240001 0.78899997
12.419 -5.0890002 0.79100001
12.479 -5.0609999 0.79500002
12.505 -5.0190001 0.796
12.565 -4.9910002 0.79900002
12.696 -4.9910002 0.80699998
12.767 -4.9660001 0.81099999
12.908 -4.9689999 0.81999999
12.996 -4.9499998 0.82499999
13.021 -4.9070001 0.82599998
13.029 -4.8579998 0.82700002
13.087 -4.8280001 0.82999998
13.436 -4.8000002 0.85100001
13.286 -4.6950002 0.84100002
13.503 -4.7199998 0.85500002
13.623 -4.71 0.86199999
13.615 -4.6560001 0.861
13.622 -4.6069999 0.861
13.665 -4.5710001 0.86400002
13.69 -4.5289998 0.86500001
13.733 -4.4920001 0.86699998
13.79 -4.461 0.87099999
13.751 -4.3979998 0.86799997
13.773 -4.3559999 0.86900002
13.89 -4.3429999 0.87599999
13.998 -4.3270001 0.88300002
13.954 -4.2150002 0.87900001
14.011 -4.184 0.88300002
14.049 -4.1469998 0.88499999
14.045 -4.0970001 0.884
14.263 -4.112 0.898
14.25 -4.0599999 0.89600003
14.376 -3.9990001 0.90399998
14.347 -3.9430001 0.90200001
14.44 -3.921 0.90700001
10.989 -2.5999999 0.68800002
10.834 -2.53 0.67900002
10.812 -2.4920001 0.67699999
10.822 -2.461 0.67799997
10.893 -2.4449999 0.68199998
10.878 -2.313 0.68000001
10.8 -2.2650001 0.67500001
10.765 -2.2260001 0.67299998
10.781 -2.1989999 0.67400002
10.825 -2.177 0.676
10.916 -2.164 0.68199998
12.946 -0.419 0.80500001
12.852 -0.39399999 0.80000001
12.737 -0.36899999 0.79299998
12.687 -0.347 0.78899997
12.656 -0.32499999 0.78799999
12.647 -0.303 0.787
12.647 -0.28299999 0.787
12.632 -0.26199999 0.78600001
12.64 -0.241 0.787
12.63 -0.221 0.78600001
12.627 -0.20100001 0.78600001
12.649 -0.18099999 0.78799999
12.649 -0.161 0.78799999
12.656 -0.142 0.78799999
12.676 -0.123 0.79000002
12.733 -0.104 0.79299998
12.863 -0.085000001 0.801
12.711 0.185 0.72299999
12.724 0.208 0.72399998
12.727 0.23100001 0.72399998
12.736 0.25400001 0.72399998
12.735 0.27700001 0.72399998
12.743 0.301 0.72399998
12.75 0.32499999 0.72399998
12.761 0.34999999 0.72500002
12.778 0.375 0.72500002
12.778 0.40000001 0.72500002
12.773 0.42500001 0.72500002
12.784 0.44999999 0.72500002
12.799 0.47600001 0.72600001
12.812 0.50300002 0.727
12.824 0.52899998 0.727
12.823 0.55599999 0.727
12.824 0.583 0.727
12.831 0.61000001 0.727
12.873 0.639 0.73000002
12.9 0.66799998 0.73100001
12.912 0.69700003 0.73199999
12.927 0.72600001 0.73199999
12.908 0.75300002 0.73100001
12.892 0.78100002 0.73000002
12.875 0.80800003 0.72899997
12.85 0.83600003 0.72799999
12.821 0.86299998 0.72600001
12.777 0.889 0.72399998
12.733 0.91600001 0.72100002
12.706 0.94300002 0.72000003
12.71 0.97299999 0.72000003
12.721 1.0039999 0.72100002
12.739 1.036 0.722
12.747 1.067 0.722
12.782 1.101 0.72399998
12.806 1.1339999 0.72600001
12.85 1.169 0.72799999
12.875 1.2029999 0.73000002
12.893 1.237 0.73100001
12.907 1.271 0.73199999
21.285 2.096 1.207
12.943 1.307 0.73400003
21.277 2.148 1.207
12.953 1.34 0.73400003
21.351999 2.21 1.211
12.972 1.376 0.736
21.379 2.267 1.2130001
12.977 1.409 0.736
21.4 2.3239999 1.214
12.999 1.4450001 0.73699999
21.406 2.3800001 1.215
13.031 1.482 0.73900002
21.400999 2.4349999 1.215
13.163 1.5319999 0.74699998
21.475 2.5 1.219
21.701 2.5829999 1.232
21.575001 2.625 1.225
21.625 2.688 1.228
21.809999 2.77 1.239
21.898001 2.839 1.244
21.856001 2.8929999 1.242
21.85 2.9519999 1.242
21.834 3.0090001 1.242
21.825001 3.0680001 1.2410001
21.847 3.131 1.243
21.799 3.1849999 1.2410001
22.082001 3.2869999 1.257
22.142 3.358 1.261
22.183001 3.427 1.2640001
22.222 3.4960001 1.266
22.275 3.5669999 1.27
22.362 3.645 1.275
22.368 3.71 1.276
22.312 3.7650001 1.273
22.288 3.826 1.272
22.254999 3.885 1.271
22.250999 3.9489999 1.271
22.237 4.0120001 1.271
22.252001 4.0799999 1.272
22.358 4.1659999 1.279
22.427 4.2449999 1.283
22.485001 4.3239999 1.2869999
22.499001 4.3940001 1.289
22.540001 4.4699998 1.291
22.576 4.5450001 1.294
22.577999 4.6139998 1.295
22.68 4.704 1.301
19.666 5.1950002 1.14
19.652 5.2550001 1.14
19.580999 5.3000002 1.136
19.773001 5.4169998 1.148
18.108 5.1999998 1.054
18.021 5.2340002 1.05
18.068001 5.3080001 1.054
17.669001 5.4879999 1.034
17.445 5.4770002 1.022
17.393999 5.52 1.02
17.299999 5.5489998 1.015
17.295 5.6059999 1.015
17.443001 5.7140002 1.025
17.280001 5.7199998 1.016
17.259001 5.7719998 1.016
17.253 5.829 1.016
7.8600001 3.9200001 0.484
7.7969999 3.9170001 0.47999999
7.7709999 3.9319999 0.479
7.7399998 3.9449999 0.47799999
7.7360001 3.971 0.47799999
7.7600002 4.0120001 0.47999999
7.8140001 4.0689998 0.484
7.7919998 4.085 0.48300001
7.7350001 4.0840001 0.47999999
7.6950002 4.0910001 0.47799999
7.664 4.1020002 0.477
7.6469998 4.1209998 0.477
7.631 4.1409998 0.47600001
7.5840001 4.1420002 0.47400001
7.5409999 4.1469998 0.472
7.5240002 4.164 0.47099999
7.52 4.1900001 0.472
7.5250001 4.2199998 0.472
7.5500002 4.2610002 0.47499999
7.6370001 4.3379998 0.48100001
11.369 6.6230001 0.71899998
11.175 6.5500002 0.708
11.12 6.5580001 0.70499998
11.067 6.5669999 0.70300001
11.05 6.5960002 0.70300001
11.025 6.6209998 0.70200002
10.994 6.6420002 0.70099998
10.976 6.6700001 0.70099998
10.967 6.704 0.70099998
10.964 6.7410002 0.70200002
10.96 6.7779999 0.70200002
11.004 6.8439999 0.70599997
12.014 -6.2690001 0.80400002
11.991 -6.2220001 0.80199999
12.001 -6.1919999 0.80299997
12.033 -6.1729999 0.80500001
12.101 -6.1719999 0.80900002
12.126 -6.1500001 0.81099999
12.111 -6.1059999 0.81
12.154 -6.0929999 0.81199998
12.156 -6.0580001 0.81199998
12.132 -6.0100002 0.81099999
12.19 -6.0029998 0.815
12.22 -5.9819999 0.81599998
12.247 -5.9590001 0.81800002
12.242 -5.921 0.81800002
12.268 -5.8969998 0.81900001
12.266 -5.8600001 0.81900001
12.309 -5.8449998 0.82200003
12.371 -5.8379998 0.82599998
12.382 -5.8070002 0.82599998
12.384 -5.7709999 0.82599998
12.388 -5.737 0.82700002
12.466 -5.7360001 0.83200002
12.481 -5.7059999 0.833
12.526 -5.6900001 0.83499998
12.5 -5.6409998 0.83399999
12.548 -5.6259999 0.83700001
12.577 -5.6020002 0.838
12.587 -5.5689998 0.83899999
12.633 -5.553 0.84200001
12.675 -5.5339999 0.84500003
12.734 -5.5229998 0.84799999
12.866 -5.5419998 0.85699999
12.792 -5.4720001 0.852
12.794 -5.4359999 0.852
12.805 -5.4029999 0.85299999
12.88 -5.3959999 0.85799998
13.013 -5.414 0.866
12.986 -5.3639998 0.86400002
13.083 -5.3280001 0.87099999
13.033 -5.2690001 0.86699998
13.619 -5.066 0.90399998
13.592 -5.0159998 0.903
13.657 -5 0.90700001
13.663 -4.9619999 0.90700001
13.688 -4.9310002 0.90799999
13.666 -4.8829999 0.90700001
13.662 -4.8410001 0.90600002
13.706 -4.8169999 0.90899998
13.75 -4.7919998 0.912
13.782 -4.763 0.91399997
13.826 -4.737 0.917
13.82 -4.6950002 0.91600001
13.895 -4.6789999 0.921
14.004 -4.4699998 0.92699999
14.008 -4.4310002 0.92699999
14.039 -4.4000001 0.92900002
14.028 -4.355 0.92799997
14.02 -4.3119998 0.92799997
14.166 -4.2329998 0.93699998
14.216 -4.2059999 0.94
14.387 -4.2150002 0.95099998
14.464 -4.1950002 0.95599997
14.346 -4.119 0.94800001
14.514 -4.125 0.95899999
14.549 -4.092 0.96100003
14.626 -4.0289998 0.96600002
14.623 -3.9849999 0.96499997
14.597 -3.9360001 0.963
14.707 -3.9230001 0.97000003
14.744 -3.8900001 0.97299999
11.017 -2.5220001 0.72500002
10.867 -2.4560001 0.71499997
10.823 -2.415 0.71200001
10.827 -2.385 0.71200001
10.863 -2.3610001 0.71399999
11.054 -2.3699999 0.727
10.99 -2.293 0.722
10.818 -2.2260001 0.71100003
10.786 -2.188 0.70899999
10.76 -2.152 0.70700002
10.796 -2.128 0.70899999
10.852 -2.1070001 0.71200001
12.977 -0.54000002 0.84200001
12.855 -0.498 0.83399999
12.719 -0.456 0.82499999
12.677 -0.41800001 0.82200003
12.642 -0.38100001 0.81900001
12.64 -0.345 0.81900001
12.629 -0.308 0.81800002
12.63 -0.27200001 0.81800002
12.632 -0.236 0.81800002
12.644 -0.2 0.81900001
12.672 -0.164 0.81999999
12.693 -0.12800001 0.82099998
12.797 -0.092 0.82800001
13.015 0.132 0.76800001
13.009 0.14399999 0.76700002
13.013 0.156 0.76700002
13.013 0.168 0.76599997
13 0.18000001 0.76499999
12.988 0.193 0.764
12.996 0.206 0.764
13.009 0.22 0.76499999
13.002 0.234 0.764
12.991 0.248 0.76300001
12.98 0.26199999 0.76200002
12.967 0.27700001 0.76099998
12.967 0.292 0.76099998
12.95 0.30700001 0.75999999
12.973 0.324 0.76099998
12.951 0.33899999 0.759
12.951 0.35600001 0.759
12.95 0.373 0.759
12.944 0.38999999 0.75800002
12.937 0.40700001 0.75700003
12.96 0.42500001 0.759
12.955 0.44299999 0.75800002
12.987 0.463 0.75999999
12.975 0.48100001 0.759
12.987 0.5 0.759
12.986 0.51999998 0.759
12.979 0.53899997 0.759
12.968 0.55800003 0.75800002
12.983 0.579 0.759
12.99 0.60000002 0.759
13.016 0.62199998 0.75999999
12.994 0.64200002 0.759
13.017 0.66500002 0.75999999
13.002 0.68599999 0.759
12.989 0.70700002 0.75800002
12.966 0.72799999 0.75700003
12.956 0.75 0.75599998
12.947 0.77200001 0.75599998
12.947 0.79500002 0.75599998
12.934 0.81699997 0.755
12.914 0.83999997 0.75400001
12.888 0.86199999 0.75199997
12.857 0.884 0.75
12.856 0.90799999 0.75
12.854 0.93199998 0.75
12.87 0.958 0.75099999
12.879 0.98400003 0.75199997
12.866 1.008 0.75099999
12.887 1.035 0.75199997
12.883 1.061 0.75199997
12.898 1.0880001 0.75300002
12.895 1.115 0.75300002
12.92 1.1440001 0.75400001
12.915 1.17 0.75400001
12.898 1.196 0.75300002
12.932 1.227 0.755
12.957 1.257 0.75700003
22.43 2.1760001 1.311
12.984 1.288 0.759
22.298 2.2119999 1.303
12.984 1.316 0.759
21.940001 2.224 1.283
12.983 1.345 0.759
21.839001 2.2620001 1.277
13.017 1.377 0.76099998
21.886 2.316 1.28
13.076 1.413 0.76499999
21.902 2.3670001 1.281
13.115 1.447 0.76700002
22.066 2.434 1.291
22.016001 2.4790001 1.288
22.021999 2.5309999 1.289
22.101999 2.5910001 1.294
22.209999 2.6559999 1.301
22.194 2.707 1.3
22.194 2.7590001 1.301
22.184 2.8110001 1.3
22.156 2.8610001 1.299
22.093 2.9070001 1.296
22.073 2.9590001 1.295
22.031 3.007 1.293
22.069 3.0680001 1.296
22.122999 3.131 1.299
22.214001 3.2 1.3049999
22.233 3.2590001 1.307
22.226999 3.3150001 1.307
22.225 3.372 1.307
22.319 3.444 1.314
22.385 3.513 1.318
22.459 3.5840001 1.323
22.632999 3.6719999 1.334
22.681 3.74 1.337
22.698999 3.8039999 1.339
22.691 3.8640001 1.339
22.465 3.8870001 1.326
22.403 3.937 1.323
22.364 3.9920001 1.322
22.34 4.0500002 1.321
22.407 4.1240001 1.326
22.566999 4.217 1.336
22.601999 4.2870002 1.339
22.562 4.3439999 1.337
22.577 4.4109998 1.339
22.59 4.4790001 1.34
22.629 4.552 1.344
22.657 4.6230001 1.346
22.753 4.7090001 1.353
17.5 5.5289998 1.069
17.389999 5.5549998 1.063
17.346001 5.6020002 1.062
17.368999 5.6700001 1.064
17.504999 5.776 1.074
17.353001 5.7870002 1.0650001
17.200001 5.7969999 1.057
17.204 5.8600001 1.059
8.0389996 3.9549999 0.51899999
7.875 3.9070001 0.509
7.8299999 3.918 0.50700003
7.777 3.924 0.50400001
7.7529998 3.9449999 0.50300002
7.803 4.0029998 0.50700003
7.848 4.0599999 0.51099998
7.7919998 4.0650001 0.50800002
7.7249999 4.0630002 0.50400001
7.6799998 4.072 0.50199997
7.658 4.0939999 0.50099999
7.6360002 4.1149998 0.50099999
7.5970001 4.1269999 0.49900001
7.553 4.1360002 0.49700001
7.533 4.1589999 0.49599999
11.348 6.2649999 0.74800003
7.5320001 4.191 0.49700001
11.275 6.2740002 0.74400002
7.5289998 4.223 0.498
11.227 6.2969999 0.74199998
7.5640001 4.276 0.50099999
11.204 6.3340001 0.74199998
7.7160001 4.3959999 0.51200002
11.167 6.362 0.741
11.149 6.4029999 0.741
11.144 6.4499998 0.741
11.146 6.5009999 0.74299997
11.311 6.6479998 0.755
10.91 -7.1630001 0.76800001
10.99 -7.1469998 0.773
11.044 -7.1139998 0.77600002
11.072 -7.0640001 0.77700001
11.127 -7.0310001 0.77999997
11.167 -6.9889998 0.78200001
11.205 -6.9460001 0.78399998
11.245 -6.9050002 0.787
11.271 -6.855 0.78799999
11.324 -6.8210001 0.79100001
11.372 -6.7849998 0.79400003
11.409 -6.7420001 0.796
11.426 -6.6869998 0.796
11.486 -6.658 0.80000001
11.516 -6.612 0.801
11.548 -6.566 0.80299997
11.597 -6.5300002 0.80599999
11.698 -6.5240002 0.81199998
11.736 -6.4829998 0.81400001
11.801 -6.4559999 0.81800002
11.778 -6.381 0.81599998
11.783 -6.322 0.81599998
11.847 -6.2950001 0.81999999
11.86 -6.2399998 0.81999999
11.908 -6.2049999 0.82300001
11.94 -6.1609998 0.82499999
11.995 -6.1290002 0.82800001
12.027 -6.086 0.82999998
12.06 -6.0430002 0.83099997
12.114 -6.0100002 0.83499998
12.13 -5.9590001 0.83499998
12.172 -5.921 0.838
12.213 -5.882 0.83999997
12.243 -5.8390002 0.84100002
12.282 -5.7989998 0.84399998
12.339 -5.7690001 0.847
12.391 -5.7350001 0.85000002
12.435 -5.698 0.85299999
12.468 -5.6560001 0.85500002
12.501 -5.6149998 0.85600001
12.537 -5.5739999 0.85799998
12.613 -5.552 0.86299998
12.617 -5.4970002 0.86299998
12.707 -5.48 0.86900002
12.764 -5.4499998 0.87199998
12.849 -5.4299998 0.87699997
12.907 -5.3990002 0.88099998
13.006 -5.3839998 0.88700002
13.743 -5.1240001 0.93300003
13.732 -5.066 0.93199998
13.72 -5.007 0.93099999
13.724 -4.9549999 0.93099999
13.724 -4.902 0.93099999
13.782 -4.869 0.93400002
13.741 -4.803 0.93099999
13.779 -4.7639999 0.93300003
13.847 -4.7350001 0.93699998
13.886 -4.6960001 0.94
13.988 -4.6789999 0.94599998
14.058 -4.6500001 0.95099998
14.544 -4.3429999 0.98000002
14.532 -4.289 0.97899997
14.574 -4.2509999 0.98199999
10.941 -2.5880001 0.73299998
10.823 -2.527 0.72500002
10.817 -2.493 0.72500002
10.813 -2.4590001 0.72399998
10.896 -2.4460001 0.73000002
10.845 -2.3699999 0.72600001
10.756 -2.3180001 0.72000003
10.744 -2.2839999 0.71899998
10.733 -2.2509999 0.71799999
10.765 -2.2260001 0.72000003
10.8 -2.2030001 0.722
10.962 -2.204 0.73299998
13.009 -0.421 0.866
12.965 -0.398 0.86299998
12.869 -0.373 0.85600001
12.768 -0.34900001 0.85000002
12.709 -0.32600001 0.84600002
12.697 -0.30500001 0.84500003
12.695 -0.28400001 0.84500003
12.68 -0.26300001 0.84399998
12.683 -0.242 0.84399998
12.693 -0.222 0.84500003
12.702 -0.20200001 0.84600002
12.724 -0.182 0.847
12.757 -0.163 0.85000002
12.793 -0.14300001 0.852
12.826 -0.124 0.85399997
12.894 -0.105 0.85900003
12.865 0.19 0.792
12.879 0.213 0.79299998
12.868 0.235 0.792
12.896 0.259 0.79400003
12.911 0.28299999 0.79400003
12.905 0.30700001 0.79400003
12.937 0.33199999 0.796
12.931 0.35600001 0.79500002
12.954 0.382 0.796
12.976 0.40799999 0.79799998
12.959 0.43200001 0.796
12.983 0.45899999 0.79799998
12.991 0.48500001 0.79799998
12.987 0.51099998 0.79799998
13.012 0.53899997 0.79900002
12.997 0.565 0.79799998
13.019 0.59299999 0.79900002
13.03 0.62099999 0.80000001
13.031 0.64899999 0.80000001
13.038 0.67699999 0.80000001
13.032 0.70499998 0.80000001
13.014 0.73199999 0.79900002
13.008 0.75999999 0.79799998
13.002 0.78899997 0.79799998
12.982 0.81599998 0.79699999
12.978 0.84500003 0.796
12.949 0.87300003 0.79500002
12.937 0.90200001 0.79400003
12.915 0.93000001 0.79299998
12.892 0.958 0.79100001
12.918 0.99000001 0.79299998
12.956 1.024 0.79500002
12.931 1.053 0.79400003
12.943 1.085 0.79500002
12.939 1.1160001 0.79400003
12.957 1.149 0.796
12.976 1.182 0.79699999
12.952 1.212 0.79500002
12.934 1.242 0.79400003
22.386999 2.1500001 1.375
12.973 1.278 0.79699999
22.268 2.194 1.368
13.009 1.314 0.79900002
22.214001 2.2449999 1.365
13.061 1.353 0.80299997
22.158001 2.2950001 1.362
13.05 1.385 0.80199999
22.073999 2.3429999 1.357
13.096 1.423 0.80500001
22.045 2.3959999 1.355
22.032 2.451 1.355
22.124001 2.5190001 1.3609999
22.120001 2.576 1.3609999
22.127001 2.635 1.362
22.403 2.727 1.3789999
22.393 2.7850001 1.3789999
22.353001 2.8399999 1.376
22.315001 2.895 1.374
22.275 2.95 1.372
22.216 3.0020001 1.369
22.169001 3.056 1.367
22.159 3.1159999 1.3660001
22.174 3.1789999 1.368
22.218 3.247 1.3710001
22.299999 3.3210001 1.376
22.301001 3.3840001 1.377
22.318001 3.4489999 1.378
22.382999 3.5220001 1.383
22.481001 3.602 1.3890001
22.638 3.691 1.4
22.745001 3.7739999 1.4069999
22.834999 3.855 1.413
22.792999 3.914 1.411
22.607 3.947 1.4
22.447001 3.9849999 1.391
22.437 4.0489998 1.391
22.503 4.1269999 1.395
22.569 4.2059999 1.4
22.665001 4.2909999 1.4069999
22.594 4.3449998 1.403
22.611 4.4169998 1.405
22.673 4.4970002 1.409
22.701 4.5710001 1.411
22.775 4.6550002 1.4170001
19.683001 4.6329999 1.2309999
19.549 4.6630001 1.223
17.707001 5.5599999 1.126
17.563 5.5739999 1.118
17.517 5.7979999 1.118
17.271999 5.776 1.104
17.222 5.8189998 1.101
17.417 5.9450002 1.115
7.9359999 4.0159998 0.53200001
7.8790002 4.0159998 0.52899998
7.98 4.0970001 0.53600001
7.915 4.092 0.53299999
7.8249998 4.0739999 0.52700001
7.7690001 4.073 0.52399999
7.7069998 4.0689998 0.51999998
7.6690001 4.0770001 0.51899999
7.652 4.0960002 0.51800001
7.6279998 4.1110001 0.51700002
7.6110001 4.1300001 0.51599997
7.5609999 4.1300001 0.514
7.5409999 4.1469998 0.51300001
7.5289998 4.1680002 0.51300001
7.5229998 4.1919999 0.51300001
7.5279999 4.2220001 0.514
7.5689998 4.2729998 0.51800001
7.7290001 4.3909998 0.52899998
12.414 -6.8460002 0.88800001
12.382 -6.7919998 0.88599998
12.501 -6.711 0.89399999
12.437 -6.6399999 0.889
12.396 -6.5819998 0.88599998
12.434 -6.566 0.889
12.423 -6.5229998 0.88800001
12.57 -6.5640001 0.898
12.658 -6.3870001 0.90399998
12.695 -6.368 0.90700001
12.677 -6.322 0.90499997
12.702 -6.2969999 0.90700001
12.824 -6.3200002 0.91500002
12.819 -6.2789998 0.91500002
13.832 -5.513 0.98199999
13.882 -5.4920001 0.986
13.831 -5.4310002 0.98199999
13.84 -5.3940001 0.98199999
13.851 -5.3579998 0.98299998
13.847 -5.316 0.98299998
13.875 -5.2859998 0.98400003
13.83 -5.2280002 0.98100001
13.856 -5.197 0.98299998
13.858 -5.1570001 0.98299998
13.849 -5.1129999 0.98199999
13.873 -5.0809999 0.98299998
13.901 -5.0500002 0.98500001
13.892 -5.006 0.98400003
13.891 -4.9650002 0.98400003
13.911 -4.9320002 0.98500001
13.972 -4.9120002 0.99000001
13.963 -4.868 0.98900002
13.97 -4.8299999 0.98900002
14.058 -4.8189998 0.995
14.085 -4.7870002 0.99699998
14.325 -4.8260002 1.0140001
14.295 -4.7740002 1.011
10.87 -2.457 0.76300001
10.824 -2.4159999 0.75999999
10.827 -2.385 0.75999999
10.863 -2.3610001 0.76200002
10.958 -2.3499999 0.76899999
10.835 -2.2920001 0.75999999
10.745 -2.2420001 0.75400001
10.74 -2.21 0.75300002
10.753 -2.181 0.75400001
10.771 -2.154 0.755
10.822 -2.1329999 0.75800002
11.077 -2.151 0.77600002
13.045 -0.54100001 0.903
12.953 -0.5 0.89600003
12.864 -0.46000001 0.88999999
12.787 -0.41999999 0.88499999
12.734 -0.382 0.88099998
12.753 -0.34599999 0.88200003
12.776 -0.31 0.88300002
12.783 -0.27399999 0.88300002
12.835 -0.23800001 0.88700002
12.949 -0.20299999 0.89399999
13.013 -0.16599999 0.89899999
13.206 0.90899998 0.833
13.192 0.93300003 0.83200002
13.185 0.958 0.83099997
13.199 0.98400003 0.83200002
22.395 2.079 1.414
22.327999 2.1199999 1.41
22.361 2.171 1.4119999
22.357 2.2190001 1.4119999
22.334 2.266 1.411
22.368 2.319 1.414
22.389999 2.3710001 1.415
22.492001 2.4319999 1.4220001
22.957001 2.5869999 1.452
22.857 2.6289999 1.446
22.739 2.668 1.439
22.705 2.717 1.438
22.691 2.7690001 1.437
22.627001 2.8150001 1.433
22.518999 2.855 1.427
22.400999 2.895 1.42
22.327 2.9389999 1.416
22.312 2.9920001 1.415
22.316 3.0480001 1.416
22.264 3.096 1.413
22.284 3.155 1.415
22.385 3.2260001 1.4220001
22.382 3.2820001 1.423
22.464001 3.352 1.428
22.52 3.418 1.433
22.594 3.4879999 1.438
22.638 3.5539999 1.441
22.757 4.0009999 1.454
22.632999 4.0409999 1.447
22.622 4.1020002 1.447
22.732 4.1849999 1.455
22.856001 4.2719998 1.464
22.780001 4.322 1.46
22.747999 4.381 1.4579999
22.732 4.4429998 1.4579999
22.893 4.54 1.47
19.52 4.6290002 1.2640001
19.398001 4.6599998 1.257
19.472 4.7389998 1.263
7.974 4.092 0.56199998
7.848 4.0599999 0.55400002
7.7779999 4.0580001 0.55000001
7.71 4.0549998 0.546
7.6789999 4.072 0.54400003
7.652 4.0910001 0.54299998
7.632 4.1129999 0.54299998
7.5840001 4.1209998 0.54000002
7.5469999 4.1329999 0.53799999
7.5380001 4.1620002 0.53799999
7.5240002 4.1869998 0.53799999
7.526 4.2220001 0.53899997
7.5539999 4.2709999 0.542
7.6880002 4.381 0.55299997
11.381 -7.4710002 0.85399997
11.45 -7.4450002 0.85799998
11.517 -7.4169998 0.86299998
11.544 -7.3639998 0.86400002
11.604 -7.3309999 0.86799997
11.64 -7.2839999 0.87
11.69 -7.2459998 0.87300003
11.766 -7.223 0.87699997
11.789 -7.1680002 0.87900001
11.838 -7.1300001 0.88099998
11.872 -7.0819998 0.88300002
11.928 -7.0469999 0.88700002
11.955 -6.9959998 0.88800001
11.981 -6.9439998 0.889
12.036 -6.9089999 0.89300001
12.08 -6.8670001 0.89499998
12.151 -6.8410001 0.89999998
12.22 -6.8140001 0.90399998
12.238 -6.7589998 0.90499997
12.231 -6.6900001 0.90399998
12.265 -6.6440001 0.90600002
12.28 -6.5869999 0.90600002
12.289 -6.5289998 0.90600002
12.353 -6.4990001 0.91100001
12.4 -6.461 0.91299999
12.471 -6.434 0.91799998
12.525 -6.3990002 0.921
12.546 -6.3470001 0.92199999
12.58 -6.303 0.92400002
12.632 -6.2659998 0.92799997
12.686 -6.2319999 0.93099999
12.773 -6.2129998 0.93699998
12.839 -6.1830001 0.94099998
12.931 -6.1659999 0.94700003
13.14 -6.204 0.96200001
13.217 -6.178 0.96700001
13.89 -5.5739999 1.0089999
13.931 -5.533 1.011
13.974 -5.4920001 1.0140001
13.893 -5.4029999 1.007
13.962 -5.3730001 1.012
14.006 -5.3340001 1.015
14.055 -5.296 1.018
14.045 -5.2360001 1.017
14.026 -5.1739998 1.015
14.059 -5.131 1.017
14.098 -5.0900002 1.0190001
14.091 -5.033 1.018
14.297 -5.0510001 1.033
14.179 -4.9549999 1.024
11.045 -2.6129999 0.78899997
10.821 -2.527 0.773
10.8 -2.4890001 0.77100003
10.804 -2.457 0.77100003
10.858 -2.437 0.77499998
10.807 -2.3929999 0.77100003
10.719 -2.342 0.76499999
10.711 -2.309 0.764
10.718 -2.279 0.764
10.753 -2.2550001 0.76599997
10.8 -2.234 0.76999998
10.944 -2.2320001 0.77999997
13.008 -0.35499999 0.92199999
12.967 -0.33199999 0.91900003
12.967 -0.31099999 0.91900003
12.952 -0.289 0.91799998
12.93 -0.26800001 0.917
12.911 -0.24699999 0.91500002
12.95 -0.226 0.91799998
13.059 -0.208 0.926
13.041 -0.16599999 0.92500001
13.128 -0.147 0.93099999
13.312 0.86900002 0.88
13.246 0.89399999 0.875
13.241 0.92400002 0.875
13.215 0.95300001 0.87300003
13.205 0.98299998 0.87300003
13.309 1.022 0.88
13.332 1.0549999 0.88099998
13.189 1.075 0.87199998
13.243 1.1109999 0.87599999
22.48 2.105 1.487
22.353001 2.1489999 1.479
22.313 2.201 1.477
22.370001 2.2620001 1.4809999
22.379 2.3199999 1.482
22.388 2.378 1.482
22.437 2.4400001 1.4859999
22.934999 2.5539999 1.5190001
23.025999 2.6229999 1.526
23.011999 2.6819999 1.525
22.92 2.7309999 1.5190001
22.788 2.776 1.511
22.750999 2.8310001 1.5089999
22.740999 2.891 1.5089999
22.558001 2.928 1.497
22.424999 2.971 1.488
22.351 3.0220001 1.484
22.374001 3.086 1.4859999
22.326 3.141 1.483
22.358999 3.207 1.4859999
22.379999 3.2720001 1.488
22.416 3.3399999 1.4910001
22.652 3.438 1.507
22.764 3.5190001 1.515
22.816999 3.592 1.5190001
22.98 4.3520002 1.5369999
22.927 4.4099998 1.534
23.433001 4.7189999 1.5700001
23.267 4.756 1.5599999
23.327 4.8400002 1.5650001
19.509001 4.592 1.3150001
19.385 4.6240001 1.308
19.426001 4.6960001 1.312
7.9489999 4.1100001 0.57800001
7.836 4.0799999 0.56999999
7.7870002 4.0830002 0.56699997
7.7259998 4.0799999 0.56400001
7.6849999 4.086 0.56099999
7.6550002 4.098 0.56
7.6240001 4.1090002 0.55800003
7.6009998 4.125 0.55699998
7.5669999 4.1339998 0.55599999
7.5419998 4.1479998 0.55400002
7.5320001 4.1700001 0.55400002
7.5419998 4.2020001 0.55599999
7.539 4.2280002 0.55599999
7.585 4.2820001 0.56
7.7519999 4.4039998 0.57300001
13.308 -6.4060001 1.01
13.332 -6.3779998 1.012
13.336 -6.3410001 1.012
13.405 -6.3340001 1.017
13.469 -6.3249998 1.021
13.545 -6.3200002 1.027
13.661 -6.3340001 1.036
13.733 -6.3270001 1.041
14.086 -6.1160002 1.066
14.102 -6.0809999 1.067
14.163 -5.9819999 1.071
14.162 -5.9400001 1.071
14.153 -5.7690001 1.0700001
14.245 -5.7649999 1.076
14.252 -5.7259998 1.077
14.345 -5.7210002 1.084
14.269 -5.6490002 1.0779999
14.3 -5.619 1.08
14.427 -5.6259999 1.089
14.441 -5.5890002 1.09
14.632 -5.1459999 1.102
14.722 -5.1350002 1.109
10.92 -2.5009999 0.81599998
10.828 -2.448 0.80800003
10.818 -2.414 0.80800003
10.823 -2.3840001 0.80800003
10.837 -2.3559999 0.80900002
10.737 -2.303 0.801
10.702 -2.2639999 0.79799998
10.709 -2.2349999 0.79900002
10.729 -2.2079999 0.80000001
10.763 -2.1830001 0.80199999
10.859 -2.171 0.80900002
13.135 -0.39199999 0.96499997
13.094 -0.354 0.96200001
13.065 -0.315 0.95999998
13.257 0.86500001 0.898
13.215 0.88700002 0.89499998
13.206 0.91100001 0.89499998
13.161 0.93199998 0.89200002
13.178 0.95899999 0.89300001
13.206 0.986 0.89499998
13.127 1.006 0.88999999
13.095 1.029 0.88800001
13.08 1.054 0.88700002
13.129 1.084 0.88999999
13.177 1.115 0.89300001
13.226 1.146 0.89700001
13.264 1.318 0.89999998
13.154 1.336 0.89300001
23.327999 3.4820001 1.595
23.247999 3.53 1.59
23.18 3.5799999 1.586
23.181999 3.641 1.587
23.184999 3.7019999 1.5880001
23.177 3.763 1.5880001
23.173 3.8239999 1.589
23.173 3.8859999 1.59
23.153999 3.9449999 1.589
23.142 4.006 1.589
23.143999 4.0700002 1.59
23.124001 4.1300001 1.59
23.127001 4.1950002 1.591
23.158001 4.2649999 1.594
23.354 4.632 1.612
23.358999 4.7010002 1.614
23.259001 4.7480001 1.608
23.204 4.8049998 1.605
23.27 4.8870001 1.6109999
19.715 4.6760001 1.374
19.451 4.6739998 1.3559999
19.48 4.7410002 1.359
8.0749998 4.1430001 0.61299998
7.8800001 4.0770001 0.59899998
7.7979999 4.0679998 0.59399998
7.744 4.0739999 0.59100002
7.6929998 4.0799999 0.588
7.6560001 4.0929999 0.58600003
7.6240001 4.1090002 0.58399999
7.5960002 4.1269999 0.583
7.5489998 4.1350002 0.57999998
7.526 4.1550002 0.579
7.5279999 4.1890001 0.57999998
7.5240002 4.2210002 0.58099997
7.5560002 4.2719998 0.58399999
7.6620002 4.3660002 0.59399998
11.881 -7.7969999 0.94700003
11.943 -7.7639999 0.95099998
12.026 -7.743 0.95599997
12.087 -7.7090001 0.95999998
12.125 -7.6599998 0.963
12.2 -7.6329999 0.96799999
12.209 -7.566 0.96799999
12.2 -7.4879999 0.96600002
12.225 -7.4320002 0.96700001
12.24 -7.3699999 0.96799999
12.259 -7.3109999 0.96899998
12.273 -7.25 0.96899998
12.298 -7.1950002 0.97000003
12.298 -7.1259999 0.96899998
12.321 -7.0710001 0.97100002
12.34 -7.0139999 0.97100002
12.353 -6.954 0.972
12.408 -6.9180002 0.97500002
12.46 -6.8800001 0.97899997
12.498 -6.835 0.98100001
12.571 -6.809 0.986
13.11 -6.8969998 1.026
13.125 -6.8369999 1.027
13.158 -6.7880001 1.029
13.291 -6.79 1.038
13.347 -6.7519999 1.0420001
13.256 -6.6399999 1.034
13.361 -6.6279998 1.0420001
13.479 -6.6199999 1.05
13.422 -6.527 1.045
13.333 -6.4200001 1.038
13.32 -6.3509998 1.036
13.371 -6.3119998 1.039
13.415 -6.27 1.0420001
13.506 -6.25 1.049
13.611 -6.2360001 1.056
13.699 -6.2140002 1.063
13.841 -6.2150002 1.073
13.897 -6.178 1.077
14.052 -6.184 1.0880001
14.092 -6.1389999 1.091
14.15 -6.04 1.094
14.182 -5.9920001 1.096
14.204 -5.9400001 1.097
14.218 -5.8850002 1.098
14.206 -5.8200002 1.096
14.237 -5.7729998 1.098
14.33 -5.75 1.105
14.324 -5.6880002 1.104
14.377 -5.6500001 1.107
14.395 -5.539 1.108
14.514 -5.527 1.1160001
14.528 -5.474 1.117
14.541 -5.421 1.117
14.571 -5.375 1.119
14.628 -5.3379998 1.123
14.76 -5.1020002 1.131
14.961 -5.1149998 1.146
10.824 -2.527 0.81999999
10.799 -2.4890001 0.81800002
10.789 -2.454 0.81699997
10.799 -2.424 0.81800002
10.741 -2.3789999 0.81300002
10.686 -2.335 0.80900002
10.679 -2.302 0.80800003
10.7 -2.2750001 0.81
10.742 -2.253 0.81300002
10.908 -2.256 0.82499999
12.998 0.19499999 0.92299998
13.043 0.219 0.926
13.051 0.242 0.926
13.042 0.266 0.92500001
13.051 0.28999999 0.926
13.039 0.31400001 0.92500001
13.112 0.34 0.93000001
13.083 0.36399999 0.92699999
13.055 0.38800001 0.92500001
13.111 0.41499999 0.92900002
13.074 0.44 0.926
13.073 0.465 0.926
13.11 0.493 0.92900002
13.121 0.51999998 0.92900002
13.117 0.546 0.92900002
13.113 0.57300001 0.92900002
13.089 0.59899998 0.92699999
13.084 0.62699997 0.926
13.152 0.65799999 0.93099999
13.139 0.685 0.93000001
13.136 0.713 0.93000001
13.169 0.74400002 0.93199998
13.113 0.76899999 0.92799997
13.141 0.80000001 0.93000001
13.136 0.829 0.93000001
13.119 0.85699999 0.92900002
13.138 0.88800001 0.93000001
13.1 0.91600001 0.92799997
13.06 0.94300002 0.92500001
13.054 0.97299999 0.92400002
13.063 1.0039999 0.92500001
13.031 1.0319999 0.92299998
13.012 1.062 0.92199999
13.02 1.094 0.92199999
13.053 1.128 0.92500001
13.071 1.161 0.926
13.102 1.196 0.92799997
13.201 1.237 0.93599999
13.158 1.266 0.93300003
13.159 1.299 0.93300003
13.164 1.332 0.93400002
13.112 1.36 0.93000001
13.115 1.3940001 0.93000001
13.273 1.444 0.94199997
23.195 3.0120001 1.649
23.243999 3.0810001 1.653
23.181999 3.1359999 1.65
23.197001 3.201 1.651
23.155001 3.2590001 1.649
23.143 3.3210001 1.648
23.268 3.4030001 1.658
23.118999 3.5109999 1.649
23.087999 3.5710001 1.647
23.082001 3.635 1.647
23.086 3.701 1.648
23.077999 3.766 1.648
23.066 3.8299999 1.648
23.059999 3.895 1.648
23.082001 3.9660001 1.651
23.083 4.033 1.651
23.091 4.1020002 1.653
23.076 4.1669998 1.652
23.1 4.2389998 1.655
23.193001 4.3249998 1.6619999
23.306 4.6240001 1.674
23.33 4.6999998 1.676
23.253 4.7550001 1.6720001
23.222 4.8189998 1.67
8.0690002 4.1719999 0.63
7.881 4.1040001 0.616
7.8010001 4.0910001 0.611
7.7410002 4.0879998 0.60699999
7.6999998 4.0949998 0.60399997
7.6659999 4.1040001 0.602
7.6220002 4.1079998 0.60000002
7.5999999 4.1240001 0.59899998
7.5619998 4.131 0.59600002
7.5339999 4.1440001 0.59500003
7.5300002 4.1690001 0.59500003
7.5359998 4.1999998 0.597
7.5469999 4.2340002 0.59799999
7.592 4.2859998 0.60299999
7.7610002 4.4099998 0.61699998
14.23 -6.5180001 1.143
14.173 -6.4499998 1.138
14.194 -6.4180002 1.14
14.28 -6.414 1.146
14.285 -6.3740001 1.147
14.359 -6.3649998 1.152
14.45 -6.3629999 1.16
14.433 -6.3119998 1.158
14.476 -6.1609998 1.161
14.427 -6.0970001 1.1569999
14.464 -6.0700002 1.159
14.541 -6.059 1.165
14.528 -6.0110002 1.164
14.538 -5.9720001 1.165
14.55 -5.9349999 1.165
14.671 -5.8969998 1.175
14.683 -5.8590002 1.175
14.674 -5.8119998 1.174
14.726 -5.789 1.178
14.719 -5.743 1.178
14.742 -5.7080002 1.179
14.912 -5.73 1.193
14.896 -5.6799998 1.191
10.839 -2.4820001 0.85699999
10.801 -2.4419999 0.85399997
10.793 -2.4089999 0.85299999
10.792 -2.3770001 0.85299999
10.769 -2.3410001 0.85100001
10.693 -2.2939999 0.84500003
10.702 -2.2639999 0.84500003
10.706 -2.234 0.84600002
10.755 -2.2130001 0.84899998
10.923 -2.2160001 0.86199999
13.168 0.336 0.95700002
13.128 0.35100001 0.954
13.164 0.368 0.95700002
13.173 0.38600001 0.95700002
13.097 0.41800001 0.95099998
13.135 0.43700001 0.954
13.125 0.45500001 0.95300001
13.128 0.47400001 0.95300001
13.156 0.51300001 0.954
13.137 0.53100002 0.95300001
13.086 0.54900002 0.949
13.152 0.57200003 0.954
13.213 0.59500003 0.958
13.144 0.61299998 0.95300001
13.205 0.63599998 0.95700002
13.2 0.65799999 0.95700002
13.114 0.67500001 0.94999999
13.116 0.69700003 0.94999999
13.101 0.71799999 0.949
13.059 0.73799998 0.94599998
13.042 0.75999999 0.94499999
13.054 0.78299999 0.94599998
13.061 0.80699998 0.94599998
13.041 0.829 0.94499999
13.039 0.852 0.94499999
13 0.87400001 0.94199997
12.971 0.89600003 0.94
12.952 0.91900003 0.93800002
12.919 0.94099998 0.93599999
12.918 0.96600002 0.93599999
12.901 0.99000001 0.935
12.884 1.0140001 0.93400002
12.887 1.04 0.93400002
12.888 1.0650001 0.93400002
12.898 1.092 0.935
12.907 1.12 0.93599999
12.945 1.15 0.93900001
12.952 1.177 0.94
23.118999 2.102 1.677
12.994 1.209 0.94300002
23.122 2.151 1.678
13.062 1.243 0.94800001
23.136 2.201 1.679
12.992 1.2640001 0.94300002
23.111 2.2479999 1.678
13.012 1.294 0.94499999
13.024 1.324 0.94599998
13.045 1.354 0.94800001
13.116 1.391 0.95300001
13.183 1.428 0.958
23.231001 2.516 1.689
13.221 1.462 0.96100003
23.016001 2.5450001 1.673
22.999001 2.596 1.673
22.987 2.6470001 1.6720001
13.18 1.548 0.95899999
23.004 2.7019999 1.674
13.103 1.5700001 0.954
23.003 2.756 1.675
13.016 1.59 0.94800001
23.025 2.813 1.677
13.027 1.622 0.949
23.035 2.869 1.678
13.11 1.664 0.95499998
23.021999 2.9230001 1.678
23.007 2.9760001 1.677
23 3.0309999 1.677
23.009001 3.089 1.679
23.002001 3.145 1.679
23.004 3.2019999 1.6799999
23.02 3.2620001 1.681
23.058001 3.326 1.6849999
23.108999 3.392 1.689
23.030001 3.4389999 1.684
23.014999 3.4960001 1.684
23.011999 3.556 1.6849999
23.028999 3.618 1.687
23.018 3.677 1.687
23.02 3.7379999 1.688
23.014999 3.799 1.688
23.025999 3.862 1.6900001
23.016001 3.9230001 1.6900001
23.041 3.99 1.693
23.035999 4.052 1.694
23.028 4.1139998 1.694
23.055 4.1830001 1.697
23.056 4.2470002 1.698
23.127001 4.3249998 1.704
23.410999 4.6440001 1.73
23.275 4.6849999 1.721
23.361 4.77 1.728
23.379999 4.842 1.7309999
23.409 4.9169998 1.734
19.583 4.7670002 1.4630001
19.74 4.8670001 1.476
8.1789999 4.197 0.66500002
7.8959999 4.086 0.64300001
7.803 4.0710001 0.63700002
7.7410002 4.072 0.63300002
7.698 4.0830002 0.63
7.6599998 4.0960002 0.62800002
7.6059999 4.0999999 0.625
7.579 4.118 0.62300003
7.5440001 4.1329999 0.62199998
7.533 4.1589999 0.62199998
7.5419998 4.198 0.62300003
7.552 4.237 0.625
7.6199999 4.309 0.63200003
12.62 -8.2819996 1.064
12.7 -8.2539997 1.0700001
12.74 -8.2019997 1.072
12.824 -8.177 1.0779999
12.871 -8.1300001 1.082
12.934 -8.092 1.086
12.976 -8.0410004 1.089
13.063 -8.0170002 1.095
13.095 -7.961 1.097
13.16 -7.9229999 1.101
13.188 -7.8639998 1.103
13.622 -7.3769999 1.131
13.619 -7.3039999 1.13
13.712 -7.283 1.136
13.683 -7.197 1.133
13.805 -7.191 1.143
13.921 -7.1810002 1.152
14.308 -6.4889998 1.174
14.252 -6.3990002 1.169
14.248 -6.3340001 1.168
14.327 -6.3039999 1.174
14.388 -6.2680001 1.178
14.51 -6.257 1.188
14.569 -6.2179999 1.192
14.612 -6.1729999 1.1950001
14.542 -6.0809999 1.188
14.537 -6.0170002 1.187
14.581 -5.973 1.1900001
14.594 -5.9169998 1.191
14.657 -5.881 1.1950001
14.691 -5.8340001 1.198
14.827 -5.8270001 1.2079999
14.868 -5.7820001 1.211
14.789 -5.691 1.204
14.858 -5.6570001 1.209
14.919 -5.6209998 1.2130001
15.047 -5.6090002 1.223
10.836 -2.53 0.86900002
10.785 -2.4860001 0.86400002
10.78 -2.4519999 0.86400002
10.78 -2.4200001 0.86400002
10.718 -2.3740001 0.85799998
10.669 -2.3310001 0.85399997
10.66 -2.2980001 0.85299999
10.69 -2.273 0.85600001
10.756 -2.256 0.861
12.904 0.19599999 0.977
12.925 0.219 0.97799999
12.953 0.243 0.98000002
12.961 0.266 0.98000002
12.952 0.28999999 0.97899997
12.963 0.31400001 0.98000002
12.977 0.338 0.98100001
12.978 0.36300001 0.98100001
13.014 0.389 0.98299998
13.016 0.414 0.98299998
13.013 0.43900001 0.98299998
13.015 0.465 0.98299998
13.026 0.491 0.98400003
13.027 0.51800001 0.98400003
13.032 0.54400003 0.98400003
13.034 0.57099998 0.98400003
13.072 0.60000002 0.98699999
13.047 0.62599999 0.98500001
13.072 0.65499997 0.98699999
13.047 0.68199998 0.98500001
13.024 0.70899999 0.98299998
13.029 0.73699999 0.98400003
13.004 0.764 0.98199999
13.011 0.79299998 0.98199999
13.01 0.82200003 0.98199999
12.998 0.85100001 0.98100001
12.979 0.87900001 0.98000002
12.949 0.90600002 0.97799999
12.933 0.935 0.977
12.906 0.963 0.97500002
12.873 0.991 0.972
12.857 1.02 0.97100002
12.848 1.05 0.97100002
12.857 1.081 0.97100002
12.866 1.113 0.972
12.875 1.145 0.97299999
12.918 1.1799999 0.97600001
12.925 1.2130001 0.977
23.073 2.165 1.745
12.951 1.247 0.97899997
23.038 2.2190001 1.742
13.041 1.288 0.986
23.048 2.277 1.743
12.956 1.312 0.98000002
23.077999 2.3380001 1.7460001
13.008 1.35 0.98400003
12.991 1.382 0.98299998
13.048 1.421 0.98799998
13.088 1.459 0.991
23.237 2.5910001 1.76
13.156 1.501 0.99599999
22.962999 2.6199999 1.739
13.393 1.563 1.0140001
22.938 2.677 1.738
13.201 1.575 1
22.93 2.7360001 1.738
13.076 1.594 0.991
22.955 2.799 1.74
12.991 1.618 0.98500001
22.976999 2.8629999 1.742
12.973 1.651 0.98400003
22.996 2.9260001 1.744
13.048 1.6950001 0.99000001
22.973 2.9849999 1.743
22.976999 3.0469999 1.744
22.971001 3.109 1.744
22.964001 3.171 1.744
22.955 3.2320001 1.744
22.973 3.2980001 1.7460001
22.993999 3.365 1.748
23.069 3.4400001 1.7539999
23.014 3.4960001 1.751
22.983 3.556 1.749
22.993999 3.622 1.751
22.99 3.687 1.751
22.987 3.7520001 1.752
22.99 3.8180001 1.753
22.996 3.8859999 1.7539999
23.014999 3.9549999 1.756
23.013 4.0219998 1.757
23.01 4.0890002 1.757
23.028 4.1589999 1.76
23.030001 4.2270002 1.761
23.054001 4.3000002 1.763
23.275 4.4099998 1.781
19.780001 4.658 1.527
19.558001 4.6669998 1.511
19.414 4.6939998 1.5
19.466 4.7690001 1.506
7.9130001 4.1209998 0.66100001
7.8080001 4.0949998 0.653
7.7579999 4.0970001 0.64999998
7.704 4.0970001 0.64600003
7.6599998 4.1009998 0.64300001
7.6269999 4.112 0.64200002
7.6030002 4.1269999 0.63999999
7.5689998 4.1350002 0.63800001
7.5549998 4.1560001 0.63800001
7.546 4.178 0.63800001
7.5560002 4.211 0.63999999
7.612 4.2709999 0.64499998
7.7459998 4.3730001 0.65700001
12.281 -5.5560002 1.0420001
12.357 -5.5539999 1.048
14.704 -6.5650001 1.247
14.719 -6.5289998 1.248
14.846 -6.3649998 1.258
14.894 -6.342 1.261
15.02 -6.3509998 1.272
14.898 -6.256 1.261
14.955 -6.2350001 1.266
10.844 -2.484 0.90600002
10.791 -2.4400001 0.90100002
10.78 -2.4070001 0.89999998
10.775 -2.3740001 0.89999998
10.712 -2.329 0.89399999
10.655 -2.286 0.889
10.667 -2.257 0.88999999
10.688 -2.2309999 0.89099997
10.752 -2.2130001 0.89700001
17.631001 -3.526 1.47
17.684999 -3.4860001 1.474
13.081 0.204 1.016
13.183 0.219 1.023
13.181 0.233 1.023
13.105 0.403 1.013
13.184 0.42300001 1.0190001
13.094 0.43799999 1.012
13.145 0.458 1.016
13.216 0.479 1.021
13.203 0.49700001 1.02
13.152 0.51499999 1.016
13.101 0.53200001 1.011
13.124 0.55299997 1.013
13.09 0.57099998 1.01
13.121 0.59299999 1.013
13.088 0.61199999 1.01
13.095 0.63300002 1.01
13.107 0.65499997 1.011
13.112 0.676 1.012
13.095 0.69700003 1.01
13.095 0.71899998 1.01
13.055 0.73900002 1.007
13.032 0.76099998 1.005
13.037 0.78399998 1.006
13.024 0.80599999 1.005
13.01 0.82800001 1.0039999
13 0.85100001 1.003
12.975 0.87400001 1.001
12.936 0.89499998 0.99800003
12.905 0.917 0.99599999
12.879 0.94 0.99400002
12.826 0.96100003 0.99000001
12.798 0.98299998 0.98799998
12.778 1.007 0.986
12.79 1.033 0.98699999
12.794 1.059 0.98799998
12.802 1.086 0.98799998
12.825 1.114 0.99000001
12.856 1.143 0.99299997
23.024 2.0469999 1.779
12.95 1.178 1
22.983999 2.092 1.776
12.915 1.202 0.99800003
22.983 2.1400001 1.776
12.98 1.2359999 1.003
23.054001 2.1960001 1.7819999
12.992 1.265 1.0039999
23.167999 2.256 1.791
13.011 1.295 1.006
13.02 1.324 1.007
13.046 1.3559999 1.0089999
13.094 1.39 1.013
13.157 1.426 1.018
23.066999 2.5 1.786
13.3 1.472 1.03
22.945 2.539 1.777
22.921 2.589 1.776
22.924999 2.642 1.776
13.107 1.541 1.016
22.924999 2.6949999 1.777
13.041 1.563 1.011
22.93 2.7490001 1.778
13.02 1.592 1.01
22.938999 2.8039999 1.779
13.064 1.628 1.013
22.945999 2.8599999 1.78
22.944 2.914 1.781
22.937 2.9690001 1.781
22.958 3.027 1.783
22.941999 3.082 1.783
22.965 3.141 1.785
22.962999 3.198 1.786
22.973 3.257 1.7869999
23 3.319 1.79
23.044001 3.3840001 1.795
22.992001 3.4349999 1.791
22.971001 3.4909999 1.791
22.985001 3.553 1.793
23.003 3.6159999 1.795
22.985001 3.6730001 1.794
22.996 3.7360001 1.796
22.987 3.796 1.796
23.004 3.8599999 1.799
23.000999 3.9219999 1.8
23.011999 3.9860001 1.801
23.016001 4.0500002 1.803
23.013 4.1129999 1.804
23.023001 4.178 1.8049999
23.035999 4.2449999 1.808
23.059999 4.3140001 1.811
23.224001 4.4099998 1.825
19.787001 4.6339998 1.571
19.646999 4.6609998 1.561
19.448 4.6739998 1.5470001
19.358 4.7129998 1.541
19.395 4.783 1.545
8.04 4.1609998 0.699
7.8530002 4.098 0.68400002
7.7750001 4.0900002 0.67799997
7.7119999 4.0900002 0.67400002
7.6690001 4.1009998 0.671
7.6409998 4.119 0.67000002
7.599 4.1300001 0.667
7.5679998 4.1459999 0.66500002
7.5570002 4.1729999 0.66500002
7.5619998 4.2090001 0.667
7.5999999 4.2639999 0.671
7.7049999 4.3569999 0.68199998
13.21 -8.6669998 1.175
13.279 -8.6300001 1.1799999
13.397 -8.6239996 1.1900001
13.447 -8.5740004 1.193
13.516 -8.5360003 1.198
13.58 -8.4949999 1.2029999
13.599 -8.4250002 1.204
13.662 -8.3839998 1.2079999
13.706 -8.3310003 1.211
13.741 -8.2729998 1.2130001
13.768 -8.2089996 1.215
13.829 -8.1669998 1.219
13.908 -8.1350002 1.225
14.042 -7.9029999 1.233
14.068 -7.842 1.234
14.161 -7.8179998 1.242
14.103 -7.711 1.2359999
14.186 -7.6820002 1.242
14.292 -7.664 1.251
14.221 -7.553 1.243
14.287 -7.5139999 1.248
14.317 -7.4569998 1.25
14.303 -7.3769999 1.248
14.316 -7.3119998 1.248
14.319 -7.2420001 1.248
14.416 -7.2199998 1.256
14.447 -7.165 1.257
14.513 -7.1269999 1.262
14.502 -7.052 1.261
14.511 -6.9860001 1.261
12.011 -5.7259998 1.043
12.036 -5.6810002 1.044
14.669 -6.855 1.272
14.677 -6.7909999 1.272
14.657 -6.7140002 1.27
14.686 -6.6599998 1.271
14.767 -6.6300001 1.278
14.781 -6.5700002 1.278
14.798 -6.5110002 1.279
14.907 -6.493 1.288
14.897 -6.4229999 1.286
14.965 -6.3870001 1.291
15.034 -6.3509998 1.2970001
15.053 -6.2940001 1.298
14.994 -6.2059999 1.2920001
10.823 -2.527 0.91500002
10.778 -2.484 0.91100001
10.773 -2.45 0.91000003
10.746 -2.4119999 0.90799999
10.673 -2.3640001 0.90100002
10.645 -2.326 0.89899999
10.645 -2.2950001 0.89899999
10.669 -2.2690001 0.90100002
10.77 -2.2590001 0.90899998
17.563 -3.582 1.482
17.577999 -3.5350001 1.483
12.893 0.198 1.036
12.907 0.221 1.0369999
12.917 0.244 1.038
12.948 0.26800001 1.04
12.934 0.29100001 1.039
12.973 0.31600001 1.0420001
12.998 0.34099999 1.044
12.99 0.36500001 1.043
13.012 0.38999999 1.044
13.026 0.41600001 1.045
13.029 0.442 1.046
13.04 0.46799999 1.046
13.014 0.493 1.044
13.041 0.51999998 1.046
13.06 0.54699999 1.048
13.039 0.57300001 1.046
13.046 0.60000002 1.046
13.036 0.62699997 1.045
13.056 0.65600002 1.0470001
13.027 0.68199998 1.045
13.038 0.71100003 1.046
13.024 0.73799998 1.044
13.013 0.76599997 1.044
13.02 0.79500002 1.044
13.007 0.824 1.043
12.976 0.85100001 1.041
12.956 0.87900001 1.039
12.91 0.90499997 1.036
12.876 0.93199998 1.033
12.838 0.95899999 1.03
12.791 0.986 1.026
12.767 1.0140001 1.025
12.769 1.044 1.025
12.783 1.076 1.026
12.794 1.108 1.027
12.817 1.141 1.029
12.867 1.177 1.033
12.986 1.219 1.043
23.142 2.174 1.859
12.938 1.247 1.039
23.122 2.2290001 1.858
13.062 1.291 1.05
13.009 1.319 1.045
13.056 1.357 1.05
13.067 1.391 1.051
13.111 1.429 1.054
13.149 1.467 1.058
23.059999 2.573 1.855
22.923 2.6170001 1.845
22.909 2.675 1.844
22.9 2.734 1.844
13.112 1.6 1.056
22.92 2.7969999 1.846
13.07 1.6289999 1.053
22.921 2.858 1.847
13.115 1.67 1.057
22.916 2.918 1.847
22.927 2.9809999 1.848
22.915001 3.0409999 1.848
22.927999 3.105 1.85
22.940001 3.1689999 1.851
22.931 3.23 1.851
22.943001 3.2950001 1.853
22.981001 3.3640001 1.857
23.028 3.4349999 1.8609999
22.955 3.4879999 1.8559999
22.965 3.5550001 1.858
22.976999 3.6210001 1.859
22.98 3.687 1.86
22.985001 3.753 1.8609999
22.978001 3.8180001 1.862
22.976 3.8840001 1.862
22.986 3.9519999 1.864
23.004 4.0219998 1.8660001
22.997 4.0879998 1.867
22.99 4.1539998 1.867
23.003 4.224 1.869
23.011999 4.2930002 1.8710001
23.082001 4.375 1.877
19.743 4.6500001 1.62
19.489 4.651 1.6
19.391001 4.6890001 1.5930001
19.485001 4.7740002 1.602
8.092 4.1849999 0.71899998
7.8829999 4.1059999 0.70099998
7.8189998 4.1009998 0.69700003
7.7789998 4.1090002 0.69400001
7.7259998 4.1090002 0.69
7.6939998 4.1199999 0.68800002
7.6620002 4.131 0.68599999
7.6420002 4.1479998 0.685
7.612 4.1599998 0.68300003
7.5900002 4.1750002 0.68199998
7.6069999 4.2119999 0.685
7.6459999 4.2620001 0.68900001
7.7880001 4.3699999 0.70300001
10.862 -2.4879999 0.95499998
10.793 -2.441 0.949
10.777 -2.4059999 0.94800001
10.764 -2.372 0.94599998
10.679 -2.322 0.93800002
10.65 -2.2850001 0.93599999
10.66 -2.256 0.93599999
10.668 -2.227 0.93699998
10.725 -2.207 0.94199997
10.945 -2.221 0.96100003
17.610001 -3.5220001 1.546
17.576 -3.464 1.5420001
17.733 -3.444 1.556
13.093 -0.34799999 1.132
13.047 -0.30899999 1.127
13.021 -0.271 1.125
13.096 -0.235 1.131
12.951 0.177 1.115
12.919 0.213 1.112
13.087 0.25400001 1.126
13.075 0.146 1.079
13.123 0.15800001 1.082
13.123 0.182 1.081
13.08 0.19400001 1.077
13.161 0.208 1.084
13.059 0.22 1.075
13.082 0.234 1.076
13.109 0.248 1.0779999
13.073 0.26100001 1.075
13.066 0.29100001 1.073
13.061 0.30599999 1.073
13.086 0.322 1.074
13.045 0.33700001 1.071
13.038 0.35299999 1.0700001
13.038 0.36899999 1.0700001
