# .PCD v0.7 - Point Cloud Data file format
VERSION 0.7
FIELDS x y z
SIZE 4 4 4
TYPE F F F
COUNT 1 1 1
WIDTH 1827
HEIGHT 1
VIEWPOINT 0 0 0 1 0 0 0
POINTS 1827
DATA ascii
16.028 2.7679999 0.40099999
16.115 2.8269999 0.403
16.226999 2.892 0.40599999
16.281 2.947 0.40700001
16.305 2.997 0.40799999
16.344 3.05 0.40900001
16.424999 3.1110001 0.41100001
16.495001 3.1719999 0.41299999
16.575001 3.234 0.41499999
16.601 3.2869999 0.41600001
16.513 3.3180001 0.414
16.566 3.3770001 0.41499999
16.629999 3.438 0.417
16.684 3.4990001 0.41800001
16.691 3.55 0.41800001
16.808001 3.625 0.421
16.929001 3.7019999 0.42500001
16.903999 3.747 0.42399999
13.077 2.938 0.32800001
17.075001 3.8369999 0.42899999
12.876 2.9319999 0.32300001
12.809 2.9560001 0.322
12.786 2.99 0.32100001
12.804 3.0339999 0.322
12.876 3.0910001 0.324
13.264 3.2260001 0.333
17.363001 4.2779999 0.43700001
17.500999 4.3670001 0.44
17.421 4.402 0.43900001
17.577 4.4970002 0.44299999
17.639 4.5700002 0.44400001
17.697001 4.6420002 0.44600001
17.67 4.6919999 0.44600001
17.712999 4.7610002 0.447
17.774 4.836 0.449
17.862 4.9180002 0.45100001
17.834 4.9689999 0.44999999
17.973 5.0679998 0.454
18.108 5.1659999 0.458
18.156 5.2399998 0.45899999
18.143 5.2979999 0.45899999
18.153999 5.362 0.46000001
18.164 5.427 0.46000001
18.239 5.5110002 0.46200001
18.292999 5.5900002 0.46399999
18.339001 5.6669998 0.465
18.365999 5.7389998 0.46599999
18.488001 5.8410001 0.47
18.403999 5.8790002 0.46799999
18.451 5.9590001 0.46900001
18.549999 6.0560002 0.472
18.635 6.1490002 0.47499999
18.613001 6.2080002 0.47400001
18.59 6.2670002 0.47400001
18.712 6.375 0.477
13.036 5.415 0.33700001
12.918 5.4169998 0.33500001
12.858 5.4419999 0.333
12.815 5.474 0.33199999
12.792 5.5149999 0.33199999
12.768 5.5549998 0.33199999
8.4919996 3.7279999 0.221
8.2629995 3.661 0.215
8.191 3.661 0.213
8.1350002 3.6689999 0.212
8.092 3.6830001 0.211
8.066 3.7030001 0.211
8.0469999 3.727 0.20999999
7.9899998 3.733 0.20900001
7.9910002 3.766 0.20900001
8.0469999 3.826 0.211
8.073 3.872 0.212
8.0930004 3.915 0.212
8.217 4.0089998 0.21600001
8.6370001 -5.6810002 0.324
8.677 -5.6529999 0.32600001
8.7150002 -5.6240001 0.32699999
8.7539997 -5.5949998 0.32800001
8.7609997 -5.546 0.32800001
8.8079996 -5.5219998 0.33000001
8.8339996 -5.4860001 0.33000001
8.868 -5.454 0.331
8.8780003 -5.4089999 0.33199999
8.9169998 -5.3800001 0.333
8.9370003 -5.3410001 0.333
8.9870005 -5.3189998 0.33500001
9.0089998 -5.2810001 0.336
9.0179996 -5.2360001 0.336
9.0509996 -5.204 0.33700001
9.0830002 -5.1729999 0.338
9.1070004 -5.1360002 0.338
9.118 -5.0929999 0.33899999
9.1610003 -5.0679998 0.34
9.1879997 -5.0339999 0.34099999
9.2130003 -4.9980001 0.34200001
9.21 -4.9489999 0.34099999
9.2089996 -4.9000001 0.34099999
9.2740002 -4.8870001 0.34299999
9.3009996 -4.8530002 0.34400001
9.3389997 -4.8249998 0.345
9.3769999 -4.7979999 0.347
9.4020004 -4.7639999 0.347
9.4069996 -4.7199998 0.347
9.4420004 -4.6900001 0.34799999
9.4700003 -4.658 0.34900001
9.4969997 -4.6259999 0.34999999
9.526 -4.5939999 0.35100001
9.5509996 -4.5599999 0.352
9.5629997 -4.5209999 0.352
9.5909996 -4.4889998 0.35299999
9.6239996 -4.46 0.354
9.6450005 -4.4250002 0.35499999
9.6689997 -4.3909998 0.35499999
9.6940002 -4.3590002 0.35600001
9.7399998 -4.335 0.35800001
9.7779999 -4.309 0.359
9.7919998 -4.2709999 0.359
9.8219995 -4.2410002 0.36000001
9.8380003 -4.204 0.361
9.8660002 -4.1729999 0.361
9.8959999 -4.1430001 0.36199999
9.908 -4.1059999 0.36300001
9.9499998 -4.0809999 0.36399999
9.9849997 -4.053 0.36500001
10.007 -4.02 0.366
10.035 -3.9890001 0.36700001
10.069 -3.961 0.368
10.089 -3.928 0.36899999
10.129 -3.902 0.37
10.151 -3.869 0.37099999
10.184 -3.8410001 0.37200001
10.229 -3.8169999 0.373
10.251 -3.7839999 0.37400001
10.289 -3.7579999 0.375
10.302 -3.7219999 0.375
10.337 -3.6949999 0.377
10.381 -3.671 0.37799999
10.393 -3.635 0.37799999
10.427 -3.6070001 0.38
10.476 -3.585 0.38100001
10.494 -3.5510001 0.382
10.551 -3.5309999 0.384
10.604 -3.51 0.38600001
10.655 -3.487 0.38699999
10.661 -3.45 0.38699999
10.775 -3.448 0.391
10.812 -3.421 0.39300001
10.855 -3.3959999 0.39399999
10.862 -3.359 0.39399999
10.887 -3.3280001 0.39500001
10.941 -3.306 0.39700001
11.017 -3.2909999 0.40000001
11.076 -3.27 0.40200001
11.117 -3.244 0.403
11.17 -3.221 0.405
11.183 -3.187 0.405
11.213 -3.158 0.40599999
11.278 -3.138 0.40900001
11.342 -3.118 0.41100001
11.363 -3.0869999 0.412
11.406 -3.0610001 0.41299999
11.434 -3.0309999 0.414
11.472 -3.0039999 0.41499999
11.493 -2.9719999 0.41600001
11.538 -2.947 0.417
11.589 -2.9230001 0.419
11.676 -2.908 0.42199999
11.683 -2.8729999 0.42300001
11.717 -2.8440001 0.42399999
11.74 -2.8139999 0.42399999
11.812 -2.7950001 0.42699999
11.862 -2.77 0.42899999
11.89 -2.74 0.43000001
11.924 -2.7119999 0.43099999
11.974 -2.687 0.433
12.011 -2.6600001 0.43399999
12.049 -2.6329999 0.435
12.081 -2.6040001 0.43599999
12.13 -2.579 0.43799999
12.186 -2.5550001 0.44
12.244 -2.5320001 0.442
12.249 -2.4979999 0.442
12.284 -2.47 0.44299999
12.349 -2.448 0.44600001
12.423 -2.428 0.44800001
12.403 -2.3889999 0.447
12.494 -2.372 0.45100001
12.493 -2.3369999 0.45100001
12.598 -2.322 0.454
12.598 -2.2869999 0.454
12.749 -2.28 0.46000001
10.739 -1.892 0.38699999
10.673 -1.851 0.38499999
10.644 -1.818 0.384
10.691 -1.798 0.38499999
10.782 -1.785 0.389
10.798 -1.567 0.389
10.647 -1.518 0.384
10.624 -1.489 0.38299999
10.613 -1.461 0.382
10.615 -1.436 0.382
10.631 -1.4119999 0.38299999
10.663 -1.391 0.384
10.718 -1.372 0.38600001
10.776 -1.354 0.38800001
13.893 -1.648 0.50099999
13.825 -1.608 0.498
13.865 -1.581 0.49900001
14.028 -1.473 0.505
13.968 -1.4349999 0.50300002
14.105 -1.357 0.50800002
14.114 -1.327 0.509
14.403 0.197 0.40900001
14.45 0.22400001 0.41
14.477 0.25 0.41
14.517 0.27700001 0.41100001
14.607 0.30599999 0.41299999
14.543 0.33199999 0.41100001
14.672 0.36300001 0.41499999
14.61 0.389 0.41299999
14.617 0.417 0.41299999
14.63 0.44600001 0.41299999
14.651 0.47600001 0.41299999
14.674 0.50599998 0.414
14.666 0.53500003 0.41299999
14.66 0.565 0.41299999
14.701 0.59600002 0.414
14.704 0.62699997 0.414
14.68 0.65700001 0.41299999
14.738 0.69099998 0.41499999
14.733 0.722 0.414
14.788 0.75599998 0.41600001
14.779 0.78799999 0.41499999
14.872 0.82499999 0.41800001
14.889 0.85900003 0.41800001
14.875 0.89200002 0.41800001
14.899 0.92699999 0.41800001
14.942 0.963 0.419
15.138 1.01 0.42500001
13.619 1.068 0.38100001
13.508 1.091 0.37799999
13.536 1.126 0.37900001
13.545 1.16 0.37900001
15.287 1.3839999 0.428
15.269 1.42 0.42699999
15.235 1.455 0.426
15.264 1.4960001 0.42699999
15.341 1.5420001 0.42899999
15.37 1.584 0.42899999
15.469 1.6339999 0.43200001
15.528 1.6799999 0.43399999
15.51 1.7180001 0.433
15.496 1.757 0.433
15.502 1.798 0.433
15.602 1.851 0.43599999
15.649 1.898 0.43700001
15.714 1.948 0.43900001
15.719 1.99 0.43900001
15.728 2.0339999 0.43900001
15.747 2.079 0.43900001
15.815 2.131 0.44100001
15.821 2.175 0.44100001
15.89 2.2279999 0.44299999
15.925 2.277 0.44400001
15.978 2.329 0.44600001
16.034 2.382 0.447
16.031 2.427 0.447
16.070999 2.4779999 0.44800001
16.107 2.53 0.449
16.160999 2.5840001 0.45100001
16.183001 2.6340001 0.45199999
16.299999 2.7 0.45500001
16.319 2.75 0.45500001
16.393 2.8099999 0.45699999
16.452 2.868 0.45899999
16.518 2.928 0.461
16.554001 2.983 0.46200001
16.570999 3.0350001 0.46200001
16.672001 3.1029999 0.465
16.742001 3.1659999 0.46700001
16.830999 3.233 0.47
16.879999 3.293 0.47099999
16.865 3.3410001 0.47099999
16.905001 3.401 0.472
16.971001 3.4649999 0.47400001
17.058001 3.5350001 0.477
17.075001 3.5910001 0.477
17.115 3.652 0.47799999
17.155001 3.714 0.479
17.263 3.79 0.48300001
17.323999 3.858 0.484
12.927 2.9189999 0.361
12.837 2.9389999 0.359
12.791 2.9679999 0.35800001
12.795 3.01 0.35800001
12.845 3.062 0.359
13.084 3.161 0.366
18.125 4.552 0.50800002
18.052999 4.592 0.50599998
18.045 4.6490002 0.50599998
18.051001 4.7090001 0.50599998
18.122999 4.7859998 0.50800002
18.164 4.8569999 0.50999999
18.236 4.9349999 0.51200002
18.257 5.0009999 0.51300001
18.377001 5.0939999 0.51599997
18.292 5.131 0.514
18.990999 5.77 0.53500003
18.841 5.7880001 0.53100002
18.809 5.842 0.52999997
18.864 5.9229999 0.53200001
18.832001 5.9770002 0.53100002
18.834 6.0409999 0.53100002
15.712 5.4720001 0.44499999
15.473 5.4429998 0.43799999
15.319 5.4419999 0.43399999
15.199 5.4520001 0.43099999
15.216 5.5120001 0.43200001
13.166 5.5159998 0.377
13.004 5.4949999 0.37200001
12.994 5.5370002 0.37200001
8.4040003 3.733 0.241
8.2419996 3.691 0.237
8.1680002 3.688 0.235
8.1190004 3.6949999 0.234
8.0860004 3.7090001 0.233
8.0609999 3.727 0.23199999
8.0469999 3.7490001 0.23199999
7.9889998 3.7520001 0.23100001
7.9629998 3.7679999 0.23
7.9860001 3.8080001 0.23100001
8.0430002 3.865 0.233
8.066 3.905 0.233
8.0760002 3.9400001 0.234
8.1639996 4.013 0.237
12.269 6.881 0.361
11.957 6.7490001 0.352
11.891 6.7550001 0.35100001
11.941 6.8270001 0.352
9.2580004 -5.4780002 0.36399999
9.2679996 -5.4569998 0.36500001
9.2779999 -5.4369998 0.36500001
9.283 -5.4130001 0.36500001
9.302 -5.3979998 0.366
9.3219995 -5.382 0.36700001
9.3280001 -5.3590002 0.36700001
9.3479996 -5.3429999 0.368
9.3760004 -5.3330002 0.36899999
9.3850002 -5.3109999 0.36899999
9.4049997 -5.2950001 0.37
9.401 -5.2659998 0.37
9.4110003 -5.244 0.37
9.4429998 -5.2350001 0.37200001
9.448 -5.21 0.37200001
9.4809999 -5.2010002 0.373
9.4770002 -5.171 0.373
9.507 -5.1599998 0.37400001
9.5139999 -5.1360002 0.37400001
9.5120001 -5.1079998 0.37400001
9.5200005 -5.085 0.375
9.5290003 -5.0619998 0.375
9.5719995 -5.0570002 0.377
9.5979996 -5.0430002 0.37799999
9.6260004 -5.0300002 0.37900001
9.6210003 -4.9990001 0.37799999
9.6190004 -4.9699998 0.37799999
9.6289997 -4.947 0.37900001
9.6560001 -4.9330001 0.38
9.658 -4.9060001 0.38
9.6719999 -4.8850002 0.38
9.6809998 -4.862 0.38100001
9.6999998 -4.8429999 0.38100001
9.7220001 -4.8249998 0.382
9.7220001 -4.7969999 0.382
9.7340002 -4.7750001 0.38299999
9.7480001 -4.7529998 0.38299999
9.7799997 -4.7399998 0.38499999
9.7910004 -4.717 0.38499999
9.8009996 -4.6929998 0.38499999
9.8149996 -4.671 0.38600001
9.8360004 -4.6529999 0.38699999
9.8479996 -4.6290002 0.38699999
9.8660002 -4.6090002 0.38800001
9.8830004 -4.5890002 0.38800001
9.8830004 -4.5599999 0.38800001
9.9209995 -4.5479999 0.38999999
9.9490004 -4.5320001 0.391
9.9530001 -4.5050001 0.391
9.9720001 -4.4840002 0.39199999
9.9969997 -4.4660001 0.39300001
10.028 -4.4510002 0.39399999
10.072 -4.441 0.396
10.046 -4.4000001 0.39500001
10.037 -4.3670001 0.39399999
10.082 -4.3569999 0.396
10.065 -4.3210001 0.39500001
10.112 -4.3109999 0.39700001
10.141 -4.2940001 0.398
10.148 -4.2670002 0.39899999
10.163 -4.244 0.39899999
10.208 -4.2329998 0.40099999
10.228 -4.211 0.40200001
10.225 -4.1799998 0.40099999
10.249 -4.1599998 0.40200001
10.268 -4.138 0.403
10.277 -4.112 0.403
10.313 -4.0960002 0.405
10.317 -4.0669999 0.405
10.333 -4.0430002 0.40599999
10.379 -4.0310001 0.40700001
10.402 -4.0100002 0.40799999
10.397 -3.9779999 0.40799999
10.466 -3.973 0.41100001
10.479 -3.948 0.41100001
10.497 -3.924 0.412
10.499 -3.8940001 0.412
10.535 -3.8770001 0.41299999
10.559 -3.855 0.414
10.597 -3.8380001 0.41600001
10.627 -3.8180001 0.417
10.655 -3.7969999 0.41800001
10.659 -3.767 0.41800001
10.703 -3.7520001 0.41999999
10.727 -3.7290001 0.421
10.756 -3.7079999 0.42199999
10.777 -3.6830001 0.42199999
10.794 -3.658 0.42300001
10.853 -3.6459999 0.42500001
10.895 -3.6289999 0.42699999
10.933 -3.609 0.428
10.967 -3.589 0.43000001
10.977 -3.5599999 0.43000001
11.025 -3.5439999 0.43200001
11.106 -3.5369999 0.435
11.143 -3.517 0.43599999
11.144 -3.4849999 0.43599999
11.161 -3.4579999 0.43700001
11.142 -3.4200001 0.43599999
11.165 -3.3940001 0.43700001
11.189 -3.369 0.43799999
11.198 -3.339 0.43799999
11.289 -3.3340001 0.442
11.293 -3.302 0.442
11.293 -3.2690001 0.442
11.357 -3.2550001 0.44400001
11.4 -3.234 0.44600001
11.403 -3.2019999 0.44600001
11.423 -3.174 0.447
11.466 -3.1530001 0.449
11.482 -3.1240001 0.449
11.543 -3.1070001 0.45100001
11.567 -3.0799999 0.45199999
11.603 -3.056 0.454
11.598 -3.0220001 0.45300001
11.663 -3.0050001 0.456
11.683 -2.9760001 0.45699999
11.697 -2.9460001 0.45699999
11.74 -2.9230001 0.45899999
11.785 -2.9000001 0.461
11.855 -2.8829999 0.463
11.907 -2.8610001 0.465
11.911 -2.8280001 0.465
11.946 -2.802 0.46700001
11.968 -2.7720001 0.46700001
12.04 -2.7539999 0.47
12.07 -2.7260001 0.47099999
12.126 -2.704 0.47299999
12.132 -2.6700001 0.47400001
12.158 -2.641 0.47499999
12.174 -2.609 0.47499999
12.237 -2.5869999 0.47799999
12.304 -2.566 0.47999999
12.3 -2.53 0.47999999
12.386 -2.5120001 0.48300001
12.393 -2.4779999 0.48300001
12.489 -2.461 0.48699999
12.468 -2.421 0.486
12.546 -2.4000001 0.48899999
12.555 -2.3659999 0.48899999
12.624 -2.342 0.49200001
12.74 -2.3269999 0.49700001
12.824 -2.306 0.5
12.831 -2.27 0.5
10.769 -1.8430001 0.419
10.676 -1.7970001 0.41600001
10.673 -1.766 0.41600001
10.721 -1.743 0.417
10.723 -1.558 0.417
10.604 -1.511 0.412
10.587 -1.478 0.412
10.613 -1.451 0.41299999
10.667 -1.428 0.41499999
10.805 -1.415 0.41999999
13.972 -1.71 0.54299998
13.974 -1.671 0.54299998
14.052 -1.5190001 0.546
14.121 -1.4859999 0.54799998
16.208 1.425 0.484
15.99 1.439 0.477
15.984 1.473 0.477
16.040001 1.512 0.479
16.066 1.549 0.479
16.143999 1.592 0.48199999
16.148001 1.628 0.48199999
16.181 1.6670001 0.48300001
16.162001 1.702 0.48199999
16.237 1.7460001 0.484
16.219999 1.781 0.484
16.249001 1.822 0.48500001
16.285999 1.864 0.486
16.291 1.902 0.486
16.319 1.944 0.48699999
16.323 1.983 0.48699999
16.424 2.0350001 0.49000001
16.450001 2.0780001 0.491
16.521999 2.1270001 0.493
16.516001 2.1659999 0.493
16.531 2.2090001 0.493
16.573999 2.256 0.495
16.607 2.302 0.49599999
16.593 2.342 0.495
16.674999 2.3959999 0.498
16.726 2.4460001 0.49900001
16.743 2.4909999 0.5
16.813 2.5450001 0.50199997
16.846001 2.5940001 0.50300002
16.857 2.6400001 0.50400001
16.907 2.6930001 0.505
17.028999 2.757 0.509
16.987 2.796 0.50800002
17.047001 2.852 0.50999999
17.058001 2.9000001 0.50999999
17.143 2.961 0.51300001
17.167999 3.0120001 0.514
17.176001 3.0610001 0.514
17.186001 3.1110001 0.514
17.184 3.1589999 0.514
17.254999 3.22 0.51700002
17.396 3.296 0.52100003
17.523001 3.3699999 0.52499998
17.559 3.427 0.52600002
17.576 3.4809999 0.52700001
17.601999 3.5369999 0.528
17.605 3.589 0.528
17.724001 3.665 0.53200001
17.796 3.733 0.53399998
17.761999 3.7780001 0.53399998
17.763 3.8310001 0.53399998
17.830999 3.8989999 0.53600001
17.919001 3.973 0.53899997
13.129 2.95 0.39500001
12.907 2.9400001 0.38800001
12.814 2.9579999 0.38600001
12.792 2.9920001 0.38499999
12.788 3.03 0.38499999
12.83 3.0799999 0.38699999
12.987 3.1589999 0.39199999
13.194 3.25 0.398
18.938999 4.9070001 0.57300001
18.613001 4.882 0.56300002
18.747999 4.9780002 0.56800002
18.629999 5.0079999 0.56400001
18.75 5.1009998 0.56800002
18.827999 5.184 0.57099998
18.917999 5.2709999 0.574
18.909 5.3309999 0.574
18.992001 5.4180002 0.57700002
19.492001 5.8899999 0.59399998
19.396 5.927 0.59100002
15.554 5.4109998 0.47799999
15.33 5.388 0.472
15.21 5.401 0.46799999
15.077 5.4089999 0.465
15.065 5.46 0.465
14.633 5.796 0.45500001
14.671 5.868 0.456
8.2919998 3.6730001 0.25999999
8.2010002 3.6659999 0.25799999
8.1440001 3.6730001 0.25600001
8.1079998 3.6889999 0.255
8.0839996 3.711 0.255
8.033 3.72 0.25400001
7.9829998 3.73 0.252
7.9710002 3.757 0.252
8.0200005 3.813 0.25400001
8.0550003 3.8629999 0.255
8.0799999 3.908 0.257
8.1459999 3.974 0.259
11.966 6.7649999 0.389
11.867 6.7620001 0.38600001
11.883 6.8239999 0.38699999
8.8669996 -5.8309999 0.375
8.9029999 -5.7979999 0.37599999
8.934 -5.763 0.377
8.9659996 -5.7280002 0.37799999
8.9910002 -5.6890001 0.37900001
9.0410004 -5.6669998 0.38100001
9.052 -5.6199999 0.38100001
9.0810003 -5.5840001 0.382
9.1199999 -5.5539999 0.38299999
9.1409998 -5.5139999 0.384
9.177 -5.4829998 0.38499999
9.1949997 -5.441 0.38600001
9.2370005 -5.4130001 0.38699999
9.2600002 -5.3740001 0.38800001
9.2910004 -5.3410001 0.389
9.3280001 -5.3099999 0.38999999
9.3549995 -5.2750001 0.391
9.3660002 -5.23 0.391
9.3920002 -5.1939998 0.39199999
9.408 -5.152 0.39300001
9.4530001 -5.1269999 0.39399999
9.5050001 -5.105 0.396
9.5050001 -5.0560002 0.396
9.5279999 -5.0190001 0.39700001
9.5530005 -4.9840002 0.398
9.573 -4.9450002 0.398
9.6009998 -4.9109998 0.39899999
9.6309996 -4.8779998 0.40000001
9.6499996 -4.8400002 0.40099999
9.6689997 -4.802 0.40099999
9.7089996 -4.7750001 0.403
9.7390003 -4.7420001 0.40400001
9.7510004 -4.7010002 0.40400001
9.7810001 -4.6690001 0.405
9.8179998 -4.6409998 0.40599999
9.8380003 -4.6040001 0.40700001
9.8610001 -4.5689998 0.40799999
9.901 -4.5409999 0.40900001
9.9370003 -4.5120001 0.41100001
9.9510002 -4.474 0.41100001
9.9949999 -4.448 0.41299999
10.011 -4.4099998 0.41299999
10.055 -4.3850002 0.41499999
10.089 -4.355 0.41600001
10.117 -4.323 0.417
10.129 -4.2839999 0.417
10.155 -4.2509999 0.41800001
10.199 -4.2259998 0.41999999
10.217 -4.1900001 0.41999999
10.265 -4.1659999 0.42199999
10.291 -4.1329999 0.42300001
10.325 -4.1040001 0.42399999
10.368 -4.0780001 0.426
10.395 -4.046 0.42699999
10.435 -4.0190001 0.428
10.478 -3.993 0.43000001
10.53 -3.971 0.43200001
10.559 -3.9400001 0.433
10.604 -3.914 0.435
10.651 -3.8900001 0.43599999
10.701 -3.8659999 0.43799999
10.773 -3.8499999 0.44100001
10.792 -3.8150001 0.442
10.836 -3.79 0.44299999
10.88 -3.763 0.44499999
10.907 -3.7320001 0.44600001
10.963 -3.71 0.44800001
10.998 -3.6800001 0.449
11.046 -3.6559999 0.45100001
11.104 -3.6340001 0.45300001
11.137 -3.6040001 0.45500001
11.243 -3.5969999 0.45899999
11.358 -3.5929999 0.463
11.315 -3.539 0.46200001
11.346 -3.5090001 0.463
11.325 -3.4619999 0.46200001
11.397 -3.444 0.465
11.422 -3.4119999 0.465
11.488 -3.392 0.46799999
11.512 -3.359 0.46900001
11.564 -3.335 0.47099999
11.582 -3.3010001 0.472
11.613 -3.27 0.47299999
11.643 -3.24 0.47400001
11.688 -3.2130001 0.47600001
11.706 -3.1789999 0.47600001
11.742 -3.151 0.477
11.8 -3.128 0.47999999
11.843 -3.1010001 0.48100001
11.907 -3.079 0.484
11.966 -3.056 0.486
11.989 -3.0239999 0.48699999
12.033 -2.997 0.48899999
12.027 -2.957 0.48800001
12.112 -2.9400001 0.49200001
12.218 -2.928 0.49599999
12.249 -2.898 0.49700001
12.298 -2.872 0.49900001
12.313 -2.8380001 0.5
12.338 -2.806 0.50099999
12.413 -2.786 0.50300002
12.498 -2.7679999 0.50700003
12.505 -2.7320001 0.50700003
12.583 -2.7119999 0.50999999
12.902 -2.3429999 0.52200001
12.825 -2.2939999 0.51899999
10.759 -1.895 0.435
10.678 -1.852 0.43200001
10.646 -1.818 0.43099999
10.676 -1.795 0.43200001
10.777 -1.784 0.43599999
13.888 -2.155 0.56199998
13.914 -2.1240001 0.56300002
10.733 -1.6109999 0.43399999
10.62 -1.567 0.42899999
10.572 -1.534 0.42699999
10.576 -1.508 0.428
10.598 -1.485 0.428
10.611 -1.461 0.42899999
10.662 -1.442 0.43099999
10.758 -1.429 0.435
12.942 -1.688 0.523
13.036 -1.669 0.52700001
14.272 -1.595 0.57700002
14.317 -1.568 0.579
15.169 0.20999999 0.50300002
15.197 0.237 0.50400001
15.248 0.266 0.505
15.277 0.294 0.50599998
15.359 0.324 0.50800002
15.25 0.34999999 0.505
15.347 0.38100001 0.50800002
13.216 0.43099999 0.43599999
13.257 0.45899999 0.43700001
15.453 0.56599998 0.50999999
15.47 0.59799999 0.50999999
15.445 0.62900001 0.509
13.166 0.56300002 0.43399999
13.21 0.59299999 0.435
15.497 0.72799999 0.50999999
15.439 0.75800002 0.50800002
15.498 0.79400003 0.50999999
15.708 0.83899999 0.51700002
16.15 1.503 0.52999997
16.096001 1.538 0.528
16.098 1.579 0.528
16.139 1.624 0.52899998
16.176001 1.668 0.52999997
16.225 1.715 0.53200001
16.275 1.762 0.53299999
16.325001 1.809 0.53500003
16.358999 1.8559999 0.53600001
16.356001 1.898 0.53600001
16.384001 1.9450001 0.537
16.42 1.992 0.53799999
16.469 2.0420001 0.54000002
16.518 2.092 0.54100001
16.549 2.141 0.542
16.607 2.1930001 0.54400003
16.649 2.244 0.546
16.73 2.3010001 0.54799998
16.768 2.352 0.55000001
16.774 2.3989999 0.55000001
16.872999 2.461 0.55299997
16.926001 2.516 0.55500001
17.003 2.575 0.55699998
17.048 2.6300001 0.55900002
17.052999 2.6789999 0.55900002
17.118 2.7379999 0.56099999
17.159 2.793 0.56300002
17.238001 2.8559999 0.565
17.283001 2.9130001 0.56699997
17.316 2.9690001 0.56800002
17.408001 3.036 0.57099998
17.431 3.0910001 0.57200003
17.427999 3.141 0.57200003
17.525999 3.211 0.57499999
17.580999 3.273 0.57700002
17.885 3.3829999 0.58700001
18.072001 3.526 0.59399998
18.003 3.5669999 0.59200001
18.073999 3.6359999 0.59399998
18.105 3.697 0.59500003
18.141001 3.76 0.597
18.299 3.849 0.602
18.247999 3.8940001 0.60000002
18.462 3.997 0.60799998
18.524 4.0679998 0.61000001
13.128 2.9230001 0.43200001
12.885 2.9100001 0.42399999
12.809 2.9330001 0.42199999
12.786 2.967 0.421
12.8 3.0109999 0.42199999
12.889 3.073 0.42500001
13.072 3.158 0.43099999
13.232 3.2390001 0.43700001
18.931999 4.6950002 0.625
18.941999 4.7579999 0.62599999
18.959 4.823 0.62599999
19.042999 4.9060001 0.62900001
19.084 4.9780002 0.63099998
19.099001 5.0440001 0.63200003
19.148001 5.119 0.634
19.149 5.1820002 0.634
19.186001 5.2550001 0.63499999
19.931 5.7220001 0.66100001
19.74 5.7329998 0.65499997
19.698999 5.7870002 0.65399998
19.728001 5.8610001 0.65499997
15.73 5.369 0.52600002
15.445 5.3249998 0.51700002
15.296 5.3270001 0.51200002
15.191 5.3429999 0.509
15.074 5.3540001 0.505
15.008 5.3829999 0.50300002
15.091 5.4660001 0.50599998
8.4639997 3.7290001 0.28799999
8.3170004 3.694 0.28299999
8.2279997 3.684 0.28099999
8.1619997 3.684 0.27900001
8.1140003 3.6919999 0.27700001
8.0979996 3.714 0.27700001
8.0649996 3.7279999 0.27599999
8.0109997 3.733 0.27399999
7.9770002 3.7460001 0.273
7.9749999 3.7739999 0.273
8.0150003 3.822 0.27500001
8.0459995 3.8659999 0.27599999
8.052 3.898 0.27700001
8.0799999 3.941 0.278
8.1820002 4.0209999 0.28200001
12.105 6.8319998 0.42500001
11.951 6.789 0.41999999
11.96 6.8369999 0.41999999
9.5109997 -5.632 0.41800001
9.5489998 -5.6269999 0.41999999
9.5480003 -5.599 0.41999999
9.5710001 -5.585 0.421
9.5839996 -5.566 0.42199999
9.6020002 -5.5479999 0.42199999
9.6339998 -5.539 0.42399999
9.6379995 -5.5139999 0.42399999
9.6689997 -5.5029998 0.42500001
9.6750002 -5.4790001 0.426
9.6800003 -5.454 0.426
9.6820002 -5.427 0.426
9.7089996 -5.414 0.42699999
9.7159996 -5.3899999 0.42699999
9.7539997 -5.3829999 0.42899999
9.7519999 -5.3540001 0.42899999
9.7460003 -5.322 0.42899999
9.7629995 -5.303 0.42899999
9.7849998 -5.2870002 0.43000001
9.802 -5.2680001 0.43099999
9.802 -5.2389998 0.43099999
9.8129997 -5.2160001 0.43099999
9.8409996 -5.2030001 0.433
9.8599997 -5.184 0.433
9.8909998 -5.1719999 0.435
9.8970003 -5.1459999 0.435
9.8780003 -5.1069999 0.43399999
9.8940001 -5.0869999 0.435
9.9329996 -5.0780001 0.43700001
9.9499998 -5.0580001 0.43700001
9.9560003 -5.0320001 0.43799999
9.9940004 -5.0219998 0.43900001
10.009 -5 0.44
10.028 -4.9809999 0.44100001
10.04 -4.9580002 0.44100001
10.051 -4.9330001 0.442
10.058 -4.908 0.442
10.097 -4.8969998 0.44299999
10.097 -4.868 0.44299999
10.111 -4.8449998 0.44400001
10.139 -4.829 0.44499999
10.142 -4.8000002 0.44499999
10.157 -4.7779999 0.44600001
10.197 -4.7670002 0.44800001
10.206 -4.7410002 0.44800001
10.224 -4.7199998 0.449
10.243 -4.6989999 0.44999999
10.26 -4.6760001 0.44999999
10.304 -4.6659999 0.45199999
10.322 -4.645 0.45300001
10.339 -4.6220002 0.454
10.351 -4.5970001 0.454
10.373 -4.5770001 0.45500001
10.386 -4.552 0.456
10.387 -4.5219998 0.456
10.414 -4.5029998 0.45699999
10.434 -4.4819999 0.458
10.484 -4.4720001 0.46000001
10.494 -4.4460001 0.46000001
10.53 -4.4299998 0.46200001
10.542 -4.4050002 0.46200001
10.547 -4.3759999 0.46200001
10.574 -4.3559999 0.46399999
10.601 -4.336 0.465
10.626 -4.3150001 0.46599999
10.635 -4.2880001 0.46599999
10.695 -4.2810001 0.46900001
10.737 -4.2659998 0.47
10.788 -4.2550001 0.47299999
10.909 -4.2709999 0.47799999
10.903 -4.237 0.47799999
10.954 -4.2249999 0.47999999
10.923 -4.1810002 0.47799999
10.897 -4.1389999 0.477
10.884 -4.1020002 0.477
10.92 -4.0840001 0.47799999
10.948 -4.0630002 0.479
10.978 -4.0419998 0.48100001
10.986 -4.0120001 0.48100001
11.024 -3.994 0.48300001
11.048 -3.971 0.48300001
11.061 -3.9430001 0.484
11.136 -3.937 0.48699999
11.104 -3.8940001 0.486
11.173 -3.885 0.48899999
11.169 -3.8510001 0.48899999
11.191 -3.826 0.48899999
11.254 -3.8150001 0.49200001
11.264 -3.786 0.493
11.274 -3.756 0.493
11.333 -3.743 0.495
11.362 -3.7190001 0.49700001
11.371 -3.6900001 0.49700001
11.381 -3.6600001 0.49700001
11.499 -3.664 0.50199997
11.687 -3.6900001 0.51099998
11.596 -3.6270001 0.50700003
11.555 -3.5810001 0.505
11.572 -3.553 0.505
11.581 -3.5220001 0.50599998
11.612 -3.497 0.50700003
11.635 -3.471 0.50800002
11.678 -3.4489999 0.50999999
11.694 -3.4200001 0.50999999
11.746 -3.401 0.51300001
11.761 -3.372 0.51300001
11.778 -3.342 0.514
11.793 -3.312 0.51499999
11.831 -3.289 0.51599997
11.857 -3.2620001 0.51700002
11.878 -3.233 0.51800001
11.903 -3.2049999 0.51899999
11.97 -3.1889999 0.52200001
11.961 -3.152 0.52200001
12.011 -3.1300001 0.52399999
12.068 -3.1099999 0.52600002
12.071 -3.076 0.52600002
12.186 -3.0699999 0.53100002
12.183 -3.0339999 0.53100002
12.226 -3.0090001 0.53299999
12.253 -2.98 0.53399998
12.264 -2.947 0.53399998
12.319 -2.925 0.53600001
12.404 -2.9100001 0.54000002
12.434 -2.881 0.54100001
12.479 -2.855 0.54299998
12.519 -2.8280001 0.54500002
12.615 -2.813 0.54900002
13.554 -2.5539999 0.58899999
13.61 -2.5250001 0.59100002
13.626 -2.4890001 0.59200001
12.881 -2.279 0.55900002
12.765 -2.221 0.55400002
10.752 -1.84 0.46700001
10.667 -1.795 0.463
10.679 -1.766 0.463
10.734 -1.744 0.46599999
10.768 -1.626 0.46700001
10.6 -1.571 0.46000001
10.562 -1.535 0.458
10.566 -1.505 0.458
10.615 -1.4809999 0.46000001
10.694 -1.462 0.463
12.842 -1.719 0.55599999
12.868 -1.6849999 0.55699998
12.922 -1.655 0.56
12.997 0.118 0.45899999
12.99 0.12899999 0.458
13.001 0.141 0.458
12.991 0.154 0.458
13.018 0.167 0.458
12.983 0.17900001 0.45699999
12.99 0.193 0.45699999
12.996 0.207 0.45699999
13.002 0.221 0.45699999
13.004 0.236 0.456
13.029 0.25099999 0.45699999
12.974 0.26499999 0.45500001
12.982 0.28 0.45500001
12.981 0.296 0.45500001
12.975 0.31200001 0.454
12.96 0.32800001 0.454
12.939 0.34400001 0.45300001
12.947 0.361 0.45300001
12.946 0.37799999 0.45199999
12.932 0.39500001 0.45199999
12.931 0.41299999 0.45100001
12.915 0.43099999 0.45100001
12.915 0.449 0.45100001
12.92 0.46799999 0.45100001
12.915 0.48699999 0.44999999
12.909 0.50599998 0.44999999
12.899 0.52600002 0.449
12.895 0.54500002 0.449
12.912 0.56599998 0.449
12.911 0.58700001 0.449
12.916 0.60799998 0.449
12.939 0.63 0.44999999
12.968 0.653 0.45100001
13.008 0.67699999 0.45199999
13.015 0.699 0.45199999
13.072 0.72500002 0.454
13.168 0.75300002 0.45699999
16.947001 1.527 0.58700001
16.796 1.549 0.58200002
16.805 1.586 0.58200002
16.851999 1.627 0.58399999
16.84 1.6619999 0.583
16.863001 1.702 0.58399999
16.865999 1.739 0.58399999
16.882 1.779 0.58499998
16.906 1.8200001 0.58600003
16.941999 1.862 0.58700001
16.981001 1.905 0.588
17.02 1.949 0.58999997
17.056999 1.993 0.59100002
17.1 2.0380001 0.59299999
17.101999 2.079 0.59299999
17.143999 2.125 0.59399998
17.243999 2.1789999 0.59799999
17.290001 2.227 0.59899998
17.271999 2.267 0.59899998
17.371 2.322 0.602
17.424 2.3729999 0.60399997
17.482 2.424 0.60600001
17.511 2.4719999 0.60799998
17.558001 2.523 0.60900003
17.587999 2.573 0.611
17.601999 2.6199999 0.611
17.693001 2.6789999 0.61400002
17.702999 2.727 0.61500001
17.681 2.77 0.61400002
17.832001 2.8410001 0.62
17.825001 2.8870001 0.62
17.888 2.9449999 0.62199998
17.910999 2.997 0.62300003
17.979 3.0569999 0.62599999
18.124001 3.131 0.63099998
18.257999 3.2049999 0.63599998
18.288 3.26 0.63700002
18.393 3.3299999 0.64099997
18.437 3.3900001 0.64300001
18.513 3.4560001 0.64499998
18.549 3.5150001 0.64700001
18.576 3.573 0.648
18.618999 3.6340001 0.64999998
18.676001 3.6989999 0.65200001
18.615999 3.7409999 0.64999998
18.695999 3.812 0.653
18.736 3.875 0.65499997
18.757 3.9349999 0.65600002
18.795 3.9979999 0.65799999
18.783001 4.052 0.65799999
18.851999 4.1230001 0.66000003
18.84 4.177 0.66000003
19.002001 4.27 0.66600001
12.905 2.9389999 0.45199999
12.818 2.9590001 0.44999999
12.783 2.99 0.449
12.776 3.0280001 0.449
12.805 3.0739999 0.44999999
12.928 3.1440001 0.454
13.064 3.2190001 0.46000001
13.246 3.3050001 0.46599999
19.813999 5.4559999 0.70099998
19.867001 5.5359998 0.70300001
15.549 5.3520002 0.55800003
15.351 5.3390002 0.55199999
15.219 5.349 0.54699999
15.104 5.3629999 0.54400003
15.022 5.3889999 0.54100001
15.077 5.4640002 0.54400003
8.349 3.665 0.30700001
8.2679996 3.6619999 0.30399999
8.1929998 3.6619999 0.30199999
8.1239996 3.664 0.30000001
8.0979996 3.6849999 0.29899999
8.0579996 3.6989999 0.29800001
7.9910002 3.701 0.296
7.9819999 3.7290001 0.296
8.0179996 3.779 0.29699999
8.0559998 3.8299999 0.29899999
8.0740004 3.872 0.30000001
8.0979996 3.9170001 0.301
8.25 4.0250001 0.30700001
9.1169996 -5.993 0.428
9.1540003 -5.96 0.43000001
9.191 -5.927 0.43099999
9.2189999 -5.888 0.43200001
9.2690001 -5.8639998 0.43399999
9.2740002 -5.8109999 0.43399999
9.3319998 -5.7919998 0.43599999
9.3669996 -5.7579999 0.43799999
9.3920002 -5.7179999 0.43900001
9.4289999 -5.6859999 0.44
9.4449997 -5.6409998 0.44
9.4820004 -5.6090002 0.442
9.5129995 -5.573 0.44299999
9.5159998 -5.5219998 0.44299999
9.5649996 -5.4970002 0.44499999
9.5930004 -5.46 0.44600001
9.6210003 -5.4229999 0.447
9.6540003 -5.3889999 0.44800001
9.6719999 -5.348 0.449
9.7019997 -5.3119998 0.44999999
9.7019997 -5.2610002 0.449
9.7550001 -5.2389998 0.45199999
9.7980003 -5.211 0.45300001
9.8170004 -5.1700001 0.454
9.8450003 -5.1350002 0.45500001
9.8839998 -5.105 0.456
9.9049997 -5.066 0.45699999
9.9370003 -5.033 0.458
9.9700003 -5 0.46000001
9.9899998 -4.961 0.46000001
10.021 -4.927 0.46200001
10.067 -4.901 0.463
10.088 -4.8629999 0.46399999
10.105 -4.823 0.465
10.149 -4.796 0.46700001
10.179 -4.7620001 0.46799999
10.21 -4.73 0.46900001
10.247 -4.6989999 0.47
10.273 -4.664 0.47099999
10.303 -4.631 0.472
10.355 -4.6069999 0.47499999
10.391 -4.5770001 0.47600001
10.42 -4.5430002 0.477
10.436 -4.5040002 0.47799999
10.469 -4.473 0.479
10.522 -4.4489999 0.48100001
10.558 -4.4190001 0.48300001
10.593 -4.388 0.484
10.625 -4.3559999 0.48500001
10.68 -4.3340001 0.48800001
10.712 -4.302 0.48899999
10.75 -4.2719998 0.49000001
10.815 -4.2540002 0.493
10.879 -4.2340002 0.49599999
10.964 -4.2220001 0.49900001
11.077 -4.2210002 0.50400001
11.066 -4.1719999 0.50400001
11.029 -4.1139998 0.50199997
11.042 -4.0749998 0.50199997
11.075 -4.0440001 0.50400001
11.122 -4.0180001 0.50599998
11.15 -3.984 0.50700003
11.196 -3.9579999 0.509
11.27 -3.941 0.51200002
11.296 -3.9070001 0.51300001
11.325 -3.8740001 0.514
11.352 -3.8410001 0.51499999
11.377 -3.8069999 0.51599997
11.417 -3.7780001 0.51800001
11.475 -3.7550001 0.51999998
11.509 -3.724 0.52100003
11.544 -3.6930001 0.523
11.704 -3.7030001 0.52999997
11.722 -3.6659999 0.53100002
11.707 -3.6199999 0.52999997
11.732 -3.586 0.53100002
11.76 -3.553 0.53200001
11.771 -3.516 0.53200001
11.818 -3.4890001 0.53399998
11.866 -3.4619999 0.53600001
11.925 -3.4389999 0.53899997
11.965 -3.4100001 0.54000002
12.022 -3.385 0.54299998
12.026 -3.346 0.54299998
12.056 -3.3139999 0.54400003
12.144 -3.2980001 0.54799998
12.21 -3.276 0.551
12.205 -3.2349999 0.55000001
12.29 -3.2179999 0.55400002
12.343 -3.1919999 0.55599999
12.373 -3.1600001 0.55800003
12.474 -3.1459999 0.56199998
12.64 -3.148 0.56900001
13.468 -3.023 0.60600001
13.447 -2.9779999 0.60500002
13.629 -2.9779999 0.61299998
13.506 -2.911 0.60699999
13.583 -2.888 0.611
13.598 -2.852 0.611
13.648 -2.783 0.61299998
13.659 -2.747 0.61400002
13.763 -2.651 0.61799997
13.824 -2.6240001 0.62099999
13.86 -2.5929999 0.62199998
12.782 -2.3210001 0.574
12.727 -2.277 0.57099998
10.778 -1.899 0.484
10.679 -1.853 0.479
10.656 -1.8200001 0.47799999
10.679 -1.796 0.479
10.735 -1.777 0.48100001
10.907 -1.777 0.48899999
10.704 -1.661 0.47999999
10.586 -1.6160001 0.47499999
10.546 -1.5829999 0.47299999
10.543 -1.556 0.472
10.549 -1.531 0.47299999
10.586 -1.51 0.47400001
10.634 -1.4910001 0.47600001
10.728 -1.477 0.48100001
12.8 -1.732 0.574
12.799 -1.701 0.57300001
12.833 -1.674 0.57499999
12.86 -1.647 0.57599998
12.895 -1.6210001 0.57800001
12.932 -1.595 0.579
13.112 0.155 0.58999997
13.069 0.17200001 0.588
13.054 0.189 0.588
13.031 0.206 0.58700001
13.032 0.223 0.58700001
13.023 0.23999999 0.58700001
13.024 0.25600001 0.58700001
13.037 0.273 0.588
13.05 0.28999999 0.588
13.023 0.30500001 0.58700001
13.024 0.32100001 0.58700001
13.022 0.33700001 0.58700001
13.027 0.35299999 0.588
13.048 0.36899999 0.58899999
13.065 0.384 0.58999997
13.091 0.40099999 0.59100002
13.121 0.417 0.59299999
13.189 0.43399999 0.59600002
12.833 0.18000001 0.48699999
12.841 0.20200001 0.48699999
12.847 0.226 0.48699999
12.852 0.249 0.48699999
12.851 0.273 0.48699999
12.857 0.29699999 0.48699999
12.878 0.322 0.48699999
12.863 0.34599999 0.48699999
12.852 0.37 0.486
12.848 0.39500001 0.486
12.845 0.41999999 0.48500001
12.848 0.44600001 0.48500001
12.846 0.472 0.48500001
12.845 0.498 0.48500001
12.857 0.52499998 0.48500001
12.855 0.551 0.48500001
12.863 0.57800001 0.48500001
12.867 0.60600001 0.48500001
12.899 0.63499999 0.486
12.918 0.66299999 0.48699999
12.951 0.69300002 0.48800001
12.983 0.72299999 0.48899999
13.008 0.75300002 0.49000001
13.063 0.78600001 0.49200001
13.032 0.81300002 0.491
13.129 0.84899998 0.49399999
13.132 0.87900001 0.49399999
13.128 0.90899998 0.49399999
13.119 0.93800002 0.49399999
13.125 0.97000003 0.49399999
13.115 1 0.493
13.142 1.033 0.49399999
13.1 1.061 0.493
13.093 1.092 0.49200001
13.117 1.125 0.493
13.15 1.16 0.49399999
13.251 1.202 0.498
17.018 1.585 0.63999999
16.957001 1.622 0.63800001
16.98 1.6670001 0.63800001
16.99 1.71 0.639
17.048 1.7589999 0.64099997
17.068001 1.8049999 0.64200002
17.146 1.857 0.64499998
17.188999 1.906 0.64600003
17.245001 1.957 0.648
17.327 2.0120001 0.65100002
17.375 2.063 0.653
17.386999 2.1110001 0.65399998
17.42 2.161 0.65499997
17.507 2.2190001 0.65799999
17.542 2.27 0.66000003
17.583 2.323 0.66100001
17.607 2.3740001 0.662
17.627001 2.425 0.66299999
17.645 2.4760001 0.66399997
17.681999 2.53 0.66500002
17.794001 2.596 0.67000002
17.871 2.6570001 0.67299998
17.966999 2.7219999 0.676
18.025 2.7809999 0.67900002
18.086 2.842 0.68099999
18.089001 2.8940001 0.68099999
18.156 2.9560001 0.68400002
18.243999 3.023 0.68699998
18.247 3.076 0.68800002
18.374001 3.151 0.69300002
18.586 3.2420001 0.70099998
18.615 3.3010001 0.70200002
18.634001 3.359 0.70300001
18.728001 3.431 0.70700002
18.756001 3.4920001 0.708
18.778 3.552 0.70899999
18.853001 3.6229999 0.71200001
18.857 3.6800001 0.71200001
18.927 3.7509999 0.71499997
18.978001 3.8180001 0.71700001
19.117001 3.904 0.72299999
19.077999 3.9549999 0.72100002
19.202999 4.039 0.72600001
19.184 4.0939999 0.72600001
19.306999 4.1799998 0.73100001
19.233 4.224 0.72799999
19.598 4.3649998 0.74199998
12.936 2.921 0.49000001
12.828 2.937 0.486
12.781 2.9660001 0.48500001
12.775 3.0050001 0.484
12.811 3.0539999 0.486
12.939 3.1259999 0.491
13.044 3.1930001 0.495
13.191 3.2709999 0.50099999
20.677 5.8000002 0.78899997
20.677999 5.868 0.79000002
15.522 5.3520002 0.59899998
15.353 5.3470001 0.59299999
15.248 5.3629999 0.58899999
15.173 5.3889999 0.58700001
15.111 5.4200001 0.58499998
15.184 5.5 0.588
14.756 5.8649998 0.57599998
14.592 5.8520002 0.56999999
14.748 5.967 0.57599998
8.467 3.73 0.333
8.2869997 3.681 0.32600001
8.2349997 3.687 0.32499999
8.1820002 3.6930001 0.32300001
8.125 3.697 0.32100001
8.0939999 3.7119999 0.31999999
8.0319996 3.7130001 0.31799999
7.987 3.721 0.31600001
7.9629998 3.7390001 0.31600001
7.9879999 3.78 0.317
8.0380001 3.8329999 0.31900001
8.0509996 3.869 0.31999999
8.066 3.905 0.32100001
8.0950003 3.948 0.322
8.2860003 4.072 0.33000001
10.752 7.4580002 0.456
10.735 7.4819999 0.456
10.719 7.506 0.45500001
10.67 7.506 0.454
10.619 7.5050001 0.45199999
10.583 7.513 0.45100001
10.567 7.5349998 0.45100001
10.562 7.5650001 0.45100001
10.526 7.572 0.44999999
10.508 7.592 0.44999999
10.488 7.6100001 0.44999999
10.47 7.6290002 0.44999999
9.9160004 -5.8769999 0.48199999
9.9540005 -5.8709998 0.484
9.9549999 -5.8429999 0.484
9.9790001 -5.8280001 0.48500001
9.9759998 -5.7979999 0.48500001
10.002 -5.7839999 0.486
9.9949999 -5.7519999 0.486
10.013 -5.7329998 0.48699999
10.002 -5.698 0.486
10.038 -5.6890001 0.48800001
10.035 -5.658 0.48800001
10.046 -5.6360002 0.48800001
10.057 -5.6129999 0.48899999
10.069 -5.5900002 0.48899999
10.088 -5.572 0.49000001
10.102 -5.5500002 0.491
10.126 -5.5339999 0.49200001
10.15 -5.5180001 0.493
10.157 -5.4920001 0.493
10.163 -5.4660001 0.49399999
10.182 -5.4460001 0.495
10.205 -5.4289999 0.49599999
10.225 -5.4099998 0.49700001
10.325 -5.4320002 0.50099999
10.29 -5.3839998 0.5
10.275 -5.3460002 0.49900001
10.259 -5.3080001 0.498
10.313 -5.3060002 0.50099999
10.336 -5.2880001 0.50199997
10.346 -5.263 0.50199997
10.336 -5.2270002 0.50199997
10.378 -5.2189999 0.50400001
10.396 -5.197 0.505
10.402 -5.1700001 0.505
10.409 -5.1430001 0.505
10.421 -5.119 0.50599998
10.473 -5.1129999 0.50800002
10.456 -5.0739999 0.50700003
10.486 -5.0580001 0.509
10.514 -5.0409999 0.50999999
10.513 -5.0100002 0.50999999
10.568 -5.0050001 0.51300001
10.593 -4.9860001 0.514
10.586 -4.9520001 0.51300001
10.603 -4.9289999 0.514
10.618 -4.9050002 0.51499999
10.643 -4.8850002 0.51599997
10.688 -4.875 0.51800001
10.717 -4.8559999 0.51899999
10.73 -4.8309999 0.51999998
10.737 -4.803 0.51999998
10.754 -4.7789998 0.52100003
10.771 -4.7550001 0.52200001
10.805 -4.7379999 0.523
10.842 -4.723 0.52499998
10.859 -4.698 0.52600002
10.906 -4.6869998 0.528
10.914 -4.658 0.528
10.92 -4.6290002 0.52899998
10.923 -4.598 0.52899998
10.982 -4.5910001 0.53200001
10.986 -4.5599999 0.53200001
11.016 -4.5409999 0.53299999
11.022 -4.5110002 0.53299999
11.077 -4.5009999 0.53600001
11.105 -4.48 0.537
11.122 -4.454 0.53799999
11.173 -4.4419999 0.54000002
11.214 -4.4260001 0.542
11.404 -4.401 0.551
11.314 -4.3330002 0.54699999
11.289 -4.29 0.546
11.271 -4.25 0.54500002
11.303 -4.2290001 0.546
11.339 -4.21 0.54799998
11.364 -4.1859999 0.54900002
11.401 -4.1659999 0.551
11.418 -4.1389999 0.55199999
11.438 -4.1129999 0.55199999
11.446 -4.0819998 0.55299997
11.484 -4.0619998 0.55500001
11.509 -4.0380001 0.55599999
11.559 -4.0209999 0.55800003
11.564 -3.9890001 0.55800003
11.587 -3.964 0.55900002
11.603 -3.9349999 0.56
11.627 -3.9089999 0.56099999
11.637 -3.8789999 0.56099999
11.69 -3.862 0.56400001
11.713 -3.836 0.565
11.75 -3.8139999 0.56699997
11.794 -3.7939999 0.56900001
11.844 -3.7750001 0.57099998
11.931 -3.7679999 0.57499999
11.947 -3.7390001 0.57599998
11.962 -3.7090001 0.57700002
11.986 -3.681 0.57800001
12.01 -3.6530001 0.579
11.965 -3.605 0.57599998
12.015 -3.585 0.579
12.033 -3.5550001 0.57999998
12.117 -3.5450001 0.58399999
12.188 -3.53 0.58700001
12.177 -3.4920001 0.58600003
12.241 -3.4749999 0.58899999
12.323 -3.4619999 0.59299999
12.357 -3.4360001 0.59500003
12.435 -3.4219999 0.59799999
12.417 -3.3800001 0.597
12.622 -3.4000001 0.60699999
12.572 -3.3499999 0.60500002
13.537 -3.1760001 0.64999998
13.471 -3.1210001 0.64700001
13.472 -3.0829999 0.64700001
13.504 -3.0510001 0.648
13.46 -3.0020001 0.64600003
13.534 -2.98 0.64899999
13.567 -2.947 0.65100002
13.618 -2.9189999 0.653
13.64 -2.885 0.65399998
13.661 -2.8499999 0.65499997
13.675 -2.813 0.65600002
13.712 -2.7809999 0.65700001
13.768 -2.753 0.66000003
13.82 -2.723 0.662
13.902 -2.7 0.66600001
13.917 -2.6619999 0.667
13.951 -2.6289999 0.66799998
14.017 -2.6010001 0.671
14.131 -2.5810001 0.67699999
12.762 -2.257 0.611
12.731 -2.2149999 0.60900003
10.723 -1.835 0.51300001
10.656 -1.793 0.50999999
10.676 -1.766 0.51099998
10.715 -1.7410001 0.51200002
10.825 -1.697 0.51800001
10.586 -1.6289999 0.50599998
10.545 -1.592 0.50400001
10.533 -1.5599999 0.50300002
10.566 -1.535 0.505
10.627 -1.513 0.50800002
12.809 -1.7869999 0.61199999
12.772 -1.745 0.61000001
12.832 -1.717 0.61299998
12.929 -1.692 0.61699998
12.991 -1.663 0.62
12.982 0.23199999 0.61299998
12.924 0.26800001 0.611
12.898 0.30399999 0.60900003
12.885 0.34099999 0.60799998
12.878 0.377 0.60799998
12.882 0.414 0.60799998
12.89 0.45100001 0.60799998
12.891 0.48800001 0.60799998
12.899 0.52499998 0.60799998
12.885 0.56199998 0.60799998
12.884 0.59899998 0.60699999
12.896 0.63599998 0.60799998
12.901 0.67299998 0.60799998
12.905 0.70999998 0.60799998
12.919 0.74800003 0.60900003
12.927 0.78600001 0.60900003
12.922 0.82200003 0.60799998
12.926 0.85900003 0.60799998
12.909 0.89499998 0.60799998
12.791 0.119 0.51200002
12.784 0.13 0.51200002
12.784 0.142 0.51200002
12.783 0.154 0.51099998
12.784 0.167 0.51099998
12.784 0.17900001 0.51099998
12.774 0.193 0.50999999
12.762 0.206 0.509
12.759 0.22 0.509
12.758 0.234 0.50800002
12.764 0.248 0.50800002
12.765 0.26300001 0.50800002
12.752 0.278 0.50700003
12.74 0.29300001 0.50700003
12.748 0.30899999 0.50700003
12.741 0.32499999 0.50599998
12.741 0.34099999 0.50599998
12.738 0.35800001 0.50599998
12.734 0.37400001 0.505
12.737 0.39199999 0.505
12.733 0.40900001 0.505
12.736 0.42699999 0.505
12.723 0.44499999 0.50400001
12.728 0.463 0.50400001
12.721 0.48199999 0.50400001
12.722 0.50099999 0.50400001
12.723 0.51999998 0.50400001
12.711 0.53899997 0.50300002
12.71 0.55900002 0.50300002
12.703 0.579 0.50199997
12.717 0.60000002 0.50300002
12.707 0.62099999 0.50199997
12.712 0.64200002 0.50199997
12.741 0.66500002 0.50300002
12.784 0.68900001 0.505
12.861 0.71499997 0.50800002
12.899 0.74000001 0.509
12.93 0.764 0.50999999
12.965 0.78899997 0.51200002
12.97 0.81300002 0.51200002
12.95 0.83600003 0.51099998
12.961 0.86000001 0.51099998
12.943 0.88300002 0.51099998
12.945 0.90799999 0.51099998
12.914 0.93000001 0.509
12.926 0.95599997 0.50999999
12.91 0.98000002 0.509
12.916 1.006 0.509
12.917 1.0319999 0.509
12.925 1.059 0.509
12.931 1.086 0.50999999
12.941 1.113 0.50999999
12.952 1.141 0.51099998
12.991 1.1720001 0.51200002
13.028 1.2029999 0.514
17.815001 1.645 0.70200002
13.024 1.23 0.51300001
17.781 1.6799999 0.70099998
13.043 1.26 0.514
17.827 1.723 0.70300001
13.061 1.29 0.51499999
17.777 1.757 0.70099998
13.107 1.324 0.51700002
17.857 1.804 0.704
13.157 1.358 0.51899999
17.878 1.845 0.70499998
13.249 1.397 0.52200001
17.885 1.886 0.70499998
17.917 1.9299999 0.70700002
18.028999 1.983 0.71100003
18.042 2.026 0.71200001
18.315001 2.099 0.72299999
18.403 2.152 0.72600001
18.362 2.1900001 0.72500002
18.368999 2.234 0.72500002
18.455999 2.289 0.72899997
18.521999 2.342 0.73100001
18.569 2.3929999 0.73299998
18.641001 2.448 0.736
18.596001 2.4879999 0.73500001
18.611 2.536 0.73500001
18.724001 2.598 0.74000001
18.792 2.655 0.74299997
18.801001 2.7030001 0.74299997
18.797001 2.7509999 0.74299997
18.854 2.8069999 0.74599999
18.872999 2.859 0.74699998
18.885 2.9100001 0.74800003
18.900999 2.9619999 0.74800003
18.959 3.0209999 0.75099999
18.983 3.076 0.75199997
18.971001 3.1240001 0.75199997
19.052999 3.1889999 0.755
19.028 3.237 0.755
19.091999 3.299 0.75800002
19.136 3.359 0.75999999
19.129 3.411 0.75999999
19.143 3.467 0.75999999
19.25 3.54 0.76499999
19.273001 3.598 0.76599997
19.343 3.6659999 0.76899999
19.441999 3.74 0.77399999
19.551001 3.8169999 0.778
12.966 2.914 0.51899999
12.846 2.9260001 0.514
12.78 2.95 0.51200002
12.769 2.987 0.51200002
12.783 3.03 0.51200002
12.844 3.0840001 0.51499999
12.972 3.155 0.52100003
13.012 3.2060001 0.523
13.183 3.29 0.52999997
19.695 5.23 0.79400003
19.784 5.3179998 0.79900002
19.726 5.3670001 0.79699999
15.47 5.381 0.63599998
15.364 5.3990002 0.63200003
15.308 5.4349999 0.63
14.837 5.7639999 0.61699998
14.804 5.8070002 0.616
14.677 5.8130002 0.611
14.547 5.8169999 0.60600001
14.709 5.9390001 0.61400002
8.4469995 3.707 0.35600001
8.2729998 3.664 0.34900001
8.2229996 3.675 0.347
8.1599998 3.6800001 0.345
8.1099997 3.6900001 0.34299999
8.066 3.7019999 0.34200001
7.9879999 3.6989999 0.33899999
7.9580002 3.7179999 0.338
7.994 3.7679999 0.34
8.0410004 3.823 0.34200001
8.066 3.868 0.34400001
8.0649996 3.901 0.34400001
8.1490002 3.9749999 0.34799999
11.03 7.0409999 0.495
10.934 7.0310001 0.491
10.916 7.0710001 0.491
10.853 7.0809999 0.48899999
10.82 7.1110001 0.48800001
10.799 7.1490002 0.48800001
10.761 7.1750002 0.48699999
10.734 7.2080002 0.48699999
10.691 7.23 0.486
10.661 7.2620001 0.48500001
10.635 7.2950001 0.48500001
10.609 7.329 0.484
10.574 7.3559999 0.484
10.553 7.3930001 0.48300001
10.527 7.4260001 0.48300001
10.485 7.448 0.48199999
10.461 7.4819999 0.48199999
10.424 7.5079999 0.48100001
9.4530001 -6.2119999 0.48899999
9.4980001 -6.1820002 0.49000001
9.5410004 -6.151 0.49200001
9.5690002 -6.1100001 0.493
9.6000004 -6.072 0.495
9.6210003 -6.027 0.495
9.6750002 -6.0029998 0.498
9.7110004 -5.9679999 0.49900001
9.7349997 -5.9250002 0.5
9.7779999 -5.895 0.50199997
9.7969999 -5.8499999 0.50199997
9.8439999 -5.822 0.50400001
9.8640003 -5.777 0.505
9.9069996 -5.7470002 0.50700003
9.9300003 -5.7049999 0.50800002
9.9659996 -5.671 0.509
10.001 -5.6360002 0.51099998
10.024 -5.5949998 0.51200002
10.062 -5.5619998 0.51300001
10.113 -5.5370002 0.51499999
10.156 -5.506 0.51700002
10.17 -5.461 0.51800001
10.151 -5.3969998 0.51599997
10.212 -5.3769999 0.51899999
10.256 -5.348 0.52100003
10.297 -5.3169999 0.523
10.31 -5.2719998 0.523
10.331 -5.2309999 0.52399999
10.374 -5.2020001 0.52600002
10.414 -5.1700001 0.528
10.439 -5.132 0.52899998
10.463 -5.0929999 0.52899998
10.515 -5.0679998 0.53200001
10.534 -5.027 0.53299999
10.564 -4.9910002 0.53399998
10.607 -4.9619999 0.53600001
10.629 -4.9229999 0.53600001
10.691 -4.902 0.53899997
10.718 -4.8649998 0.54000002
10.748 -4.8299999 0.542
10.804 -4.8060002 0.54400003
10.821 -4.7649999 0.54500002
10.837 -4.724 0.54500002
10.895 -4.7010002 0.54799998
10.926 -4.6669998 0.54900002
10.977 -4.6409998 0.55199999
11.012 -4.6079998 0.55299997
11.035 -4.5710001 0.55400002
11.074 -4.54 0.55599999
11.107 -4.506 0.55699998
11.14 -4.473 0.55900002
11.192 -4.447 0.56099999
11.222 -4.4130001 0.56199998
11.302 -4.3979998 0.56599998
11.387 -4.3850002 0.56999999
11.566 -4.4070001 0.579
11.451 -4.3169999 0.57300001
11.419 -4.2589998 0.57099998
11.446 -4.224 0.57200003
11.469 -4.1869998 0.57300001
11.485 -4.1479998 0.574
11.547 -4.1259999 0.57700002
11.573 -4.0910001 0.57800001
11.61 -4.059 0.579
11.657 -4.0310001 0.58099997
11.676 -3.994 0.58200002
11.735 -3.97 0.58499998
11.793 -3.9460001 0.588
11.78 -3.898 0.58700001
11.831 -3.8710001 0.58899999
11.897 -3.849 0.59200001
11.936 -3.819 0.59399998
12.063 -3.816 0.60000002
12.144 -3.7550001 0.60399997
12.17 -3.72 0.60500002
12.262 -3.7049999 0.60900003
12.303 -3.674 0.611
12.307 -3.6329999 0.611
12.415 -3.622 0.616
12.566 -3.6229999 0.62400001
13.393 -3.4630001 0.66299999
13.396 -3.421 0.66299999
13.42 -3.3840001 0.66399997
13.441 -3.3469999 0.66500002
13.5 -3.319 0.66799998
13.563 -3.293 0.671
13.585 -3.256 0.67199999
13.555 -3.207 0.67000002
13.589 -3.1730001 0.67199999
13.624 -3.1400001 0.67299998
13.677 -3.1110001 0.676
13.702 -3.075 0.67699999
13.82 -3.0610001 0.68300003
13.785 -3.0120001 0.68099999
13.833 -2.9820001 0.68300003
13.86 -2.947 0.68400002
13.897 -2.914 0.68599999
13.908 -2.8770001 0.68599999
13.945 -2.8440001 0.68800002
14.003 -2.816 0.69099998
14.067 -2.789 0.69400001
14.118 -2.7590001 0.69599998
14.14 -2.724 0.69700003
14.199 -2.6960001 0.69999999
14.268 -2.6689999 0.70300001
12.816 -2.3269999 0.63200003
12.708 -2.273 0.62599999
12.718 -2.2409999 0.62699997
10.703 -1.857 0.52700001
10.665 -1.822 0.52499998
10.678 -1.796 0.52600002
10.687 -1.7690001 0.52600002
10.736 -1.749 0.52899998
10.708 -1.717 0.52700001
10.582 -1.67 0.52100003
10.538 -1.636 0.51899999
10.513 -1.605 0.51700002
10.529 -1.581 0.51800001
10.532 -1.5549999 0.51800001
10.568 -1.534 0.51999998
10.643 -1.518 0.52399999
12.835 -1.799 0.63099998
12.79 -1.762 0.62900001
12.807 -1.733 0.63
12.832 -1.705 0.63099998
12.947 -1.689 0.63700002
12.98 0.082000002 0.63999999
12.872 0.1 0.63499999
12.836 0.117 0.634
12.815 0.134 0.63300002
12.824 0.152 0.63300002
12.829 0.169 0.634
12.822 0.186 0.63300002
12.837 0.20299999 0.634
12.847 0.22 0.63499999
12.852 0.236 0.63499999
12.848 0.25299999 0.63499999
12.872 0.26899999 0.63599998
12.867 0.285 0.63599998
12.874 0.301 0.63700002
12.878 0.317 0.63700002
12.876 0.333 0.63700002
12.909 0.34900001 0.639
