# .PCD v0.7 - Point Cloud Data file format
VERSION 0.7
FIELDS x y z
SIZE 4 4 4
TYPE F F F
COUNT 1 1 1
WIDTH 1824
HEIGHT 1
VIEWPOINT 0 0 0 1 0 0 0
POINTS 1824
DATA ascii
14.622 2.3369999 0.264
14.645 2.3829999 0.264
14.733 2.4400001 0.266
14.729 2.4809999 0.266
14.78 2.533 0.266
14.778 2.576 0.266
14.833 2.6289999 0.26699999
14.89 2.6830001 0.26800001
14.906 2.73 0.26800001
14.978 2.7869999 0.27000001
15.026 2.8410001 0.27000001
15.121 2.904 0.27200001
15.106 2.947 0.27200001
15.172 3.006 0.273
15.19 3.0550001 0.273
15.196 3.1029999 0.273
15.229 3.1559999 0.27399999
15.329 3.224 0.27500001
15.382 3.2820001 0.27599999
15.435 3.3410001 0.27700001
15.45 3.392 0.27700001
15.514 3.4549999 0.278
15.567 3.5150001 0.27900001
15.63 3.5780001 0.28
15.66 3.6340001 0.28099999
15.719 3.698 0.28200001
15.763 3.7579999 0.28299999
15.829 3.8239999 0.28400001
15.883 3.888 0.285
15.858 3.9319999 0.28400001
15.979 4.0139999 0.28600001
15.967 4.0619998 0.28600001
15.998 4.1220002 0.287
16.037001 4.184 0.287
16.084 4.2480001 0.28799999
16.141001 4.316 0.289
16.167999 4.3759999 0.28999999
16.278 4.4590001 0.292
16.398001 4.546 0.294
16.393 4.599 0.294
16.445 4.6680002 0.29499999
16.554001 4.7540002 0.296
16.503 4.7940001 0.296
16.646 4.8909998 0.29800001
8.7150002 2.5899999 0.156
8.6190004 2.5899999 0.154
8.5649996 2.6029999 0.153
8.526 2.619 0.152
8.4879999 2.6359999 0.152
8.4659996 2.658 0.15099999
8.4630003 2.6860001 0.15099999
8.4610004 2.714 0.15099999
8.4589996 2.7420001 0.15099999
8.4689999 2.7750001 0.15099999
8.4809999 2.8080001 0.152
8.4720001 2.8340001 0.15099999
8.4750004 2.8640001 0.152
8.4659996 2.8900001 0.15099999
8.4689999 2.921 0.15099999
8.467 2.9489999 0.15099999
8.5100002 2.994 0.152
8.632 3.0669999 0.154
8.8950005 3.4419999 0.15899999
8.6569996 3.3800001 0.155
8.5830002 3.382 0.154
8.5469999 3.398 0.153
8.5369997 3.425 0.153
8.5209999 3.448 0.153
8.5039997 3.4719999 0.152
8.4989996 3.5009999 0.152
8.4829998 3.5239999 0.152
8.4359999 3.5350001 0.15099999
8.4160004 3.5569999 0.15099999
8.3929996 3.5769999 0.15099999
8.3760004 3.5999999 0.15000001
8.3649998 3.6259999 0.15000001
8.3789997 3.6619999 0.15000001
8.3920002 3.698 0.15099999
8.5319996 3.7909999 0.153
12.283 5.9039998 0.221
12.235 5.9250002 0.221
12.223 6.4109998 0.221
12.168 6.4260001 0.22
12.203 6.4889998 0.221
12.287 6.579 0.223
7.5809999 4.335 0.138
7.4650002 4.2950001 0.13600001
7.4169998 4.2940001 0.13500001
7.3740001 4.296 0.134
7.3540001 4.3109999 0.134
7.335 4.3260002 0.133
7.3130002 4.3390002 0.133
7.2940001 4.355 0.133
7.2880001 4.3769999 0.133
7.2729998 4.3940001 0.133
7.2540002 4.408 0.132
7.25 4.4320002 0.132
7.2449999 4.454 0.132
7.2319999 4.4720001 0.132
7.2270002 4.494 0.132
7.2179999 4.5139999 0.132
7.2319999 4.5489998 0.132
7.243 4.5809999 0.133
7.2659998 4.6209998 0.133
7.3070002 4.6729999 0.134
7.3909998 4.7519999 0.13500001
8.7869997 -5.191 0.264
8.7819996 -5.1630001 0.264
8.7989998 -5.1479998 0.264
8.8120003 -5.1300001 0.26499999
8.8280001 -5.1149998 0.26499999
8.8649998 -5.1110001 0.266
8.8549995 -5.0799999 0.266
8.842 -5.0469999 0.266
8.875 -5.04 0.26699999
8.8690004 -5.0110002 0.26699999
8.9099998 -5.0079999 0.26800001
8.9219999 -4.9899998 0.26800001
8.9250002 -4.9660001 0.26800001
8.9209995 -4.9380002 0.26800001
8.9370003 -4.921 0.26899999
8.9589996 -4.9070001 0.26899999
8.9770002 -4.8909998 0.27000001
9.0019999 -4.8790002 0.271
8.9989996 -4.8520002 0.271
9.0220003 -4.8379998 0.271
9.0360003 -4.8189998 0.27200001
9.0369997 -4.7940001 0.27200001
9.052 -4.776 0.27200001
9.0950003 -4.7719998 0.273
9.1199999 -4.7579999 0.27399999
9.2659998 -4.8080001 0.27900001
9.1920004 -4.743 0.27599999
9.1330004 -4.6859999 0.27500001
9.1429996 -4.665 0.27500001
9.1499996 -4.6409998 0.27500001
9.1739998 -4.6269999 0.27599999
9.1759996 -4.6020002 0.27599999
9.2030001 -4.5890002 0.27700001
9.2080002 -4.5640001 0.27700001
9.2209997 -4.5440001 0.27700001
9.2419996 -4.527 0.278
9.2419996 -4.5009999 0.278
9.2709999 -4.4879999 0.27900001
9.3120003 -4.48 0.28
9.3219995 -4.4580002 0.28
9.342 -4.441 0.28099999
9.3520002 -4.4180002 0.28099999
9.3649998 -4.3969998 0.28200001
9.3809996 -4.3769999 0.28200001
9.3889999 -4.3540001 0.28299999
9.3999996 -4.3309999 0.28299999
9.4180002 -4.3119998 0.28299999
9.434 -4.2919998 0.28400001
9.4549999 -4.2740002 0.285
9.4779997 -4.257 0.285
9.4729996 -4.2270002 0.285
9.4940004 -4.2090001 0.28600001
9.5089998 -4.1880002 0.28600001
9.5279999 -4.1690001 0.287
9.5459995 -4.1490002 0.287
9.54 -4.118 0.287
9.573 -4.1040001 0.28799999
9.5880003 -4.0830002 0.289
9.6110001 -4.0650001 0.289
9.6429996 -4.0500002 0.28999999
9.6490002 -4.0250001 0.28999999
9.6630001 -4.0029998 0.29100001
9.6850004 -3.983 0.29100001
9.6870003 -3.9560001 0.292
9.7069998 -3.9360001 0.292
9.7229996 -3.914 0.29300001
9.7320004 -3.8889999 0.29300001
9.7480001 -3.8670001 0.29300001
9.7880001 -3.855 0.29499999
9.7980003 -3.8299999 0.29499999
9.8129997 -3.8080001 0.29499999
9.842 -3.79 0.296
9.8570004 -3.767 0.29699999
9.8579998 -3.7390001 0.29699999
9.9099998 -3.73 0.29800001
9.9029999 -3.698 0.29800001
9.9280005 -3.6789999 0.29899999
9.9359999 -3.6530001 0.29899999
9.9530001 -3.6300001 0.30000001
9.9940004 -3.6159999 0.301
10.003 -3.5899999 0.301
10.035 -3.573 0.30199999
10.044 -3.5469999 0.30199999
10.065 -3.5250001 0.303
10.09 -3.5039999 0.30399999
10.1 -3.4779999 0.30399999
10.108 -3.4519999 0.30399999
10.137 -3.4319999 0.30500001
10.151 -3.408 0.30500001
10.187 -3.3900001 0.30599999
10.206 -3.3670001 0.30700001
10.227 -3.3440001 0.308
10.276 -3.3299999 0.30899999
10.323 -3.3150001 0.31099999
10.354 -3.2950001 0.31099999
10.33 -3.2579999 0.31099999
10.351 -3.2349999 0.31099999
10.329 -3.198 0.31099999
10.363 -3.178 0.31200001
10.399 -3.1589999 0.31299999
10.375 -3.122 0.31200001
10.421 -3.105 0.31299999
10.441 -3.0810001 0.31400001
10.473 -3.0599999 0.315
10.507 -3.04 0.31600001
10.506 -3.0090001 0.31600001
10.557 -2.993 0.317
10.573 -2.967 0.31799999
10.591 -2.9419999 0.31799999
10.65 -2.927 0.31999999
10.673 -2.9030001 0.32100001
10.694 -2.878 0.322
10.708 -2.8499999 0.322
10.721 -2.823 0.322
10.743 -2.7980001 0.32300001
10.819 -2.786 0.32499999
10.843 -2.7609999 0.32600001
10.876 -2.7379999 0.32699999
10.919 -2.717 0.32800001
10.971 -2.698 0.33000001
11.009 -2.6760001 0.331
11.026 -2.6489999 0.331
11.045 -2.6210001 0.33199999
11.061 -2.5929999 0.33199999
11.137 -2.579 0.33500001
11.147 -2.549 0.33500001
11.187 -2.526 0.336
11.238 -2.5050001 0.338
11.255 -2.477 0.338
11.253 -2.444 0.338
11.292 -2.4200001 0.33899999
11.353 -2.4000001 0.34099999
11.383 -2.3740001 0.34200001
11.412 -2.3469999 0.34299999
11.463 -2.325 0.34400001
11.531 -2.3050001 0.34599999
11.568 -2.279 0.347
11.614 -2.2550001 0.34900001
11.648 -2.2279999 0.34999999
11.683 -2.201 0.35100001
11.719 -2.175 0.352
11.754 -2.1470001 0.35299999
11.813 -2.1240001 0.35499999
11.842 -2.095 0.35600001
11.875 -2.0669999 0.35600001
11.945 -2.0450001 0.359
12.008 -2.0209999 0.36000001
12.02 -1.989 0.361
12.089 -1.966 0.36300001
12.307 -1.966 0.36899999
12.167 -1.909 0.36500001
12.163 -1.873 0.36500001
12.213 -1.846 0.366
12.265 -1.819 0.368
12.282 -1.786 0.368
12.308 -1.7539999 0.36899999
12.358 -1.726 0.37099999
12.391 -1.696 0.37200001
12.43 -1.665 0.373
12.469 -1.635 0.37400001
12.503 -1.604 0.375
12.545 -1.573 0.37599999
12.613 -1.545 0.37799999
12.689 -1.518 0.38
12.775 -1.492 0.38299999
12.83 -1.462 0.38499999
12.929 -1.436 0.38800001
13.015 -1.409 0.38999999
11.172 0.19499999 0.23199999
11.124 0.207 0.23
11.091 0.22 0.23
11.064 0.23199999 0.229
11.047 0.245 0.228
11.041 0.259 0.228
11.036 0.273 0.228
11.047 0.287 0.228
11.08 0.303 0.228
11.148 0.31999999 0.229
14.067 0.50300002 0.289
14.014 0.52200001 0.287
14.125 0.54699999 0.289
13.997 0.56300002 0.287
14.038 0.58700001 0.287
14.023 0.60799998 0.287
13.98 0.62900001 0.28600001
13.96 0.64999998 0.285
13.963 0.67400002 0.285
13.965 0.69700003 0.285
13.982 0.72100002 0.285
13.969 0.74400002 0.285
13.952 0.76800001 0.28400001
13.996 0.79500002 0.285
14.022 0.82099998 0.285
14.014 0.84600002 0.285
13.998 0.87 0.285
14.065 0.89999998 0.28600001
14.08 0.92699999 0.28600001
13.701 1.061 0.27700001
13.624 1.0829999 0.27599999
13.618 1.11 0.27500001
14.385 1.232 0.29100001
14.269 1.251 0.28799999
14.297 1.284 0.289
14.344 1.319 0.28999999
14.339 1.349 0.289
14.348 1.381 0.28999999
14.387 1.416 0.28999999
14.399 1.449 0.28999999
14.567 1.498 0.294
14.647 1.539 0.29499999
14.593 1.567 0.294
14.552 1.596 0.29300001
14.588 1.633 0.294
14.597 1.668 0.294
14.619 1.705 0.294
14.629 1.74 0.294
14.664 1.779 0.29499999
14.695 1.818 0.296
14.694 1.854 0.29499999
14.734 1.8940001 0.296
14.742 1.932 0.296
14.787 1.974 0.29699999
14.84 2.0179999 0.29800001
14.899 2.063 0.29899999
14.922 2.1040001 0.30000001
14.985 2.151 0.301
15.01 2.1930001 0.301
15.025 2.234 0.30199999
15.072 2.28 0.303
15.099 2.323 0.303
15.111 2.365 0.303
15.15 2.411 0.30399999
15.157 2.4530001 0.30399999
15.17 2.4949999 0.30399999
15.183 2.539 0.30500001
15.232 2.5880001 0.30599999
15.261 2.635 0.30599999
15.304 2.684 0.30700001
15.329 2.7309999 0.308
15.354 2.7780001 0.308
15.386 2.8269999 0.30899999
15.416 2.8759999 0.30899999
15.428 2.9219999 0.31
15.502 2.98 0.31099999
15.532 3.0309999 0.31200001
15.545 3.0780001 0.31200001
15.607 3.1359999 0.31299999
15.597 3.1789999 0.31299999
15.681 3.2420001 0.315
15.804 3.3139999 0.317
15.876 3.3759999 0.31900001
15.897 3.428 0.31900001
15.922 3.4809999 0.31999999
15.971 3.54 0.32100001
16.030001 3.602 0.322
16.075001 3.661 0.32300001
16.097 3.7149999 0.32300001
16.132999 3.773 0.324
16.15 3.8269999 0.32499999
16.195 3.888 0.32499999
16.292 3.9619999 0.32800001
16.301001 4.0159998 0.32800001
16.355 4.0809999 0.329
16.381001 4.1389999 0.329
16.400999 4.197 0.33000001
16.388 4.2459998 0.33000001
16.476999 4.322 0.33199999
16.466 4.3720002 0.33199999
16.542999 4.447 0.333
16.612 4.52 0.33500001
16.686001 4.5949998 0.336
16.750999 4.6680002 0.338
16.761999 4.7259998 0.338
16.917 4.8260002 0.34099999
16.948 4.8920002 0.34200001
16.973 4.9559999 0.34299999
17.094 5.0489998 0.345
8.9639997 2.678 0.18099999
17.308001 5.171 0.34999999
8.6809998 2.6229999 0.175
8.5740004 2.6199999 0.17299999
8.5340004 2.6370001 0.17200001
8.493 2.654 0.17200001
8.4610004 2.6730001 0.171
8.4499998 2.6989999 0.171
8.4440002 2.727 0.171
8.4580002 2.7609999 0.171
8.4549999 2.79 0.171
8.4610004 2.822 0.171
8.4569998 2.8510001 0.171
8.4510002 2.8789999 0.171
8.4519997 2.9100001 0.171
8.4519997 2.9400001 0.171
8.4790001 2.98 0.17200001
8.5649996 3.0420001 0.17399999
8.684 3.3740001 0.177
8.5869999 3.369 0.175
8.5419998 3.3840001 0.17399999
8.5279999 3.411 0.17399999
8.5080004 3.4360001 0.17399999
8.4949999 3.4630001 0.17399999
8.4809999 3.49 0.17399999
8.4440002 3.5079999 0.17299999
8.4200001 3.5309999 0.17299999
8.3959999 3.5539999 0.17200001
8.3830004 3.5810001 0.17200001
8.3710003 3.609 0.17200001
8.3999996 3.655 0.17299999
8.4709997 3.7190001 0.17399999
12.242 5.822 0.25400001
12.281 5.8909998 0.255
12.261 6.3979998 0.25600001
12.26 6.4499998 0.257
12.334 6.5419998 0.25799999
7.6279998 4.3470001 0.161
7.4640002 4.2870002 0.15800001
7.4070001 4.2870002 0.15700001
7.3660002 4.2969999 0.156
7.3410001 4.3150001 0.156
7.3130002 4.3319998 0.155
7.2880001 4.3499999 0.155
7.2750001 4.375 0.155
7.2589998 4.3990002 0.154
7.2350001 4.4180002 0.154
7.224 4.4439998 0.154
7.2220001 4.4759998 0.154
7.2049999 4.4990001 0.154
7.184 4.52 0.154
7.2049999 4.566 0.154
7.1919999 4.592 0.154
7.2020001 4.632 0.155
7.217 4.6750002 0.155
7.257 4.7350001 0.156
7.3390002 4.8239999 0.15800001
8.4250002 -5.5430002 0.27700001
8.4460001 -5.5040002 0.27700001
8.4870005 -5.4780002 0.278
8.5279999 -5.4520001 0.27900001
8.5450001 -5.4109998 0.28
8.5790005 -5.3800001 0.28099999
8.6040001 -5.3449998 0.28099999
8.6280003 -5.3080001 0.28200001
8.658 -5.276 0.28299999
8.6850004 -5.2420001 0.28299999
8.7080002 -5.2049999 0.28400001
8.7480001 -5.1789999 0.285
8.7600002 -5.1360002 0.285
8.7959995 -5.1079998 0.28600001
8.823 -5.0749998 0.287
8.8520002 -5.0419998 0.28799999
8.8800001 -5.0089998 0.289
8.9060001 -4.9759998 0.289
8.9519997 -4.9530001 0.29100001
8.9639997 -4.9120002 0.29100001
9.0129995 -4.8909998 0.292
9.0629997 -4.8709998 0.294
9.066 -4.8249998 0.294
9.0649996 -4.7779999 0.294
9.0810003 -4.7389998 0.294
9.1020002 -4.704 0.294
9.1289997 -4.6719999 0.29499999
9.1560001 -4.6399999 0.296
9.1789999 -4.6059999 0.296
9.2110004 -4.5770001 0.29699999
9.2419996 -4.5469999 0.29800001
9.2650003 -4.5139999 0.29899999
9.3039999 -4.4879999 0.30000001
9.3509998 -4.4660001 0.301
9.3640003 -4.428 0.30199999
9.3719997 -4.388 0.30199999
9.4099998 -4.362 0.303
9.4130001 -4.3189998 0.303
9.4580002 -4.2969999 0.30399999
9.474 -4.2610002 0.30500001
9.5089998 -4.2340002 0.30599999
9.5459995 -4.2069998 0.30700001
9.5430002 -4.1630001 0.30599999
9.5749998 -4.1350002 0.30700001
9.5769997 -4.0939999 0.30700001
9.6160002 -4.0689998 0.308
9.6610003 -4.046 0.31
9.6999998 -4.0209999 0.31099999
9.7299995 -3.9909999 0.31200001
9.743 -3.9560001 0.31200001
9.7639999 -3.9230001 0.31299999
9.8050003 -3.8989999 0.31400001
9.8129997 -3.8610001 0.31400001
9.8360004 -3.8299999 0.315
9.8660002 -3.8010001 0.315
9.9049997 -3.776 0.317
9.9399996 -3.7490001 0.31799999
9.9650002 -3.7190001 0.31799999
10 -3.6919999 0.31900001
10.032 -3.665 0.31999999
10.043 -3.6289999 0.32100001
10.078 -3.6029999 0.322
10.104 -3.573 0.322
10.13 -3.543 0.32300001
10.154 -3.513 0.324
10.193 -3.4879999 0.32499999
10.23 -3.4619999 0.32600001
10.249 -3.4300001 0.32699999
10.268 -3.3989999 0.32699999
10.306 -3.3740001 0.32800001
10.351 -3.3499999 0.33000001
10.451 -3.345 0.333
10.432 -3.3010001 0.33199999
10.432 -3.2639999 0.33199999
10.442 -3.23 0.33199999
10.468 -3.201 0.333
10.498 -3.1730001 0.33399999
10.53 -3.1459999 0.33500001
10.57 -3.1210001 0.336
10.631 -3.102 0.338
10.696 -3.085 0.34
10.703 -3.0510001 0.34
10.733 -3.023 0.34099999
10.777 -2.9990001 0.34200001
10.815 -2.974 0.34299999
10.858 -2.9489999 0.345
10.897 -2.924 0.34599999
10.965 -2.9070001 0.34799999
11.012 -2.8829999 0.34900001
11.033 -2.8529999 0.34999999
11.097 -2.8340001 0.352
11.134 -2.8080001 0.35299999
11.212 -2.7920001 0.35600001
11.244 -2.7650001 0.35699999
11.297 -2.743 0.35800001
11.293 -2.707 0.35800001
11.333 -2.681 0.359
11.385 -2.6589999 0.361
11.426 -2.6329999 0.36199999
11.469 -2.609 0.36300001
11.474 -2.575 0.36300001
11.525 -2.552 0.36500001
11.552 -2.5239999 0.366
11.622 -2.5050001 0.368
11.661 -2.4790001 0.36899999
11.693 -2.4519999 0.37
11.715 -2.4230001 0.37099999
11.775 -2.401 0.373
11.825 -2.378 0.37400001
11.858 -2.3499999 0.375
11.889 -2.323 0.37599999
11.921 -2.296 0.377
11.977 -2.273 0.37900001
12.003 -2.2449999 0.38
12.059 -2.2219999 0.382
12.071 -2.1919999 0.382
12.12 -2.168 0.38299999
12.152 -2.1400001 0.384
12.202 -2.1170001 0.38600001
12.224 -2.0880001 0.38699999
12.275 -2.0639999 0.38800001
12.289 -2.0339999 0.389
12.345 -2.0109999 0.38999999
12.473 -1.999 0.39399999
12.56 -1.949 0.39700001
12.492 -1.906 0.39500001
12.48 -1.873 0.39500001
12.494 -1.844 0.39500001
12.54 -1.819 0.39700001
12.592 -1.795 0.398
12.62 -1.768 0.39899999
12.673 -1.744 0.40099999
12.706 -1.7180001 0.40200001
12.761 -1.6950001 0.40400001
12.812 -1.671 0.405
12.796 -1.638 0.405
12.898 -1.62 0.40799999
12.91 -1.591 0.40799999
13.039 -1.577 0.412
10.976 0.149 0.25799999
10.974 0.168 0.25799999
10.976 0.18799999 0.25799999
10.981 0.208 0.25799999
10.996 0.229 0.25799999
11.032 0.25 0.259
11.101 0.273 0.25999999
13.91 0.368 0.32600001
13.901 0.39500001 0.32600001
13.867 0.421 0.32499999
13.842 0.44800001 0.324
13.857 0.47600001 0.324
13.88 0.505 0.324
13.874 0.53299999 0.324
13.906 0.56300002 0.32499999
13.915 0.59200001 0.32499999
13.913 0.62099999 0.324
13.936 0.65100002 0.32499999
13.913 0.68000001 0.324
13.943 0.71200001 0.32499999
13.949 0.74199998 0.32499999
13.929 0.77200001 0.324
13.974 0.80500001 0.32499999
13.989 0.83700001 0.32499999
13.984 0.86799997 0.32499999
14.024 0.90200001 0.32600001
14.06 0.93699998 0.32600001
14.112 0.97299999 0.32699999
13.58 1.096 0.31400001
13.61 1.131 0.315
13.609 1.164 0.315
13.666 1.2029999 0.31600001
14.398 1.302 0.333
14.343 1.3329999 0.33199999
14.415 1.376 0.333
14.39 1.409 0.33199999
14.444 1.451 0.33399999
14.502 1.494 0.33500001
14.591 1.54 0.33700001
14.71 1.591 0.33899999
14.709 1.6289999 0.33899999
14.69 1.665 0.33899999
14.678 1.702 0.338
14.718 1.745 0.33899999
14.726 1.785 0.33899999
14.779 1.831 0.34
14.802 1.874 0.34099999
14.867 1.9220001 0.34200001
14.915 1.9680001 0.34299999
14.951 2.0139999 0.34400001
14.958 2.056 0.34400001
15.041 2.109 0.34599999
15.093 2.158 0.347
15.122 2.204 0.34799999
15.208 2.2590001 0.34999999
15.195 2.3 0.34900001
15.248 2.3510001 0.35100001
15.28 2.3989999 0.35100001
15.351 2.454 0.35299999
15.356 2.4990001 0.35299999
15.366 2.5450001 0.35299999
15.406 2.596 0.354
15.444 2.6470001 0.35499999
15.515 2.7049999 0.35600001
15.556 2.757 0.35699999
15.6 2.8110001 0.35800001
15.61 2.859 0.359
15.664 2.915 0.36000001
15.706 2.97 0.361
15.772 3.03 0.36199999
15.848 3.092 0.36399999
15.96 3.1619999 0.36700001
16.030001 3.224 0.368
16.063999 3.28 0.36899999
16.142 3.345 0.37099999
16.202999 3.4070001 0.37200001
16.256001 3.4690001 0.373
16.271999 3.5220001 0.37400001
16.302999 3.5799999 0.37400001
16.367001 3.645 0.37599999
16.351999 3.6919999 0.37599999
16.448 3.7650001 0.37799999
16.497999 3.829 0.37900001
16.551001 3.8929999 0.38
16.591999 3.9560001 0.38100001
16.643999 4.0209999 0.382
16.783001 4.1079998 0.38600001
16.797001 4.165 0.38600001
16.851999 4.2329998 0.38699999
16.898001 4.2989998 0.38800001
16.93 4.362 0.389
16.966999 4.4260001 0.38999999
17.080999 4.5110002 0.39300001
17.105 4.573 0.39300001
17.1 4.6279998 0.39300001
17.114 4.6880002 0.39399999
17.197001 4.7670002 0.396
17.344 4.8649998 0.39899999
17.486 4.9629998 0.40200001
17.481001 5.0190001 0.40200001
17.570999 5.1040001 0.405
17.662001 5.1890001 0.40700001
8.8039999 2.6159999 0.20299999
8.6239996 2.5910001 0.198
8.559 2.5999999 0.197
8.5179996 2.6170001 0.19599999
8.4879999 2.6359999 0.19499999
8.4759998 2.661 0.19499999
8.4549999 2.6830001 0.19499999
8.4429998 2.7079999 0.19499999
8.4379997 2.7349999 0.19400001
8.4429998 2.766 0.19499999
8.4460001 2.796 0.19499999
8.4420004 2.8239999 0.19499999
8.4549999 2.8570001 0.19499999
8.4530001 2.8859999 0.19499999
8.448 2.9130001 0.19499999
8.467 2.9489999 0.19599999
8.5120001 2.994 0.197
8.691 3.0880001 0.20100001
8.8579998 3.427 0.205
8.632 3.3699999 0.2
8.5769997 3.3789999 0.199
8.5410004 3.395 0.198
8.5109997 3.414 0.198
8.4949999 3.438 0.197
8.4709997 3.4579999 0.197
8.467 3.487 0.197
8.4569998 3.513 0.197
8.4329996 3.533 0.19599999
8.4139996 3.556 0.19599999
8.3990002 3.5799999 0.19599999
8.3830004 3.6029999 0.19499999
8.3839998 3.6329999 0.19499999
8.3909998 3.6670001 0.19599999
8.4239998 3.7119999 0.197
8.6599998 3.8469999 0.20200001
7.5359998 4.3080001 0.18000001
7.4460001 4.2839999 0.178
7.3920002 4.2800002 0.176
7.3579998 4.2859998 0.176
7.335 4.3000002 0.175
7.3249998 4.3200002 0.175
7.3070002 4.336 0.175
7.2880001 4.3499999 0.175
7.2659998 4.3629999 0.17399999
7.243 4.375 0.17399999
7.2199998 4.3870001 0.17299999
7.2090001 4.4060001 0.17299999
7.1919999 4.4219999 0.17299999
7.1859999 4.4429998 0.17299999
7.164 4.4549999 0.17200001
7.1859999 4.494 0.17299999
7.2150002 4.5380001 0.17399999
7.21 4.5599999 0.17399999
7.1859999 4.5700002 0.17399999
7.1719999 4.586 0.17299999
7.1810002 4.6170001 0.17399999
7.2259998 4.671 0.175
7.3000002 4.744 0.177
9.0270004 -5.3369999 0.31299999
9.0220003 -5.3080001 0.31299999
9.0310001 -5.2880001 0.31299999
9.052 -5.2740002 0.31400001
9.0620003 -5.2540002 0.31400001
9.0830002 -5.2399998 0.315
9.0740004 -5.2090001 0.315
9.0930004 -5.1939998 0.31600001
9.1219997 -5.184 0.317
9.1070004 -5.1500001 0.31600001
9.1520004 -5.1479998 0.31799999
9.1560001 -5.125 0.31799999
9.1669998 -5.1040001 0.31799999
9.1829996 -5.0869999 0.31900001
9.1969995 -5.0679998 0.31900001
9.2030001 -5.0440001 0.31900001
9.217 -5.026 0.31999999
9.2360001 -5.0100002 0.32100001
9.2539997 -4.993 0.32100001
9.2629995 -4.9710002 0.322
9.2700005 -4.947 0.322
9.2720003 -4.9219999 0.322
9.2989998 -4.9089999 0.32300001
9.3190002 -4.8930001 0.32300001
9.3210001 -4.8670001 0.324
9.3380003 -4.849 0.324
9.3540001 -4.8299999 0.32499999
9.3660002 -4.809 0.32499999
9.3970003 -4.7979999 0.32600001
9.415 -4.7789998 0.32699999
9.4180002 -4.7529998 0.32699999
9.4209995 -4.7270002 0.32699999
9.4530001 -4.7160001 0.32800001
9.4720001 -4.698 0.329
9.474 -4.6719999 0.329
9.493 -4.6529999 0.33000001
9.5010004 -4.6300001 0.33000001
9.5150003 -4.6090002 0.33000001
9.5360003 -4.5910001 0.331
9.5469999 -4.5689998 0.331
9.5530005 -4.5440001 0.33199999
9.5819998 -4.5300002 0.333
9.5939999 -4.507 0.333
9.6090002 -4.487 0.333
9.6210003 -4.4640002 0.33399999
9.6210003 -4.4359999 0.33399999
9.6499996 -4.421 0.33500001
9.6870003 -4.4099998 0.336
9.6879997 -4.382 0.336
9.7200003 -4.369 0.33700001
9.7259998 -4.3429999 0.33700001
9.7580004 -4.329 0.33899999
9.7659998 -4.3039999 0.33899999
9.7810001 -4.2820001 0.33899999
9.7889996 -4.256 0.34
9.8240004 -4.243 0.34099999
9.8179998 -4.2119999 0.34099999
9.8319998 -4.1890001 0.34099999
9.8380003 -4.1630001 0.34099999
9.8760004 -4.151 0.34299999
9.901 -4.132 0.34299999
9.9130001 -4.1079998 0.34400001
9.9160004 -4.0809999 0.34400001
9.9309998 -4.0580001 0.34400001
9.9700003 -4.0450001 0.34599999
9.9770002 -4.0180001 0.34599999
9.9940004 -3.9960001 0.347
10.025 -3.9790001 0.34799999
10.028 -3.951 0.34799999
10.055 -3.9330001 0.34900001
10.057 -3.904 0.34900001
10.086 -3.8859999 0.34999999
10.122 -3.8699999 0.35100001
10.158 -3.855 0.352
10.159 -3.826 0.352
10.175 -3.802 0.35299999
10.201 -3.7820001 0.354
10.211 -3.756 0.354
10.22 -3.7290001 0.354
10.233 -3.704 0.35499999
10.244 -3.6789999 0.35499999
10.271 -3.658 0.35600001
10.291 -3.6359999 0.35699999
10.312 -3.6129999 0.35699999
10.322 -3.586 0.35800001
10.345 -3.5639999 0.35800001
10.406 -3.5550001 0.361
10.392 -3.52 0.36000001
10.419 -3.4990001 0.361
10.441 -3.4760001 0.36199999
10.461 -3.4519999 0.36199999
10.489 -3.431 0.36300001
10.526 -3.4130001 0.36500001
10.568 -3.3959999 0.366
10.606 -3.3770001 0.36700001
10.629 -3.3529999 0.368
10.623 -3.3210001 0.368
10.646 -3.2969999 0.36899999
10.667 -3.2720001 0.36899999
10.665 -3.2409999 0.36899999
10.69 -3.2179999 0.37
10.733 -3.2 0.37200001
10.776 -3.181 0.373
10.86 -3.174 0.37599999
10.879 -3.148 0.377
10.891 -3.1199999 0.377
10.928 -3.099 0.37799999
10.936 -3.0699999 0.37799999
10.998 -3.056 0.38100001
11.036 -3.0339999 0.382
11.091 -3.017 0.384
11.131 -2.9960001 0.38499999
11.15 -2.9690001 0.38600001
11.182 -2.9449999 0.38699999
11.228 -2.925 0.38800001
11.279 -2.905 0.38999999
11.29 -2.8759999 0.38999999
11.307 -2.8469999 0.391
11.312 -2.816 0.391
11.375 -2.7980001 0.39300001
11.442 -2.7820001 0.396
11.477 -2.757 0.39700001
11.505 -2.7309999 0.398
11.552 -2.7090001 0.39899999
11.599 -2.6860001 0.40099999
11.623 -2.658 0.40200001
11.639 -2.628 0.40200001
11.673 -2.6029999 0.403
11.686 -2.572 0.40400001
11.73 -2.5480001 0.405
11.788 -2.526 0.40700001
11.817 -2.4990001 0.40799999
11.834 -2.4679999 0.40900001
11.878 -2.4430001 0.41
11.92 -2.4170001 0.412
11.989 -2.3970001 0.414
12.009 -2.3659999 0.41499999
12.031 -2.336 0.41499999
12.065 -2.3080001 0.41600001
12.128 -2.2850001 0.419
12.155 -2.2550001 0.419
12.185 -2.2260001 0.41999999
12.237 -2.2 0.42199999
12.297 -2.1760001 0.42399999
12.353 -2.1500001 0.426
12.338 -2.112 0.426
12.359 -2.0799999 0.426
12.451 -2.0599999 0.42899999
12.482 -2.029 0.43000001
12.601 -2.013 0.43399999
12.842 -1.977 0.44299999
12.655 -1.9119999 0.43599999
12.699 -1.883 0.43799999
12.749 -1.853 0.43900001
12.785 -1.822 0.44100001
12.855 -1.795 0.44299999
13 -1.778 0.44800001
11.191 0.22400001 0.285
11.143 0.236 0.28400001
11.077 0.248 0.28200001
11.055 0.26100001 0.28099999
11.033 0.27500001 0.28099999
11.034 0.289 0.28
11.034 0.30399999 0.28
11.029 0.31799999 0.28
11.072 0.33500001 0.28099999
11.112 0.35100001 0.28200001
14.713 0.66399997 0.37099999
14.731 0.68900001 0.37200001
14.709 0.71200001 0.37099999
14.724 0.73699999 0.37099999
14.735 0.76200002 0.37099999
14.699 0.78600001 0.37
14.717 0.81199998 0.37099999
14.761 0.83999997 0.37200001
14.804 0.86900002 0.37200001
14.785 0.89399999 0.37200001
14.795 0.92199999 0.37200001
14.829 0.95099998 0.373
14.811 0.977 0.37200001
13.582 1.081 0.34
13.553 1.1059999 0.34
13.572 1.135 0.34
15.291 1.3430001 0.38299999
15.082 1.3559999 0.37799999
15.058 1.386 0.377
15.063 1.419 0.377
15.118 1.456 0.37799999
15.145 1.492 0.37900001
15.205 1.5319999 0.38
15.324 1.5779999 0.38299999
15.353 1.615 0.384
15.274 1.641 0.382
15.229 1.671 0.38100001
15.254 1.709 0.38100001
15.295 1.749 0.382
15.319 1.7869999 0.38299999
15.343 1.826 0.38299999
15.419 1.872 0.38499999
15.481 1.9170001 0.38699999
15.529 1.96 0.38800001
15.529 1.998 0.38800001
15.545 2.0380001 0.38800001
15.556 2.0780001 0.389
15.591 2.1210001 0.389
15.6 2.161 0.38999999
15.631 2.2049999 0.38999999
15.667 2.25 0.391
15.708 2.296 0.39199999
15.772 2.346 0.39399999
15.821 2.3940001 0.39500001
15.843 2.4389999 0.396
15.869 2.4849999 0.396
15.904 2.5320001 0.39700001
15.917 2.5769999 0.398
15.97 2.628 0.39899999
15.979 2.6719999 0.39899999
16.030001 2.724 0.40099999
16.063999 2.7739999 0.40200001
16.146 2.8329999 0.40400001
16.223 2.891 0.40599999
16.256001 2.9419999 0.40700001
16.311001 2.9979999 0.40799999
16.368999 3.0539999 0.40900001
16.410999 3.109 0.41100001
16.496 3.1719999 0.41299999
16.496 3.2190001 0.41299999
16.577999 3.283 0.41499999
16.551001 3.325 0.414
16.589001 3.381 0.41600001
16.627001 3.438 0.417
16.649 3.4920001 0.417
16.724001 3.5569999 0.419
16.767 3.6159999 0.41999999
16.862 3.687 0.42300001
16.892 3.7449999 0.42399999
16.875 3.7920001 0.42300001
16.937 3.8570001 0.42500001
16.915001 3.904 0.42500001
16.983 3.9719999 0.42699999
17.115999 4.0560002 0.43000001
17.212999 4.1329999 0.433
17.257999 4.197 0.43399999
17.646 4.3470001 0.44400001
17.386999 4.3379998 0.43799999
17.570999 4.4400001 0.442
17.586 4.5 0.44299999
17.535 4.5430002 0.442
17.690001 4.6399999 0.44600001
17.631001 4.6820002 0.44499999
17.789 4.7810001 0.449
17.813999 4.8470001 0.44999999
17.782 4.8959999 0.449
17.882 4.9829998 0.45199999
17.955999 5.0630002 0.454
18.16 5.1810002 0.45899999
18.089001 5.2210002 0.458
18.093 5.283 0.458
18.152 5.362 0.46000001
8.7559996 2.6159999 0.222
8.6079998 2.6010001 0.21799999
8.5419998 2.6099999 0.21600001
8.5109997 2.6300001 0.21600001
8.4860001 2.652 0.215
8.4650002 2.675 0.215
8.4449997 2.698 0.214
8.441 2.7260001 0.214
8.4399996 2.7550001 0.215
8.4429998 2.786 0.215
8.4390001 2.8139999 0.215
8.4420004 2.846 0.215
8.4549999 2.8800001 0.215
8.4519997 2.9100001 0.21600001
8.467 2.9449999 0.21600001
8.5139999 2.993 0.21699999
8.6630001 3.076 0.221
8.6780005 3.372 0.223
8.5780001 3.3659999 0.221
8.5450001 3.385 0.22
8.5129995 3.405 0.219
8.4910002 3.4289999 0.219
8.474 3.454 0.219
8.4580002 3.48 0.21799999
8.4560003 3.513 0.219
8.4180002 3.53 0.21799999
8.3999996 3.5550001 0.21799999
8.4049997 3.5899999 0.21799999
8.3809996 3.6129999 0.21699999
8.408 3.658 0.21799999
8.4429998 3.707 0.219
12.504 5.7919998 0.32699999
12.412 5.8000002 0.32499999
12.399 5.8449998 0.32499999
12.404 5.8979998 0.32499999
7.6729999 4.4060001 0.206
7.4650002 4.3200002 0.20100001
7.3860002 4.3080001 0.199
7.348 4.3189998 0.198
7.3210001 4.336 0.198
7.2880001 4.3499999 0.197
7.263 4.368 0.19599999
7.2459998 4.3909998 0.19599999
7.2189999 4.408 0.19599999
7.184 4.4190001 0.19499999
7.1630001 4.4390001 0.19499999
7.1430001 4.46 0.19400001
7.1090002 4.4720001 0.19400001
7.098 4.4980001 0.19400001
7.098 4.5310001 0.19400001
7.1259999 4.5830002 0.19499999
7.1360002 4.6220002 0.19499999
7.1149998 4.6430001 0.19499999
7.0910001 4.6599998 0.19499999
7.079 4.6869998 0.19499999
7.0840001 4.723 0.19499999
7.138 4.7940001 0.197
7.2870002 4.9289999 0.20100001
8.6280003 -5.6750002 0.324
8.6569996 -5.6399999 0.32499999
8.7030001 -5.6160002 0.32600001
8.7390003 -5.585 0.32800001
8.7600002 -5.5450001 0.32800001
8.8079996 -5.5219998 0.33000001
8.8389997 -5.4889998 0.331
8.8540001 -5.4460001 0.331
8.8879995 -5.414 0.33199999
8.9060001 -5.3740001 0.33199999
8.9390001 -5.342 0.333
8.9610004 -5.3039999 0.33399999
8.9989996 -5.2750001 0.33500001
9.0190001 -5.2360001 0.336
9.0530005 -5.2049999 0.33700001
9.073 -5.1669998 0.33700001
9.1059999 -5.1360002 0.338
9.1210003 -5.0939999 0.33899999
9.1569996 -5.0650001 0.34
9.1739998 -5.026 0.34
9.2220001 -5.0029998 0.34200001
9.2250004 -4.9569998 0.34200001
9.2080002 -4.9000001 0.34099999
9.2690001 -4.8839998 0.34299999
9.3190002 -4.8629999 0.345
9.3529997 -4.8330002 0.34599999
9.368 -4.7940001 0.34599999
9.3950005 -4.7600002 0.347
9.4230003 -4.7280002 0.34799999
9.4429998 -4.691 0.34799999
9.4790001 -4.6630001 0.34999999
9.4829998 -4.619 0.34999999
9.507 -4.585 0.34999999
9.5530005 -4.5619998 0.352
9.5760002 -4.527 0.352
9.6000004 -4.493 0.35299999
9.6169996 -4.4569998 0.354
9.6370001 -4.421 0.354
9.6719999 -4.3930001 0.35499999
9.7019997 -4.362 0.35600001
9.743 -4.3369999 0.35800001
9.7639999 -4.303 0.35800001
9.7919998 -4.2709999 0.359
9.8299999 -4.244 0.36000001
9.8500004 -4.21 0.361
9.8690004 -4.1750002 0.36199999
9.8929996 -4.1420002 0.36199999
9.9160004 -4.1090002 0.36300001
9.9530001 -4.0819998 0.36399999
9.9790001 -4.0510001 0.36500001
10.002 -4.0180001 0.366
10.035 -3.9890001 0.36700001
10.074 -3.9630001 0.368
10.078 -3.9230001 0.368
10.124 -3.9000001 0.37
10.159 -3.872 0.37099999
10.201 -3.8469999 0.37200001
10.251 -3.825 0.37400001
10.265 -3.79 0.37400001
10.28 -3.7550001 0.375
10.299 -3.721 0.375
10.334 -3.694 0.37599999
10.383 -3.671 0.37799999
10.41 -3.641 0.37900001
10.425 -3.6059999 0.37900001
10.471 -3.5829999 0.38100001
10.528 -3.563 0.38299999
10.563 -3.5350001 0.384
10.613 -3.5120001 0.38600001
10.636 -3.4809999 0.38699999
10.684 -3.4579999 0.38800001
10.747 -3.4389999 0.38999999
10.814 -3.4219999 0.39300001
10.82 -3.385 0.39300001
10.865 -3.3599999 0.39399999
10.891 -3.3299999 0.39500001
10.941 -3.306 0.39700001
11.018 -3.2909999 0.40000001
11.045 -3.2609999 0.40099999
11.1 -3.2390001 0.403
11.135 -3.211 0.40400001
11.204 -3.1930001 0.40599999
11.249 -3.168 0.40799999
11.273 -3.1370001 0.40799999
11.337 -3.1170001 0.41100001
11.362 -3.086 0.41100001
11.384 -3.0550001 0.412
11.438 -3.0320001 0.414
11.479 -3.006 0.41499999
11.485 -2.97 0.41600001
11.546 -2.9489999 0.41800001
11.624 -2.9319999 0.421
11.631 -2.8970001 0.421
11.67 -2.8699999 0.42199999
11.753 -2.8529999 0.42500001
11.763 -2.819 0.42500001
11.822 -2.7969999 0.42699999
11.868 -2.7709999 0.42899999
11.877 -2.737 0.42899999
11.942 -2.7160001 0.43099999
11.963 -2.6849999 0.43200001
12.022 -2.6619999 0.43399999
12.048 -2.632 0.435
12.081 -2.6040001 0.43599999
12.096 -2.572 0.43700001
12.147 -2.5469999 0.43900001
12.179 -2.5190001 0.44
12.217 -2.4909999 0.44100001
12.293 -2.4719999 0.44400001
12.331 -2.444 0.44499999
12.385 -2.4200001 0.447
12.401 -2.388 0.447
12.469 -2.3670001 0.44999999
12.489 -2.336 0.45100001
12.634 -2.3280001 0.456
12.592 -2.286 0.454
12.619 -2.257 0.45500001
12.66 -2.23 0.45699999
12.735 -2.2090001 0.45899999
12.757 -2.1789999 0.46000001
12.776 -2.148 0.461
12.84 -2.125 0.463
13.837 -1.674 0.498
13.852 -1.643 0.49900001
13.802 -1.6059999 0.49700001
14.026 -1.41 0.505
14.135 -1.39 0.509
10.954 0.15000001 0.31099999
10.958 0.169 0.31099999
10.956 0.189 0.31
10.98 0.20999999 0.31099999
10.993 0.23 0.31099999
11.013 0.25099999 0.31099999
11.078 0.27399999 0.31299999
11.234 0.29899999 0.317
14.658 0.419 0.414
14.615 0.44600001 0.41299999
14.639 0.47499999 0.41299999
14.625 0.50400001 0.412
14.648 0.53399998 0.41299999
14.678 0.565 0.414
14.64 0.59399998 0.412
14.702 0.62699997 0.414
14.727 0.65899998 0.414
14.747 0.69099998 0.41499999
14.757 0.72299999 0.41499999
14.771 0.755 0.41499999
14.806 0.78899997 0.41600001
14.863 0.82499999 0.41800001
14.879 0.85900003 0.41800001
14.865 0.89099997 0.417
14.917 0.92799997 0.419
14.958 0.96399999 0.41999999
15.187 1.013 0.426
13.526 1.0930001 0.37900001
13.575 1.13 0.38
13.524 1.158 0.37799999
15.274 1.383 0.42699999
15.248 1.418 0.426
15.256 1.457 0.42699999
15.255 1.495 0.426
15.314 1.54 0.428
15.385 1.586 0.43000001
15.5 1.637 0.433
15.52 1.679 0.43399999
15.503 1.717 0.433
15.472 1.7539999 0.43200001
15.512 1.799 0.433
15.557 1.846 0.43399999
15.613 1.8940001 0.43599999
15.685 1.944 0.43799999
15.734 1.992 0.43900001
15.742 2.036 0.43900001
15.76 2.0810001 0.44
15.771 2.125 0.44
15.836 2.177 0.442
15.834 2.221 0.442
15.944 2.28 0.44499999
15.978 2.329 0.44600001
16.021999 2.381 0.447
16.066 2.4319999 0.44800001
16.066 2.4779999 0.44800001
16.118999 2.5309999 0.44999999
16.156 2.5829999 0.45100001
16.164 2.631 0.45100001
16.259001 2.6930001 0.454
16.298 2.747 0.45500001
16.398001 2.8110001 0.458
16.447001 2.8670001 0.45899999
16.503 2.9260001 0.461
16.518 2.977 0.461
16.577 3.036 0.463
16.667 3.102 0.465
16.750999 3.168 0.46799999
16.799 3.227 0.46900001
16.858999 3.289 0.47099999
16.891001 3.3469999 0.472
16.893999 3.398 0.472
16.962 3.464 0.47400001
17.049999 3.5339999 0.47600001
17.118999 3.5999999 0.47799999
17.07 3.642 0.477
17.194 3.7219999 0.48100001
17.226999 3.783 0.48199999
17.315001 3.8559999 0.484
17.301001 3.9070001 0.484
17.382 3.9790001 0.486
17.429001 4.0450001 0.48800001
17.513 4.1199999 0.49000001
17.598 4.1960001 0.493
17.672001 4.2690001 0.495
18.198 4.5710001 0.50999999
18.021999 4.585 0.505
18.028 4.7030001 0.505
18.125999 4.7870002 0.50800002
18.164 4.8569999 0.50999999
18.205 4.927 0.51099998
18.283001 5.0079999 0.51300001
18.325001 5.0799999 0.51499999
18.485001 5.1849999 0.51899999
18.461 5.3010001 0.51899999
18.506001 5.375 0.51999998
18.702999 5.4949999 0.52600002
8.8979998 2.6440001 0.25
8.6549997 2.5999999 0.243
8.5710001 2.6040001 0.241
8.5240002 2.618 0.23999999
8.4899998 2.6370001 0.23899999
8.4779997 2.6619999 0.23899999
8.4530001 2.6819999 0.23800001
8.4449997 2.7090001 0.23800001
8.4359999 2.7349999 0.23800001
8.434 2.763 0.23800001
8.4329996 2.7920001 0.23800001
8.4329996 2.8199999 0.23800001
8.441 2.852 0.23800001
8.4469995 2.8829999 0.23899999
8.4560003 2.9159999 0.23899999
8.4610004 2.947 0.23899999
8.4770002 2.9820001 0.23999999
8.5570002 3.04 0.242
15.211 5.4559999 0.43099999
15.225 5.5149999 0.43200001
8.757 3.4189999 0.249
8.6059999 3.3900001 0.245
8.54 3.395 0.243
8.5089998 3.4130001 0.243
8.4790001 3.431 0.242
8.4639997 3.4549999 0.242
8.4359999 3.474 0.241
8.4180002 3.497 0.241
8.4099998 3.523 0.23999999
8.401 3.55 0.23999999
8.3979998 3.579 0.23999999
8.3800001 3.6010001 0.23999999
8.3690004 3.6270001 0.23999999
8.3719997 3.658 0.23999999
8.3909998 3.697 0.241
8.4289999 3.744 0.242
8.724 3.9070001 0.25099999
12.382 5.6350002 0.35699999
12.359 5.6690001 0.35600001
12.452 5.757 0.359
12.424 5.789 0.359
12.325 5.7880001 0.35600001
12.289 5.816 0.35499999
12.26 5.8470001 0.35499999
12.254 5.8889999 0.35499999
12.32 5.9650002 0.35699999
11.971 6.757 0.35299999
11.887 6.7519999 0.35100001
11.933 6.822 0.352
7.4910002 4.3099999 0.221
7.3940001 4.2800002 0.21799999
7.3559999 4.2849998 0.21799999
7.3109999 4.2849998 0.21600001
7.3000002 4.3049998 0.21600001
7.263 4.3099999 0.215
7.2360001 4.3200002 0.215
7.2010002 4.3239999 0.214
7.1739998 4.3340001 0.213
7.1599998 4.3509998 0.213
7.1440001 4.3660002 0.213
7.1389999 4.3889999 0.213
7.1240001 4.4050002 0.213
7.1350002 4.4369998 0.213
7.1669998 4.4819999 0.214
7.2119999 4.5359998 0.21600001
7.2090001 4.559 0.21600001
7.1739998 4.5619998 0.215
7.145 4.5689998 0.214
7.151 4.5970001 0.215
7.1700001 4.6350002 0.21600001
7.2199998 4.6919999 0.21699999
7.3969998 4.8319998 0.223
9.25 -5.473 0.36399999
9.2629995 -5.454 0.36500001
9.2819996 -5.4390001 0.36500001
9.2740002 -5.408 0.36500001
9.309 -5.402 0.366
9.3050003 -5.3730001 0.366
9.3219995 -5.3559999 0.36700001
9.3629999 -5.3520002 0.368
9.3629999 -5.3260002 0.368
9.3719997 -5.3039999 0.36899999
9.3889999 -5.2859998 0.36899999
9.4040003 -5.2680001 0.37
9.4169998 -5.2480001 0.37099999
9.4379997 -5.2319999 0.37099999
9.4540005 -5.2129998 0.37200001
9.46 -5.1890001 0.37200001
9.4799995 -5.1729999 0.373
9.4960003 -5.1539998 0.37400001
9.5089998 -5.1339998 0.37400001
9.5150003 -5.1090002 0.37400001
9.5249996 -5.0879998 0.375
9.5310001 -5.0630002 0.375
9.5670004 -5.0539999 0.37599999
9.6009998 -5.0450001 0.37799999
9.6120005 -5.0219998 0.37799999
9.6239996 -5.0009999 0.37900001
9.6129999 -4.967 0.37799999
9.6169996 -4.941 0.37799999
9.6280003 -4.9190001 0.37900001
9.6529999 -4.9029999 0.38
9.6630001 -4.881 0.38
9.6899996 -4.8660002 0.38100001
9.698 -4.842 0.38100001
9.7060003 -4.8169999 0.382
9.7200003 -4.796 0.382
9.7419996 -4.7779999 0.38299999
9.7320004 -4.7449999 0.38299999
9.7620001 -4.7319999 0.384
9.8000002 -4.7220001 0.38499999
9.7969999 -4.691 0.38499999
9.8199997 -4.6739998 0.38600001
9.8269997 -4.6490002 0.38600001
9.842 -4.6269999 0.38699999
9.8719997 -4.612 0.38800001
9.882 -4.5879998 0.38800001
9.8900003 -4.5630002 0.389
9.9289999 -4.552 0.38999999
9.9209995 -4.52 0.38999999
9.9540005 -4.5050001 0.391
9.9779997 -4.487 0.39199999
9.9949999 -4.4660001 0.39300001
10.028 -4.4510002 0.39399999
10.041 -4.428 0.39500001
10.038 -4.3969998 0.39399999
10.051 -4.3730001 0.39500001
10.062 -4.348 0.39500001
10.075 -4.3249998 0.396
10.092 -4.303 0.396
10.141 -4.2940001 0.398
10.14 -4.2639999 0.398
10.151 -4.2389998 0.39899999
10.187 -4.224 0.40000001
10.227 -4.211 0.40200001
10.229 -4.1820002 0.40200001
10.242 -4.1570001 0.40200001
10.256 -4.1329999 0.403
10.278 -4.112 0.403
10.316 -4.0970001 0.405
10.326 -4.0710001 0.405
10.326 -4.0409999 0.405
10.361 -4.0240002 0.40700001
10.37 -3.997 0.40700001
10.412 -3.983 0.40900001
10.444 -3.9649999 0.41
10.469 -3.944 0.41100001
10.476 -3.9159999 0.41100001
10.508 -3.898 0.412
10.527 -3.8740001 0.41299999
10.555 -3.8529999 0.414
10.603 -3.8399999 0.41600001
10.618 -3.8150001 0.41600001
10.653 -3.796 0.41800001
10.71 -3.7850001 0.41999999
10.712 -3.7550001 0.41999999
10.71 -3.723 0.41999999
10.755 -3.707 0.42199999
10.801 -3.6919999 0.42300001
10.822 -3.6670001 0.42399999
10.848 -3.6440001 0.42500001
10.869 -3.6199999 0.426
10.915 -3.6029999 0.428
10.959 -3.586 0.42899999
10.983 -3.562 0.43000001
11.002 -3.536 0.43099999
11.091 -3.533 0.43399999
11.151 -3.5190001 0.43700001
11.167 -3.4920001 0.43700001
11.144 -3.4519999 0.43599999
11.13 -3.4159999 0.43599999
11.159 -3.392 0.43700001
11.205 -3.3740001 0.43900001
11.24 -3.352 0.44
11.272 -3.3280001 0.44100001
11.27 -3.2950001 0.44100001
11.305 -3.273 0.442
11.348 -3.2520001 0.44400001
11.394 -3.2320001 0.44600001
11.408 -3.2030001 0.44600001
11.435 -3.178 0.447
11.488 -3.1589999 0.449
11.512 -3.1329999 0.44999999
11.549 -3.109 0.45199999
11.57 -3.0810001 0.45199999
11.563 -3.046 0.45199999
11.598 -3.0220001 0.45300001
11.655 -3.003 0.456
11.686 -2.977 0.45699999
11.717 -2.951 0.458
11.743 -2.924 0.45899999
11.803 -2.904 0.461
11.854 -2.8829999 0.463
11.892 -2.858 0.465
11.894 -2.8239999 0.465
11.948 -2.802 0.46700001
11.983 -2.776 0.46799999
12.011 -2.7479999 0.46900001
12.056 -2.723 0.47099999
12.093 -2.697 0.472
12.162 -2.677 0.47499999
12.202 -2.6500001 0.47600001
12.161 -2.6070001 0.47499999
12.219 -2.5840001 0.477
12.294 -2.5639999 0.47999999
12.303 -2.5309999 0.47999999
12.369 -2.5090001 0.48300001
12.408 -2.4809999 0.484
12.409 -2.4449999 0.484
12.454 -2.418 0.486
12.566 -2.404 0.49000001
12.624 -2.3789999 0.49200001
12.642 -2.346 0.493
12.778 -2.3340001 0.498
12.882 -2.316 0.50199997
12.975 -2.296 0.50599998
13.767 -1.961 0.53600001
13.757 -1.921 0.53500003
13.782 -1.845 0.53600001
13.796 -1.807 0.537
13.929 -1.785 0.542
13.881 -1.739 0.54000002
13.915 -1.7029999 0.54100001
14.012 -1.675 0.54500002
14.039 -1.638 0.546
14.067 -1.521 0.546
14.098 -1.484 0.54799998
14.192 -1.4529999 0.551
11.208 0.20100001 0.34
11.142 0.212 0.338
11.121 0.22499999 0.33700001
11.057 0.237 0.33500001
11.033 0.249 0.33399999
11.039 0.26300001 0.33399999
11.021 0.27700001 0.333
11.026 0.29100001 0.333
11.029 0.30599999 0.333
11.05 0.32100001 0.333
11.123 0.338 0.33500001
11.273 0.35800001 0.34
16.121 1.4170001 0.48100001
15.986 1.439 0.477
16.007999 1.475 0.47799999
16.003 1.5089999 0.47799999
16.075001 1.55 0.47999999
16.120001 1.59 0.48100001
16.142 1.628 0.48199999
16.198999 1.669 0.48300001
16.138 1.699 0.48100001
16.153 1.737 0.48199999
16.229 1.7819999 0.484
16.246 1.821 0.48500001
16.284 1.863 0.486
16.27 1.9 0.48500001
16.304001 1.942 0.486
16.357 1.987 0.48800001
16.409 2.033 0.49000001
16.441999 2.076 0.491
16.476 2.1210001 0.49200001
16.458 2.1589999 0.491
16.546 2.211 0.49399999
16.538 2.2509999 0.49399999
16.545 2.293 0.49399999
16.615 2.345 0.49599999
16.688 2.3970001 0.498
16.705 2.4430001 0.49900001
16.767 2.4949999 0.50099999
16.823 2.5469999 0.50199997
16.822001 2.5899999 0.50199997
16.862 2.641 0.50400001
16.903 2.6919999 0.505
17.023001 2.756 0.509
17.035 2.8039999 0.509
17.02 2.8469999 0.509
17.042 2.8970001 0.50999999
17.111 2.9549999 0.51200002
17.139999 3.0079999 0.51300001
17.186001 3.063 0.514
17.188999 3.112 0.51499999
17.218 3.165 0.51599997
17.26 3.221 0.51700002
17.360001 3.289 0.51999998
17.622999 3.3889999 0.528
17.596001 3.434 0.52700001
17.562 3.4779999 0.52700001
17.606001 3.5380001 0.528
17.683001 3.605 0.53100002
17.688 3.658 0.53100002
17.731001 3.7190001 0.53200001
17.799 3.786 0.53500003
17.781 3.835 0.53399998
17.854 3.904 0.537
17.976999 3.9849999 0.54100001
18.042 4.0539999 0.54299998
18.087999 4.1199999 0.54400003
18.273001 4.2179999 0.55000001
18.24 4.2659998 0.54900002
18.452 4.3730001 0.55599999
18.518 4.4460001 0.55800003
18.493 4.4980001 0.55800003
18.778999 4.7449999 0.56699997
18.985001 4.8579998 0.574
18.784 4.927 0.56800002
18.827 4.9990001 0.56999999
18.684 5.0219998 0.56599998
18.843 5.1259999 0.57099998
18.846001 5.1890001 0.57099998
18.893 5.2639999 0.57300001
18.868 5.3200002 0.57300001
18.961 5.4089999 0.57599998
19.076 5.506 0.57999998
8.6949997 2.6270001 0.26499999
8.573 2.6199999 0.26100001
8.5159998 2.632 0.25999999
8.4910002 2.6530001 0.259
8.4569998 2.6719999 0.25799999
8.4329996 2.694 0.25799999
8.4329996 2.723 0.25799999
8.4139996 2.7460001 0.257
8.4130001 2.776 0.257
8.4130001 2.806 0.25799999
8.4180002 2.8369999 0.25799999
8.4200001 2.868 0.25799999
8.4300003 2.902 0.259
8.4490004 2.9389999 0.25999999
8.4569998 2.9719999 0.25999999
8.5120001 3.0220001 0.26199999
15.279 5.4260001 0.47099999
8.7329998 3.1329999 0.26899999
15.088 5.4130001 0.465
15.056 5.4569998 0.46399999
8.8450003 3.437 0.27399999
8.6239996 3.3829999 0.26800001
8.5489998 3.3859999 0.266
8.5039997 3.401 0.264
8.4879999 3.427 0.264
8.46 3.448 0.26300001
8.4169998 3.4630001 0.26199999
8.4160004 3.4960001 0.26300001
8.4049997 3.5239999 0.26199999
8.3970003 3.553 0.26199999
8.3889999 3.5829999 0.26300001
8.3760004 3.6099999 0.26199999
8.3830004 3.6470001 0.26300001
8.4090004 3.691 0.264
8.4940004 3.763 0.26699999
12.414 5.599 0.391
12.36 5.6240001 0.38999999
12.423 5.7030001 0.39199999
12.403 5.7449999 0.39199999
12.318 5.756 0.38999999
12.294 5.7940001 0.389
12.264 5.8309999 0.389
12.306 5.902 0.391
11.956 6.7589998 0.38800001
11.853 6.7540002 0.38600001
11.879 6.822 0.38699999
7.4429998 4.3080001 0.243
7.3670001 4.2969999 0.23999999
7.3140001 4.2989998 0.23899999
7.2870002 4.316 0.23800001
7.2529998 4.329 0.23800001
7.217 4.3400002 0.237
7.1830001 4.3530002 0.236
7.1490002 4.3649998 0.235
7.1329999 4.388 0.235
7.1220002 4.414 0.235
7.1020002 4.434 0.235
7.0869999 4.4580002 0.234
7.0869999 4.4910002 0.235
7.1329999 4.553 0.237
7.1500001 4.598 0.23800001
7.1550002 4.6350002 0.23800001
7.1139998 4.6420002 0.237
7.0900002 4.6599998 0.237
7.092 4.6950002 0.237
7.1009998 4.7350001 0.23800001
7.158 4.8070002 0.23999999
7.3579998 4.9759998 0.24699999
8.8660002 -5.8299999 0.375
8.8900003 -5.79 0.37599999
8.9370003 -5.7649999 0.377
8.967 -5.7290001 0.37799999
8.9860001 -5.6869998 0.37900001
9.0229998 -5.6550002 0.38
9.0500002 -5.619 0.38100001
9.0790005 -5.5819998 0.382
9.1129999 -5.5500002 0.38299999
9.1370001 -5.5110002 0.384
9.1730003 -5.48 0.38499999
9.1960001 -5.441 0.38600001
9.2370005 -5.4130001 0.38699999
9.2639999 -5.3769999 0.38800001
9.2889996 -5.3400002 0.389
9.3299999 -5.3119998 0.38999999
9.3559999 -5.276 0.391
9.3660002 -5.23 0.391
9.3979998 -5.197 0.39199999
9.408 -5.1529999 0.39300001
9.4499998 -5.125 0.39399999
9.4919996 -5.099 0.396
9.5209999 -5.0650001 0.39700001
9.5299997 -5.0209999 0.39700001
9.5559998 -4.9850001 0.398
9.5749998 -4.9460001 0.398
9.6129999 -4.9180002 0.40000001
9.6330004 -4.8800001 0.40000001
9.6540003 -4.8429999 0.40099999
9.6850004 -4.8099999 0.40200001
9.717 -4.7789998 0.403
9.7370005 -4.7410002 0.40400001
9.7519999 -4.7020001 0.40400001
9.7810001 -4.6690001 0.405
9.8149996 -4.6389999 0.40599999
9.8319998 -4.6009998 0.40700001
9.8769999 -4.5760002 0.40799999
9.9169998 -4.5489998 0.41
9.9250002 -4.507 0.41
9.9530001 -4.474 0.41100001
9.9870005 -4.4450002 0.412
10 -4.4060001 0.41299999
10.067 -4.3899999 0.41499999
10.097 -4.3590002 0.41600001
10.101 -4.316 0.41600001
10.144 -4.2909999 0.41800001
10.169 -4.257 0.419
10.196 -4.224 0.41999999
10.231 -4.1950002 0.421
10.273 -4.1690001 0.42199999
10.315 -4.1430001 0.42399999
10.328 -4.105 0.42399999
10.368 -4.0780001 0.426
10.398 -4.0469999 0.42699999
10.432 -4.0180001 0.428
10.498 -4.0009999 0.43099999
10.526 -3.9690001 0.43200001
10.562 -3.941 0.433
10.614 -3.918 0.435
10.656 -3.891 0.43700001
10.7 -3.8659999 0.43799999
10.757 -3.8440001 0.44
10.801 -3.8180001 0.442
10.848 -3.793 0.44400001
10.896 -3.7690001 0.44600001
10.921 -3.7360001 0.447
10.946 -3.704 0.447
10.992 -3.6789999 0.449
11.063 -3.661 0.45199999
11.093 -3.6300001 0.45300001
11.147 -3.6070001 0.45500001
11.256 -3.602 0.45899999
11.374 -3.598 0.46399999
11.325 -3.5420001 0.46200001
11.329 -3.503 0.46200001
11.351 -3.47 0.463
11.391 -3.4419999 0.46399999
11.431 -3.415 0.46599999
11.508 -3.398 0.46900001
11.513 -3.359 0.46900001
11.514 -3.3199999 0.46900001
11.582 -3.3010001 0.472
11.612 -3.27 0.47299999
11.681 -3.25 0.47499999
11.703 -3.217 0.47600001
11.717 -3.1830001 0.477
11.725 -3.1459999 0.477
11.792 -3.125 0.479
11.85 -3.1029999 0.48199999
11.917 -3.082 0.484
11.946 -3.0510001 0.48500001
11.996 -3.0250001 0.48699999
12.052 -3.0009999 0.49000001
12.058 -2.9649999 0.49000001
12.122 -2.9430001 0.49200001
12.18 -2.9189999 0.49399999
12.248 -2.898 0.49700001
12.315 -2.8759999 0.5
12.309 -2.8369999 0.49900001
12.317 -2.8010001 0.5
12.379 -2.7780001 0.50199997
12.494 -2.767 0.50700003
12.542 -2.74 0.509
12.6 -2.7160001 0.51099998
12.746 -2.71 0.51700002
13.588 -2.4300001 0.55000001
13.635 -2.402 0.55199999
13.645 -2.3670001 0.55199999
13.692 -2.339 0.55400002
13.891 -2.1559999 0.56199998
13.87 -2.1170001 0.56099999
13.881 -2.0840001 0.56099999
13.866 -2.0469999 0.56099999
13.964 -1.992 0.565
13.954 -1.956 0.56400001
14.083 -1.939 0.56900001
14.038 -1.899 0.56800002
14.012 -1.8609999 0.56599998
14.082 -1.837 0.56900001
14.176 -1.8150001 0.57300001
14.162 -1.78 0.57200003
14.176 -1.748 0.57300001
14.217 -1.72 0.57499999
14.163 -1.681 0.57200003
14.184 -1.65 0.57300001
14.255 -1.626 0.57599998
14.229 -1.59 0.57499999
14.314 -1.568 0.579
14.365 -1.541 0.58099997
14.384 -1.511 0.58099997
10.979 0.152 0.36399999
10.979 0.171 0.36399999
10.971 0.191 0.36300001
10.973 0.211 0.36300001
10.975 0.23100001 0.36300001
10.987 0.252 0.36300001
11.008 0.273 0.36399999
11.063 0.296 0.366
11.192 0.32100001 0.37
15.451 0.56599998 0.50999999
15.41 0.59500003 0.50800002
15.427 0.62800002 0.509
15.444 0.66000003 0.509
15.517 0.69599998 0.51099998
15.473 0.727 0.50999999
15.543 0.76300001 0.51200002
15.591 0.79900002 0.51300001
15.618 0.83399999 0.514
16.132 1.502 0.52899998
16.096001 1.538 0.528
16.087 1.5779999 0.52700001
16.129999 1.623 0.52899998
16.146999 1.665 0.52899998
16.202999 1.712 0.53100002
16.239 1.758 0.53200001
16.275999 1.804 0.53299999
16.351999 1.855 0.53600001
16.332001 1.896 0.53500003
16.365999 1.943 0.53600001
16.426001 1.993 0.53799999
16.464001 2.0420001 0.53899997
16.506001 2.0910001 0.54100001
16.59 2.1459999 0.54400003
16.646 2.1989999 0.54500002
16.646999 2.244 0.546
16.705 2.2980001 0.54699999
