# .PCD v0.7 - Point Cloud Data file format
VERSION 0.7
FIELDS x y z
SIZE 4 4 4
TYPE F F F
COUNT 1 1 1
WIDTH 1733
HEIGHT 1
VIEWPOINT 0 0 0 1 0 0 0
POINTS 1733
DATA ascii
7.7160001 -1.432 -0.26499999
7.7179999 -1.411 -0.26499999
7.7509999 -1.395 -0.266
7.763 -1.375 -0.266
7.7709999 -1.354 -0.266
7.7909999 -1.336 -0.26699999
7.8010001 -1.3150001 -0.26699999
7.8189998 -1.296 -0.26800001
7.836 -1.277 -0.26800001
7.8429999 -1.256 -0.26800001
7.8720002 -1.238 -0.26899999
7.8699999 -1.215 -0.26899999
7.8940001 -1.197 -0.26899999
7.9250002 -1.179 -0.27000001
7.9359999 -1.158 -0.271
7.9520001 -1.138 -0.271
7.9850001 -1.12 -0.27200001
7.9840002 -1.097 -0.27200001
8.0109997 -1.0779999 -0.273
8.0349998 -1.059 -0.273
8.0530005 -1.038 -0.27399999
8.0550003 -1.016 -0.27399999
8.1000004 -0.99900001 -0.27500001
8.1110001 -0.977 -0.27500001
8.1140003 -0.954 -0.27500001
8.1499996 -0.93599999 -0.27599999
8.1619997 -0.91399997 -0.27599999
8.1750002 -0.89200002 -0.27700001
8.2159996 -0.87400001 -0.278
8.2320004 -0.852 -0.278
8.2489996 -0.82999998 -0.27900001
8.2720003 -0.80900002 -0.27900001
8.2969999 -0.78799999 -0.28
8.3000002 -0.76499999 -0.28
8.3149996 -0.74299997 -0.28
8.3599997 -0.72399998 -0.28200001
8.3690004 -0.70099998 -0.28200001
8.3920002 -0.67900002 -0.28200001
8.4239998 -0.65799999 -0.28299999
8.4490004 -0.63599998 -0.28400001
8.4840002 -0.61500001 -0.285
8.4890003 -0.59100002 -0.285
8.5030003 -0.56800002 -0.285
8.5459995 -0.54699999 -0.287
8.5690002 -0.52399999 -0.287
8.6000004 -0.50199997 -0.28799999
8.6219997 -0.479 -0.289
8.6420002 -0.45500001 -0.289
8.6820002 -0.433 -0.28999999
8.7080002 -0.41 -0.29100001
8.7410002 -0.38699999 -0.292
8.7930002 -0.36399999 -0.29300001
8.7209997 0.177 -0.43200001
8.665 0.18799999 -0.43000001
8.6669998 0.199 -0.43000001
8.6049995 0.20999999 -0.42699999
8.6260004 0.222 -0.428
8.6120005 0.234 -0.428
8.6099997 0.24600001 -0.428
8.6110001 0.259 -0.428
8.6040001 0.271 -0.428
8.6029997 0.28400001 -0.428
8.5819998 0.296 -0.42699999
8.6000004 0.31 -0.428
8.5810003 0.32300001 -0.42699999
8.566 0.336 -0.42699999
8.5860004 0.35100001 -0.428
8.5860004 0.36500001 -0.428
8.6049995 0.38 -0.42899999
8.5909996 0.39399999 -0.42899999
8.5629997 0.40700001 -0.42699999
8.5550003 0.42199999 -0.42699999
8.5620003 0.43700001 -0.428
8.5609999 0.45199999 -0.428
8.5600004 0.46700001 -0.428
8.5439997 0.48199999 -0.42699999
8.5579996 0.49900001 -0.428
8.5710001 0.51499999 -0.42899999
8.5710001 0.53100002 -0.43000001
8.5629997 0.54699999 -0.42899999
8.5690002 0.56400001 -0.43000001
8.5740004 0.58099997 -0.43000001
8.5939999 0.59899998 -0.43200001
8.5860004 0.616 -0.43200001
8.6029997 0.634 -0.433
8.6079998 0.65200001 -0.433
8.625 0.671 -0.43399999
8.6260004 0.68900001 -0.435
8.6459999 0.708 -0.43599999
8.6379995 0.72600001 -0.43599999
8.6359997 0.74400002 -0.43599999
8.6540003 0.764 -0.43700001
8.6660004 0.78399998 -0.43799999
8.6709995 0.80299997 -0.43900001
8.6829996 0.82300001 -0.44
8.6879997 0.84299999 -0.44
8.6739998 0.861 -0.44
8.691 0.88300002 -0.44100001
8.6969995 0.903 -0.442
8.6920004 0.92299998 -0.442
8.7080002 0.94400001 -0.44299999
8.7110004 0.96499997 -0.44400001
8.7150002 0.986 -0.44400001
8.7040005 1.005 -0.44400001
8.717 1.028 -0.44499999
8.717 1.049 -0.44600001
8.7299995 1.071 -0.447
8.75 1.095 -0.44800001
8.7449999 1.1160001 -0.44800001
8.75 1.1390001 -0.449
8.75 1.161 -0.449
8.757 1.184 -0.44999999
8.7620001 1.206 -0.45100001
8.7840004 1.232 -0.45199999
8.79 1.255 -0.45300001
8.8000002 1.28 -0.454
8.7939997 1.302 -0.454
8.7939997 1.325 -0.45500001
8.7819996 1.346 -0.45500001
8.7989998 1.372 -0.456
8.816 1.398 -0.45699999
8.8120003 1.421 -0.458
8.8149996 1.446 -0.458
8.8380003 1.474 -0.46000001
8.8409996 1.498 -0.461
8.8649998 1.527 -0.46200001
8.8599997 1.551 -0.463
8.8699999 1.577 -0.46399999
8.8780003 1.604 -0.465
8.8800001 1.6289999 -0.465
8.8889999 1.656 -0.46599999
8.8979998 1.683 -0.46700001
8.8990002 1.709 -0.46799999
8.8940001 1.734 -0.46799999
8.9099998 1.763 -0.47
8.9099998 1.789 -0.47
8.9069996 1.8150001 -0.47099999
8.9139996 1.842 -0.47099999
8.9230003 1.8710001 -0.47299999
8.9379997 1.901 -0.47400001
8.9530001 1.931 -0.47499999
8.9510002 1.9579999 -0.47600001
8.9399996 1.982 -0.47600001
8.96 2.0139999 -0.47799999
8.9750004 2.0450001 -0.479
8.974 2.072 -0.47999999
9.0030003 2.1070001 -0.48199999
9.0030003 2.135 -0.48199999
9.0129995 2.1659999 -0.484
9.0299997 2.198 -0.48500001
9.0229998 2.2249999 -0.48500001
9.0369997 2.2579999 -0.48699999
9.0500002 2.29 -0.48800001
9.0819998 2.3269999 -0.491
9.0489998 2.348 -0.49000001
9.0679998 2.382 -0.491
9.0719995 2.4130001 -0.49200001
9.0790005 2.444 -0.493
9.0719995 2.4719999 -0.49399999
9.1020002 2.5109999 -0.49599999
9.1020002 2.5409999 -0.49700001
9.1160002 2.575 -0.498
9.1190004 2.6070001 -0.49900001
9.1409998 2.6440001 -0.50099999
9.1599998 2.6800001 -0.50300002
9.165 2.7130001 -0.50400001
9.1750002 2.747 -0.505
9.1800003 2.78 -0.50599998
9.1960001 2.8169999 -0.50800002
9.2019997 2.8499999 -0.509
9.2309999 2.891 -0.51099998
9.2489996 2.9289999 -0.51300001
9.2709999 2.9690001 -0.51499999
9.2679996 3.0009999 -0.51599997
9.2860003 3.039 -0.51800001
9.2939997 3.075 -0.51899999
9.3100004 3.1129999 -0.52100003
9.3129997 3.148 -0.52200001
9.2950001 3.175 -0.52200001
9.2989998 3.21 -0.523
9.3210001 3.2520001 -0.52499998
9.3199997 3.2850001 -0.52600002
9.3509998 3.3299999 -0.528
9.3719997 3.372 -0.52999997
9.3719997 3.4070001 -0.53100002
9.3879995 3.448 -0.53299999
9.4139996 3.4920001 -0.53500003
9.4099998 3.526 -0.53600001
9.4160004 3.563 -0.537
9.4359999 3.6059999 -0.53899997
9.4689999 3.655 -0.542
9.493 3.7 -0.54400003
9.533 3.7520001 -0.54799998
9.559 3.799 -0.55000001
9.5839996 3.845 -0.55299997
9.5900002 3.885 -0.55400002
9.6070004 3.9289999 -0.55599999
9.6090002 3.967 -0.55699998
9.6389999 4.0170002 -0.56
9.6569996 4.0619998 -0.56199998
9.6859999 4.1129999 -0.565
9.7040005 4.158 -0.56699997
9.7139997 4.2020001 -0.56800002
9.7390003 4.2509999 -0.57099998
9.7880001 4.3109999 -0.57499999
9.816 4.3629999 -0.57700002
9.8039999 4.3969998 -0.57800001
9.816 4.4419999 -0.57999998
9.8509998 4.4980001 -0.583
9.8479996 4.5359998 -0.58399999
9.8699999 4.5869999 -0.58600003
9.8920002 4.638 -0.58899999
9.9069996 4.6859999 -0.59100002
9.915 4.73 -0.59200001
9.9309998 4.7789998 -0.59399998
9.9639997 4.836 -0.597
9.9589996 4.875 -0.59799999
9.9829998 4.9289999 -0.60100001
10.005 4.9819999 -0.60299999
10.005 5.0240002 -0.60500002
10.026 5.0770001 -0.60699999
10.051 5.1329999 -0.61000001
10.089 5.1950002 -0.61299998
10.107 5.2470002 -0.616
10.115 5.2950001 -0.61699998
10.14 5.3520002 -0.62
10.169 5.4109998 -0.62300003
10.155 5.448 -0.62400001
10.172 5.5009999 -0.62599999
10.165 5.5419998 -0.62699997
10.179 5.5939999 -0.62900001
10.176 5.6370001 -0.63
10.189 5.6890001 -0.63200003
10.22 5.7519999 -0.63599998
10.236 5.8060002 -0.63800001
10.217 5.8410001 -0.63800001
10.197 5.875 -0.63800001
10.211 5.9289999 -0.63999999
10.239 5.9920001 -0.64399999
10.25 6.0450001 -0.64600003
10.281 6.1100001 -0.64899999
10.307 6.1719999 -0.65200001
10.304 6.217 -0.653
10.323 6.276 -0.65600002
10.337 6.3319998 -0.65799999
10.379 6.4050002 -0.662
10.365 6.4450002 -0.66299999
10.376 6.5 -0.66500002
10.356 6.5349998 -0.66500002
10.379 6.599 -0.66799998
10.377 6.6459999 -0.66900003
10.375 6.6929998 -0.671
10.404 6.7610002 -0.67400002
10.406 6.8109999 -0.676
10.393 6.8520002 -0.676
10.381 6.8940001 -0.67699999
10.363 6.9310002 -0.67799997
10.369 6.9850001 -0.68000001
10.364 7.0310001 -0.68099999
10.358 7.0770001 -0.68199998
10.335 7.1110001 -0.68199998
10.338 7.164 -0.68400002
10.338 7.2140002 -0.685
10.335 7.2620001 -0.68699998
10.324 7.3049998 -0.68800002
10.31 7.3460002 -0.68800002
10.265 7.3639998 -0.68699998
10.22 7.382 -0.685
5.9039998 -3.9089999 -0.207
5.9310002 -3.8889999 -0.208
5.9689999 -3.8770001 -0.20900001
5.9759998 -3.8440001 -0.20900001
6.0040002 -3.825 -0.20999999
6.013 -3.7939999 -0.20999999
6.0359998 -3.7720001 -0.20999999
6.059 -3.75 -0.211
6.0809999 -3.727 -0.211
6.1040001 -3.7049999 -0.212
6.112 -3.675 -0.212
6.119 -3.6440001 -0.212
6.1490002 -3.6259999 -0.213
6.1719999 -3.6040001 -0.213
6.1859999 -3.5780001 -0.213
6.2020001 -3.552 -0.214
6.2350001 -3.5369999 -0.215
6.2490001 -3.51 -0.215
6.2690001 -3.4879999 -0.215
6.3039999 -3.473 -0.21600001
6.3109999 -3.4430001 -0.21600001
6.3270001 -3.418 -0.21699999
6.3460002 -3.395 -0.21699999
6.3649998 -3.372 -0.21699999
6.3850002 -3.349 -0.21799999
6.4050002 -3.3269999 -0.21799999
6.4200001 -3.302 -0.219
6.4320002 -3.276 -0.219
6.4569998 -3.256 -0.219
6.4759998 -3.233 -0.22
6.4829998 -3.2049999 -0.22
6.5079999 -3.1860001 -0.22
6.5209999 -3.1600001 -0.221
6.5339999 -3.135 -0.221
6.5570002 -3.115 -0.221
6.5580001 -3.0840001 -0.221
6.5890002 -3.0680001 -0.222
6.6059999 -3.0450001 -0.222
6.6290002 -3.0239999 -0.223
6.6430001 -3 -0.223
6.6609998 -2.9779999 -0.22400001
6.671 -2.9519999 -0.22400001
6.6960001 -2.9330001 -0.22400001
6.7069998 -2.908 -0.22499999
6.7259998 -2.8870001 -0.22499999
6.7350001 -2.8610001 -0.22499999
6.7519999 -2.839 -0.226
6.777 -2.8199999 -0.226
6.7919998 -2.7969999 -0.226
6.803 -2.7720001 -0.227
6.8150001 -2.7479999 -0.227
6.8299999 -2.7260001 -0.227
6.8590002 -2.7090001 -0.228
6.8660002 -2.6830001 -0.228
6.8790002 -2.6589999 -0.228
6.895 -2.6370001 -0.228
6.9089999 -2.615 -0.229
6.927 -2.5940001 -0.229
6.9419999 -2.5710001 -0.229
6.9580002 -2.55 -0.23
6.9790001 -2.53 -0.23
6.994 -2.5079999 -0.23100001
7.0190001 -2.49 -0.23100001
7.027 -2.4649999 -0.23100001
7.0359998 -2.441 -0.23199999
7.0609999 -2.4230001 -0.23199999
7.0609999 -2.3959999 -0.23199999
7.0939999 -2.381 -0.233
7.105 -2.358 -0.233
7.1160002 -2.335 -0.233
7.132 -2.3139999 -0.234
7.152 -2.2939999 -0.234
7.1589999 -2.2709999 -0.234
7.1690001 -2.2479999 -0.234
7.1880002 -2.2279999 -0.235
7.2090001 -2.2090001 -0.235
7.237 -2.1919999 -0.236
7.244 -2.1689999 -0.236
7.257 -2.1470001 -0.236
7.2779999 -2.128 -0.237
7.2979999 -2.109 -0.237
7.3260002 -2.092 -0.23800001
7.3319998 -2.069 -0.23800001
7.336 -2.0450001 -0.23800001
7.3590002 -2.026 -0.23899999
7.3850002 -2.0090001 -0.23899999
7.3860002 -1.985 -0.23899999
7.4190001 -1.969 -0.23999999
7.4320002 -1.948 -0.23999999
7.4590001 -1.931 -0.241
7.4710002 -1.91 -0.241
7.4829998 -1.8890001 -0.242
7.5050001 -1.8710001 -0.242
7.5050001 -1.847 -0.242
7.5359998 -1.831 -0.243
7.5630002 -1.814 -0.244
7.559 -1.789 -0.243
7.573 -1.7690001 -0.244
7.592 -1.75 -0.244
7.618 -1.733 -0.245
7.6059999 -1.707 -0.244
7.6350002 -1.691 -0.245
7.645 -1.67 -0.245
7.6729999 -1.654 -0.24600001
7.7119999 -1.6390001 -0.24699999
7.7090001 -1.6160001 -0.24699999
7.7249999 -1.597 -0.24699999
7.7259998 -1.574 -0.24699999
7.7509999 -1.557 -0.248
7.7550001 -1.536 -0.248
7.7740002 -1.518 -0.248
7.7690001 -1.495 -0.248
7.7950001 -1.478 -0.249
7.7979999 -1.457 -0.249
7.8600001 -1.446 -0.25
7.8769999 -1.428 -0.25099999
7.8569999 -1.403 -0.25
7.8850002 -1.386 -0.25099999
7.9029999 -1.368 -0.25099999
7.8990002 -1.346 -0.25099999
7.9099998 -1.327 -0.25099999
7.9260001 -1.309 -0.252
7.9439998 -1.291 -0.252
7.9590001 -1.272 -0.25299999
7.9790001 -1.255 -0.25299999
7.9829998 -1.235 -0.25299999
7.9899998 -1.215 -0.25299999
8.0159998 -1.199 -0.25400001
8.0220003 -1.179 -0.25400001
8.0509996 -1.163 -0.255
8.0740004 -1.147 -0.255
8.0769997 -1.127 -0.255
8.0889997 -1.109 -0.25600001
8.118 -1.0930001 -0.25600001
8.1359997 -1.075 -0.257
8.1569996 -1.058 -0.257
8.1560001 -1.039 -0.257
8.1789999 -1.022 -0.25799999
8.1809998 -1.003 -0.25799999
8.2040005 -0.986 -0.259
8.2270002 -0.97000003 -0.259
8.2370005 -0.95200002 -0.259
8.2390003 -0.93300003 -0.259
8.2410002 -0.91399997 -0.259
8.257 -0.89700001 -0.25999999
8.2840004 -0.88099998 -0.25999999
8.2969999 -0.86400002 -0.26100001
8.3140001 -0.847 -0.26100001
8.3179998 -0.829 -0.26100001
8.3389997 -0.81300002 -0.26199999
8.3549995 -0.796 -0.26199999
8.3710003 -0.77899998 -0.26300001
8.3940001 -0.76300001 -0.26300001
8.4020004 -0.74599999 -0.26300001
8.4189997 -0.73000002 -0.264
8.4490004 -0.71399999 -0.26499999
8.4359999 -0.69499999 -0.264
8.4589996 -0.68000001 -0.26499999
8.4680004 -0.66299999 -0.26499999
8.4759998 -0.64600003 -0.26499999
8.4919996 -0.63 -0.266
8.5139999 -0.61400002 -0.266
8.5220003 -0.59799999 -0.266
8.5500002 -0.58200002 -0.26699999
8.5819998 -0.56800002 -0.26800001
8.6040001 -0.55199999 -0.26899999
8.6129999 -0.53600001 -0.26899999
8.6140003 -0.51899999 -0.26899999
8.6459999 -0.50400001 -0.27000001
8.658 -0.48800001 -0.27000001
8.651 -0.47099999 -0.27000001
8.6879997 -0.45699999 -0.271
8.6759996 -0.44 -0.27000001
8.7040005 -0.42500001 -0.271
8.7200003 -0.41 -0.27200001
8.7690001 -0.396 -0.273
8.7989998 -0.38100001 -0.27399999
8.8039999 -0.366 -0.27399999
8.8149996 -0.34999999 -0.27399999
8.8310003 -0.33500001 -0.27500001
8.8579998 -0.32100001 -0.27599999
8.8809996 -0.30599999 -0.27599999
8.9320002 -0.292 -0.278
8.4659996 0.097000003 -0.39700001
8.4849997 0.112 -0.398
8.4709997 0.12800001 -0.398
8.5059996 0.14399999 -0.39899999
8.4980001 0.16 -0.39899999
8.5030003 0.176 -0.40000001
8.526 0.193 -0.40099999
8.5229998 0.20999999 -0.40099999
8.5249996 0.227 -0.40099999
8.5229998 0.244 -0.40099999
8.5179996 0.26100001 -0.40099999
8.5150003 0.278 -0.40099999
8.5360003 0.296 -0.40200001
8.526 0.31299999 -0.40200001
8.5349998 0.33199999 -0.403
8.5539999 0.34999999 -0.40400001
8.5469999 0.368 -0.40400001
8.5249996 0.38600001 -0.403
8.5369997 0.405 -0.40400001
8.5439997 0.42399999 -0.40400001
8.5489998 0.44299999 -0.405
8.5419998 0.46200001 -0.405
8.526 0.47999999 -0.40400001
8.5559998 0.50099999 -0.40599999
8.566 0.52100003 -0.40700001
8.5649996 0.54100001 -0.40700001
8.5760002 0.56099999 -0.40799999
8.5950003 0.58200002 -0.40900001
8.5939999 0.60299999 -0.40900001
8.6070004 0.62400001 -0.41
8.6160002 0.64499998 -0.41100001
8.6169996 0.66600001 -0.41100001
8.6359997 0.68800002 -0.412
8.6450005 0.70999998 -0.41299999
8.6599998 0.73299998 -0.414
8.6730003 0.755 -0.41499999
8.6689997 0.77600002 -0.41499999
8.6750002 0.79900002 -0.41600001
8.691 0.82200003 -0.417
8.6960001 0.84500003 -0.417
8.7069998 0.86799997 -0.41800001
8.7180004 0.89099997 -0.419
8.7180004 0.91399997 -0.419
8.7270002 0.93800002 -0.41999999
8.7399998 0.96200001 -0.421
8.7349997 0.98400003 -0.421
8.7550001 1.01 -0.42300001
8.7510004 1.033 -0.42300001
8.7559996 1.057 -0.42300001
8.7530003 1.08 -0.42399999
8.7770004 1.1059999 -0.42500001
8.7810001 1.131 -0.426
8.8039999 1.158 -0.42699999
8.8070002 1.183 -0.428
8.8190002 1.209 -0.42899999
8.835 1.235 -0.43000001
8.8389997 1.261 -0.43099999
8.8620005 1.289 -0.43200001
8.8640003 1.314 -0.433
8.8739996 1.341 -0.43399999
8.8850002 1.368 -0.435
8.8870001 1.3940001 -0.435
8.8830004 1.418 -0.43599999
8.9130001 1.449 -0.43700001
8.9090004 1.474 -0.43799999
8.9239998 1.503 -0.43900001
8.9469995 1.533 -0.44100001
8.9490004 1.559 -0.44100001
8.9639997 1.5880001 -0.442
8.9799995 1.618 -0.44400001
8.9960003 1.648 -0.44499999
9.0039997 1.676 -0.44600001
8.9989996 1.702 -0.44600001
9.0059996 1.7309999 -0.447
8.9890003 1.755 -0.447
9.0100002 1.786 -0.44800001
9.033 1.818 -0.44999999
9.0380001 1.847 -0.45100001
9.0609999 1.88 -0.45199999
9.0430002 1.904 -0.45199999
9.0640001 1.936 -0.45300001
9.0710001 1.966 -0.454
9.0839996 1.997 -0.456
9.0880003 2.026 -0.456
9.1199999 2.062 -0.45899999
9.1199999 2.0910001 -0.45899999
9.1459999 2.1259999 -0.461
9.1590004 2.158 -0.46200001
9.1730003 2.191 -0.46399999
9.1730003 2.22 -0.46399999
9.198 2.256 -0.46599999
9.1990004 2.2850001 -0.46700001
9.2110004 2.3180001 -0.46799999
9.2110004 2.348 -0.46900001
9.2370005 2.3840001 -0.47
9.2559996 2.4189999 -0.472
9.2559996 2.45 -0.47299999
9.2670002 2.483 -0.47400001
9.2700005 2.5139999 -0.47499999
9.2720003 2.5450001 -0.47499999
9.29 2.5810001 -0.477
9.3280001 2.6229999 -0.47999999
9.3459997 2.6589999 -0.48100001
9.3509998 2.691 -0.48199999
9.3629999 2.7260001 -0.48300001
9.3719997 2.76 -0.48500001
9.3900003 2.7969999 -0.486
9.3809996 2.826 -0.486
9.4110003 2.8670001 -0.48899999
9.4169998 2.901 -0.49000001
9.4390001 2.9400001 -0.49200001
9.4499998 2.9749999 -0.493
9.4589996 3.01 -0.49399999
9.4770002 3.0480001 -0.49599999
9.4820004 3.082 -0.49700001
9.4779997 3.1140001 -0.49700001
9.493 3.152 -0.49900001
9.5019999 3.187 -0.5
9.5120001 3.223 -0.50099999
9.5270004 3.2620001 -0.50300002
9.5279999 3.2950001 -0.50400001
9.5579996 3.339 -0.50599998
9.5509996 3.369 -0.50599998
9.5830002 3.414 -0.509
9.592 3.451 -0.50999999
9.6120005 3.4920001 -0.51200002
9.6079998 3.5250001 -0.51300001
9.6309996 3.5669999 -0.51499999
9.6619997 3.612 -0.51700002
9.6569996 3.645 -0.51800001
9.6960001 3.694 -0.52100003
9.7040005 3.7309999 -0.52200001
9.717 3.7709999 -0.52399999
9.7700005 3.826 -0.52700001
9.7720003 3.862 -0.528
9.8009996 3.908 -0.53100002
9.7980003 3.9419999 -0.53100002
9.809 3.9809999 -0.53299999
9.816 4.02 -0.53399998
9.8360004 4.0630002 -0.53600001
9.8369999 4.099 -0.537
9.8669996 4.1469998 -0.54000002
9.8710003 4.184 -0.54100001
9.9099998 4.2360001 -0.54400003
9.9289999 4.2810001 -0.546
9.9610004 4.3299999 -0.54799998
9.9829998 4.3759999 -0.551
9.9949999 4.4169998 -0.55199999
10.006 4.4590001 -0.55400002
10.036 4.5089998 -0.55599999
10.059 4.5549998 -0.55900002
10.066 4.5949998 -0.56
10.099 4.6469998 -0.56300002
10.11 4.6890001 -0.56400001
10.12 4.73 -0.56599998
10.141 4.777 -0.56800002
10.166 4.8260002 -0.56999999
10.202 4.8800001 -0.57300001
10.229 4.9310002 -0.57599998
10.239 4.973 -0.57800001
10.255 5.0180001 -0.57999998
10.252 5.0539999 -0.57999998
10.305 5.118 -0.58399999
10.314 5.1599998 -0.58600003
10.353 5.2179999 -0.58899999
10.375 5.2670002 -0.59200001
10.39 5.3119998 -0.59399998
10.406 5.3579998 -0.59500003
10.425 5.4060001 -0.59799999
10.415 5.4400001 -0.59799999
10.418 5.4790001 -0.59899998
10.426 5.5219998 -0.60100001
10.458 5.5770001 -0.60399997
10.466 5.619 -0.60600001
10.462 5.6550002 -0.60600001
10.468 5.697 -0.60799998
10.491 5.7470002 -0.61000001
10.515 5.7989998 -0.61299998
10.53 5.8460002 -0.61500001
10.549 5.895 -0.61699998
10.556 5.9369998 -0.61900002
10.576 5.987 -0.62099999
10.612 6.046 -0.62400001
10.648 6.105 -0.62800002
10.647 6.1430001 -0.62900001
10.612 6.1609998 -0.62800002
10.633 6.211 -0.63
10.66 6.2659998 -0.63300002
10.705 6.3309999 -0.63700002
10.711 6.3730001 -0.639
10.724 6.4190001 -0.64099997
10.714 6.4510002 -0.64099997
10.726 6.4970002 -0.64300001
10.749 6.5489998 -0.64600003
10.757 6.5929999 -0.648
10.766 6.6360002 -0.64899999
10.773 6.6789999 -0.65100002
10.78 6.7210002 -0.653
10.825 6.7880001 -0.65700001
10.844 6.8369999 -0.65899998
10.827 6.8649998 -0.65899998
10.827 6.9029999 -0.66100001
10.826 6.9400001 -0.662
10.849 6.9920001 -0.66500002
10.847 7.0289998 -0.66600001
10.867 7.079 -0.66799998
10.871 7.119 -0.67000002
10.859 7.1490002 -0.67000002
10.9 7.2129998 -0.67400002
10.93 7.27 -0.67699999
10.915 7.2969999 -0.67799997
10.94 7.3509998 -0.68099999
10.957 7.3990002 -0.68300003
6.3000002 -3.6830001 -0.20200001
6.3010001 -3.6659999 -0.20200001
6.3260002 -3.6630001 -0.20299999
6.329 -3.6470001 -0.20299999
6.336 -3.6329999 -0.20299999
6.349 -3.6229999 -0.20299999
6.3569999 -3.6099999 -0.20299999
6.3660002 -3.5969999 -0.20299999
6.3670001 -3.5799999 -0.20299999
6.3870001 -3.573 -0.204
6.395 -3.559 -0.204
6.4029999 -3.546 -0.204
6.4159999 -3.5350001 -0.204
6.4239998 -3.5209999 -0.204
6.4330001 -3.5079999 -0.205
6.4330001 -3.49 -0.205
6.4320002 -3.4719999 -0.204
6.448 -3.4619999 -0.205
6.4460001 -3.4419999 -0.205
6.4689999 -3.437 -0.205
6.4770002 -3.4219999 -0.205
6.487 -3.4089999 -0.206
6.4990001 -3.3970001 -0.206
6.5050001 -3.382 -0.206
6.533 -3.378 -0.207
6.5279999 -3.3570001 -0.206
6.5380001 -3.3429999 -0.207
6.5619998 -3.3369999 -0.207
6.5689998 -3.322 -0.207
6.5770001 -3.3069999 -0.208
6.5840001 -3.2920001 -0.208
6.5960002 -3.279 -0.208
6.599 -3.2620001 -0.208
6.6030002 -3.2449999 -0.208
6.6209998 -3.2349999 -0.208
6.618 -3.2149999 -0.208
6.6420002 -3.2079999 -0.20900001
6.6490002 -3.1919999 -0.20900001
6.6560001 -3.1760001 -0.20900001
6.6700001 -3.164 -0.20900001
6.6869998 -3.1530001 -0.20999999
6.6929998 -3.1359999 -0.20999999
6.7129998 -3.1270001 -0.20999999
6.7199998 -3.1110001 -0.211
6.7259998 -3.0940001 -0.211
6.7350001 -3.079 -0.211
6.7399998 -3.062 -0.211
6.7480001 -3.046 -0.211
6.7680001 -3.036 -0.211
6.7779999 -3.0209999 -0.212
6.7820001 -3.003 -0.212
6.8039999 -2.994 -0.212
6.8109999 -2.977 -0.212
6.8150001 -2.96 -0.212
6.8249998 -2.944 -0.213
6.8369999 -2.9300001 -0.213
6.8340001 -2.9089999 -0.213
6.8460002 -2.8940001 -0.213
6.862 -2.881 -0.213
6.8800001 -2.869 -0.214
6.8860002 -2.852 -0.214
6.8870001 -2.8329999 -0.214
6.901 -2.819 -0.214
6.915 -2.8050001 -0.214
6.9219999 -2.7880001 -0.214
6.927 -2.77 -0.214
6.9310002 -2.7520001 -0.214
6.9489999 -2.7390001 -0.215
6.961 -2.724 -0.215
6.9619999 -2.704 -0.215
6.9749999 -2.6889999 -0.215
6.9889998 -2.674 -0.21600001
7.0019999 -2.6589999 -0.21600001
7.0229998 -2.6470001 -0.21600001
7.0289998 -2.6289999 -0.21600001
7.0190001 -2.605 -0.21600001
7.0479999 -2.596 -0.21699999
7.0549998 -2.5780001 -0.21699999
7.0609999 -2.5599999 -0.21699999
7.0700002 -2.543 -0.21699999
7.0869999 -2.529 -0.21699999
7.0879998 -2.5090001 -0.21699999
7.1009998 -2.493 -0.21799999
7.1220002 -2.48 -0.21799999
7.1199999 -2.4590001 -0.21799999
7.1279998 -2.441 -0.21799999
7.1539998 -2.4300001 -0.219
7.152 -2.4089999 -0.219
7.1729999 -2.395 -0.219
7.1789999 -2.3770001 -0.219
7.1960001 -2.362 -0.22
7.1989999 -2.342 -0.22
7.2030001 -2.323 -0.22
7.217 -2.306 -0.22
7.2290001 -2.29 -0.22
7.244 -2.2739999 -0.22
7.244 -2.253 -0.22
7.2550001 -2.2360001 -0.22
7.2750001 -2.221 -0.221
7.2930002 -2.2060001 -0.221
7.2989998 -2.187 -0.221
7.3210001 -2.1719999 -0.222
7.3319998 -2.155 -0.222
7.336 -2.135 -0.222
7.3429999 -2.1159999 -0.222
7.3610001 -2.0999999 -0.223
7.3800001 -2.0840001 -0.223
7.3930001 -2.0669999 -0.223
7.401 -2.0480001 -0.223
7.4180002 -2.0320001 -0.22400001
7.4260001 -2.013 -0.22400001
7.4429998 -1.9960001 -0.22400001
7.4619999 -1.98 -0.22499999
7.467 -1.96 -0.22499999
7.4850001 -1.943 -0.22499999
7.5149999 -1.9299999 -0.226
7.5009999 -1.904 -0.22499999
7.5149999 -1.887 -0.226
7.5229998 -1.867 -0.226
7.5450001 -1.851 -0.226
7.573 -1.836 -0.227
7.5900002 -1.819 -0.227
7.5970001 -1.799 -0.228
7.6110001 -1.78 -0.228
7.618 -1.761 -0.228
7.6389999 -1.743 -0.228
7.6490002 -1.724 -0.229
7.6620002 -1.705 -0.229
7.6609998 -1.683 -0.229
7.6830001 -1.666 -0.229
7.697 -1.647 -0.229
7.6919999 -1.624 -0.229
7.7340002 -1.6109999 -0.23
7.7509999 -1.5930001 -0.23100001
7.763 -1.573 -0.23100001
7.7950001 -1.557 -0.23199999
7.7870002 -1.534 -0.23100001
7.803 -1.515 -0.23199999
7.8280001 -1.497 -0.23199999
7.8330002 -1.476 -0.23199999
7.8400002 -1.455 -0.23199999
7.8670001 -1.438 -0.233
7.8850002 -1.419 -0.233
7.9190001 -1.402 -0.234
7.9520001 -1.386 -0.235
7.954 -1.363 -0.235
7.9569998 -1.341 -0.235
7.9819999 -1.323 -0.235
8 -1.303 -0.236
8.0190001 -1.283 -0.236
8.0389996 -1.2640001 -0.237
8.04 -1.2410001 -0.237
8.0579996 -1.221 -0.237
8.0880003 -1.2029999 -0.23800001
8.1059999 -1.183 -0.23800001
8.1219997 -1.1619999 -0.23800001
8.1549997 -1.1440001 -0.23899999
8.1730003 -1.123 -0.23999999
8.2019997 -1.104 -0.23999999
8.2150002 -1.082 -0.241
8.2390003 -1.062 -0.241
8.2510004 -1.04 -0.241
8.2860003 -1.021 -0.242
8.3120003 -1.001 -0.243
8.3149996 -0.97799999 -0.243
8.3450003 -0.958 -0.244
8.3479996 -0.93400002 -0.243
8.3940001 -0.91600001 -0.245
8.401 -0.89300001 -0.245
8.4420004 -0.87300003 -0.24600001
8.4499998 -0.85000002 -0.24600001
8.4820004 -0.829 -0.24699999
8.5200005 -0.80900002 -0.248
8.5010004 -0.78299999 -0.24699999
8.5299997 -0.76200002 -0.248
8.5620003 -0.74000001 -0.248
8.5799999 -0.71799999 -0.249
8.6300001 -0.69700003 -0.25
8.6560001 -0.67500001 -0.25099999
8.6689997 -0.65200001 -0.25099999
8.7220001 -0.63099998 -0.252
8.7180004 -0.60600001 -0.252
8.7440004 -0.583 -0.25299999
8.757 -0.55900002 -0.25299999
8.7910004 -0.537 -0.25400001
8.8269997 -0.514 -0.25400001
8.8450003 -0.49000001 -0.255
8.868 -0.46599999 -0.255
8.908 -0.44299999 -0.25600001
8.993 -0.42199999 -0.259
9.0509996 -0.39899999 -0.25999999
9.1029997 -0.37599999 -0.26100001
8.8669996 0.16 -0.39300001
8.8590002 0.171 -0.39199999
8.8290005 0.182 -0.391
8.8190002 0.193 -0.391
8.8299999 0.205 -0.39199999
8.7910004 0.21600001 -0.38999999
8.7620001 0.227 -0.389
8.7650003 0.23999999 -0.389
8.7480001 0.252 -0.38800001
8.7609997 0.26499999 -0.389
8.7600002 0.278 -0.389
8.7539997 0.29100001 -0.389
8.7390003 0.30399999 -0.389
8.7399998 0.317 -0.389
8.7440004 0.331 -0.389
8.7329998 0.345 -0.389
8.7440004 0.359 -0.389
8.7510004 0.37400001 -0.38999999
8.7370005 0.38800001 -0.38999999
8.7440004 0.403 -0.38999999
8.7150002 0.41600001 -0.389
8.7259998 0.43200001 -0.38999999
8.7340002 0.447 -0.38999999
8.7390003 0.463 -0.391
8.7390003 0.479 -0.391
8.7390003 0.49399999 -0.391
8.7519999 0.51099998 -0.39199999
8.7460003 0.52700001 -0.39199999
8.7559996 0.54400003 -0.39199999
8.7620001 0.56099999 -0.39300001
8.7670002 0.57800001 -0.39300001
8.7799997 0.59600002 -0.39399999
8.7910004 0.61400002 -0.39500001
8.7980003 0.63200003 -0.396
8.8039999 0.64999998 -0.396
8.8290005 0.67000002 -0.398
8.8339996 0.68800002 -0.398
8.8319998 0.70599997 -0.398
8.8389997 0.72500002 -0.39899999
8.8559999 0.745 -0.40000001
8.8629999 0.764 -0.40099999
8.8620005 0.78299999 -0.40099999
8.8629999 0.80299997 -0.40099999
8.8839998 0.824 -0.40200001
8.8950005 0.84399998 -0.403
8.901 0.86500001 -0.40400001
8.9049997 0.88499999 -0.40400001
8.9160004 0.90600002 -0.405
8.9350004 0.92900002 -0.40599999
8.9289999 0.94800001 -0.40599999
8.9659996 0.97299999 -0.40900001
8.9549999 0.99299997 -0.40799999
8.9729996 1.016 -0.41
8.9910002 1.039 -0.41100001
8.9829998 1.0599999 -0.41100001
9.007 1.084 -0.412
9.0170002 1.107 -0.41299999
9.0229998 1.13 -0.414
9.0380001 1.154 -0.41499999
9.0570002 1.179 -0.41600001
9.0539999 1.201 -0.41600001
9.0539999 1.224 -0.417
9.073 1.25 -0.41800001
9.0679998 1.272 -0.41800001
9.0889997 1.298 -0.41999999
9.0930004 1.323 -0.41999999
9.1070004 1.348 -0.421
9.1190004 1.374 -0.42199999
9.1400003 1.401 -0.42399999
9.1440001 1.426 -0.42399999
9.1470003 1.451 -0.42500001
9.1569996 1.477 -0.426
9.1560001 1.502 -0.426
9.1700001 1.529 -0.428
9.1809998 1.556 -0.42899999
9.1739998 1.58 -0.42899999
9.1850004 1.608 -0.43000001
9.1890001 1.6339999 -0.43000001
9.2019997 1.6619999 -0.43200001
9.21 1.6900001 -0.43200001
9.2189999 1.7180001 -0.433
9.2270002 1.745 -0.43399999
9.2379999 1.774 -0.435
9.2770004 1.808 -0.43799999
9.2790003 1.836 -0.43799999
9.2810001 1.863 -0.43900001
9.2950001 1.8940001 -0.44
9.2969999 1.921 -0.44100001
9.2989998 1.95 -0.44100001
9.3310003 1.984 -0.44400001
9.3269997 2.0109999 -0.44400001
9.3339996 2.0409999 -0.44499999
9.3549995 2.0739999 -0.44600001
9.335 2.098 -0.44600001
9.3570004 2.132 -0.44800001
9.3830004 2.1670001 -0.44999999
9.3800001 2.1949999 -0.44999999
9.4029999 2.23 -0.45199999
9.4040003 2.26 -0.45199999
9.4289999 2.2950001 -0.454
9.3959999 2.3169999 -0.45300001
9.415 2.352 -0.45500001
9.4110003 2.381 -0.45500001
9.46 2.4230001 -0.458
9.4429998 2.45 -0.458
9.4569998 2.484 -0.46000001
9.4639997 2.516 -0.461
9.4849997 2.553 -0.46200001
9.5080004 2.5910001 -0.46399999
9.5080004 2.622 -0.465
9.5319996 2.6600001 -0.46700001
9.5220003 2.6889999 -0.46700001
9.5380001 2.7260001 -0.46799999
9.533 2.756 -0.46900001
9.5679998 2.799 -0.47099999
9.5670004 2.8310001 -0.472
9.5559998 2.8610001 -0.472
9.5869999 2.9030001 -0.47400001
9.5749998 2.9319999 -0.47499999
9.6140003 2.977 -0.477
9.625 3.0139999 -0.479
9.6540003 3.0569999 -0.48100001
9.6549997 3.0910001 -0.48199999
9.6739998 3.131 -0.48300001
9.6630001 3.1619999 -0.484
9.665 3.197 -0.484
9.6730003 3.234 -0.486
9.677 3.27 -0.48699999
9.6850004 3.3069999 -0.48800001
9.6850004 3.3429999 -0.48899999
9.6960001 3.381 -0.49000001
9.724 3.427 -0.49200001
9.7440004 3.4690001 -0.49399999
9.7309999 3.5 -0.49399999
9.7609997 3.5469999 -0.49700001
9.7869997 3.5929999 -0.49900001
9.8059998 3.6359999 -0.50099999
9.8269997 3.681 -0.50300002
9.8459997 3.7249999 -0.505
9.8409996 3.76 -0.505
9.8789997 3.812 -0.50800002
9.8889999 3.8529999 -0.509
9.9180002 3.902 -0.51200002
9.9219999 3.9419999 -0.51300001
9.9309998 3.983 -0.514
9.9460001 4.0279999 -0.51599997
9.9519997 4.0689998 -0.51700002
9.9770002 4.1170001 -0.51999998
9.9750004 4.1560001 -0.51999998
10.011 4.21 -0.523
10.061 4.27 -0.52700001
10.074 4.316 -0.52899998
10.081 4.3579998 -0.52999997
10.116 4.414 -0.53299999
10.126 4.4590001 -0.53399998
10.136 4.5040002 -0.53600001
10.183 4.5650001 -0.53899997
10.192 4.6110001 -0.54100001
10.195 4.6529999 -0.542
10.223 4.7080002 -0.54500002
10.233 4.7540002 -0.546
10.273 4.8150001 -0.54900002
10.301 4.8699999 -0.55199999
10.333 4.928 -0.55500001
10.357 4.9819999 -0.55699998
10.371 5.0320001 -0.55900002
10.383 5.0809999 -0.56099999
10.401 5.1329999 -0.56300002
10.436 5.1950002 -0.56599998
10.443 5.2420001 -0.56699997
10.461 5.2950001 -0.56999999
10.485 5.3520002 -0.57200003
10.494 5.401 -0.574
10.504 5.4520001 -0.57499999
10.52 5.5050001 -0.57700002
10.533 5.5570002 -0.579
10.55 5.612 -0.58200002
10.548 5.6570001 -0.583
10.542 5.6989999 -0.58399999
10.557 5.7529998 -0.58600003
10.58 5.8130002 -0.588
10.59 5.8639998 -0.58999997
10.6 5.9169998 -0.59200001
10.615 5.9720001 -0.59399998
10.631 6.0289998 -0.59600002
10.664 6.0949998 -0.59899998
10.672 6.1469998 -0.60100001
10.728 6.2270002 -0.60500002
10.69 6.2529998 -0.60399997
10.681 6.296 -0.60500002
10.696 6.3540001 -0.60699999
10.719 6.4159999 -0.61000001
10.733 6.474 -0.61199999
10.758 6.5380001 -0.61500001
10.759 6.5879998 -0.616
10.766 6.6420002 -0.61799997
10.772 6.6950002 -0.62
10.773 6.7459998 -0.62099999
10.751 6.7820001 -0.62099999
10.773 6.8470001 -0.62400001
10.78 6.901 -0.62599999
10.775 6.9489999 -0.62699997
10.779 7.0019999 -0.62900001
10.773 7.0500002 -0.63
10.755 7.0890002 -0.63
10.76 7.1430001 -0.63200003
10.754 7.1900001 -0.63300002
10.742 7.2340002 -0.634
10.746 7.2880001 -0.63499999
10.725 7.3249998 -0.63599998
10.735 7.3839998 -0.63800001
10.735 7.4359999 -0.639
10.715 7.4749999 -0.63999999
10.714 7.526 -0.64099997
10.689 7.5609999 -0.64099997
10.681 7.6069999 -0.64200002
10.666 7.6490002 -0.64300001
10.622 7.6700001 -0.64200002
6.0089998 -3.9760001 -0.18099999
6.0539999 -3.9679999 -0.182
6.079 -3.9460001 -0.183
6.0890002 -3.915 -0.183
6.118 -3.8959999 -0.183
6.118 -3.858 -0.183
6.1589999 -3.8469999 -0.184
6.1820002 -3.8239999 -0.184
6.1919999 -3.7939999 -0.184
6.2090001 -3.767 -0.185
6.2249999 -3.74 -0.185
6.2459998 -3.717 -0.185
6.2690001 -3.6949999 -0.186
6.277 -3.664 -0.186
6.3000002 -3.642 -0.186
6.2930002 -3.6029999 -0.186
6.3169999 -3.582 -0.186
6.3429999 -3.5610001 -0.18700001
6.3600001 -3.536 -0.18700001
6.3979998 -3.523 -0.18799999
6.4070001 -3.494 -0.18799999
6.4349999 -3.4749999 -0.189
6.4489999 -3.448 -0.189
6.4629998 -3.4219999 -0.189
6.48 -3.398 -0.189
6.4980001 -3.3740001 -0.19
6.5219998 -3.3529999 -0.19
6.5469999 -3.3329999 -0.191
6.5609999 -3.3069999 -0.191
6.5679998 -3.2780001 -0.191
6.586 -3.2539999 -0.191
6.6129999 -3.2349999 -0.192
6.625 -3.2090001 -0.192
6.645 -3.187 -0.192
6.6570001 -3.161 -0.192
6.6810002 -3.141 -0.193
6.6929998 -3.115 -0.193
6.7049999 -3.089 -0.193
6.7249999 -3.0669999 -0.19400001
6.7389998 -3.0420001 -0.19400001
6.7610002 -3.0220001 -0.19400001
6.7789998 -2.9990001 -0.19499999
6.796 -2.9760001 -0.19499999
6.809 -2.951 -0.19499999
6.8280001 -2.9289999 -0.19499999
6.848 -2.908 -0.19599999
6.8660002 -2.8859999 -0.19599999
6.8769999 -2.8599999 -0.19599999
6.8870001 -2.835 -0.19599999
6.901 -2.8110001 -0.197
6.9219999 -2.7909999 -0.197
6.9520001 -2.773 -0.198
6.961 -2.7479999 -0.198
6.9710002 -2.723 -0.198
6.994 -2.7030001 -0.198
7.0100002 -2.681 -0.199
7.013 -2.654 -0.199
7.027 -2.6300001 -0.199
7.0580001 -2.6140001 -0.2
7.0890002 -2.5969999 -0.2
7.0949998 -2.5710001 -0.2
7.112 -2.55 -0.20100001
7.1240001 -2.526 -0.20100001
7.1420002 -2.5050001 -0.20100001
7.1529999 -2.4809999 -0.20100001
7.1849999 -2.4649999 -0.20200001
7.2010002 -2.4430001 -0.20200001
7.21 -2.4189999 -0.20200001
7.2319999 -2.4000001 -0.20299999
7.25 -2.3789999 -0.20299999
7.2750001 -2.3599999 -0.204
7.276 -2.3340001 -0.204
7.2919998 -2.312 -0.204
7.3130002 -2.293 -0.204
7.3410001 -2.2750001 -0.205
7.3449998 -2.25 -0.205
7.375 -2.233 -0.206
7.4029999 -2.2160001 -0.206
7.4089999 -2.1919999 -0.206
7.4320002 -2.1730001 -0.207
7.4530001 -2.1530001 -0.207
7.4790001 -2.135 -0.208
7.4879999 -2.112 -0.208
7.5120001 -2.0940001 -0.208
7.52 -2.0699999 -0.208
7.54 -2.0510001 -0.20900001
7.559 -2.0309999 -0.20900001
7.573 -2.01 -0.20900001
7.5929999 -1.99 -0.20999999
7.612 -1.97 -0.20999999
7.6399999 -1.9529999 -0.211
7.6729999 -1.937 -0.212
7.678 -1.914 -0.212
7.698 -1.8940001 -0.212
7.7199998 -1.875 -0.212
7.73 -1.854 -0.213
7.743 -1.8329999 -0.213
7.7410002 -1.808 -0.213
7.7589998 -1.789 -0.213
7.7870002 -1.771 -0.214
7.8119998 -1.7539999 -0.214
7.8239999 -1.733 -0.214
7.8340001 -1.711 -0.215
7.8540001 -1.693 -0.215
7.8610001 -1.671 -0.215
7.8839998 -1.653 -0.21600001
7.8979998 -1.632 -0.21600001
7.9219999 -1.614 -0.21600001
7.9330001 -1.594 -0.21600001
7.9629998 -1.577 -0.21699999
7.9699998 -1.556 -0.21699999
7.9749999 -1.534 -0.21699999
8.0059996 -1.518 -0.21799999
8.0120001 -1.497 -0.21799999
8.0570002 -1.483 -0.219
8.0469999 -1.459 -0.219
8.0509996 -1.438 -0.219
8.0690002 -1.419 -0.219
8.0939999 -1.401 -0.22
8.0979996 -1.38 -0.22
8.1219997 -1.363 -0.22
8.1479998 -1.346 -0.221
8.1610003 -1.326 -0.221
8.1680002 -1.306 -0.221
8.1829996 -1.2869999 -0.221
8.21 -1.27 -0.222
8.2130003 -1.25 -0.222
8.2449999 -1.233 -0.223
8.2679996 -1.216 -0.223
8.2779999 -1.197 -0.223
8.3039999 -1.1799999 -0.22400001
8.3129997 -1.16 -0.22400001
8.323 -1.141 -0.22400001
8.3459997 -1.124 -0.22499999
8.3640003 -1.1059999 -0.22499999
8.3660002 -1.086 -0.22499999
8.4040003 -1.071 -0.226
8.3999996 -1.05 -0.226
8.4239998 -1.033 -0.226
8.448 -1.016 -0.227
8.4560003 -0.99699998 -0.227
8.46 -0.97799999 -0.227
8.4680004 -0.95999998 -0.227
8.4919996 -0.94300002 -0.228
8.4989996 -0.92400002 -0.228
8.5319996 -0.90799999 -0.229
8.5459995 -0.89099997 -0.229
8.5500002 -0.87199998 -0.229
8.5670004 -0.85500002 -0.229
8.5810003 -0.83700001 -0.23
8.5830002 -0.81900001 -0.23
8.6049995 -0.80199999 -0.23
8.6169996 -0.78399998 -0.23
8.6309996 -0.76700002 -0.23100001
8.6479998 -0.75 -0.23100001
8.6700001 -0.73400003 -0.23100001
8.6800003 -0.71600002 -0.23199999
8.6660004 -0.69700003 -0.23100001
8.7040005 -0.68199998 -0.23199999
8.7089996 -0.66500002 -0.23199999
8.7419996 -0.64899999 -0.233
8.7469997 -0.63200003 -0.233
8.7729998 -0.616 -0.234
8.7950001 -0.60000002 -0.234
8.7889996 -0.58200002 -0.234
8.8199997 -0.56699997 -0.235
8.8549995 -0.55199999 -0.236
8.8649998 -0.53500003 -0.236
8.8649998 -0.51800001 -0.236
8.8660002 -0.50099999 -0.236
8.8669996 -0.484 -0.236
8.9189997 -0.47 -0.237
8.9049997 -0.45300001 -0.236
8.9420004 -0.43799999 -0.237
8.9630003 -0.42199999 -0.23800001
8.9709997 -0.40599999 -0.23800001
9.0439997 -0.39300001 -0.23999999
9.0080004 -0.375 -0.23899999
9.0299997 -0.36000001 -0.23899999
9.0389996 -0.34400001 -0.23999999
9.0459995 -0.329 -0.23999999
9.1190004 -0.315 -0.242
9.1809998 -0.301 -0.243
9.2629995 -0.28799999 -0.245
8.677 0.1 -0.361
8.7110004 0.117 -0.36300001
8.7110004 0.133 -0.36300001
8.7460003 0.15000001 -0.36399999
8.7250004 0.16599999 -0.36399999
8.7449999 0.183 -0.36500001
8.7370005 0.199 -0.36500001
8.7360001 0.21600001 -0.36500001
8.7360001 0.233 -0.36500001
8.7460003 0.25099999 -0.36500001
8.7489996 0.26899999 -0.366
8.7690001 0.287 -0.36700001
8.7620001 0.30500001 -0.36700001
8.7749996 0.324 -0.36700001
8.7799997 0.34200001 -0.368
8.7729998 0.36000001 -0.368
8.7729998 0.37900001 -0.368
8.7799997 0.398 -0.36899999
8.7849998 0.417 -0.36899999
8.7819996 0.43599999 -0.36899999
8.7860003 0.456 -0.36899999
8.8009996 0.47600001 -0.37
8.7849998 0.495 -0.37
8.7930002 0.51499999 -0.37
8.8179998 0.537 -0.37200001
8.8170004 0.55699998 -0.37200001
8.8299999 0.57800001 -0.373
8.8280001 0.59899998 -0.373
8.8339996 0.62 -0.37400001
8.8590002 0.64300001 -0.375
8.8640003 0.66399997 -0.375
8.8699999 0.68599999 -0.37599999
8.8889999 0.70899999 -0.377
8.8929996 0.73100001 -0.377
8.9049997 0.75400001 -0.37799999
8.9029999 0.77600002 -0.37799999
8.9219999 0.79900002 -0.38
8.9160004 0.82099998 -0.38
8.9250002 0.84500003 -0.38
8.9689999 0.87199998 -0.38299999
8.9809999 0.89600003 -0.38299999
8.9910002 0.92000002 -0.384
8.9890003 0.94300002 -0.384
9.0129995 0.96899998 -0.38600001
8.9980001 0.991 -0.38499999
9.0349998 1.018 -0.38699999
9.0319996 1.0420001 -0.38800001
9.0430002 1.067 -0.38800001
9.0679998 1.095 -0.38999999
9.0640001 1.118 -0.38999999
9.085 1.146 -0.391
9.1000004 1.1720001 -0.39199999
9.1009998 1.197 -0.39300001
9.1330004 1.227 -0.39500001
9.1429996 1.253 -0.39500001
9.1470003 1.279 -0.396
9.1630001 1.307 -0.39700001
9.1689997 1.334 -0.398
9.1780005 1.3609999 -0.39899999
9.1929998 1.3890001 -0.40000001
9.21 1.418 -0.40099999
9.2279997 1.447 -0.40200001
9.2609997 1.479 -0.40400001
9.2709999 1.507 -0.405
9.2790003 1.535 -0.40599999
9.2889996 1.564 -0.40599999
9.2980003 1.5930001 -0.40700001
9.3059998 1.622 -0.40799999
9.3149996 1.651 -0.40900001
9.3109999 1.677 -0.40900001
9.3319998 1.709 -0.41100001
9.3540001 1.7410001 -0.412
9.3690004 1.772 -0.41299999
9.3710003 1.801 -0.414
9.4040003 1.835 -0.41600001
9.4130001 1.8660001 -0.417
9.4280005 1.897 -0.41800001
9.4420004 1.929 -0.419
9.4370003 1.957 -0.419
9.4569998 1.99 -0.421
9.4659996 2.0220001 -0.42199999
9.4709997 2.052 -0.42199999
9.493 2.086 -0.42399999
9.4980001 2.1170001 -0.42500001
9.5139999 2.151 -0.426
9.5279999 2.184 -0.42699999
9.5270004 2.214 -0.428
9.5360003 2.2460001 -0.42899999
9.5469999 2.279 -0.43000001
9.566 2.3139999 -0.43099999
9.559 2.3429999 -0.43099999
9.5710001 2.3770001 -0.433
9.5760002 2.4089999 -0.433
9.5950003 2.4449999 -0.435
9.6219997 2.483 -0.43700001
9.6210003 2.5139999 -0.43700001
9.6529999 2.5539999 -0.43900001
9.6660004 2.589 -0.44
9.6569996 2.619 -0.44100001
9.6750002 2.655 -0.442
9.6669998 2.6849999 -0.442
9.684 2.7219999 -0.44400001
9.6879997 2.7550001 -0.44499999
9.7060003 2.793 -0.44600001
9.6990004 2.823 -0.44600001
9.7209997 2.862 -0.44800001
9.7049999 2.8900001 -0.44800001
9.717 2.927 -0.449
9.7530003 2.97 -0.45199999
9.7550001 3.0039999 -0.45199999
9.7779999 3.0439999 -0.454
9.776 3.0769999 -0.45500001
9.8070002 3.1199999 -0.45699999
9.7969999 3.1500001 -0.45699999
9.8070002 3.187 -0.458
9.7950001 3.217 -0.458
9.8050003 3.2539999 -0.45899999
9.8059998 3.2880001 -0.46000001
9.8120003 3.3239999 -0.461
9.8500004 3.3710001 -0.46399999
9.8479996 3.405 -0.46399999
9.8610001 3.4430001 -0.46599999
9.8690004 3.4809999 -0.46700001
9.8859997 3.5209999 -0.46799999
9.9090004 3.5639999 -0.47
9.9160004 3.6010001 -0.47099999
9.9300003 3.641 -0.47299999
9.9569998 3.6860001 -0.47499999
9.9650002 3.7249999 -0.47600001
9.9720001 3.7620001 -0.477
9.9849997 3.803 -0.479
10.006 3.846 -0.47999999
10.026 3.8889999 -0.48199999
10.066 3.941 -0.48500001
10.062 3.9749999 -0.48500001
10.059 4.0100002 -0.486
10.072 4.0510001 -0.48800001
10.09 4.0939999 -0.48899999
10.103 4.1360002 -0.491
10.134 4.1849999 -0.493
10.146 4.2259998 -0.49399999
10.165 4.2709999 -0.49599999
10.188 4.3169999 -0.498
10.213 4.3649998 -0.5
10.237 4.4120002 -0.50199997
10.269 4.4629998 -0.505
10.278 4.5040002 -0.50599998
10.306 4.553 -0.50800002
10.332 4.6020002 -0.51099998
10.357 4.651 -0.51300001
10.367 4.6929998 -0.514
10.383 4.7379999 -0.51599997
10.394 4.7810001 -0.51700002
10.423 4.8319998 -0.51999998
10.457 4.8860002 -0.52200001
10.467 4.9289999 -0.52399999
10.501 4.9829998 -0.52600002
10.522 5.0320001 -0.528
10.518 5.0679998 -0.52899998
10.551 5.1230001 -0.53200001
10.589 5.1799998 -0.53500003
10.609 5.2280002 -0.537
10.626 5.276 -0.53899997
10.639 5.3210001 -0.54000002
10.672 5.3769999 -0.54299998
10.688 5.4239998 -0.54500002
10.699 5.4689999 -0.546
10.716 5.5170002 -0.54799998
10.729 5.5630002 -0.55000001
10.739 5.6069999 -0.551
10.742 5.6479998 -0.55299997
10.761 5.697 -0.55500001
10.775 5.744 -0.55599999
10.805 5.7989998 -0.55900002
10.836 5.855 -0.56199998
10.845 5.9000001 -0.56300002
10.84 5.9369998 -0.56400001
10.863 5.9889998 -0.56599998
10.88 6.0380001 -0.56800002
10.903 6.0900002 -0.57099998
10.916 6.138 -0.57200003
10.928 6.184 -0.574
10.985 6.256 -0.57800001
11.006 6.3080001 -0.57999998
11.013 6.3520002 -0.58200002
11.026 6.3990002 -0.58399999
11.019 6.4349999 -0.58399999
11.031 6.4819999 -0.58600003
11.034 6.5229998 -0.588
11.06 6.579 -0.58999997
11.073 6.6259999 -0.59200001
11.091 6.6760001 -0.59399998
11.074 6.7059999 -0.59399998
11.056 6.7340002 -0.59399998
11.067 6.7800002 -0.59600002
11.089 6.8330002 -0.59899998
11.084 6.8699999 -0.59899998
11.099 6.9180002 -0.60100001
11.13 6.9759998 -0.60399997
11.128 7.0149999 -0.60500002
11.18 7.0869999 -0.60900003
11.18 7.1259999 -0.611
6.4660001 -3.783 -0.175
6.461 -3.7620001 -0.175
6.4629998 -3.7460001 -0.175
6.4710002 -3.7320001 -0.175
6.4819999 -3.72 -0.175
6.4860001 -3.704 -0.176
6.5 -3.694 -0.176
6.5100002 -3.681 -0.176
6.5159998 -3.6659999 -0.176
6.5370002 -3.6589999 -0.176
6.5310001 -3.638 -0.176
6.539 -3.6240001 -0.176
6.5599999 -3.6170001 -0.177
6.5669999 -3.602 -0.177
6.5760002 -3.589 -0.177
6.5700002 -3.5669999 -0.177
6.5780001 -3.553 -0.177
6.5780001 -3.5339999 -0.177
6.6139998 -3.5350001 -0.178
6.619 -3.5190001 -0.178
6.6290002 -3.5050001 -0.178
6.6350002 -3.49 -0.178
6.6399999 -3.473 -0.178
6.6529999 -3.461 -0.178
6.6750002 -3.4530001 -0.17900001
6.6739998 -3.434 -0.17900001
6.6820002 -3.4189999 -0.17900001
6.6999998 -3.4089999 -0.17900001
6.7049999 -3.3929999 -0.17900001
6.7189999 -3.381 -0.17900001
6.7179999 -3.3610001 -0.17900001
6.7259998 -3.346 -0.17900001
6.743 -3.335 -0.18000001
6.7480001 -3.319 -0.18000001
6.756 -3.303 -0.18000001
6.7690001 -3.29 -0.18000001
6.777 -3.2750001 -0.18000001
6.7880001 -3.26 -0.18000001
6.7859998 -3.24 -0.18000001
6.7940001 -3.224 -0.18000001
6.8130002 -3.214 -0.18099999
6.822 -3.1989999 -0.18099999
6.842 -3.188 -0.18099999
6.849 -3.1719999 -0.18099999
6.8509998 -3.154 -0.18099999
6.8660002 -3.141 -0.182
6.8730001 -3.1240001 -0.182
6.8860002 -3.1110001 -0.182
6.9000001 -3.0969999 -0.182
6.901 -3.0780001 -0.182
6.915 -3.0639999 -0.182
6.921 -3.0469999 -0.182
6.928 -3.03 -0.182
6.9439998 -3.017 -0.183
6.9369998 -2.994 -0.182
6.9569998 -2.983 -0.183
6.9720001 -2.9690001 -0.183
6.9920001 -2.9579999 -0.184
6.9860001 -2.9349999 -0.183
6.9850001 -2.915 -0.183
7.006 -2.904 -0.184
7.0209999 -2.8889999 -0.184
7.0170002 -2.868 -0.184
7.0349998 -2.855 -0.184
7.0349998 -2.8340001 -0.184
7.0549998 -2.823 -0.184
7.0679998 -2.8069999 -0.184
7.0819998 -2.793 -0.185
7.0900002 -2.7750001 -0.185
7.0939999 -2.757 -0.185
7.1100001 -2.7420001 -0.185
7.1240001 -2.727 -0.185
7.1230001 -2.707 -0.185
7.1300001 -2.6889999 -0.185
7.1469998 -2.675 -0.186
7.151 -2.6559999 -0.186
7.1609998 -2.6389999 -0.186
7.171 -2.622 -0.186
7.1849999 -2.6059999 -0.186
7.197 -2.5899999 -0.186
7.204 -2.572 -0.186
7.2140002 -2.5550001 -0.18700001
7.223 -2.5369999 -0.18700001
7.23 -2.5190001 -0.18700001
7.2480001 -2.5039999 -0.18700001
7.263 -2.4890001 -0.18700001
7.283 -2.4749999 -0.18799999
7.2919998 -2.457 -0.18799999
7.3010001 -2.4389999 -0.18799999
7.3150001 -2.4230001 -0.18799999
7.322 -2.404 -0.18799999
7.3390002 -2.3889999 -0.189
7.369 -2.3770001 -0.189
7.375 -2.358 -0.189
7.3800001 -2.339 -0.189
7.401 -2.3239999 -0.19
7.415 -2.3069999 -0.19
7.4050002 -2.283 -0.19
7.4169998 -2.2650001 -0.19
7.4359999 -2.25 -0.19
7.4429998 -2.2309999 -0.19
7.4460001 -2.21 -0.19
7.4679999 -2.1949999 -0.191
7.4819999 -2.178 -0.191
7.5 -2.1619999 -0.191
7.506 -2.142 -0.191
7.526 -2.1259999 -0.192
7.546 -2.1099999 -0.192
7.552 -2.0899999 -0.192
7.5630002 -2.072 -0.192
7.5830002 -2.056 -0.193
7.566 -2.029 -0.192
7.6020002 -2.017 -0.193
7.6199999 -2 -0.193
7.6399999 -1.984 -0.19400001
7.658 -1.967 -0.19400001
7.665 -1.946 -0.19400001
7.6830001 -1.929 -0.19400001
7.6869998 -1.908 -0.19400001
7.7129998 -1.893 -0.19499999
7.7329998 -1.875 -0.19499999
7.7519999 -1.858 -0.19499999
7.763 -1.839 -0.19599999
7.776 -1.819 -0.19599999
7.7849998 -1.799 -0.19599999
7.7930002 -1.779 -0.19599999
7.8260002 -1.7640001 -0.197
7.8189998 -1.74 -0.19599999
7.8499999 -1.725 -0.197
7.8639998 -1.706 -0.197
7.8800001 -1.687 -0.198
7.888 -1.666 -0.198
7.9029999 -1.647 -0.198
7.941 -1.632 -0.199
7.9499998 -1.6109999 -0.199
7.9720001 -1.5930001 -0.199
7.9840002 -1.572 -0.199
8.0019999 -1.553 -0.2
8.0190001 -1.534 -0.2
8.0369997 -1.515 -0.2
8.0550003 -1.495 -0.20100001
8.0600004 -1.473 -0.20100001
8.085 -1.455 -0.20100001
8.1099997 -1.436 -0.20200001
8.1190004 -1.415 -0.20200001
8.1309996 -1.3940001 -0.20200001
8.1569996 -1.375 -0.20200001
8.1520004 -1.351 -0.20200001
8.2139997 -1.3380001 -0.204
8.2270002 -1.317 -0.204
8.257 -1.298 -0.204
8.2600002 -1.275 -0.204
8.2849998 -1.255 -0.205
8.3030005 -1.235 -0.205
8.3459997 -1.217 -0.206
8.3809996 -1.199 -0.207
8.3909998 -1.176 -0.207
8.4139996 -1.156 -0.207
8.4329996 -1.1339999 -0.208
8.4569998 -1.114 -0.208
8.4809999 -1.0930001 -0.208
8.5039997 -1.072 -0.20900001
8.5080004 -1.048 -0.20900001
8.5249996 -1.026 -0.20900001
8.5480003 -1.005 -0.20999999
8.5810003 -0.98400003 -0.20999999
8.6120005 -0.963 -0.211
8.6409998 -0.94199997 -0.211
8.6739998 -0.921 -0.212
8.691 -0.898 -0.212
8.6929998 -0.87400001 -0.212
8.7049999 -0.85100001 -0.212
8.743 -0.829 -0.213
8.7720003 -0.80699998 -0.214
8.7989998 -0.78500003 -0.214
8.8249998 -0.76200002 -0.215
8.8500004 -0.74000001 -0.215
8.8950005 -0.71799999 -0.21600001
8.941 -0.69700003 -0.21699999
8.9560003 -0.67199999 -0.21699999
8.9569998 -0.64700001 -0.21699999
8.9610004 -0.62199998 -0.21699999
9.0089998 -0.60000002 -0.21799999
9.0609999 -0.57800001 -0.219
9.0799999 -0.55299997 -0.22
9.1090002 -0.52899998 -0.22
9.1160002 -0.50400001 -0.22
9.1630001 -0.48100001 -0.221
9.2139997 -0.45699999 -0.222
9.2309999 -0.43200001 -0.223
9.323 -0.41 -0.22499999
9.1020002 0.123 -0.35499999
9.1079998 0.133 -0.35600001
9.1759996 0.145 -0.35800001
9.0939999 0.155 -0.35499999
9.0649996 0.16599999 -0.354
9.0939999 0.178 -0.35499999
9.0979996 0.189 -0.35600001
9.0240002 0.2 -0.35299999
9.0640001 0.213 -0.35499999
9.0360003 0.22400001 -0.354
9.0229998 0.236 -0.35299999
9.0109997 0.249 -0.35299999
8.9960003 0.26100001 -0.352
8.9919996 0.27399999 -0.352
9.0019999 0.287 -0.35299999
9.0220003 0.30199999 -0.354
9.0129995 0.315 -0.354
9.0150003 0.329 -0.354
9.0059996 0.34299999 -0.354
8.9779997 0.35600001 -0.35299999
8.9919996 0.37099999 -0.35299999
8.9829998 0.38499999 -0.35299999
8.9910002 0.40000001 -0.354
8.9750004 0.41499999 -0.35299999
8.9890003 0.43099999 -0.354
8.9949999 0.447 -0.35499999
9.0010004 0.46200001 -0.35499999
9.0139999 0.479 -0.35600001
8.9989996 0.49399999 -0.35499999
8.9949999 0.50999999 -0.35499999
9.0109997 0.528 -0.35600001
9.0170002 0.54500002 -0.35699999
9.0369997 0.56300002 -0.35800001
9.0179996 0.579 -0.35699999
9.0200005 0.59600002 -0.35800001
9.0469999 0.616 -0.359
9.0439997 0.63300002 -0.359
9.0579996 0.65200001 -0.36000001
9.0419998 0.66900003 -0.359
9.0419998 0.68699998 -0.36000001
9.0679998 0.70700002 -0.361
9.0780001 0.727 -0.36199999
9.1049995 0.74800003 -0.36300001
9.0880003 0.76599997 -0.36300001
9.0880003 0.78500003 -0.36300001
9.1140003 0.80699998 -0.36399999
9.1389999 0.829 -0.366
9.1370001 0.84799999 -0.366
9.1479998 0.86900002 -0.36700001
9.1459999 0.889 -0.36700001
9.158 0.91100001 -0.368
9.1719999 0.93300003 -0.368
9.1669998 0.95300001 -0.36899999
9.1780005 0.97600001 -0.36899999
9.1859999 0.99800003 -0.37
9.1739998 1.018 -0.37
9.1929998 1.0420001 -0.37099999
9.2110004 1.0650001 -0.37200001
9.2209997 1.089 -0.373
9.2320004 1.112 -0.37400001
9.2290001 1.1339999 -0.37400001
9.2399998 1.158 -0.375
9.2659998 1.184 -0.37599999
9.2749996 1.2079999 -0.377
9.2779999 1.232 -0.377
9.2810001 1.255 -0.37799999
9.2989998 1.281 -0.37900001
9.316 1.307 -0.38
9.3260002 1.3329999 -0.38100001
9.3360004 1.358 -0.382
9.3459997 1.3839999 -0.38299999
9.3620005 1.411 -0.384
9.3859997 1.439 -0.38499999
9.3999996 1.466 -0.38600001
9.4200001 1.495 -0.38699999
9.4219999 1.52 -0.38800001
9.4280005 1.5470001 -0.389
9.4540005 1.577 -0.38999999
9.4619999 1.604 -0.391
9.4549999 1.6289999 -0.391
9.4540005 1.655 -0.391
9.4779997 1.686 -0.39300001
