# .PCD v0.7 - Point Cloud Data file format
VERSION 0.7
FIELDS x y z
SIZE 4 4 4
TYPE F F F
COUNT 1 1 1
WIDTH 1936
HEIGHT 1
VIEWPOINT 0 0 0 1 0 0 0
POINTS 1936
DATA ascii
9.1639996 -2.78 0.108
9.2030001 -2.7650001 0.108
9.2320004 -2.747 0.109
9.276 -2.734 0.109
9.2740002 -2.7060001 0.109
9.3070002 -2.6889999 0.11
9.3210001 -2.6659999 0.11
9.3299999 -2.642 0.11
9.3599997 -2.6240001 0.111
9.3850002 -2.6040001 0.111
9.3979998 -2.5799999 0.111
9.4219999 -2.5599999 0.111
9.4460001 -2.539 0.112
9.4700003 -2.5179999 0.112
9.5030003 -2.4990001 0.112
9.5389996 -2.4820001 0.113
9.5979996 -2.4690001 0.114
9.5930004 -2.441 0.114
9.6070004 -2.4170001 0.114
9.6400003 -2.3970001 0.114
9.6389999 -2.369 0.114
9.7180004 -2.3610001 0.115
9.7220001 -2.3340001 0.115
9.7539997 -2.313 0.116
9.8100004 -2.2980001 0.117
9.8389997 -2.277 0.117
9.8520002 -2.2520001 0.117
9.8839998 -2.2309999 0.118
9.9090004 -2.2079999 0.118
9.9250002 -2.1830001 0.118
9.9519997 -2.1600001 0.119
9.9560003 -2.1329999 0.119
9.9989996 -2.1129999 0.119
10.023 -2.0899999 0.119
10.06 -2.0680001 0.12
10.095 -2.0469999 0.12
10.122 -2.023 0.121
10.14 -1.998 0.121
10.165 -1.974 0.121
10.207 -1.952 0.122
10.239 -1.929 0.122
10.273 -1.906 0.123
10.287 -1.88 0.123
10.298 -1.852 0.123
10.353 -1.832 0.124
10.391 -1.809 0.124
10.404 -1.7819999 0.125
10.425 -1.756 0.125
10.444 -1.729 0.125
10.433 -1.698 0.125
10.426 -1.6670001 0.125
10.466 -1.643 0.126
10.471 -1.614 0.126
10.511 -1.59 0.126
10.513 -1.5599999 0.126
10.559 -1.5369999 0.127
10.634 -1.518 0.12800001
10.767 -1.506 0.12899999
10.813 -1.4809999 0.13
10.826 -1.452 0.13
10.862 -1.426 0.131
10.891 -1.399 0.131
10.927 -1.372 0.132
10.955 -1.345 0.132
10.994 -1.318 0.132
11.064 -1.295 0.133
11.067 -1.2640001 0.133
11.095 -1.235 0.134
11.167 -1.212 0.13500001
11.181 -1.181 0.13500001
11.216 -1.153 0.13500001
11.246 -1.124 0.13600001
11.296 -1.097 0.13600001
11.394 -1.074 0.138
11.44 -1.046 0.138
11.53 -1.021 0.139
11.545 -0.99000001 0.14
11.674 -0.96799999 0.141
11.673 -0.93400002 0.141
11.712 -0.90399998 0.142
12.224 0.375 0.014
12.212 0.39199999 0.013
12.2 0.40900001 0.013
12.19 0.42699999 0.013
12.194 0.44499999 0.013
12.215 0.46399999 0.013
12.158 0.48100001 0.013
12.154 0.5 0.012
12.15 0.51899999 0.012
12.152 0.53799999 0.012
12.206 0.56099999 0.012
12.163 0.579 0.012
12.185 0.60000002 0.011
12.179 0.62099999 0.011
12.184 0.64200002 0.011
12.188 0.66299999 0.011
12.202 0.68599999 0.011
12.2 0.70700002 0.011
12.209 0.73000002 0.0099999998
12.197 0.75099999 0.0099999998
12.208 0.77499998 0.0099999998
12.213 0.79799998 0.0099999998
12.233 0.82200003 0.0099999998
12.233 0.84600002 0.0089999996
12.232 0.86900002 0.0089999996
12.233 0.89300001 0.0089999996
12.237 0.91799998 0.0089999996
12.251 0.94300002 0.0089999996
12.258 0.96799999 0.0089999996
12.266 0.99400002 0.0080000004
12.273 1.02 0.0080000004
12.295 1.0470001 0.0080000004
12.289 1.072 0.0080000004
12.323 1.102 0.0080000004
12.329 1.128 0.0070000002
12.333 1.155 0.0070000002
12.363 1.1849999 0.0070000002
12.372 1.2130001 0.0070000002
12.373 1.2410001 0.0070000002
12.377 1.268 0.0070000002
12.377 1.296 0.0060000001
12.368 1.324 0.0060000001
12.417 1.357 0.0060000001
11.415 1.274 0.0049999999
11.288 1.286 0.0049999999
11.199 1.302 0.0049999999
11.152 1.323 0.0049999999
11.13 1.347 0.0040000002
11.134 1.374 0.0040000002
11.157 1.404 0.0040000002
11.198 1.437 0.0040000002
11.352 1.484 0.0040000002
12.531 1.67 0.0040000002
12.571 1.706 0.0040000002
12.612 1.743 0.0040000002
12.604 1.774 0.003
12.629 1.8099999 0.003
12.611 1.84 0.003
11.509 1.709 0.003
11.321 1.71 0.0020000001
11.242 1.728 0.0020000001
11.21 1.752 0.0020000001
11.197 1.78 0.0020000001
11.217 1.813 0.0020000001
11.258 1.85 0.001
11.432 1.91 0.001
12.772 2.168 0.001
12.772 2.2030001 0.001
12.789 2.2409999 0.001
12.799 2.279 0.001
12.81 2.316 -0
12.812 2.3529999 -0
12.827 2.392 -0
12.846 2.4319999 -0
12.858 2.471 -0
12.856 2.507 -0
12.853 2.5439999 -0
12.884 2.5869999 -0
12.894 2.6270001 -0
7.7849998 1.609 -0
12.939 2.674 -0.001
7.5040002 1.573 -0
13.232 2.7739999 -0.001
7.408 1.575 -0
7.3870001 1.592 -0
7.3730001 1.612 -0.001
7.368 1.633 -0.001
7.3600001 1.653 -0.001
7.3639998 1.677 -0.001
7.382 1.704 -0.001
7.447 1.742 -0.001
7.5430002 1.7869999 -0.001
7.5339999 1.809 -0.0020000001
7.5170002 1.8279999 -0.0020000001
7.5110002 1.85 -0.0020000001
7.5229998 1.877 -0.0020000001
7.5289998 1.902 -0.0020000001
7.5609999 1.9349999 -0.0020000001
7.7080002 1.997 -0.0020000001
13.332 3.4549999 -0.0040000002
13.289 3.4860001 -0.0049999999
13.316 3.5369999 -0.0049999999
13.306 3.5769999 -0.0049999999
13.372 3.6389999 -0.0049999999
13.397 3.6900001 -0.0060000001
13.403 3.7360001 -0.0060000001
13.411 3.783 -0.0060000001
13.486 3.849 -0.0060000001
13.537 3.9089999 -0.0070000002
13.56 3.961 -0.0070000002
13.639 4.0300002 -0.0070000002
13.66 4.0830002 -0.0080000004
13.691 4.1389999 -0.0080000004
13.716 4.1929998 -0.0080000004
13.716 4.2399998 -0.0080000004
13.781 4.3080001 -0.0089999996
13.797 4.3610001 -0.0089999996
13.83 4.4200001 -0.0089999996
13.863 4.4790001 -0.0089999996
13.888 4.5359998 -0.0099999998
13.897 4.5879998 -0.0099999998
13.93 4.6490002 -0.0099999998
14.018 4.7280002 -0.011
14.044 4.7870002 -0.011
14.072 4.8470001 -0.011
14.126 4.9169998 -0.011
14.142 4.974 -0.012
14.208 5.0489998 -0.012
14.257 5.118 -0.012
14.39 5.2189999 -0.013
14.441 5.29 -0.013
14.473 5.3559999 -0.013
14.583 5.4510002 -0.014
14.62 5.5190001 -0.014
14.61 5.5700002 -0.014
14.683 5.6529999 -0.015
14.636 5.691 -0.015
14.704 5.7729998 -0.015
14.723 5.836 -0.016000001
14.728 5.895 -0.016000001
14.761 5.9650002 -0.016000001
14.847 6.0560002 -0.017000001
14.875 6.1259999 -0.017000001
14.828 6.164 -0.017000001
14.746 6.1869998 -0.017000001
14.75 6.2470002 -0.017999999
12.333 5.9699998 -0.017999999
12.275 5.993 -0.018999999
12.185 6 -0.018999999
12.148 6.033 -0.018999999
12.216 6.118 -0.018999999
12.175 6.1490002 -0.02
12.235 6.2309999 -0.02
12.12 6.224 -0.02
12.152 6.2919998 -0.02
12.245 6.3930001 -0.021
12.099 6.368 -0.021
12.058 6.3990002 -0.021
12.094 6.4710002 -0.021
12.129 6.5419998 -0.022
12.136 6.599 -0.022
12.156 6.6630001 -0.022
10.662 6.2709999 -0.021
10.479 6.211 -0.021
10.41 6.217 -0.021
10.382 6.2470002 -0.022
10.391 6.3000002 -0.022
10.421 6.3660002 -0.022
10.505 6.4660001 -0.023
9.8380003 6.7519999 -0.024
9.7290001 6.7249999 -0.024
9.6829996 6.7399998 -0.025
9.6429996 6.7589998 -0.025
9.6599998 6.8179998 -0.025
9.6949997 6.8899999 -0.025
9.743 6.9720001 -0.026000001
9.7480001 7.0229998 -0.026000001
7.3600001 -4.849 0.101
7.3959999 -4.8270001 0.102
7.4099998 -4.79 0.102
7.448 -4.7680001 0.102
7.4699998 -4.737 0.103
7.5019999 -4.7119999 0.103
7.5279999 -4.6830001 0.104
7.5549998 -4.6550002 0.104
7.573 -4.6209998 0.104
7.6009998 -4.5929999 0.104
7.6149998 -4.5580001 0.105
7.6389999 -4.5289998 0.105
7.6570001 -4.4959998 0.105
7.6739998 -4.4619999 0.105
7.6900001 -4.428 0.106
7.7319999 -4.4099998 0.106
7.7579999 -4.382 0.106
7.763 -4.3429999 0.107
7.7870002 -4.3140001 0.107
7.809 -4.2849998 0.107
7.8239999 -4.2509999 0.107
7.8629999 -4.2309999 0.108
7.8610001 -4.1890001 0.108
7.862 -4.1490002 0.108
7.915 -4.1360002 0.108
7.9429998 -4.1100001 0.109
7.9590001 -4.0780001 0.109
7.9759998 -4.0469999 0.109
8.0129995 -4.026 0.11
8.0209999 -3.99 0.11
8.0550003 -3.9679999 0.11
8.0760002 -3.9389999 0.111
8.1000004 -3.911 0.111
8.1149998 -3.8800001 0.111
8.1560001 -3.8610001 0.112
8.1800003 -3.8329999 0.112
8.1960001 -3.803 0.112
8.2250004 -3.7780001 0.113
8.2390003 -3.7460001 0.113
8.2679996 -3.7219999 0.113
8.2939997 -3.6960001 0.114
8.316 -3.6689999 0.114
8.3409996 -3.642 0.114
8.3739996 -3.6199999 0.115
8.3950005 -3.592 0.115
8.4169998 -3.5639999 0.115
8.4329996 -3.5350001 0.115
8.4549999 -3.507 0.116
8.4890003 -3.4849999 0.116
8.5319996 -3.467 0.117
8.5509996 -3.4389999 0.117
8.5719995 -3.411 0.117
8.5950003 -3.385 0.118
8.6160002 -3.3570001 0.118
8.6470003 -3.3340001 0.118
8.6590004 -3.303 0.119
8.6820002 -3.277 0.119
8.7209997 -3.257 0.119
8.7510004 -3.234 0.12
8.7989998 -3.217 0.121
8.8190002 -3.1889999 0.121
8.8179998 -3.155 0.121
8.8579998 -3.135 0.121
8.8970003 -3.1140001 0.122
8.9329996 -3.0929999 0.122
8.9519997 -3.0650001 0.123
8.9659996 -3.0369999 0.123
9.0249996 -3.023 0.124
9.0710001 -3.0039999 0.124
9.1190004 -2.987 0.125
9.1289997 -2.9560001 0.125
9.1800003 -2.9400001 0.126
9.2309999 -2.9230001 0.127
9.368 -2.9319999 0.12800001
9.3859997 -2.905 0.12899999
9.3479996 -2.8599999 0.12800001
9.382 -2.8369999 0.12899999
9.4209995 -2.816 0.12899999
9.4659996 -2.796 0.13
9.4870005 -2.77 0.13
9.5249996 -2.7479999 0.131
9.5570002 -2.7249999 0.131
9.5900002 -2.7019999 0.132
9.6049995 -2.674 0.132
9.6540003 -2.655 0.133
9.6800003 -2.6300001 0.133
9.743 -2.615 0.134
9.7749996 -2.592 0.134
9.7989998 -2.566 0.13500001
9.8439999 -2.546 0.13500001
9.882 -2.5239999 0.13600001
9.9189997 -2.5020001 0.13600001
9.9169998 -2.47 0.13600001
9.9390001 -2.444 0.13699999
9.9799995 -2.4230001 0.13699999
10.002 -2.398 0.138
10.03 -2.3729999 0.138
10.07 -2.352 0.139
10.059 -2.3180001 0.138
10.098 -2.2969999 0.139
10.145 -2.277 0.14
10.165 -2.2509999 0.14
10.21 -2.2309999 0.141
10.21 -2.2 0.141
10.261 -2.181 0.141
10.282 -2.1559999 0.142
10.303 -2.1300001 0.142
10.341 -2.108 0.14300001
10.379 -2.086 0.14300001
10.396 -2.0599999 0.14300001
10.443 -2.04 0.14399999
10.425 -2.007 0.14399999
10.483 -1.989 0.145
10.489 -1.961 0.145
10.537 -1.941 0.145
10.548 -1.914 0.146
10.584 -1.892 0.146
10.609 -1.868 0.147
10.628 -1.8430001 0.147
10.574 -1.8049999 0.146
10.51 -1.766 0.145
10.47 -1.732 0.145
10.477 -1.706 0.145
10.464 -1.676 0.145
10.471 -1.65 0.145
10.475 -1.624 0.145
10.48 -1.598 0.145
10.492 -1.573 0.145
10.509 -1.549 0.146
10.568 -1.5319999 0.146
10.705 -1.525 0.148
10.972 -1.536 0.152
11.011 -1.5140001 0.153
11.008 -1.487 0.153
11.04 -1.465 0.153
11.063 -1.441 0.153
11.082 -1.4170001 0.154
11.127 -1.396 0.154
11.13 -1.37 0.155
11.177 -1.35 0.155
11.225 -1.33 0.156
11.232 -1.304 0.156
11.27 -1.283 0.15700001
11.302 -1.261 0.15700001
11.335 -1.239 0.15800001
11.361 -1.216 0.15800001
11.404 -1.1950001 0.15899999
11.427 -1.1720001 0.15899999
11.459 -1.15 0.16
11.47 -1.126 0.16
11.497 -1.103 0.16
11.542 -1.0829999 0.161
11.583 -1.062 0.161
11.612 -1.04 0.162
11.651 -1.018 0.163
11.704 -0.99800003 0.163
11.76 -0.97799999 0.164
11.839 -0.96100003 0.16500001
11.942 -0.94400001 0.167
11.959 0.155 0.048
11.986 0.177 0.048
12.039 0.199 0.048
12.024 0.221 0.048
12.069 0.244 0.048
12.071 0.26699999 0.048
12.059 0.28999999 0.048
12.087 0.31400001 0.048
12.079 0.33700001 0.046999998
12.107 0.36199999 0.046999998
12.07 0.384 0.046999998
12.076 0.40900001 0.046999998
12.109 0.43399999 0.046999998
12.087 0.458 0.046
12.088 0.48300001 0.046
12.123 0.50999999 0.046
12.155 0.537 0.046
12.153 0.56300002 0.046
12.143 0.588 0.046
12.16 0.61500001 0.046
12.155 0.64200002 0.045000002
12.173 0.66900003 0.045000002
12.189 0.69700003 0.045000002
12.185 0.72399998 0.045000002
12.2 0.75300002 0.045000002
12.208 0.78100002 0.045000002
12.219 0.81 0.045000002
12.238 0.83899999 0.044
12.248 0.86900002 0.044
12.268 0.89899999 0.044
12.264 0.92699999 0.044
12.268 0.95700002 0.044
12.281 0.98699999 0.044
12.315 1.02 0.044
12.325 1.051 0.043000001
12.33 1.081 0.043000001
12.364 1.115 0.043000001
12.387 1.148 0.043000001
12.396 1.1799999 0.043000001
12.409 1.212 0.043000001
12.43 1.2460001 0.043000001
12.397 1.274 0.041999999
12.43 1.309 0.041999999
12.432 1.341 0.041999999
12.455 1.376 0.041999999
11.442 1.294 0.037999999
11.314 1.309 0.037999999
11.202 1.326 0.037
11.164 1.351 0.037
11.142 1.378 0.037
11.13 1.4069999 0.035999998
11.161 1.441 0.035999998
11.28 1.487 0.035999998
12.651 1.702 0.041000001
12.694 1.743 0.041000001
12.693 1.777 0.039999999
12.72 1.817 0.039999999
12.714 1.851 0.039999999
12.727 1.8890001 0.039999999
11.38 1.721 0.035
11.263 1.735 0.035
11.21 1.7589999 0.035
11.201 1.789 0.034000002
11.206 1.822 0.034000002
11.25 1.862 0.034000002
11.477 1.933 0.035
12.888 2.2079999 0.039000001
12.92 2.2509999 0.039000001
12.931 2.2909999 0.039000001
12.945 2.332 0.037999999
12.968 2.3740001 0.037999999
12.993 2.418 0.037999999
13.027 2.4630001 0.037999999
13.023 2.5009999 0.037999999
13.059 2.5469999 0.037999999
13.055 2.586 0.037
13.086 2.632 0.037
13.093 2.6730001 0.037
7.743 1.604 0.022
13.179 2.7309999 0.037
7.494 1.576 0.021
7.4130001 1.581 0.02
7.3699999 1.595 0.02
7.3720002 1.618 0.02
7.3460002 1.636 0.02
7.3610001 1.6619999 0.02
7.362 1.6849999 0.02
7.3839998 1.714 0.02
7.4809999 1.76 0.02
7.527 1.795 0.02
7.5219998 1.817 0.02
7.5139999 1.839 0.018999999
7.5110002 1.863 0.018999999
7.5170002 1.888 0.018999999
7.5580001 1.923 0.018999999
7.691 1.982 0.018999999
13.691 3.5280001 0.035
13.657 3.5639999 0.035
13.687 3.6159999 0.035
13.733 3.6730001 0.034000002
13.754 3.724 0.034000002
13.756 3.7690001 0.034000002
13.798 3.826 0.034000002
13.878 3.8940001 0.034000002
13.902 3.947 0.034000002
13.952 4.0079999 0.034000002
13.995 4.0669999 0.033
13.979 4.1090002 0.033
13.995 4.1599998 0.033
14.017 4.2140002 0.033
14.051 4.2709999 0.033
14.079 4.3270001 0.032000002
14.152 4.3969998 0.032000002
14.23 4.4699998 0.032000002
14.267 4.5300002 0.032000002
14.262 4.5770001 0.032000002
14.333 4.6490002 0.032000002
14.313 4.6919999 0.032000002
14.4 4.7690001 0.030999999
14.431 4.829 0.030999999
14.438 4.882 0.030999999
14.46 4.9390001 0.030999999
14.536 5.0149999 0.030999999
14.68 5.1160002 0.030999999
14.725 5.1830001 0.030999999
14.76 5.2459998 0.029999999
14.822 5.3200002 0.029999999
14.805 5.3660002 0.029999999
14.806 5.4180002 0.029999999
14.887 5.5 0.029999999
15.073 5.6220002 0.029999999
15.068 5.6729999 0.029999999
15.21 5.7800002 0.029999999
15.304 5.8699999 0.028999999
15.246 5.902 0.028999999
15.187 5.9330001 0.028999999
15.258 6.0149999 0.028999999
15.286 6.0799999 0.028000001
15.326 6.151 0.028000001
15.427 6.2459998 0.028000001
15.42 6.2989998 0.028000001
15.419 6.3530002 0.028000001
15.539 6.4590001 0.027000001
12.177 5.9879999 0.017000001
12.074 5.9819999 0.016000001
11.994 5.9860001 0.016000001
11.944 6.0050001 0.016000001
11.997 6.0749998 0.016000001
12.182 6.2129998 0.016000001
12.279 6.3080001 0.016000001
12.159 6.2909999 0.015
12.197 6.355 0.015
12.128 6.4070001 0.014
12.044 6.4070001 0.014
12.132 6.4980001 0.014
7.8959999 -4.6529999 0.126
7.908 -4.638 0.126
7.9180002 -4.6209998 0.126
7.928 -4.605 0.127
7.9419999 -4.5900002 0.127
7.9520001 -4.573 0.127
7.967 -4.559 0.127
7.9790001 -4.5440001 0.12800001
8 -4.5320001 0.12800001
7.9970002 -4.5079999 0.12800001
8.0139999 -4.4949999 0.12800001
8.0190001 -4.4749999 0.12800001
8.0340004 -4.46 0.12899999
8.0439997 -4.4429998 0.12899999
8.0640001 -4.4310002 0.12899999
8.0810003 -4.4169998 0.12899999
8.0780001 -4.3920002 0.12899999
8.0880003 -4.3740001 0.13
8.1090002 -4.362 0.13
8.1149998 -4.342 0.13
8.1440001 -4.3340001 0.131
8.1639996 -4.3210001 0.131
8.1689997 -4.3000002 0.131
8.1700001 -4.2779999 0.131
8.1949997 -4.2670002 0.132
8.1890001 -4.2399998 0.132
8.1990004 -4.2220001 0.132
8.2360001 -4.217 0.132
8.2580004 -4.204 0.133
8.2810001 -4.1919999 0.133
8.2799997 -4.1680002 0.133
8.2930002 -4.1500001 0.134
8.2849998 -4.1230001 0.133
8.3079996 -4.1100001 0.134
8.335 -4.099 0.134
8.3439999 -4.079 0.134
8.3649998 -4.0650001 0.13500001
8.3710003 -4.0440001 0.13500001
8.3859997 -4.027 0.13500001
8.3900003 -4.0050001 0.13500001
8.4069996 -3.9890001 0.13600001
8.4169998 -3.9690001 0.13600001
8.4569998 -3.9630001 0.13699999
8.4630003 -3.9419999 0.13699999
8.4750004 -3.9219999 0.13699999
8.4980001 -3.9089999 0.13699999
8.5100002 -3.8889999 0.138
8.5229998 -3.8710001 0.138
8.54 -3.8540001 0.138
8.5719995 -3.8429999 0.139
8.5780001 -3.8210001 0.139
8.5839996 -3.799 0.139
8.6020002 -3.7820001 0.139
8.6090002 -3.76 0.139
8.632 -3.7449999 0.14
8.6330004 -3.72 0.14
8.6719999 -3.7119999 0.141
8.6870003 -3.6930001 0.141
8.6899996 -3.6689999 0.141
8.71 -3.6530001 0.141
8.7250004 -3.6329999 0.142
8.7480001 -3.618 0.142
8.7840004 -3.6070001 0.14300001
8.7840004 -3.582 0.14300001
8.7959995 -3.5610001 0.14300001
8.8109999 -3.5420001 0.14300001
8.8280001 -3.523 0.14300001
8.8479996 -3.5050001 0.14399999
8.835 -3.474 0.14399999
8.8730001 -3.464 0.14399999
8.9020004 -3.4489999 0.145
8.9029999 -3.4230001 0.145
8.9390001 -3.4119999 0.145
8.9469995 -3.3889999 0.146
8.9499998 -3.3640001 0.146
8.9960003 -3.355 0.147
9.0159998 -3.336 0.147
9.0360003 -3.3169999 0.147
9.0290003 -3.289 0.147
9.0319996 -3.2639999 0.147
9.0600004 -3.247 0.148
9.0880003 -3.2309999 0.148
9.1049995 -3.211 0.149
9.1190004 -3.1889999 0.149
9.1479998 -3.1730001 0.149
9.1969995 -3.164 0.15000001
9.2150002 -3.1429999 0.15000001
9.2399998 -3.125 0.15099999
9.2589998 -3.1040001 0.15099999
9.2480001 -3.0739999 0.15099999
9.3459997 -3.079 0.153
9.3549995 -3.0550001 0.153
9.3690004 -3.033 0.153
9.3789997 -3.0090001 0.153
9.4320002 -2.9990001 0.154
9.5539999 -3.01 0.156
9.5939999 -2.9949999 0.15700001
9.6400003 -2.9809999 0.15800001
9.5869999 -2.937 0.15700001
9.6079998 -2.9159999 0.15700001
9.6230001 -2.892 0.15800001
9.6420002 -2.8699999 0.15800001
9.651 -2.845 0.15800001
9.6739998 -2.8239999 0.15899999
9.7279997 -2.812 0.15899999
9.7480001 -2.789 0.16
9.743 -2.76 0.16
9.7910004 -2.7449999 0.161
9.8009996 -2.72 0.161
9.8050003 -2.6930001 0.161
9.8409996 -2.674 0.161
9.8830004 -2.6570001 0.162
9.8959999 -2.632 0.162
9.9040003 -2.6059999 0.163
9.9309998 -2.5840001 0.163
9.9639997 -2.5639999 0.164
9.9510002 -2.5320001 0.163
10.006 -2.517 0.164
10.013 -2.49 0.16500001
10.056 -2.4719999 0.16500001
10.048 -2.441 0.16500001
10.085 -2.421 0.16599999
10.111 -2.398 0.16599999
10.136 -2.375 0.167
10.158 -2.3510001 0.167
10.171 -2.325 0.167
10.186 -2.299 0.168
10.213 -2.276 0.168
10.248 -2.2539999 0.169
10.288 -2.234 0.169
10.292 -2.2049999 0.169
10.321 -2.181 0.17
10.362 -2.1600001 0.171
10.381 -2.135 0.171
10.401 -2.109 0.171
10.441 -2.0869999 0.17200001
10.468 -2.062 0.17299999
10.518 -2.0420001 0.17299999
10.544 -2.017 0.17399999
10.57 -1.992 0.17399999
10.606 -1.9680001 0.175
10.62 -1.9400001 0.175
10.657 -1.9170001 0.176
10.678 -1.89 0.176
10.723 -1.867 0.177
10.743 -1.84 0.177
10.782 -1.816 0.178
10.738 -1.777 0.177
10.587 -1.722 0.175
10.544 -1.6849999 0.17399999
10.491 -1.647 0.17299999
10.471 -1.614 0.17299999
10.479 -1.585 0.17299999
10.504 -1.559 0.17399999
10.559 -1.5369999 0.175
10.867 -1.55 0.18000001
11.094 -1.551 0.183
11.125 -1.524 0.184
11.156 -1.4960001 0.185
11.226 -1.473 0.186
11.248 -1.444 0.186
11.289 -1.4170001 0.18700001
11.351 -1.393 0.18799999
11.387 -1.365 0.18799999
11.43 -1.337 0.189
11.541 -1.317 0.191
11.581 -1.289 0.192
11.576 -1.255 0.192
11.621 -1.227 0.192
11.681 -1.2 0.19400001
11.731 -1.1720001 0.19400001
11.855 -1.15 0.19599999
12.043 -1.1339999 0.2
11.968 -1.0930001 0.198
12.035 -1.0650001 0.199
12.169 -1.008 0.20200001
12.193 -0.97500002 0.20200001
12.675 0.391 0.075999998
12.636 0.40799999 0.075999998
12.619 0.426 0.075999998
12.703 0.447 0.075999998
12.648 0.46399999 0.075000003
12.701 0.48500001 0.075999998
12.689 0.50400001 0.075000003
12.666 0.523 0.075000003
12.655 0.54299998 0.075000003
12.623 0.56099999 0.074000001
12.604 0.58099997 0.074000001
12.603 0.602 0.074000001
12.585 0.62199998 0.074000001
12.599 0.64399999 0.072999999
12.598 0.66600001 0.072999999
12.579 0.68699998 0.072999999
12.589 0.70899999 0.072999999
12.596 0.73199999 0.072999999
12.596 0.755 0.072999999
12.593 0.778 0.071999997
12.605 0.80199999 0.071999997
12.621 0.82599998 0.071999997
12.635 0.85100001 0.071999997
12.626 0.875 0.071999997
12.663 0.90200001 0.071999997
12.655 0.926 0.071999997
12.67 0.95200002 0.071999997
12.677 0.977 0.071000002
12.699 1.005 0.071000002
12.732 1.033 0.071000002
12.73 1.059 0.071000002
12.76 1.0880001 0.071000002
12.779 1.117 0.071000002
12.795 1.145 0.071000002
12.787 1.1720001 0.071000002
12.802 1.201 0.071000002
12.808 1.229 0.071000002
12.796 1.256 0.07
12.809 1.285 0.07
12.824 1.316 0.07
12.836 1.346 0.07
12.847 1.376 0.07
12.898 1.411 0.07
11.372 1.27 0.061999999
11.237 1.281 0.061000001
11.19 1.302 0.059999999
11.158 1.325 0.059999999
11.146 1.35 0.059999999
11.143 1.376 0.059999999
11.177 1.408 0.059999999
11.282 1.448 0.059999999
12.947 1.694 0.068999998
12.954 1.727 0.068999998
12.971 1.761 0.068999998
12.976 1.795 0.068999998
13 1.831 0.068999998
13.019 1.867 0.068000004
13.035 1.902 0.068000004
11.348 1.6849999 0.059
11.237 1.698 0.059
11.189 1.72 0.057999998
11.173 1.747 0.057999998
11.195 1.78 0.057999998
11.211 1.813 0.057999998
11.265 1.852 0.057999998
13.204 2.2060001 0.068000004
13.189 2.24 0.068000004
13.228 2.2820001 0.068000004
13.245 2.322 0.068000004
13.259 2.3610001 0.068000004
13.28 2.402 0.067000002
13.285 2.4400001 0.067000002
13.325 2.4849999 0.067000002
13.369 2.5309999 0.067000002
13.391 2.573 0.067000002
13.399 2.6129999 0.067000002
13.389 2.6500001 0.067000002
13.448 2.701 0.067000002
13.46 2.743 0.067000002
13.505 2.7909999 0.067000002
7.553 1.5829999 0.037
13.661 2.8640001 0.068000004
7.4380002 1.581 0.037
7.3899999 1.5930001 0.035999998
7.3590002 1.608 0.035999998
7.3530002 1.6289999 0.035999998
7.336 1.648 0.035999998
7.3460002 1.673 0.035999998
7.3540001 1.697 0.035999998
7.3639998 1.722 0.035999998
7.4099998 1.756 0.035999998
7.4899998 1.798 0.035999998
7.5019999 1.824 0.035999998
7.5 1.848 0.035999998
7.4959998 1.87 0.035999998
7.5 1.895 0.035999998
7.5359998 1.928 0.035999998
7.625 1.975 0.035999998
14.053 3.641 0.067000002
14.006 3.674 0.067000002
14.036 3.7279999 0.067000002
14.071 3.783 0.067000002
14.1 3.8369999 0.067000002
14.135 3.8929999 0.067000002
14.163 3.947 0.066
14.199 4.0040002 0.066
14.242 4.0640001 0.067000002
14.258 4.1160002 0.066
14.312 4.1799998 0.066
14.31 4.2280002 0.066
14.34 4.2849998 0.066
14.425 4.3600001 0.067000002
14.465 4.4219999 0.067000002
14.5 4.4819999 0.067000002
14.516 4.5370002 0.066
14.604 4.6160002 0.067000002
14.612 4.6690001 0.067000002
14.614 4.7210002 0.066
14.696 4.7989998 0.067000002
14.757 4.8709998 0.067000002
14.799 4.9380002 0.067000002
14.869 5.0139999 0.067000002
14.951 5.0949998 0.067000002
14.998 5.165 0.067000002
15.118 5.2610002 0.067000002
15.132 5.3210001 0.067000002
15.154 5.3839998 0.067000002
15.233 5.4679999 0.067000002
15.242 5.527 0.067000002
15.323 5.6129999 0.067000002
15.434 5.711 0.068000004
15.441 5.7709999 0.068000004
15.47 5.8390002 0.068000004
15.523 5.9169998 0.068000004
15.511 5.9710002 0.067000002
15.577 6.0549998 0.067000002
15.599 6.1230001 0.067000002
15.645 6.2010002 0.067000002
15.691 6.2789998 0.067000002
15.751 6.3639998 0.068000004
15.786 6.4380002 0.067000002
15.784 6.4990001 0.067000002
12.335 5.9699998 0.050000001
12.162 5.9369998 0.048999999
12.012 5.914 0.048
11.952 5.934 0.048
11.911 5.9640002 0.048
12.028 6.073 0.048
12.196 6.21 0.048999999
12.202 6.2649999 0.048
12.17 6.3000002 0.048
12.301 6.421 0.048999999
12.133 6.3850002 0.048
12.056 6.3969998 0.046999998
12.215 6.5339999 0.048
9.9280005 6.8610001 0.035
9.8629999 6.8639998 0.035
7.5580001 -4.9780002 0.14
7.592 -4.9530001 0.141
7.6110001 -4.9180002 0.141
7.6560001 -4.8990002 0.142
7.6680002 -4.8600001 0.142
7.7010002 -4.835 0.14300001
7.7290001 -4.8060002 0.14300001
7.75 -4.7729998 0.14300001
7.777 -4.744 0.14399999
7.7930002 -4.7080002 0.14399999
7.8280001 -4.684 0.145
7.8499999 -4.652 0.145
7.8720002 -4.6199999 0.145
7.9000001 -4.592 0.146
7.934 -4.5679998 0.146
7.9359999 -4.5250001 0.146
7.9749999 -4.5029998 0.147
7.9879999 -4.467 0.147
8.0190001 -4.441 0.148
8.0459995 -4.4130001 0.148
8.0620003 -4.3790002 0.148
8.0719995 -4.342 0.149
8.0760002 -4.302 0.149
8.1330004 -4.29 0.15000001
8.1689997 -4.2670002 0.15000001
8.1990004 -4.2410002 0.15099999
8.2229996 -4.2119999 0.15099999
8.2379999 -4.178 0.15099999
8.2679996 -4.152 0.152
8.2969999 -4.1259999 0.152
8.2989998 -4.0869999 0.152
8.349 -4.0700002 0.153
8.3719997 -4.0409999 0.154
8.3929996 -4.0110002 0.154
8.4040003 -3.977 0.154
8.4320002 -3.95 0.155
8.4580002 -3.9230001 0.155
8.5 -3.9030001 0.156
8.5340004 -3.8800001 0.156
8.5539999 -3.8499999 0.15700001
8.5749998 -3.8199999 0.15700001
8.6090002 -3.7969999 0.15800001
8.6409998 -3.773 0.15800001
8.651 -3.7379999 0.15800001
8.6780005 -3.7119999 0.15899999
8.7159996 -3.6900001 0.16
8.7379999 -3.6619999 0.16
8.7629995 -3.6340001 0.16
8.7849998 -3.6059999 0.161
8.8120003 -3.5799999 0.161
8.8629999 -3.563 0.162
8.8699999 -3.529 0.162
8.9110003 -3.5079999 0.163
8.9350004 -3.4809999 0.163
8.9689999 -3.457 0.164
8.993 -3.4300001 0.164
9.0439997 -3.4130001 0.16500001
9.059 -3.3829999 0.16599999
9.0889997 -3.358 0.16599999
9.132 -3.3380001 0.167
9.1700001 -3.316 0.168
9.1859999 -3.286 0.168
9.2150002 -3.26 0.168
9.2679996 -3.243 0.169
9.2840004 -3.214 0.17
9.3439999 -3.1989999 0.171
9.3640003 -3.171 0.171
9.4060001 -3.1500001 0.17200001
9.4630003 -3.1340001 0.17299999
9.5139999 -3.115 0.17399999
9.5559998 -3.0940001 0.175
9.5880003 -3.0699999 0.175
9.691 -3.0680001 0.177
9.71 -3.039 0.177
9.7259998 -3.0090001 0.178
9.7159996 -2.9719999 0.177
9.7559996 -2.95 0.178
9.7620001 -2.9170001 0.178
9.7939997 -2.8929999 0.17900001
9.8360004 -2.8710001 0.18000001
9.8590002 -2.8440001 0.18000001
9.8909998 -2.8199999 0.18099999
9.9090004 -2.7920001 0.18099999
9.9209995 -2.7609999 0.18099999
9.9689999 -2.7420001 0.182
9.9899998 -2.714 0.182
10.027 -2.691 0.183
10.038 -2.661 0.183
10.066 -2.6359999 0.184
10.099 -2.612 0.184
10.142 -2.5910001 0.185
10.15 -2.5599999 0.185
10.185 -2.5369999 0.186
10.215 -2.5120001 0.18700001
10.254 -2.49 0.18700001
10.262 -2.46 0.18700001
10.284 -2.4330001 0.18799999
10.319 -2.4100001 0.18799999
10.356 -2.3870001 0.189
10.375 -2.3599999 0.189
10.396 -2.3329999 0.19
10.42 -2.3080001 0.19
10.461 -2.286 0.191
10.48 -2.2590001 0.191
10.521 -2.237 0.192
10.539 -2.21 0.193
10.574 -2.1860001 0.193
10.623 -2.1659999 0.19400001
10.657 -2.1429999 0.19499999
10.676 -2.1159999 0.19499999
10.711 -2.0929999 0.19599999
10.758 -2.072 0.197
10.784 -2.0469999 0.197
10.804 -2.02 0.198
10.832 -1.9960001 0.198
10.824 -1.965 0.198
10.89 -1.947 0.199
10.887 -1.9170001 0.199
10.936 -1.896 0.2
10.952 -1.87 0.2
11.017 -1.852 0.20200001
11.034 -1.825 0.20200001
11.103 -1.808 0.20299999
11.229 -1.799 0.206
10.61 -1.673 0.19400001
10.531 -1.633 0.193
10.482 -1.599 0.192
10.501 -1.575 0.192
10.529 -1.553 0.193
10.561 -1.531 0.193
10.777 -1.536 0.197
11.336 -1.587 0.208
11.378 -1.5650001 0.208
11.404 -1.541 0.20900001
11.448 -1.5190001 0.20999999
11.489 -1.497 0.211
11.499 -1.471 0.211
11.52 -1.446 0.211
11.555 -1.423 0.212
11.604 -1.402 0.213
11.612 -1.376 0.213
11.669 -1.3559999 0.214
11.735 -1.336 0.215
11.756 -1.312 0.21600001
11.83 -1.293 0.21699999
11.863 -1.27 0.21799999
11.839 -1.2410001 0.21699999
11.86 -1.217 0.21799999
11.899 -1.1950001 0.219
11.945 -1.173 0.219
11.99 -1.151 0.22
12.026 -1.1289999 0.221
12.094 -1.109 0.222
12.147 -1.0880001 0.223
12.179 -1.0650001 0.22400001
12.187 -1.04 0.22400001
12.216 -1.017 0.22499999
12.246 -0.99400002 0.22499999
12.278 -0.97100002 0.226
12.295 -0.94800001 0.226
12.41 -0.93099999 0.229
12.401 0.162 0.111
12.418 0.185 0.111
12.465 0.208 0.111
12.475 0.23100001 0.111
12.51 0.255 0.111
12.509 0.27900001 0.111
12.526 0.303 0.111
12.55 0.32699999 0.111
12.571 0.352 0.111
12.588 0.37799999 0.111
12.6 0.403 0.111
12.572 0.42699999 0.111
12.618 0.454 0.111
12.635 0.48100001 0.111
12.646 0.50700003 0.111
12.651 0.53399998 0.111
12.638 0.56 0.11
12.67 0.588 0.11
12.653 0.61400002 0.11
12.655 0.64200002 0.11
12.672 0.67000002 0.11
12.673 0.69800001 0.11
12.645 0.72500002 0.109
12.668 0.75400001 0.109
12.668 0.78299999 0.109
12.684 0.81300002 0.109
12.712 0.84399998 0.109
12.696 0.87199998 0.109
12.729 0.90399998 0.109
12.742 0.935 0.109
12.756 0.96600002 0.109
12.771 0.99699998 0.109
12.804 1.03 0.109
12.817 1.062 0.109
12.858 1.097 0.109
12.886 1.131 0.109
12.899 1.164 0.109
12.899 1.196 0.109
12.902 1.228 0.108
12.892 1.26 0.108
12.915 1.295 0.108
12.916 1.3279999 0.108
12.937 1.363 0.108
12.911 1.3940001 0.108
12.95 1.432 0.108
12.985 1.469 0.108
13.02 1.507 0.108
11.297 1.3380001 0.093999997
11.201 1.3559999 0.093000002
11.171 1.382 0.092
11.135 1.408 0.092
11.138 1.438 0.092
11.184 1.475 0.092
11.405 1.535 0.093999997
13.092 1.798 0.107
13.114 1.837 0.107
13.134 1.876 0.107
13.142 1.914 0.107
13.165 1.954 0.107
11.424 1.728 0.093000002
11.235 1.7309999 0.090999998
11.18 1.7539999 0.090999998
11.157 1.783 0.090000004
11.178 1.818 0.090000004
11.215 1.8559999 0.090000004
11.387 1.918 0.092
13.371 2.2909999 0.108
13.436 2.3410001 0.108
13.442 2.382 0.108
13.454 2.424 0.108
13.48 2.4679999 0.108
13.528 2.517 0.108
13.546 2.5610001 0.108
13.578 2.608 0.108
13.626 2.658 0.108
13.642 2.7019999 0.108
13.663 2.7479999 0.108
13.704 2.7980001 0.108
7.8629999 1.6289999 0.061999999
13.803 2.8599999 0.109
7.4850001 1.574 0.059
7.395 1.5779999 0.057999998
7.3559999 1.592 0.057999998
7.3410001 1.612 0.057
7.3390002 1.6339999 0.057
7.349 1.659 0.057
7.3499999 1.683 0.057
7.375 1.712 0.057
7.427 1.747 0.057999998
7.493 1.786 0.057999998
7.5079999 1.814 0.057999998
7.5029998 1.836 0.057999998
7.5079999 1.862 0.057999998
7.5289998 1.891 0.057999998
7.6300001 1.941 0.059
14.293 3.6830001 0.11
14.366 3.7479999 0.111
14.444 3.8150001 0.111
14.491 3.875 0.111
14.545 3.937 0.111
14.518 3.9779999 0.111
14.54 4.0320001 0.111
14.568 4.0879998 0.111
14.609 4.1469998 0.111
14.688 4.2189999 0.112
14.739 4.2820001 0.112
14.751 4.335 0.112
14.775 4.3909998 0.112
14.854 4.4650002 0.112
14.887 4.5250001 0.112
14.924 4.586 0.112
14.984 4.6560001 0.113
15.049 4.7270002 0.113
15.101 4.7940001 0.113
15.163 4.8660002 0.114
15.214 4.934 0.114
15.21 4.9850001 0.114
15.287 5.0619998 0.114
15.304 5.1209998 0.114
15.373 5.197 0.114
15.429 5.2690001 0.115
15.542 5.362 0.115
15.54 5.415 0.115
15.602 5.4910002 0.115
15.619 5.5510001 0.115
15.708 5.6370001 0.116
15.758 5.71 0.116
15.813 5.7859998 0.116
15.818 5.8429999 0.116
15.864 5.9159999 0.116
15.862 5.9710002 0.116
15.973 6.0689998 0.117
15.989 6.132 0.117
16.051001 6.2119999 0.117
16.079 6.2800002 0.117
16.235001 6.3990002 0.118
16.163 6.428 0.117
16.193001 6.4980001 0.117
14.78 6.0359998 0.107
14.77 6.085 0.106
12.279 5.948 0.086000003
12.23 5.9689999 0.085000001
12.019 5.9099998 0.083999999
11.921 5.9050002 0.082999997
11.914 5.9450002 0.082999997
11.891 5.9770002 0.082000002
11.969 6.0599999 0.082999997
12.242 6.243 0.085000001
12.227 6.2800002 0.083999999
12.18 6.3449998 0.083999999
12.163 6.381 0.083999999
12.092 6.3870001 0.082999997
12.052 6.4099998 0.082999997
12.166 6.5149999 0.082999997
8.217 -4.8460002 0.17
8.2200003 -4.8249998 0.17
8.2349997 -4.8099999 0.17
8.2530003 -4.7969999 0.171
8.2740002 -4.7859998 0.171
8.2650003 -4.757 0.171
8.3030005 -4.7550001 0.17200001
8.2910004 -4.7249999 0.171
8.2969999 -4.704 0.17200001
8.3120003 -4.6890001 0.17200001
8.3190002 -4.6690001 0.17200001
8.3269997 -4.6500001 0.17200001
8.3380003 -4.632 0.17299999
8.3730001 -4.6279998 0.17299999
8.3389997 -4.585 0.17299999
8.3640003 -4.5749998 0.17299999
8.3850002 -4.5619998 0.17399999
8.4280005 -4.5609999 0.175
8.4180002 -4.5320001 0.17399999
8.4289999 -4.513 0.175
8.4440002 -4.4970002 0.175
8.46 -4.4809999 0.175
8.4759998 -4.4650002 0.176
8.5010004 -4.454 0.176
8.5279999 -4.4429998 0.177
8.5500002 -4.4299998 0.177
8.5679998 -4.415 0.178
8.5780001 -4.395 0.178
8.5699997 -4.3660002 0.178
8.5880003 -4.3509998 0.178
8.6120005 -4.3379998 0.17900001
8.618 -4.316 0.17900001
8.6289997 -4.2969999 0.17900001
8.6440001 -4.2789998 0.18000001
8.6520004 -4.2579999 0.18000001
8.6669998 -4.2399998 0.18000001
8.6999998 -4.2309999 0.18099999
8.7019997 -4.2069998 0.18099999
8.7010002 -4.1810002 0.18099999
8.7250004 -4.1669998 0.18099999
8.7110004 -4.1350002 0.18099999
8.7690001 -4.1370001 0.182
8.7779999 -4.1160002 0.183
8.7749996 -4.0900002 0.183
8.7840004 -4.0679998 0.183
8.8100004 -4.0549998 0.183
8.8280001 -4.0370002 0.184
8.8389997 -4.0170002 0.184
8.8500004 -3.9960001 0.184
8.8839998 -3.9860001 0.185
8.8940001 -3.964 0.185
8.9060001 -3.944 0.186
8.9160004 -3.9219999 0.186
8.9370003 -3.905 0.186
8.9519997 -3.8859999 0.18700001
8.9779997 -3.8710001 0.18700001
8.9919996 -3.8510001 0.18799999
9.0170002 -3.836 0.18799999
9.0369997 -3.8180001 0.18799999
9.0410004 -3.793 0.189
9.0690002 -3.779 0.189
9.0930004 -3.7620001 0.19
9.1099997 -3.743 0.19
9.1309996 -3.7249999 0.191
9.1429996 -3.7030001 0.191
9.1630001 -3.6849999 0.191
9.1689997 -3.661 0.191
9.2010002 -3.6470001 0.192
9.2159996 -3.6259999 0.192
9.2469997 -3.6110001 0.193
9.2679996 -3.592 0.19400001
9.3039999 -3.579 0.19400001
9.3109999 -3.5550001 0.19499999
9.3280001 -3.5350001 0.19499999
9.3590002 -3.5190001 0.19599999
9.3830004 -3.5009999 0.19599999
9.4169998 -3.4860001 0.197
9.4429998 -3.4679999 0.197
9.4460001 -3.4419999 0.198
9.4650002 -3.4219999 0.198
9.4799995 -3.4000001 0.198
9.5030003 -3.3800001 0.199
9.5190001 -3.358 0.199
9.5640001 -3.346 0.2
9.5880003 -3.3269999 0.20100001
9.5799999 -3.2969999 0.2
9.5950003 -3.2739999 0.20100001
9.6379995 -3.2609999 0.20200001
9.6409998 -3.234 0.20200001
9.6940002 -3.224 0.20299999
9.7110004 -3.201 0.20299999
9.7480001 -3.1849999 0.204
9.7559996 -3.1589999 0.204
9.79 -3.142 0.205
9.8760004 -3.141 0.207
9.8430004 -3.102 0.206
9.8430004 -3.073 0.206
9.8559999 -3.049 0.207
9.8509998 -3.0190001 0.206
9.8929996 -3.003 0.207
9.8959999 -2.9749999 0.207
9.9209995 -2.954 0.208
9.9300003 -2.9289999 0.208
9.9320002 -2.9000001 0.208
9.9689999 -2.882 0.20900001
9.9919996 -2.8599999 0.20900001
10.002 -2.8340001 0.20999999
10.044 -2.8169999 0.211
10.061 -2.793 0.211
10.08 -2.7690001 0.211
10.112 -2.7490001 0.212
10.129 -2.724 0.212
10.16 -2.7030001 0.213
10.173 -2.677 0.213
10.196 -2.654 0.214
10.234 -2.6340001 0.215
10.243 -2.6070001 0.215
10.288 -2.589 0.21600001
10.284 -2.5580001 0.21600001
10.33 -2.54 0.21699999
10.327 -2.5090001 0.21699999
10.36 -2.4879999 0.21699999
10.398 -2.467 0.21799999
10.402 -2.438 0.21799999
10.408 -2.4089999 0.219
10.458 -2.391 0.22
10.477 -2.365 0.22
10.498 -2.3399999 0.22
10.531 -2.3169999 0.221
10.569 -2.2950001 0.222
10.585 -2.2679999 0.222
10.626 -2.2460001 0.223
10.653 -2.221 0.22400001
10.704 -2.201 0.22499999
10.7 -2.1700001 0.22499999
10.686 -2.1359999 0.22499999
10.747 -2.118 0.226
10.813 -2.099 0.227
10.859 -2.0769999 0.228
10.892 -2.052 0.229
10.941 -2.03 0.23
10.976 -2.0050001 0.23100001
10.992 -1.977 0.23100001
11.015 -1.949 0.23199999
11.038 -1.9220001 0.23199999
11.09 -1.899 0.233
11.134 -1.875 0.234
11.147 -1.845 0.234
11.195 -1.821 0.235
11.321 -1.809 0.23800001
10.547 -1.625 0.222
10.49 -1.586 0.221
10.512 -1.559 0.221
10.607 -1.543 0.223
11.525 -1.6440001 0.242
11.545 -1.614 0.243
11.609 -1.589 0.244
11.667 -1.564 0.245
11.657 -1.529 0.245
11.696 -1.501 0.24600001
11.739 -1.473 0.24699999
11.826 -1.45 0.249
11.881 -1.423 0.25
11.904 -1.392 0.25
11.955 -1.364 0.252
11.959 -1.33 0.252
12.027 -1.303 0.25299999
12.079 -1.275 0.25400001
12.139 -1.2460001 0.255
12.233 -1.221 0.257
12.285 -1.191 0.259
12.324 -1.16 0.259
12.329 -1.125 0.25999999
12.374 -1.094 0.25999999
12.423 -1.063 0.26100001
12.473 -1.0319999 0.26300001
13.32 0.47099999 0.145
13.239 0.48800001 0.14300001
13.194 0.50599998 0.14300001
13.132 0.52399999 0.142
13.099 0.54299998 0.141
13.111 0.56400001 0.141
13.119 0.58600003 0.141
13.159 0.60900003 0.141
13.111 0.62800002 0.141
13.112 0.64999998 0.141
13.119 0.67299998 0.141
13.122 0.69499999 0.14
13.132 0.71899998 0.14
13.11 0.741 0.14
13.133 0.76499999 0.14
13.119 0.78799999 0.14
13.118 0.81199998 0.139
13.117 0.83600003 0.139
13.131 0.861 0.139
13.129 0.88599998 0.139
13.126 0.91100001 0.139
13.112 0.935 0.139
13.138 0.963 0.139
13.115 0.98699999 0.138
13.131 1.0140001 0.138
13.118 1.039 0.138
13.162 1.0700001 0.138
13.193 1.099 0.139
13.26 1.132 0.139
13.276 1.161 0.139
13.237 1.186 0.139
13.204 1.211 0.138
13.17 1.2359999 0.138
13.194 1.267 0.138
13.205 1.2970001 0.138
13.214 1.327 0.138
13.215 1.357 0.13699999
13.238 1.3890001 0.13699999
13.281 1.424 0.138
13.277 1.454 0.138
13.291 1.4859999 0.138
11.398 1.3 0.118
11.274 1.313 0.116
11.201 1.331 0.116
11.163 1.353 0.115
11.156 1.3789999 0.115
11.15 1.405 0.115
11.162 1.434 0.115
11.265 1.474 0.116
13.436 1.7920001 0.138
13.43 1.825 0.138
13.477 1.865 0.138
13.476 1.899 0.138
13.489 1.9349999 0.138
13.512 1.973 0.138
11.381 1.691 0.116
11.246 1.7 0.115
11.196 1.722 0.114
11.157 1.745 0.113
11.147 1.773 0.113
11.16 1.8049999 0.113
11.197 1.841 0.114
11.298 1.888 0.115
13.693 2.326 0.139
13.76 2.375 0.139
13.782 2.4159999 0.139
13.791 2.4560001 0.139
13.85 2.5050001 0.14
13.88 2.55 0.14
13.888 2.5899999 0.14
13.908 2.6329999 0.14
13.928 2.677 0.14
13.959 2.723 0.14
14.027 2.777 0.141
14.045 2.8210001 0.141
14.093 2.872 0.141
14.127 2.9200001 0.142
7.8119998 1.638 0.078000002
14.173 2.971 0.142
7.4819999 1.591 0.075000003
7.3969998 1.595 0.074000001
7.3730001 1.612 0.072999999
7.3390002 1.626 0.072999999
7.336 1.648 0.072999999
7.3309999 1.669 0.072999999
7.3270001 1.691 0.072999999
7.3340001 1.715 0.072999999
7.3639998 1.745 0.072999999
7.4460001 1.7869999 0.074000001
7.4780002 1.819 0.074000001
7.494 1.846 0.074000001
7.5 1.8710001 0.074000001
7.5 1.895 0.074000001
7.5489998 1.931 0.075000003
7.6750002 1.988 0.075999998
14.846 3.8469999 0.147
14.758 3.8710001 0.146
14.8 3.9300001 0.146
14.837 3.9879999 0.147
14.822 4.033 0.147
14.889 4.0999999 0.147
14.938 4.1630001 0.148
14.972 4.2220001 0.148
14.982 4.2750001 0.148
15.043 4.3429999 0.148
15.118 4.415 0.149
15.192 4.4879999 0.15000001
15.229 4.5510001 0.15000001
15.241 4.6059999 0.15000001
15.312 4.6799998 0.15099999
15.363 4.7490001 0.15099999
15.441 4.8260002 0.152
15.517 4.9039998 0.152
15.547 4.9679999 0.152
15.599 5.039 0.153
15.725 5.1350002 0.154
15.701 5.1830001 0.154
15.756 5.257 0.154
15.774 5.3189998 0.154
15.814 5.3889999 0.155
15.849 5.4580002 0.155
15.925 5.5409999 0.156
15.998 5.625 0.156
16.034 5.6960001 0.15700001
16.054001 5.7620001 0.15700001
16.149 5.855 0.15800001
16.18 5.9260001 0.15800001
16.184 5.987 0.15800001
16.205999 6.0560002 0.15800001
16.198999 6.1139998 0.15800001
12.373 5.8850002 0.119
12.294 5.8979998 0.119
12.225 5.9159999 0.118
11.998 5.8559999 0.116
11.95 5.8829999 0.115
11.969 5.9419999 0.115
12.004 6.0100002 0.116
12.228 6.2259998 0.118
12.308 6.3179998 0.119
12.235 6.3330002 0.118
12.162 6.3470001 0.117
12.093 6.3629999 0.116
12.116 6.428 0.117
12.273 6.5640001 0.118
7.8239999 -5.151 0.183
7.8730001 -5.1339998 0.184
7.9109998 -5.1100001 0.184
7.9250002 -5.0700002 0.185
7.9679999 -5.0489998 0.186
7.9889998 -5.0139999 0.186
8.0159998 -4.9829998 0.186
8.0419998 -4.9510002 0.18700001
8.0760002 -4.9250002 0.18799999
8.1020002 -4.8930001 0.18799999
8.125 -4.8600001 0.189
8.1560001 -4.8319998 0.189
8.177 -4.7979999 0.19
8.2089996 -4.77 0.19
8.2399998 -4.7420001 0.191
8.2489996 -4.7020001 0.191
8.3050003 -4.6880002 0.192
8.3120003 -4.6469998 0.192
8.3430004 -4.619 0.193
8.3800001 -4.5949998 0.19400001
8.4209995 -4.573 0.19499999
8.4619999 -4.5510001 0.19499999
8.4820004 -4.5170002 0.19599999
8.4989996 -4.4819999 0.19599999
8.5059996 -4.4419999 0.19599999
8.5240002 -4.408 0.197
8.5609999 -4.3839998 0.197
8.5830002 -4.3520002 0.198
8.6140003 -4.3249998 0.198
8.6499996 -4.3010001 0.199
8.6700001 -4.2680001 0.2
8.691 -4.2360001 0.2
8.7069998 -4.2020001 0.2
8.7299995 -4.171 0.20100001
8.7589998 -4.1440001 0.20100001
8.7959995 -4.1199999 0.20200001
8.8009996 -4.0809999 0.20200001
8.8380003 -4.0580001 0.20299999
8.8739996 -4.033 0.204
8.8929996 -4.0019999 0.204
8.941 -3.983 0.205
8.9379997 -3.941 0.205
8.9790001 -3.9189999 0.206
8.9969997 -3.8870001 0.206
9.0279999 -3.8610001 0.207
9.073 -3.8399999 0.208
9.0970001 -3.8110001 0.208
9.1280003 -3.7850001 0.20900001
9.1560001 -3.7579999 0.20999999
9.1890001 -3.7320001 0.20999999
9.2290001 -3.71 0.211
9.2299995 -3.671 0.211
9.2620001 -3.6459999 0.212
9.3079996 -3.6259999 0.213
9.335 -3.598 0.213
9.375 -3.575 0.214
9.4110003 -3.5510001 0.215
9.4449997 -3.526 0.21600001
9.493 -3.506 0.21699999
9.5170002 -3.4779999 0.21699999
9.5450001 -3.451 0.21799999
9.5740004 -3.424 0.219
9.5790005 -3.3889999 0.219
9.6120005 -3.3629999 0.219
9.6560001 -3.342 0.22
9.6800003 -3.313 0.221
9.7110004 -3.2869999 0.222
9.75 -3.2639999 0.222
9.7600002 -3.2320001 0.223
9.8000002 -3.2090001 0.223
9.8389997 -3.1860001 0.22400001
9.9490004 -3.1849999 0.227
9.9200001 -3.1400001 0.226
9.9320002 -3.108 0.226
9.9460001 -3.0769999 0.227
9.9580002 -3.0450001 0.227
10.005 -3.0239999 0.228
10.03 -2.997 0.229
10.039 -2.9649999 0.229
10.05 -2.934 0.229
10.101 -2.914 0.23
10.129 -2.888 0.23100001
10.159 -2.862 0.23100001
10.168 -2.8299999 0.23199999
10.212 -2.8080001 0.233
10.235 -2.7809999 0.233
10.271 -2.757 0.234
10.3 -2.7309999 0.234
10.326 -2.704 0.235
10.372 -2.6819999 0.236
10.412 -2.6600001 0.237
10.432 -2.631 0.237
10.451 -2.6029999 0.23800001
10.471 -2.575 0.23800001
10.493 -2.5480001 0.23899999
10.517 -2.5209999 0.23899999
10.539 -2.493 0.23999999
10.586 -2.4719999 0.241
10.636 -2.451 0.242
10.641 -2.4200001 0.242
10.662 -2.3929999 0.243
10.695 -2.368 0.243
10.732 -2.345 0.244
10.761 -2.319 0.245
10.786 -2.293 0.245
10.777 -2.26 0.245
10.706 -2.214 0.244
10.663 -2.174 0.243
10.733 -2.158 0.244
10.881 -2.1570001 0.248
11.007 -2.151 0.25
11.075 -2.1329999 0.252
11.086 -2.1040001 0.252
11.147 -2.085 0.25400001
11.198 -2.063 0.255
11.186 -2.03 0.25400001
11.202 -2.003 0.255
11.222 -1.976 0.255
11.275 -1.955 0.257
11.309 -1.931 0.257
11.361 -1.91 0.259
11.381 -1.883 0.259
11.437 -1.863 0.25999999
11.495 -1.842 0.26199999
11.573 -1.825 0.26300001
10.673 -1.655 0.243
10.514 -1.604 0.23899999
10.487 -1.573 0.23899999
10.48 -1.546 0.23899999
10.532 -1.527 0.23999999
10.632 -1.515 0.242
11.755 -1.646 0.26800001
11.803 -1.624 0.26899999
11.829 -1.599 0.26899999
11.847 -1.573 0.27000001
11.869 -1.5470001 0.27000001
11.916 -1.525 0.271
11.914 -1.4960001 0.271
11.965 -1.474 0.273
12.001 -1.45 0.273
12.007 -1.423 0.27399999
12.047 -1.4 0.27500001
12.109 -1.3789999 0.27599999
12.122 -1.353 0.27599999
12.137 -1.327 0.27700001
12.202 -1.307 0.278
12.244 -1.284 0.27900001
12.272 -1.26 0.28
12.285 -1.234 0.28
12.328 -1.211 0.28099999
12.347 -1.186 0.28200001
12.46 -1.17 0.28400001
12.598 -1.156 0.287
12.522 -1.122 0.28600001
12.527 -1.096 0.28600001
12.906 0.171 0.17900001
12.963 0.19499999 0.17900001
12.957 0.21799999 0.17900001
12.974 0.242 0.17900001
13.018 0.26699999 0.17900001
13.031 0.292 0.17900001
13.046 0.317 0.17900001
13.07 0.34299999 0.18000001
13.065 0.368 0.17900001
13.056 0.39300001 0.17900001
13.058 0.419 0.17900001
13.055 0.44499999 0.17900001
13.048 0.47099999 0.178
13.062 0.498 0.178
13.054 0.52499998 0.178
13.09 0.55400002 0.178
13.073 0.57999998 0.178
13.084 0.60900003 0.178
13.094 0.63700002 0.178
13.101 0.66600001 0.178
13.122 0.69499999 0.178
13.119 0.72399998 0.178
13.121 0.75300002 0.178
13.122 0.78299999 0.177
13.12 0.81199998 0.177
13.13 0.84299999 0.177
13.12 0.87199998 0.177
13.118 0.90200001 0.177
13.142 0.93400002 0.177
13.144 0.96499997 0.177
13.133 0.995 0.176
13.138 1.027 0.176
13.151 1.059 0.176
13.206 1.096 0.177
13.218 1.1289999 0.177
13.287 1.1670001 0.178
13.278 1.199 0.177
13.25 1.229 0.177
13.247 1.262 0.177
13.245 1.295 0.176
13.254 1.33 0.176
13.28 1.3660001 0.177
13.291 1.401 0.177
13.342 1.441 0.177
13.343 1.476 0.177
13.357 1.512 0.177
13.378 1.55 0.177
11.309 1.34 0.15000001
11.224 1.359 0.148
11.173 1.383 0.148
11.14 1.409 0.147
11.145 1.4400001 0.147
11.171 1.473 0.147
11.34 1.526 0.149
13.556 1.862 0.178
13.556 1.899 0.178
13.6 1.943 0.17900001
13.616 1.983 0.17900001
13.649 2.026 0.17900001
11.314 1.711 0.148
11.213 1.728 0.147
11.167 1.753 0.146
11.148 1.781 0.146
11.145 1.813 0.146
11.181 1.851 0.146
11.309 1.905 0.148
13.918 2.385 0.182
13.957 2.4319999 0.182
13.99 2.4790001 0.182
14.036 2.529 0.183
14.085 2.579 0.183
14.099 2.6240001 0.183
14.133 2.6719999 0.184
14.19 2.7249999 0.184
14.226 2.7750001 0.185
14.286 2.8299999 0.185
14.308 2.878 0.185
14.348 2.9289999 0.186
14.429 2.99 0.18700001
7.6170001 1.602 0.097999997
14.634 3.0769999 0.189
7.448 1.589 0.096000001
7.3759999 1.596 0.094999999
7.3509998 1.614 0.094999999
7.3239999 1.631 0.093999997
7.3280001 1.655 0.093999997
7.3150001 1.674 0.093999997
7.3309999 1.701 0.093999997
7.3449998 1.728 0.093999997
7.3979998 1.7640001 0.094999999
7.4749999 1.806 0.096000001
7.4910002 1.8329999 0.096000001
7.4959998 1.859 0.096000001
7.4970002 1.883 0.096000001
7.5479999 1.92 0.097000003
7.677 1.978 0.097999997
15.181 3.911 0.19499999
15.179 3.96 0.19499999
15.193 4.013 0.19499999
15.235 4.0739999 0.19499999
15.325 4.1479998 0.19599999
15.411 4.2220001 0.197
15.424 4.276 0.197
15.466 4.3390002 0.198
15.53 4.408 0.198
15.592 4.4780002 0.199
15.613 4.5359998 0.199
15.682 4.6079998 0.2
15.765 4.6849999 0.20100001
15.825 4.756 0.20200001
15.853 4.8179998 0.20200001
15.917 4.8909998 0.20299999
15.962 4.9590001 0.20299999
16.041 5.0380001 0.204
16.091999 5.1079998 0.205
16.098 5.165 0.205
16.195999 5.2519999 0.206
16.215 5.3130002 0.206
16.295 5.3959999 0.207
16.334 5.4650002 0.207
16.334999 5.5209999 0.207
16.396999 5.599 0.208
16.445999 5.6729999 0.208
16.462999 5.7350001 0.20900001
16.506001 5.8080001 0.20900001
16.573 5.8889999 0.20999999
16.594999 5.9549999 0.20999999
16.653 6.0339999 0.211
16.648001 6.0900002 0.211
16.705 6.1700001 0.211
13.081 5.5770001 0.164
12.914 5.552 0.162
12.725 5.5159998 0.16
12.629 5.52 0.15899999
12.81 5.6459999 0.161
12.358 5.895 0.155
12.275 5.9000001 0.154
12.167 6.026 0.152
12.136 6.0549998 0.152
12.142 6.1030002 0.152
12.244 6.2880001 0.153
12.208 6.3140001 0.153
8.5530005 -5.0489998 0.21699999
8.5690002 -5.0339999 0.21699999
8.5860004 -5.0190001 0.21799999
8.5769997 -4.9899998 0.21799999
8.5959997 -4.9759998 0.21799999
8.6140003 -4.9619999 0.21799999
8.6090002 -4.934 0.21799999
8.6219997 -4.9169998 0.219
8.6420002 -4.9039998 0.219
8.6599998 -4.8889999 0.22
8.665 -4.8670001 0.22
8.6859999 -4.8540001 0.22
8.6990004 -4.836 0.221
8.7069998 -4.816 0.221
8.7080002 -4.7909999 0.221
8.7309999 -4.7789998 0.222
8.7309999 -4.7540002 0.222
8.7650003 -4.7470002 0.223
8.7519999 -4.7150002 0.222
8.7600002 -4.6939998 0.223
8.7910004 -4.6849999 0.223
8.7810001 -4.6550002 0.223
8.8050003 -4.6420002 0.22400001
8.8409996 -4.6350002 0.22499999
8.8520002 -4.6149998 0.22499999
8.9139996 -4.6220002 0.227
8.8990002 -4.5890002 0.226
8.8760004 -4.5510001 0.226
8.8649998 -4.52 0.22499999
8.8719997 -4.4970002 0.226
8.8889999 -4.48 0.226
8.9099998 -4.4650002 0.227
8.915 -4.4419999 0.227
8.9429998 -4.4299998 0.227
8.9560003 -4.4099998 0.228
8.9630003 -4.388 0.228
8.9919996 -4.3759999 0.229
9.0039997 -4.355 0.229
9.0050001 -4.3299999 0.229
9.0450001 -4.323 0.23
9.0559998 -4.302 0.23
9.092 -4.2930002 0.23100001
9.0889997 -4.2649999 0.23100001
9.0959997 -4.2420001 0.23199999
9.1149998 -4.224 0.23199999
9.1309996 -4.2049999 0.23199999
9.1289997 -4.178 0.23199999
9.151 -4.1609998 0.233
9.1929998 -4.1529999 0.234
9.184 -4.1220002 0.234
9.2030001 -4.1040001 0.234
9.2229996 -4.086 0.235
9.2340002 -4.0640001 0.235
9.2659998 -4.052 0.236
9.3000002 -4.04 0.237
9.2939997 -4.0100002 0.237
9.3199997 -3.994 0.237
9.342 -3.9760001 0.23800001
9.3479996 -3.951 0.23800001
9.375 -3.9360001 0.23899999
9.3959999 -3.9170001 0.23899999
9.4049997 -3.8940001 0.23999999
9.4230003 -3.8740001 0.23999999
9.4390001 -3.8529999 0.241
9.4689999 -3.8380001 0.241
9.4729996 -3.812 0.242
9.5030003 -3.796 0.242
9.5179996 -3.7739999 0.243
9.5489998 -3.7590001 0.243
9.5760002 -3.7420001 0.244
9.5790005 -3.7149999 0.244
9.6140003 -3.7 0.245
9.6059999 -3.6700001 0.245
9.6169996 -3.6459999 0.245
9.6700001 -3.638 0.24699999
9.6719999 -3.6099999 0.24699999
9.6920004 -3.5899999 0.24699999
9.7180004 -3.5710001 0.248
9.7189999 -3.543 0.248
9.7299995 -3.5190001 0.248
9.7440004 -3.4960001 0.249
9.7799997 -3.48 0.249
9.7969999 -3.4579999 0.25
9.8170004 -3.437 0.25
9.8400002 -3.4159999 0.25099999
9.8369999 -3.3859999 0.25099999
9.8649998 -3.368 0.252
9.8879995 -3.3469999 0.252
9.9040003 -3.323 0.25299999
9.9460001 -3.309 0.25400001
9.9540005 -3.2820001 0.25400001
9.9680004 -3.2579999 0.25400001
10.028 -3.2490001 0.25600001
10.077 -3.2349999 0.257
10.097 -3.2130001 0.25799999
10.099 -3.184 0.25799999
10.103 -3.1559999 0.25799999
10.103 -3.1259999 0.25799999
10.088 -3.0929999 0.257
