# .PCD v0.7 - Point Cloud Data file format
VERSION 0.7
FIELDS x y z
SIZE 4 4 4
TYPE F F F
COUNT 1 1 1
WIDTH 1762
HEIGHT 1
VIEWPOINT 0 0 0 1 0 0 0
POINTS 1762
DATA ascii
11.118 5.4369998 -0.495
11.124 5.48 -0.49599999
11.14 5.5289998 -0.498
11.161 5.5809999 -0.5
11.182 5.632 -0.50199997
11.206 5.6849999 -0.50400001
11.213 5.73 -0.505
11.259 5.7940001 -0.50800002
8.1899996 4.2449999 -0.37
11.35 5.8829999 -0.51300001
8.1169996 4.237 -0.368
8.0459995 4.2290001 -0.36500001
7.9229999 4.1929998 -0.36000001
7.8759999 4.197 -0.359
7.8559999 4.2150002 -0.359
7.868 4.2509999 -0.36000001
7.901 4.2969999 -0.36199999
11.682 6.3530002 -0.53600001
8.0430002 4.4039998 -0.36899999
11.385 6.2340002 -0.523
11.357 6.2600002 -0.523
11.361 6.303 -0.52399999
11.37 6.3499999 -0.52499998
11.391 6.4029999 -0.52700001
11.389 6.4429998 -0.528
11.411 6.4970002 -0.52999997
11.426 6.5469999 -0.53200001
11.435 6.5929999 -0.53399998
11.445 6.6409998 -0.53500003
11.472 6.697 -0.537
11.472 6.7389998 -0.53799999
11.478 6.7839999 -0.54000002
11.476 6.8239999 -0.54100001
11.482 6.868 -0.542
11.471 6.9029999 -0.54299998
11.468 6.9419999 -0.54400003
9.6800003 6.6939998 -0.48300001
9.632 6.6919999 -0.48100001
9.6260004 6.7189999 -0.48199999
9.6370001 6.7579999 -0.484
6.573 -3.849 -0.146
6.5869999 -3.839 -0.146
6.5869999 -3.8199999 -0.146
6.6100001 -3.8150001 -0.147
6.6230001 -3.8039999 -0.147
6.6259999 -3.7869999 -0.147
6.6259999 -3.7679999 -0.147
6.6389999 -3.757 -0.147
6.6479998 -3.744 -0.147
6.6690001 -3.737 -0.148
6.671 -3.7190001 -0.147
6.6830001 -3.707 -0.148
6.678 -3.6849999 -0.147
6.6950002 -3.6760001 -0.148
6.7119999 -3.6659999 -0.148
6.717 -3.6500001 -0.148
6.7119999 -3.628 -0.148
6.7319999 -3.6199999 -0.148
6.73 -3.599 -0.148
6.7459998 -3.589 -0.148
6.757 -3.575 -0.148
6.776 -3.566 -0.149
6.77 -3.5439999 -0.148
6.776 -3.527 -0.149
6.8010001 -3.5209999 -0.149
6.809 -3.506 -0.149
6.7969999 -3.48 -0.149
6.8119998 -3.4690001 -0.149
6.8200002 -3.454 -0.149
6.8340001 -3.441 -0.149
6.836 -3.4219999 -0.149
6.8439999 -3.4070001 -0.149
6.8649998 -3.398 -0.15000001
6.8720002 -3.382 -0.15000001
6.8800001 -3.3659999 -0.15000001
6.888 -3.3499999 -0.15000001
6.8920002 -3.3329999 -0.15000001
6.9070001 -3.3199999 -0.15000001
6.9239998 -3.3080001 -0.15000001
6.9219999 -3.2869999 -0.15000001
6.9400001 -3.276 -0.15000001
6.9559999 -3.2639999 -0.15099999
6.9549999 -3.243 -0.15099999
6.9619999 -3.227 -0.15099999
6.9710002 -3.211 -0.15099999
6.9840002 -3.197 -0.15099999
6.9959998 -3.1819999 -0.15099999
7.0089998 -3.168 -0.15099999
7.0139999 -3.1500001 -0.15099999
7.0380001 -3.141 -0.152
7.0409999 -3.122 -0.152
7.0500002 -3.1059999 -0.152
7.0469999 -3.0840001 -0.152
7.0630002 -3.0710001 -0.152
7.0869999 -3.0610001 -0.152
7.105 -3.0480001 -0.152
7.1129999 -3.0309999 -0.153
7.1030002 -3.006 -0.152
7.1209998 -2.994 -0.152
7.132 -2.9779999 -0.153
7.1550002 -2.967 -0.153
7.1599998 -2.948 -0.153
7.171 -2.9319999 -0.153
7.1820002 -2.9159999 -0.153
7.1919999 -2.9000001 -0.153
7.2119999 -2.8870001 -0.154
7.2270002 -2.872 -0.154
7.2309999 -2.8529999 -0.154
7.2379999 -2.835 -0.154
7.257 -2.8210001 -0.154
7.2740002 -2.8069999 -0.154
7.2639999 -2.7820001 -0.154
7.2909999 -2.7720001 -0.155
7.2859998 -2.7490001 -0.154
7.2930002 -2.7309999 -0.154
7.3140001 -2.7179999 -0.155
7.3210001 -2.6989999 -0.155
7.3249998 -2.6789999 -0.155
7.3610001 -2.671 -0.155
7.362 -2.651 -0.155
7.368 -2.632 -0.155
7.3699999 -2.6110001 -0.155
7.3930001 -2.598 -0.156
7.395 -2.5769999 -0.156
7.427 -2.5669999 -0.156
7.4289999 -2.5469999 -0.156
7.4419999 -2.53 -0.156
7.4549999 -2.513 -0.156
7.4689999 -2.4960001 -0.15700001
7.4889998 -2.4809999 -0.15700001
7.5079999 -2.4660001 -0.15700001
7.5219998 -2.4489999 -0.15700001
7.5320001 -2.431 -0.15800001
7.5549998 -2.4159999 -0.15800001
7.559 -2.3959999 -0.15800001
7.5799999 -2.381 -0.15800001
7.586 -2.3610001 -0.15800001
7.5929999 -2.342 -0.15800001
7.598 -2.3210001 -0.15800001
7.6370001 -2.3110001 -0.15899999
7.6370001 -2.289 -0.15899999
7.631 -2.266 -0.15899999
7.6680002 -2.2550001 -0.15899999
7.6690001 -2.233 -0.15899999
7.6869998 -2.2160001 -0.15899999
7.7160001 -2.2030001 -0.16
7.7119999 -2.1789999 -0.16
7.7329998 -2.1630001 -0.16
7.7550001 -2.1470001 -0.16
7.776 -2.131 -0.161
7.7919998 -2.1129999 -0.161
7.7950001 -2.0910001 -0.161
7.8280001 -2.0780001 -0.161
7.8379998 -2.0580001 -0.162
7.8390002 -2.036 -0.161
7.869 -2.0209999 -0.162
7.8670001 -1.998 -0.162
7.8920002 -1.982 -0.162
7.8920002 -1.96 -0.162
7.9260001 -1.9450001 -0.163
7.9569998 -1.9299999 -0.163
7.9710002 -1.911 -0.163
7.9819999 -1.891 -0.163
7.994 -1.8710001 -0.164
8.0039997 -1.85 -0.164
8.033 -1.834 -0.164
8.0469999 -1.814 -0.164
8.0620003 -1.795 -0.16500001
8.0889997 -1.778 -0.16500001
8.1009998 -1.757 -0.16500001
8.1269999 -1.74 -0.16500001
8.1490002 -1.721 -0.16599999
8.1569996 -1.7 -0.16599999
8.1700001 -1.679 -0.16599999
8.1899996 -1.66 -0.16599999
8.2200003 -1.643 -0.167
8.2279997 -1.6210001 -0.167
8.2419996 -1.6 -0.167
8.2690001 -1.582 -0.167
8.283 -1.561 -0.168
8.3129997 -1.543 -0.168
8.3290005 -1.522 -0.168
8.342 -1.501 -0.168
8.3610001 -1.48 -0.169
8.3800001 -1.46 -0.169
8.3959999 -1.439 -0.169
8.4259996 -1.42 -0.17
8.4219999 -1.395 -0.169
8.4490004 -1.376 -0.17
8.4790001 -1.357 -0.17
8.5 -1.336 -0.171
8.5200005 -1.3150001 -0.171
8.5620003 -1.2970001 -0.17200001
8.5810003 -1.276 -0.17200001
8.6090002 -1.255 -0.17200001
8.6090002 -1.2309999 -0.17200001
8.6409998 -1.211 -0.17299999
8.6599998 -1.189 -0.17299999
8.6689997 -1.166 -0.17299999
8.6899996 -1.1440001 -0.17299999
8.7180004 -1.123 -0.17399999
8.7510004 -1.102 -0.17399999
8.7620001 -1.079 -0.17399999
8.7700005 -1.0549999 -0.17399999
8.8059998 -1.034 -0.175
8.8190002 -1.011 -0.175
8.842 -0.98799998 -0.175
8.8950005 -0.96899998 -0.176
8.9130001 -0.94599998 -0.177
8.9359999 -0.92299998 -0.177
8.9750004 -0.90200001 -0.177
8.9750004 -0.87599999 -0.177
9.0059996 -0.85399997 -0.178
9.0389996 -0.83099997 -0.178
9.059 -0.80699998 -0.17900001
9.073 -0.78299999 -0.17900001
9.0930004 -0.759 -0.17900001
9.1260004 -0.736 -0.18000001
9.1700001 -0.71399999 -0.18000001
9.1920004 -0.68900001 -0.18099999
9.2180004 -0.66500002 -0.18099999
9.2410002 -0.64099997 -0.18099999
9.302 -0.61900002 -0.182
9.3310003 -0.59399998 -0.183
9.3690004 -0.56999999 -0.183
9.3699999 -0.54400003 -0.183
9.3879995 -0.51800001 -0.183
9.4759998 -0.49599999 -0.185
9.4890003 -0.47 -0.185
9.2819996 0.16 -0.31400001
9.3249998 0.17299999 -0.31600001
9.2779999 0.183 -0.315
9.2749996 0.19499999 -0.315
9.2670002 0.207 -0.31400001
9.2539997 0.219 -0.31400001
9.2449999 0.23100001 -0.31400001
9.2320004 0.244 -0.31400001
9.2259998 0.257 -0.31299999
9.1899996 0.26899999 -0.31200001
9.2019997 0.28200001 -0.31299999
9.1520004 0.294 -0.31099999
9.1529999 0.308 -0.31200001
9.1750002 0.32300001 -0.31200001
9.1669998 0.336 -0.31200001
9.1800003 0.35100001 -0.31299999
9.1739998 0.36500001 -0.31299999
9.165 0.38 -0.31299999
9.165 0.39500001 -0.31299999
9.1700001 0.41 -0.31299999
9.1709995 0.426 -0.31400001
9.1789999 0.44100001 -0.31400001
9.1759996 0.45699999 -0.31400001
9.1759996 0.47299999 -0.31400001
9.1899996 0.49000001 -0.315
9.1999998 0.50700003 -0.31600001
9.1759996 0.52200001 -0.315
9.198 0.54000002 -0.31600001
9.21 0.55800003 -0.317
9.1999998 0.57499999 -0.31600001
9.2159996 0.59299999 -0.317
9.2299995 0.611 -0.31799999
9.2270002 0.62900001 -0.31799999
9.243 0.648 -0.31900001
9.2379999 0.66600001 -0.31900001
9.2370005 0.68400002 -0.31900001
9.2559996 0.70499998 -0.31999999
9.2609997 0.72399998 -0.31999999
9.2659998 0.74299997 -0.32100001
9.2790003 0.76300001 -0.322
9.283 0.78299999 -0.322
9.2939997 0.80400002 -0.32300001
9.3070002 0.82499999 -0.32300001
9.3149996 0.84600002 -0.324
9.3310003 0.86699998 -0.32499999
9.335 0.88800001 -0.32499999
9.3610001 0.91100001 -0.32600001
9.3500004 0.93099999 -0.32600001
9.3730001 0.95499998 -0.32699999
9.3769999 0.97600001 -0.32800001
9.3929996 0.99900001 -0.329
9.4029999 1.022 -0.329
9.4180002 1.046 -0.33000001
9.4130001 1.067 -0.33000001
9.441 1.0930001 -0.33199999
9.4549999 1.117 -0.333
9.4440002 1.138 -0.333
9.474 1.165 -0.33399999
9.4790001 1.189 -0.33399999
9.4910002 1.2130001 -0.33500001
9.5010004 1.238 -0.336
9.507 1.263 -0.33700001
9.5209999 1.288 -0.33700001
9.5480003 1.316 -0.33899999
9.5539999 1.341 -0.33899999
9.573 1.369 -0.34
9.585 1.395 -0.34099999
9.6110001 1.424 -0.34299999
9.6049995 1.448 -0.34299999
9.6269999 1.477 -0.34400001
9.6560001 1.507 -0.345
9.6569996 1.533 -0.34599999
9.6800003 1.562 -0.347
9.7110004 1.594 -0.34900001
9.717 1.6210001 -0.34900001
9.7410002 1.652 -0.34999999
9.7440004 1.679 -0.35100001
9.7650003 1.71 -0.352
9.7700005 1.738 -0.35299999
9.7939997 1.7690001 -0.354
9.8120003 1.8 -0.35499999
9.8109999 1.8279999 -0.35600001
9.8360004 1.8609999 -0.35699999
9.8500004 1.892 -0.35800001
9.8599997 1.9220001 -0.359
9.8800001 1.955 -0.36000001
9.8850002 1.985 -0.361
9.8870001 2.0139999 -0.361
9.9040003 2.0469999 -0.36199999
9.9289999 2.0810001 -0.36399999
9.9379997 2.1129999 -0.36500001
9.9499998 2.145 -0.366
9.9440002 2.174 -0.366
9.9659996 2.2090001 -0.36700001
9.9940004 2.2460001 -0.36899999
9.9980001 2.277 -0.37
10.01 2.3110001 -0.37099999
10.041 2.349 -0.37200001
10.044 2.381 -0.373
10.055 2.415 -0.37400001
10.082 2.454 -0.375
10.095 2.4890001 -0.37599999
10.114 2.5250001 -0.37799999
10.12 2.559 -0.37900001
10.153 2.5999999 -0.38
10.143 2.6300001 -0.38100001
10.177 2.6719999 -0.382
10.207 2.7130001 -0.384
10.228 2.7520001 -0.38600001
10.257 2.7939999 -0.38699999
10.266 2.8299999 -0.38800001
10.291 2.8710001 -0.38999999
10.334 2.918 -0.39199999
10.358 2.9590001 -0.39399999
10.351 2.9920001 -0.39399999
10.353 3.027 -0.39500001
10.363 3.066 -0.396
10.392 3.109 -0.398
10.391 3.145 -0.398
10.359 3.171 -0.398
10.388 3.2149999 -0.39899999
10.413 3.2590001 -0.40099999
10.427 3.3 -0.40200001
10.432 3.3380001 -0.403
10.458 3.3829999 -0.405
10.439 3.414 -0.405
10.453 3.4560001 -0.40599999
10.444 3.49 -0.40599999
10.458 3.5320001 -0.40799999
10.468 3.573 -0.40900001
10.498 3.6210001 -0.41100001
10.493 3.6570001 -0.41100001
10.523 3.7060001 -0.41299999
10.525 3.7449999 -0.414
10.526 3.7839999 -0.41499999
10.528 3.8239999 -0.41600001
10.538 3.8659999 -0.417
10.557 3.9130001 -0.41800001
10.558 3.9519999 -0.419
10.589 4.0040002 -0.421
10.623 4.0560002 -0.42300001
10.653 4.1079998 -0.42500001
10.666 4.1539998 -0.42699999
10.676 4.198 -0.428
10.691 4.2449999 -0.42899999
10.712 4.2940001 -0.43099999
10.728 4.342 -0.43200001
10.744 4.3899999 -0.43399999
10.772 4.4429998 -0.43599999
10.792 4.493 -0.43700001
10.827 4.5500002 -0.44
10.868 4.6100001 -0.442
10.905 4.6690001 -0.44499999
10.899 4.7090001 -0.44499999
10.928 4.7649999 -0.447
10.962 4.8239999 -0.44999999
10.973 4.8720002 -0.45100001
11.011 4.934 -0.45300001
11.045 4.994 -0.456
11.069 5.0489998 -0.458
11.077 5.098 -0.45899999
11.11 5.158 -0.461
11.138 5.217 -0.463
11.138 5.2620001 -0.46399999
11.193 5.335 -0.46799999
11.18 5.375 -0.46799999
11.191 5.427 -0.46900001
11.229 5.4920001 -0.472
11.23 5.539 -0.47299999
11.243 5.5929999 -0.47499999
11.276 5.6570001 -0.477
11.285 5.7090001 -0.47799999
11.298 5.763 -0.47999999
11.309 5.8169999 -0.48100001
8.2539997 4.2810001 -0.352
11.372 5.8979998 -0.48500001
8.1269999 4.25 -0.347
8.0410004 4.2389998 -0.34400001
7.9190001 4.2090001 -0.34
7.8720002 4.2189999 -0.33899999
7.8530002 4.243 -0.33899999
7.8639998 4.283 -0.34
7.908 4.3410001 -0.34200001
11.547 6.3390002 -0.5
11.418 6.3189998 -0.49599999
11.386 6.3509998 -0.495
11.402 6.4109998 -0.49700001
11.42 6.4710002 -0.49900001
11.403 6.513 -0.5
11.425 6.5760002 -0.50199997
11.424 6.6269999 -0.50300002
11.442 6.6890001 -0.505
11.444 6.7420001 -0.50599998
11.444 6.7940001 -0.50700003
11.469 6.8610001 -0.509
11.46 6.9070001 -0.50999999
11.465 6.9629998 -0.51099998
11.464 7.0149999 -0.51300001
11.446 7.0570002 -0.51300001
9.8079996 6.6479998 -0.45300001
9.7440004 6.651 -0.45100001
9.7180004 6.6799998 -0.45100001
9.7080002 6.7199998 -0.45199999
9.8070002 6.836 -0.458
6.2820001 -4.1529999 -0.127
6.323 -4.1399999 -0.127
6.348 -4.1170001 -0.12800001
6.3670001 -4.0890002 -0.12800001
6.388 -4.0630002 -0.12800001
6.414 -4.0409999 -0.12800001
6.4429998 -4.02 -0.12899999
6.4549999 -3.9890001 -0.12899999
6.4770002 -3.964 -0.12899999
6.4959998 -3.938 -0.12899999
6.5240002 -3.9159999 -0.13
6.5469999 -3.8929999 -0.13
6.5510001 -3.8570001 -0.13
6.5650001 -3.8280001 -0.13
6.5830002 -3.802 -0.13
6.599 -3.7739999 -0.13
6.6149998 -3.747 -0.13
6.6360002 -3.723 -0.131
6.6560001 -3.698 -0.131
6.684 -3.677 -0.131
6.7080002 -3.655 -0.131
6.7150002 -3.6229999 -0.131
6.743 -3.6029999 -0.132
6.7420001 -3.5669999 -0.132
6.7659998 -3.5450001 -0.132
6.7750001 -3.5139999 -0.132
6.7859998 -3.4860001 -0.132
6.8010001 -3.4590001 -0.132
6.8249998 -3.437 -0.132
6.8569999 -3.4189999 -0.133
6.868 -3.391 -0.133
6.8790002 -3.3629999 -0.133
6.9000001 -3.3399999 -0.133
6.9299998 -3.3210001 -0.134
6.941 -3.293 -0.134
6.96 -3.2690001 -0.134
6.9749999 -3.243 -0.134
6.9910002 -3.2179999 -0.134
7.0079999 -3.194 -0.134
7.0310001 -3.1719999 -0.13500001
7.046 -3.1470001 -0.13500001
7.0570002 -3.1199999 -0.13500001
7.0689998 -3.0929999 -0.13500001
7.098 -3.0739999 -0.13500001
7.1149998 -3.05 -0.13500001
7.145 -3.0320001 -0.13600001
7.1500001 -3.003 -0.13600001
7.165 -2.9779999 -0.13600001
7.1869998 -2.9560001 -0.13600001
7.2129998 -2.937 -0.13699999
7.2379999 -2.9159999 -0.13699999
7.2319999 -2.8829999 -0.13699999
7.2729998 -2.869 -0.13699999
7.2909999 -2.846 -0.138
7.2989998 -2.819 -0.138
7.309 -2.7939999 -0.138
7.3379998 -2.7750001 -0.138
7.349 -2.7490001 -0.138
7.3699999 -2.7279999 -0.138
7.3870001 -2.7049999 -0.139
7.4039998 -2.6819999 -0.139
7.4120002 -2.6559999 -0.139
7.4229999 -2.631 -0.139
7.4549999 -2.6129999 -0.139
7.4640002 -2.5880001 -0.139
7.4899998 -2.5680001 -0.14
7.52 -2.55 -0.14
7.5339999 -2.527 -0.14
7.5409999 -2.5009999 -0.14
7.5619998 -2.48 -0.14
7.6059999 -2.4660001 -0.141
7.618 -2.4419999 -0.141
7.6490002 -2.425 -0.142
7.6469998 -2.3970001 -0.142
7.6820002 -2.3800001 -0.142
7.7010002 -2.358 -0.142
7.7129998 -2.335 -0.142
7.7210002 -2.3099999 -0.142
7.7399998 -2.289 -0.14300001
7.7639999 -2.2690001 -0.14300001
7.7859998 -2.2490001 -0.14300001
7.803 -2.227 -0.14300001
7.8270001 -2.207 -0.14399999
7.8280001 -2.181 -0.14399999
7.8800001 -2.1689999 -0.14399999
7.888 -2.145 -0.14399999
7.8940001 -2.1210001 -0.14399999
7.915 -2.0999999 -0.145
7.9330001 -2.079 -0.145
7.9559999 -2.059 -0.145
7.9749999 -2.0380001 -0.145
8.0089998 -2.0209999 -0.146
8.0380001 -2.003 -0.146
8.0539999 -1.982 -0.147
8.0559998 -1.957 -0.146
8.0819998 -1.938 -0.147
8.1059999 -1.919 -0.147
8.1219997 -1.897 -0.147
8.1479998 -1.878 -0.148
8.1569996 -1.8559999 -0.148
8.1859999 -1.8380001 -0.148
8.1890001 -1.813 -0.148
8.2250004 -1.7970001 -0.149
8.2399998 -1.776 -0.149
8.2670002 -1.757 -0.149
8.2670002 -1.733 -0.149
8.3059998 -1.717 -0.15000001
8.3199997 -1.696 -0.15000001
8.3199997 -1.6720001 -0.15000001
8.3470001 -1.653 -0.15000001
8.3900003 -1.638 -0.15099999
8.4069996 -1.618 -0.15099999
8.4259996 -1.598 -0.15099999
8.4499998 -1.579 -0.152
8.448 -1.5549999 -0.15099999
8.4610004 -1.534 -0.152
8.4870005 -1.516 -0.152
8.5030003 -1.4960001 -0.152
8.5150003 -1.475 -0.152
8.5369997 -1.456 -0.153
8.5640001 -1.438 -0.153
8.5839996 -1.418 -0.153
8.5860004 -1.396 -0.153
8.6090002 -1.377 -0.153
8.6199999 -1.357 -0.153
8.651 -1.339 -0.154
8.677 -1.321 -0.154
8.6859999 -1.3 -0.154
8.717 -1.283 -0.155
8.7290001 -1.263 -0.155
8.7399998 -1.243 -0.155
8.7530003 -1.223 -0.155
8.7799997 -1.205 -0.156
8.7819996 -1.184 -0.156
8.7989998 -1.164 -0.156
8.8210001 -1.146 -0.156
8.8590002 -1.13 -0.15700001
8.8649998 -1.109 -0.15700001
8.8850002 -1.091 -0.15700001
8.8990002 -1.072 -0.15700001
8.8979998 -1.051 -0.15700001
8.9300003 -1.034 -0.15700001
8.9420004 -1.0140001 -0.15800001
8.9720001 -0.99699998 -0.15800001
8.9820004 -0.97799999 -0.15800001
9.0109997 -0.96100003 -0.15899999
9.0500002 -0.94499999 -0.15899999
9.052 -0.92500001 -0.15899999
9.0620003 -0.90499997 -0.15899999
9.0699997 -0.88599998 -0.15899999
9.0939999 -0.86900002 -0.16
9.1149998 -0.85100001 -0.16
9.1389999 -0.833 -0.16
9.1409998 -0.81400001 -0.16
9.1800003 -0.79799998 -0.161
9.2069998 -0.78100002 -0.161
9.2290001 -0.76300001 -0.162
9.2340002 -0.745 -0.162
9.2329998 -0.72500002 -0.161
9.2659998 -0.70899999 -0.162
9.2729998 -0.69 -0.162
9.2810001 -0.67199999 -0.162
9.3129997 -0.65600002 -0.163
9.3070002 -0.63700002 -0.162
9.3290005 -0.62 -0.163
9.3459997 -0.602 -0.163
9.3879995 -0.58700001 -0.164
9.3909998 -0.56900001 -0.164
9.4309998 -0.55299997 -0.164
9.4350004 -0.53500003 -0.164
9.4639997 -0.51899999 -0.16500001
9.5089998 -0.50300002 -0.16500001
9.5439997 -0.48699999 -0.16599999
9.5360003 -0.46900001 -0.16599999
9.5810003 -0.454 -0.16599999
9.6379995 -0.43900001 -0.167
9.5950003 -0.419 -0.16599999
9.6429996 -0.40400001 -0.167
9.1040001 0.108 -0.28400001
9.1459999 0.125 -0.285
9.1520004 0.142 -0.28600001
9.1569996 0.15899999 -0.28600001
9.151 0.176 -0.28600001
9.1990004 0.19499999 -0.28799999
9.1859999 0.212 -0.287
9.1789999 0.23 -0.287
9.1700001 0.24699999 -0.287
9.184 0.266 -0.28799999
9.1870003 0.285 -0.28799999
9.1899996 0.303 -0.28799999
9.2030001 0.322 -0.289
9.1969995 0.34099999 -0.289
9.2089996 0.361 -0.28999999
9.2189999 0.38100001 -0.28999999
9.2159996 0.40000001 -0.28999999
9.2390003 0.421 -0.29100001
9.2220001 0.44 -0.29100001
9.2449999 0.461 -0.292
9.25 0.48199999 -0.292
9.2559996 0.50300002 -0.29300001
9.2629995 0.52399999 -0.29300001
9.2709999 0.54500002 -0.29300001
9.2799997 0.56699997 -0.294
9.29 0.58899999 -0.29499999
9.309 0.611 -0.29499999
9.3100004 0.63300002 -0.296
9.3129997 0.65499997 -0.296
9.3260002 0.67799997 -0.29699999
9.3380003 0.70099998 -0.29699999
9.3339996 0.72299999 -0.29699999
9.3549995 0.74699998 -0.29800001
9.3529997 0.76999998 -0.29899999
9.3780003 0.79500002 -0.30000001
9.382 0.81900001 -0.30000001
9.3879995 0.84200001 -0.301
9.4069996 0.86799997 -0.301
9.4139996 0.89200002 -0.30199999
9.4289999 0.917 -0.303
9.4399996 0.94199997 -0.303
9.4659996 0.96899998 -0.30500001
9.4779997 0.995 -0.30500001
9.4969997 1.021 -0.30599999
9.5120001 1.048 -0.30700001
9.5190001 1.074 -0.30700001
9.5249996 1.099 -0.308
9.5279999 1.125 -0.308
9.552 1.153 -0.31
9.5640001 1.181 -0.31
9.5749998 1.2079999 -0.31099999
9.5950003 1.2359999 -0.31200001
9.6099997 1.265 -0.31299999
9.6090002 1.291 -0.31299999
9.6289997 1.3200001 -0.31400001
9.6470003 1.349 -0.315
9.6669998 1.3789999 -0.31600001
9.698 1.411 -0.317
9.7040005 1.439 -0.31799999
9.717 1.4680001 -0.31900001
9.7390003 1.499 -0.31999999
9.7480001 1.528 -0.32100001
9.7720003 1.5599999 -0.322
9.7980003 1.5930001 -0.32300001
9.8170004 1.624 -0.324
9.8299999 1.655 -0.32499999
9.8459997 1.686 -0.32600001
9.8629999 1.7180001 -0.32699999
9.8780003 1.75 -0.32800001
9.8929996 1.7819999 -0.329
9.927 1.818 -0.33000001
9.9359999 1.849 -0.331
9.9499998 1.881 -0.33199999
9.9680004 1.915 -0.333
9.9989996 1.951 -0.33399999
10.003 1.982 -0.33500001
10.018 2.016 -0.336
10.023 2.0469999 -0.33700001
10.035 2.0810001 -0.33700001
10.069 2.119 -0.33899999
10.089 2.154 -0.34
10.083 2.184 -0.34
10.101 2.2190001 -0.34200001
10.12 2.2550001 -0.34299999
10.13 2.289 -0.34299999
10.139 2.323 -0.34400001
10.152 2.358 -0.345
10.177 2.3959999 -0.347
10.193 2.4330001 -0.34799999
10.214 2.47 -0.34900001
10.221 2.5050001 -0.34999999
10.246 2.5439999 -0.35100001
10.244 2.576 -0.35100001
10.253 2.612 -0.352
10.274 2.6500001 -0.354
10.31 2.6930001 -0.35499999
10.356 2.7390001 -0.35699999
10.368 2.776 -0.35800001
10.394 2.8169999 -0.36000001
10.421 2.859 -0.361
10.436 2.8970001 -0.36199999
10.464 2.9400001 -0.36399999
10.473 2.977 -0.36500001
10.496 3.0190001 -0.366
10.52 3.0610001 -0.368
10.542 3.102 -0.36899999
10.541 3.138 -0.37
10.529 3.1689999 -0.37
10.553 3.2119999 -0.37099999
10.563 3.2509999 -0.37200001
10.594 3.296 -0.37400001
10.595 3.3329999 -0.37400001
10.601 3.3710001 -0.375
10.625 3.415 -0.377
10.654 3.461 -0.37799999
10.65 3.4960001 -0.37900001
10.65 3.533 -0.38
10.631 3.563 -0.38
10.641 3.6029999 -0.38100001
10.657 3.645 -0.382
10.674 3.688 -0.38299999
10.667 3.723 -0.38299999
10.668 3.76 -0.384
10.678 3.8010001 -0.38499999
10.669 3.835 -0.38600001
10.707 3.8870001 -0.38800001
10.71 3.925 -0.38800001
10.729 3.97 -0.38999999
10.742 4.0120001 -0.391
10.774 4.0630002 -0.39300001
10.783 4.1040001 -0.39399999
10.799 4.1490002 -0.39500001
10.817 4.1939998 -0.396
10.821 4.2340002 -0.39700001
10.847 4.2820001 -0.39899999
10.848 4.322 -0.40000001
10.879 4.3730001 -0.40200001
10.893 4.4169998 -0.403
10.908 4.4629998 -0.40400001
10.949 4.5190001 -0.40599999
10.969 4.566 -0.40799999
10.98 4.6100001 -0.40900001
11.043 4.677 -0.412
11.051 4.7199998 -0.41299999
11.074 4.77 -0.41499999
11.101 4.822 -0.417
11.146 4.881 -0.419
11.156 4.9260001 -0.41999999
11.197 4.9850001 -0.42300001
11.212 5.0320001 -0.42399999
11.221 5.0770001 -0.42500001
11.244 5.1279998 -0.42699999
11.267 5.1799998 -0.42899999
11.281 5.2270002 -0.43000001
11.318 5.2849998 -0.43200001
11.318 5.3270001 -0.433
11.339 5.3779998 -0.435
11.369 5.434 -0.43700001
11.402 5.4910002 -0.43900001
11.407 5.5349998 -0.44
11.417 5.5819998 -0.44100001
11.434 5.632 -0.44299999
11.452 5.6830001 -0.44400001
11.47 5.7340002 -0.44600001
11.491 5.7859998 -0.447
11.492 5.8280001 -0.44800001
11.521 5.8850002 -0.44999999
11.519 5.927 -0.45100001
11.546 5.9819999 -0.45300001
8.1800003 4.2680001 -0.322
11.705 6.1079998 -0.46000001
8.0900002 4.2509999 -0.31900001
7.9640002 4.2140002 -0.31400001
7.8940001 4.2059999 -0.31200001
7.8610001 4.217 -0.31099999
7.849 4.2389998 -0.31200001
7.8429999 4.2639999 -0.31200001
7.8850002 4.316 -0.31400001
8.0629997 4.4429998 -0.322
11.717 6.4559999 -0.46799999
11.695 6.4860001 -0.46799999
11.712 6.539 -0.47
11.745 6.5999999 -0.472
11.758 6.6500001 -0.47400001
11.781 6.7059999 -0.47600001
11.788 6.7519999 -0.477
11.816 6.8109999 -0.479
11.817 6.8540001 -0.47999999
11.842 6.9120002 -0.48199999
11.871 6.9710002 -0.484
11.901 7.0320001 -0.486
11.91 7.0799999 -0.48800001
12.003 7.178 -0.493
9.7379999 6.7639999 -0.42399999
9.6669998 6.7459998 -0.42199999
9.6370001 6.757 -0.421
9.625 6.7789998 -0.42199999
9.5930004 6.7870002 -0.421
9.5500002 6.7870002 -0.41999999
9.5200005 6.796 -0.41999999
9.4809999 6.7979999 -0.419
9.4650002 6.816 -0.419
9.4510002 6.835 -0.419
9.4499998 6.8639998 -0.41999999
9.4309998 6.8790002 -0.41999999
6.704 -3.9289999 -0.117
6.7160001 -3.9170001 -0.117
6.7309999 -3.9070001 -0.117
6.7340002 -3.8889999 -0.117
6.7399998 -3.8740001 -0.117
6.7490001 -3.8599999 -0.117
6.757 -3.846 -0.117
6.7649999 -3.8310001 -0.117
6.777 -3.819 -0.117
6.7880001 -3.806 -0.117
6.7909999 -3.789 -0.117
6.8099999 -3.78 -0.117
6.8189998 -3.7650001 -0.117
6.823 -3.7490001 -0.117
6.8340001 -3.7349999 -0.118
6.8400002 -3.7190001 -0.118
6.8639998 -3.7119999 -0.118
6.8530002 -3.687 -0.118
6.8569999 -3.6700001 -0.118
6.875 -3.6600001 -0.118
6.875 -3.6400001 -0.118
6.8860002 -3.6270001 -0.118
6.8940001 -3.6110001 -0.118
6.9060001 -3.598 -0.118
6.915 -3.5829999 -0.118
6.9180002 -3.5650001 -0.118
6.9320002 -3.552 -0.118
6.9419999 -3.5369999 -0.118
6.9530001 -3.523 -0.118
6.9559999 -3.5050001 -0.118
6.948 -3.4809999 -0.118
6.9720001 -3.473 -0.118
6.9749999 -3.454 -0.118
6.9910002 -3.4419999 -0.119
6.9949999 -3.424 -0.118
7.0029998 -3.408 -0.119
7.0240002 -3.3989999 -0.119
7.0380001 -3.385 -0.119
7.052 -3.3710001 -0.119
7.073 -3.3610001 -0.119
7.0809999 -3.345 -0.119
7.0890002 -3.3280001 -0.119
7.0970001 -3.3110001 -0.119
7.1059999 -3.296 -0.12
7.1199999 -3.2809999 -0.12
7.1329999 -3.267 -0.12
7.1409998 -3.25 -0.12
7.1479998 -3.233 -0.12
7.1620002 -3.2190001 -0.12
7.178 -3.2049999 -0.12
7.1960001 -3.1919999 -0.12
7.2059999 -3.1760001 -0.12
7.1869998 -3.1470001 -0.12
7.2199998 -3.141 -0.12
7.243 -3.1300001 -0.121
7.2399998 -3.108 -0.121
7.256 -3.0940001 -0.121
7.2519999 -3.0710001 -0.121
7.2659998 -3.056 -0.121
7.2870002 -3.0439999 -0.121
7.2950001 -3.026 -0.121
7.3200002 -3.016 -0.121
7.329 -2.9979999 -0.121
7.3410001 -2.9820001 -0.122
7.369 -2.973 -0.122
7.3649998 -2.9489999 -0.122
7.3709998 -2.931 -0.122
7.381 -2.914 -0.122
7.4029999 -2.901 -0.122
7.4250002 -2.888 -0.122
7.4400001 -2.8729999 -0.122
7.4330001 -2.849 -0.122
7.461 -2.8380001 -0.123
7.448 -2.8110001 -0.122
7.4809999 -2.802 -0.123
7.4790001 -2.78 -0.123
7.5079999 -2.7690001 -0.123
7.5209999 -2.7520001 -0.123
7.526 -2.7320001 -0.123
7.5440001 -2.717 -0.123
7.5619998 -2.7019999 -0.123
7.5770001 -2.6860001 -0.124
7.5809999 -2.665 -0.124
7.5970001 -2.6489999 -0.124
7.612 -2.632 -0.124
7.6300001 -2.6170001 -0.124
7.631 -2.595 -0.124
7.6620002 -2.5840001 -0.124
7.6589999 -2.5610001 -0.124
7.677 -2.5450001 -0.124
7.697 -2.529 -0.125
7.7119999 -2.5120001 -0.125
7.7220001 -2.493 -0.125
7.7459998 -2.4779999 -0.125
7.7519999 -2.4579999 -0.125
7.7729998 -2.4419999 -0.125
7.7849998 -2.424 -0.125
7.7989998 -2.4059999 -0.126
7.8189998 -2.3900001 -0.126
7.8379998 -2.3729999 -0.126
7.8520002 -2.355 -0.126
7.8639998 -2.336 -0.126
7.868 -2.3139999 -0.126
7.8790002 -2.2950001 -0.126
7.9109998 -2.2820001 -0.127
7.9229999 -2.2620001 -0.127
7.9369998 -2.244 -0.127
7.9460001 -2.224 -0.127
7.973 -2.2079999 -0.127
7.9879999 -2.1889999 -0.127
8.0159998 -2.174 -0.12800001
8.0270004 -2.154 -0.12800001
8.04 -2.135 -0.12800001
8.0450001 -2.1129999 -0.12800001
8.0649996 -2.095 -0.12800001
8.085 -2.0769999 -0.12800001
8.0970001 -2.0569999 -0.12800001
8.1020002 -2.0350001 -0.12800001
8.1280003 -2.0190001 -0.12899999
8.1619997 -2.0039999 -0.12899999
8.1820002 -1.985 -0.12899999
8.1999998 -1.966 -0.12899999
8.1990004 -1.943 -0.12899999
8.2180004 -1.924 -0.13
8.2440004 -1.906 -0.13
8.2559996 -1.885 -0.13
8.2810001 -1.867 -0.13
8.3030005 -1.849 -0.13
8.3079996 -1.826 -0.13
8.3389997 -1.809 -0.131
8.3439999 -1.786 -0.131
8.3710003 -1.768 -0.131
8.401 -1.751 -0.131
8.4060001 -1.728 -0.131
8.4259996 -1.7079999 -0.132
8.4209995 -1.683 -0.131
8.4499998 -1.664 -0.132
8.4630003 -1.643 -0.132
8.4940004 -1.625 -0.132
8.5129995 -1.604 -0.132
8.5389996 -1.585 -0.133
8.5640001 -1.5650001 -0.133
8.5649996 -1.541 -0.133
8.5869999 -1.52 -0.133
8.5979996 -1.498 -0.133
8.6190004 -1.477 -0.133
8.6470003 -1.457 -0.134
8.6689997 -1.436 -0.134
8.691 -1.415 -0.134
8.7089996 -1.393 -0.134
8.7279997 -1.372 -0.13500001
8.7460003 -1.35 -0.13500001
8.7740002 -1.329 -0.13500001
8.7860003 -1.306 -0.13500001
8.8199997 -1.286 -0.13500001
8.8290005 -1.262 -0.13600001
8.8540001 -1.24 -0.13600001
8.8859997 -1.22 -0.13600001
8.9020004 -1.197 -0.13600001
8.9280005 -1.175 -0.13699999
8.9510002 -1.152 -0.13699999
8.9790001 -1.131 -0.13699999
9.0100002 -1.109 -0.13699999
9.0109997 -1.0829999 -0.13699999
9.0299997 -1.0599999 -0.138
9.0719995 -1.039 -0.138
9.1149998 -1.018 -0.139
9.1199999 -0.99299997 -0.139
9.1400003 -0.96899998 -0.139
9.158 -0.94499999 -0.139
9.1990004 -0.92400002 -0.139
9.2270002 -0.89999998 -0.14
9.2639999 -0.87800002 -0.14
9.2810001 -0.85299999 -0.14
9.2989998 -0.82800001 -0.14
9.3260002 -0.80400002 -0.141
9.3669996 -0.78100002 -0.141
9.3780003 -0.75599998 -0.141
9.3780003 -0.72899997 -0.141
9.4219999 -0.70599997 -0.142
9.4329996 -0.68000001 -0.142
9.4910002 -0.65700001 -0.142
9.5500002 -0.634 -0.14300001
9.5640001 -0.60799998 -0.14300001
9.6339998 -0.58499998 -0.14399999
9.6499996 -0.55900002 -0.14399999
9.7089996 -0.53500003 -0.145
9.7220001 -0.50800002 -0.145
9.7659998 -0.48300001 -0.146
9.6169996 0.18000001 -0.27599999
9.6529999 0.193 -0.278
9.6219997 0.205 -0.27700001
9.5710001 0.21600001 -0.27500001
9.5930004 0.229 -0.27599999
9.5380001 0.241 -0.27500001
9.5290003 0.25400001 -0.27500001
9.4980001 0.266 -0.27399999
9.5010004 0.28 -0.27399999
9.4949999 0.29300001 -0.27399999
9.4969997 0.30700001 -0.27399999
9.4879999 0.32100001 -0.27399999
9.4689999 0.33500001 -0.27399999
9.46 0.34900001 -0.27399999
9.4940004 0.36500001 -0.27500001
9.4799995 0.37900001 -0.27500001
9.4899998 0.39500001 -0.27500001
9.493 0.41100001 -0.27500001
9.4770002 0.426 -0.27500001
9.4709997 0.44100001 -0.27500001
9.4759998 0.45699999 -0.27500001
9.4790001 0.47400001 -0.27599999
9.4890003 0.491 -0.27599999
9.4949999 0.50800002 -0.27700001
9.5019999 0.52499998 -0.27700001
9.5129995 0.54299998 -0.27700001
9.5249996 0.56099999 -0.278
9.5109997 0.57800001 -0.278
9.5439997 0.597 -0.27900001
9.54 0.61500001 -0.27900001
9.5469999 0.634 -0.28
9.5600004 0.653 -0.28
9.559 0.67199999 -0.28
9.5810003 0.69199997 -0.28099999
9.5780001 0.71100003 -0.28099999
9.5760002 0.73000002 -0.28200001
9.5930004 0.75099999 -0.28200001
9.6199999 0.773 -0.28299999
9.6309996 0.79400003 -0.28400001
9.6199999 0.81300002 -0.28400001
9.6219997 0.833 -0.28400001
9.6309996 0.85500002 -0.285
9.6450005 0.87699997 -0.285
9.6470003 0.898 -0.28600001
9.6669998 0.921 -0.287
9.6739998 0.94300002 -0.287
9.7049999 0.96700001 -0.28799999
9.7040005 0.98900002 -0.289
9.7069998 1.011 -0.289
9.7399998 1.0369999 -0.28999999
9.7589998 1.062 -0.29100001
9.7390003 1.082 -0.29100001
9.7539997 1.107 -0.292
9.7519999 1.1289999 -0.292
9.7639999 1.154 -0.29300001
9.7700005 1.178 -0.29300001
9.7749996 1.2029999 -0.294
9.8050003 1.23 -0.29499999
9.7930002 1.253 -0.29499999
9.8120003 1.279 -0.296
9.8170004 1.304 -0.296
9.8190002 1.329 -0.29699999
9.8520002 1.359 -0.29800001
9.8520002 1.3839999 -0.29800001
9.8830004 1.413 -0.30000001
9.8809996 1.438 -0.30000001
9.8970003 1.467 -0.301
9.908 1.494 -0.301
9.9219999 1.522 -0.30199999
9.9420004 1.552 -0.303
9.9490004 1.579 -0.30399999
9.9689999 1.609 -0.30500001
9.9799995 1.638 -0.30599999
9.9820004 1.665 -0.30599999
9.9809999 1.693 -0.30599999
10.006 1.724 -0.308
10.028 1.756 -0.30899999
10.023 1.783 -0.30899999
10.039 1.814 -0.31
10.06 1.846 -0.31099999
10.076 1.878 -0.31200001
10.085 1.908 -0.31299999
10.1 1.9400001 -0.31299999
10.116 1.972 -0.31400001
10.154 2.0090001 -0.31600001
10.164 2.0409999 -0.317
10.204 2.079 -0.31900001
10.198 2.1070001 -0.31900001
10.211 2.1400001 -0.31999999
10.225 2.174 -0.32100001
10.247 2.2090001 -0.322
10.243 2.2390001 -0.322
10.272 2.277 -0.32300001
10.265 2.3069999 -0.324
10.289 2.3429999 -0.32499999
10.332 2.385 -0.32699999
10.313 2.4130001 -0.32699999
10.323 2.447 -0.32800001
10.339 2.483 -0.329
10.355 2.52 -0.33000001
10.376 2.5569999 -0.331
10.374 2.5899999 -0.331
10.378 2.6240001 -0.33199999
10.41 2.6659999 -0.33399999
10.435 2.7060001 -0.33500001
10.453 2.744 -0.336
10.464 2.7809999 -0.33700001
10.486 2.8210001 -0.338
10.523 2.8659999 -0.34
10.537 2.904 -0.34099999
10.548 2.9419999 -0.34200001
10.562 2.9809999 -0.34299999
10.594 3.026 -0.345
10.605 3.0650001 -0.345
10.638 3.1099999 -0.347
10.683 3.1600001 -0.34900001
10.704 3.2019999 -0.35100001
10.709 3.24 -0.35100001
10.713 3.279 -0.352
10.743 3.325 -0.354
10.775 3.372 -0.35499999
10.796 3.4159999 -0.35699999
10.804 3.457 -0.35800001
10.802 3.494 -0.35800001
10.829 3.5409999 -0.36000001
10.843 3.5840001 -0.361
10.871 3.632 -0.36199999
10.873 3.671 -0.36300001
10.858 3.7049999 -0.36300001
10.869 3.7479999 -0.36399999
10.848 3.78 -0.36399999
10.842 3.8180001 -0.36500001
10.851 3.8599999 -0.366
10.889 3.914 -0.368
10.911 3.9619999 -0.36899999
10.905 4 -0.37
10.913 4.0440001 -0.37099999
10.917 4.086 -0.37200001
10.969 4.1459999 -0.37400001
10.952 4.1810002 -0.37400001
10.96 4.2249999 -0.375
11.019 4.29 -0.37799999
11.07 4.3520002 -0.38
11.083 4.3990002 -0.382
11.077 4.4390001 -0.382
11.123 4.5009999 -0.38499999
11.157 4.5570002 -0.38699999
11.184 4.612 -0.38800001
11.238 4.678 -0.391
11.267 4.7340002 -0.39300001
11.284 4.7849998 -0.39399999
11.323 4.8470001 -0.396
11.333 4.895 -0.39700001
11.366 4.9549999 -0.39899999
11.385 5.0079999 -0.40099999
11.42 5.0700002 -0.403
11.432 5.1209998 -0.40400001
11.473 5.1859999 -0.40700001
11.488 5.2389998 -0.40799999
11.514 5.2969999 -0.41
11.545 5.3579998 -0.412
11.563 5.414 -0.41299999
11.571 5.4650002 -0.414
11.569 5.5120001 -0.41499999
11.586 5.5679998 -0.417
11.631 5.638 -0.419
11.652 5.697 -0.421
11.664 5.7519999 -0.42199999
11.675 5.8060002 -0.42399999
11.692 5.8629999 -0.42500001
11.696 5.915 -0.426
11.711 5.973 -0.428
8.2799997 4.2579999 -0.303
11.79 6.0630002 -0.43099999
8.125 4.2129998 -0.29800001
7.9980001 4.1820002 -0.294
7.9109998 4.1700001 -0.29100001
7.8720002 4.1830001 -0.29100001
7.8639998 4.2129998 -0.29100001
7.8600001 4.2449999 -0.29100001
7.9369998 4.322 -0.29499999
12.045 6.5580001 -0.44800001
11.902 6.533 -0.44400001
11.933 6.6020002 -0.44600001
11.944 6.6609998 -0.447
11.964 6.7249999 -0.449
11.953 6.7719998 -0.44999999
11.998 6.8499999 -0.45199999
12.018 6.9159999 -0.454
12.006 6.9629998 -0.45500001
12.005 7.0159998 -0.456
12.06 7.1020002 -0.45899999
9.8529997 6.5819998 -0.38999999
9.8450003 6.6240001 -0.391
9.7250004 6.9200001 -0.39399999
9.585 6.8670001 -0.389
9.5270004 6.8730001 -0.38800001
6.4159999 -4.2389998 -0.097999997
6.4580002 -4.2259998 -0.097999997
6.4829998 -4.2020001 -0.097999997
6.5050001 -4.1760001 -0.098999999
6.5310001 -4.152 -0.098999999
6.546 -4.1220002 -0.098999999
6.566 -4.0949998 -0.098999999
6.5890002 -4.0700002 -0.098999999
6.6079998 -4.0430002 -0.098999999
6.6259999 -4.0139999 -0.098999999
6.6399999 -3.984 -0.098999999
6.665 -3.961 -0.1
6.6869998 -3.9360001 -0.1
6.7010002 -3.9059999 -0.1
6.7329998 -3.8870001 -0.1
6.744 -3.8559999 -0.1
6.7659998 -3.8310001 -0.1
6.7649999 -3.793 -0.1
6.783 -3.767 -0.1
6.8130002 -3.7460001 -0.101
6.8239999 -3.7160001 -0.101
6.8429999 -3.6900001 -0.101
6.8629999 -3.665 -0.101
6.8850002 -3.641 -0.101
6.895 -3.6099999 -0.101
6.9120002 -3.5840001 -0.101
6.9159999 -3.5510001 -0.101
6.9429998 -3.53 -0.101
6.9569998 -3.5020001 -0.102
6.9840002 -3.4809999 -0.102
7.0089998 -3.4590001 -0.102
7.0359998 -3.4389999 -0.102
7.0570002 -3.414 -0.102
7.073 -3.388 -0.102
7.0949998 -3.365 -0.103
7.1139998 -3.3399999 -0.103
7.1279998 -3.3139999 -0.103
7.1420002 -3.2869999 -0.103
7.1599998 -3.2620001 -0.103
7.1929998 -3.244 -0.103
7.2030001 -3.2160001 -0.103
7.2290001 -3.1949999 -0.104
7.2259998 -3.161 -0.104
7.2519999 -3.1400001 -0.104
7.2719998 -3.1170001 -0.104
7.2870002 -3.0910001 -0.104
7.3140001 -3.0710001 -0.104
7.336 -3.0480001 -0.104
7.335 -3.016 -0.104
7.3790002 -3.003 -0.105
7.3979998 -2.98 -0.105
7.414 -2.9549999 -0.105
7.4190001 -2.9260001 -0.105
7.447 -2.9059999 -0.105
7.4790001 -2.888 -0.106
7.4899998 -2.862 -0.106
7.5139999 -2.8399999 -0.106
7.5250001 -2.8139999 -0.106
7.5450001 -2.7920001 -0.106
7.5840001 -2.776 -0.106
7.5929999 -2.75 -0.106
7.6160002 -2.7279999 -0.107
7.618 -2.6989999 -0.107
7.6550002 -2.6830001 -0.107
7.684 -2.664 -0.107
7.698 -2.6389999 -0.107
7.7150002 -2.6159999 -0.107
7.7220001 -2.589 -0.107
7.7470002 -2.569 -0.108
7.7820001 -2.552 -0.108
7.7839999 -2.5239999 -0.108
7.8130002 -2.5039999 -0.108
7.8330002 -2.4820001 -0.108
7.8569999 -2.4619999 -0.109
7.8720002 -2.438 -0.109
7.8959999 -2.418 -0.109
7.928 -2.3989999 -0.109
7.941 -2.375 -0.109
7.9710002 -2.3570001 -0.11
7.9850001 -2.3329999 -0.11
8 -2.3099999 -0.11
8.0279999 -2.2909999 -0.11
8.0489998 -2.2690001 -0.11
8.0699997 -2.2479999 -0.11
8.0979996 -2.2290001 -0.111
8.1029997 -2.2030001 -0.111
8.1239996 -2.1819999 -0.111
8.151 -2.1619999 -0.111
8.1719999 -2.141 -0.111
8.1990004 -2.122 -0.112
8.198 -2.095 -0.111
8.2340002 -2.0780001 -0.112
8.2370005 -2.052 -0.112
8.2729998 -2.0350001 -0.112
8.2930002 -2.0139999 -0.112
8.3260002 -1.9960001 -0.113
8.3319998 -1.972 -0.113
8.3649998 -1.954 -0.113
8.3719997 -1.9299999 -0.113
8.3780003 -1.906 -0.113
8.4139996 -1.8890001 -0.113
8.4309998 -1.867 -0.114
8.4460001 -1.845 -0.114
8.4619999 -1.824 -0.114
8.4980001 -1.806 -0.114
8.5150003 -1.785 -0.114
8.54 -1.765 -0.114
8.5579996 -1.744 -0.115
8.5769997 -1.724 -0.115
8.5880003 -1.701 -0.115
8.6190004 -1.683 -0.115
8.6339998 -1.6619999 -0.115
8.6499996 -1.641 -0.115
8.6619997 -1.619 -0.115
8.6780005 -1.598 -0.116
8.6759996 -1.574 -0.115
8.71 -1.556 -0.116
8.7419996 -1.538 -0.116
8.7399998 -1.5140001 -0.116
8.7510004 -1.493 -0.116
8.7840004 -1.475 -0.116
8.802 -1.455 -0.117
8.8369999 -1.437 -0.117
8.8360004 -1.414 -0.117
8.8549995 -1.3940001 -0.117
8.8859997 -1.376 -0.117
8.8970003 -1.355 -0.117
8.9069996 -1.334 -0.117
8.9309998 -1.3150001 -0.118
8.941 -1.294 -0.118
8.9729996 -1.276 -0.118
8.9750004 -1.2539999 -0.118
9.0080004 -1.237 -0.118
9.026 -1.217 -0.119
9.0480003 -1.198 -0.119
9.0480003 -1.176 -0.119
9.0769997 -1.158 -0.119
9.0830002 -1.137 -0.119
9.1090002 -1.119 -0.119
9.1120005 -1.098 -0.119
9.1459999 -1.08 -0.12
9.1599998 -1.061 -0.12
9.1899996 -1.043 -0.12
9.2139997 -1.025 -0.12
9.2250004 -1.005 -0.12
9.2469997 -0.98699999 -0.12
9.2709999 -0.96799999 -0.121
9.276 -0.94800001 -0.121
9.2959995 -0.93000001 -0.121
9.3070002 -0.91000003 -0.121
9.3199997 -0.89099997 -0.121
9.3380003 -0.87199998 -0.121
9.3500004 -0.85299999 -0.121
9.3769999 -0.83600003 -0.122
9.3979998 -0.81800002 -0.122
9.4020004 -0.79799998 -0.122
9.4460001 -0.78200001 -0.122
9.4750004 -0.76499999 -0.123
9.4849997 -0.74599999 -0.123
9.5249996 -0.72899997 -0.123
9.5089998 -0.70899999 -0.123
9.54 -0.69199997 -0.123
9.5690002 -0.67500001 -0.123
9.5780001 -0.65600002 -0.123
9.585 -0.63800001 -0.123
9.6210003 -0.62099999 -0.124
9.6459999 -0.60399997 -0.124
9.6759996 -0.58700001 -0.124
9.6920004 -0.56900001 -0.125
9.6929998 -0.551 -0.124
9.7329998 -0.53399998 -0.125
9.8030005 -0.51999998 -0.126
9.8369999 -0.50300002 -0.126
9.8409996 -0.48500001 -0.126
9.8850002 -0.46900001 -0.127
9.9139996 -0.45199999 -0.127
9.3629999 0.113 -0.244
9.3990002 0.13 -0.245
9.4200001 0.148 -0.245
9.4060001 0.16500001 -0.245
9.441 0.183 -0.24600001
9.4160004 0.20100001 -0.24600001
9.4169998 0.219 -0.24600001
9.4160004 0.237 -0.24600001
9.4029999 0.255 -0.24600001
9.4169998 0.27399999 -0.24600001
9.4239998 0.29300001 -0.24699999
9.4160004 0.31200001 -0.24699999
9.4209995 0.331 -0.24699999
9.415 0.34999999 -0.24699999
9.4239998 0.37 -0.248
9.4250002 0.38999999 -0.248
9.4370003 0.41100001 -0.248
9.441 0.43099999 -0.249
9.4499998 0.45199999 -0.249
9.4630003 0.47299999 -0.25
9.4540005 0.493 -0.25
9.4610004 0.51499999 -0.25
9.4729996 0.537 -0.25099999
9.4860001 0.55900002 -0.25099999
9.4879999 0.57999998 -0.25099999
9.5100002 0.60299999 -0.252
9.5150003 0.62599999 -0.25299999
9.5139999 0.648 -0.25299999
9.5450001 0.67199999 -0.25400001
9.5559998 0.69499999 -0.25400001
9.5629997 0.71899998 -0.255
9.5670004 0.74199998 -0.255
9.5699997 0.76499999 -0.25600001
9.5790005 0.78899997 -0.25600001
9.6090002 0.815 -0.257
9.6400003 0.84200001 -0.25799999
9.6400003 0.866 -0.25799999
9.6300001 0.889 -0.25799999
9.6359997 0.91299999 -0.259
9.6610003 0.94 -0.25999999
9.658 0.96399999 -0.25999999
9.691 0.99299997 -0.26100001
9.7049999 1.0190001 -0.26199999
9.7460003 1.049 -0.26300001
9.7349997 1.073 -0.26300001
9.7650003 1.102 -0.264
9.7910004 1.13 -0.26499999
9.776 1.155 -0.26499999
9.7849998 1.182 -0.266
9.7799997 1.207 -0.266
9.8199997 1.239 -0.26800001
9.8290005 1.267 -0.26800001
9.8249998 1.293 -0.26800001
9.8360004 1.322 -0.26899999
9.8719997 1.354 -0.27000001
9.8769999 1.382 -0.271
9.9060001 1.413 -0.27200001
9.9289999 1.444 -0.273
9.9519997 1.476 -0.27399999
9.9569998 1.505 -0.27399999
9.9700003 1.535 -0.27500001
10.005 1.569 -0.27599999
10.007 1.598 -0.27700001
10.052 1.6339999 -0.278
10.047 1.6619999 -0.27900001
10.054 1.693 -0.27900001
10.079 1.726 -0.28
10.095 1.7589999 -0.28099999
10.12 1.793 -0.28200001
10.144 1.827 -0.28299999
10.162 1.86 -0.28400001
10.186 1.895 -0.285
10.198 1.928 -0.28600001
10.227 1.964 -0.287
10.252 2 -0.28799999
10.284 2.0380001 -0.28999999
10.325 2.0769999 -0.29100001
10.328 2.109 -0.292
10.331 2.142 -0.292
10.386 2.1849999 -0.294
10.391 2.2179999 -0.29499999
10.41 2.2550001 -0.296
10.425 2.29 -0.29699999
10.444 2.3269999 -0.29800001
10.465 2.365 -0.29899999
10.506 2.4070001 -0.30000001
10.513 2.4419999 -0.301
10.528 2.4790001 -0.30199999
10.54 2.5150001 -0.303
10.558 2.553 -0.30399999
10.569 2.589 -0.30399999
10.6 2.631 -0.30599999
10.63 2.6730001 -0.30700001
10.639 2.71 -0.308
10.654 2.7479999 -0.30899999
10.711 2.7969999 -0.31099999
10.739 2.8399999 -0.31200001
10.763 2.881 -0.31400001
10.768 2.918 -0.31400001
10.788 2.9590001 -0.315
10.816 3.0020001 -0.317
10.836 3.0439999 -0.31799999
10.844 3.082 -0.31900001
10.884 3.1289999 -0.31999999
10.925 3.178 -0.322
10.931 3.2160001 -0.32300001
10.934 3.2539999 -0.32300001
10.973 3.302 -0.32499999
11.018 3.3529999 -0.32699999
11.046 3.3989999 -0.32800001
11.061 3.441 -0.329
11.104 3.4920001 -0.331
11.111 3.5320001 -0.33199999
11.12 3.573 -0.333
11.157 3.6229999 -0.33500001
11.143 3.6570001 -0.33500001
11.173 3.7049999 -0.336
11.19 3.7490001 -0.33700001
11.174 3.7820001 -0.338
11.198 3.829 -0.33899999
11.22 3.8759999 -0.34
11.223 3.9159999 -0.34099999
11.225 3.9560001 -0.34200001
11.248 4.0029998 -0.34299999
11.248 4.0419998 -0.34400001
11.264 4.0869999 -0.345
11.262 4.1259999 -0.345
11.272 4.1700001 -0.34599999
11.306 4.2220001 -0.34799999
11.316 4.2659998 -0.34900001
11.355 4.3210001 -0.35100001
11.386 4.3730001 -0.352
11.424 4.428 -0.354
11.442 4.4759998 -0.35499999
11.458 4.5229998 -0.35699999
11.477 4.5710001 -0.35800001
11.5 4.6209998 -0.359
11.531 4.6750002 -0.361
11.566 4.7309999 -0.36300001
11.607 4.789 -0.36500001
11.631 4.8410001 -0.366
11.633 4.8829999 -0.36700001
11.667 4.9400001 -0.36899999
11.669 4.9819999 -0.37
11.691 5.0339999 -0.37099999
11.732 5.0939999 -0.373
11.745 5.1420002 -0.37400001
11.765 5.1939998 -0.37599999
11.778 5.2420001 -0.377
11.798 5.2930002 -0.37799999
11.823 5.348 -0.38
11.84 5.3990002 -0.38100001
11.847 5.4450002 -0.382
11.842 5.4850001 -0.38299999
11.87 5.5419998 -0.384
11.883 5.5910001 -0.38499999
11.891 5.638 -0.38699999
11.924 5.698 -0.38800001
11.922 5.7399998 -0.389
11.929 5.7870002 -0.38999999
11.95 5.8400002 -0.39199999
11.945 5.882 -0.39199999
11.981 5.9439998 -0.39399999
11.999 5.9959998 -0.396
12.021 6.0510001 -0.39700001
12.025 6.0970001 -0.398
12.063 6.1609998 -0.40000001
8.2700005 4.2529998 -0.27500001
12.094 6.2210002 -0.40200001
8.1280003 4.21 -0.271
8.0439997 4.1960001 -0.26800001
7.9169998 4.1589999 -0.26499999
7.882 4.1690001 -0.264
7.8559999 4.184 -0.264
7.8579998 4.2140002 -0.264
7.8559999 4.2410002 -0.26499999
7.9099998 4.3000002 -0.26699999
12.307 6.7350001 -0.417
12.304 6.7779999 -0.41800001
12.309 6.8260002 -0.419
12.335 6.8850002 -0.421
12.367 6.948 -0.42300001
12.371 6.9949999 -0.42399999
12.421 7.0679998 -0.426
12.61 7.2210002 -0.43399999
10.554 6.4980001 -0.37200001
10.534 6.5240002 -0.373
9.6829996 6.8179998 -0.36199999
9.5679998 6.7680001 -0.35800001
9.4980001 6.7490001 -0.35600001
9.46 6.7519999 -0.35600001
9.441 6.7680001 -0.35600001
9.4230003 6.7849998 -0.35600001
9.4029999 6.7989998 -0.35600001
9.3959999 6.823 -0.35600001
9.3800001 6.8400002 -0.35699999
6.862 -4.0240002 -0.086000003
6.8569999 -4.0019999 -0.086000003
6.869 -3.99 -0.086000003
6.8800001 -3.977 -0.086000003
6.888 -3.9619999 -0.086000003
6.9039998 -3.9519999 -0.086000003
6.9039998 -3.9330001 -0.086000003
6.9039998 -3.9130001 -0.086000003
6.9159999 -3.9000001 -0.086000003
6.9159999 -3.8800001 -0.086000003
6.9390001 -3.8740001 -0.086000003
6.9499998 -3.8599999 -0.086000003
6.9489999 -3.8399999 -0.086000003
6.9629998 -3.8280001 -0.086000003
6.9689999 -3.812 -0.086000003
6.993 -3.8050001 -0.086000003
6.9850001 -3.7809999 -0.086000003
6.9970002 -3.767 -0.086000003
7.0050001 -3.7520001 -0.086000003
7.0240002 -3.7420001 -0.086999997
7.04 -3.7309999 -0.086999997
7.033 -3.707 -0.086000003
7.046 -3.6930001 -0.086999997
7.059 -3.6800001 -0.086999997
7.0630002 -3.6619999 -0.086999997
7.0689998 -3.645 -0.086999997
7.0809999 -3.631 -0.086999997
7.085 -3.6129999 -0.086999997
7.0999999 -3.5999999 -0.086999997
7.112 -3.586 -0.086999997
7.1430001 -3.5810001 -0.086999997
7.1469998 -3.563 -0.086999997
7.158 -3.5469999 -0.086999997
7.1869998 -3.5409999 -0.086999997
7.1989999 -3.526 -0.086999997
7.2090001 -3.5109999 -0.086999997
7.217 -3.494 -0.086999997
7.2059999 -3.4679999 -0.086999997
7.2199998 -3.454 -0.086999997
7.2350001 -3.441 -0.086999997
7.2360001 -3.4200001 -0.086999997
7.2740002 -3.4170001 -0.088
7.277 -3.3970001 -0.088
7.2659998 -3.3710001 -0.086999997
7.3080001 -3.3699999 -0.088
7.3010001 -3.346 -0.088
7.3169999 -3.332 -0.088
7.3319998 -3.3180001 -0.088
7.3449998 -3.303 -0.088
7.348 -3.283 -0.088
7.369 -3.2709999 -0.088
7.3800001 -3.2550001 -0.088
7.3829999 -3.2349999 -0.088
7.4039998 -3.223 -0.088
7.4260001 -3.211 -0.088
7.4330001 -3.1930001 -0.088
7.4580002 -3.181 -0.089000002
7.4499998 -3.1570001 -0.088
7.4369998 -3.1300001 -0.088
7.4759998 -3.125 -0.089000002
7.4860001 -3.1070001 -0.089000002
7.4990001 -3.0910001 -0.089000002
7.513 -3.075 -0.089000002
7.5279999 -3.0599999 -0.089000002
7.533 -3.04 -0.089000002
7.5430002 -3.0220001 -0.089000002
7.5640001 -3.0090001 -0.089000002
7.5640001 -2.987 -0.089000002
7.585 -2.974 -0.089000002
7.6030002 -2.9590001 -0.089000002
7.6139998 -2.941 -0.089000002
7.6389999 -2.9289999 -0.089000002
7.6279998 -2.9030001 -0.089000002
7.6360002 -2.8829999 -0.089000002
7.6630001 -2.872 -0.089000002
7.684 -2.8570001 -0.090000004
7.6950002 -2.839 -0.090000004
7.698 -2.8180001 -0.090000004
7.717 -2.803 -0.090000004
7.7329998 -2.7869999 -0.090000004
7.7389998 -2.767 -0.090000004
7.7529998 -2.7490001 -0.090000004
7.7670002 -2.7320001 -0.090000004
7.7950001 -2.7190001 -0.090000004
7.7989998 -2.698 -0.090000004
7.8150001 -2.681 -0.090000004
7.816 -2.6589999 -0.090000004
7.8429999 -2.6459999 -0.090000004
7.8470001 -2.6240001 -0.090000004
7.8730001 -2.6110001 -0.090000004
7.8889999 -2.5929999 -0.090999998
7.8940001 -2.572 -0.090999998
7.9099998 -2.5550001 -0.090999998
7.9310002 -2.5380001 -0.090999998
7.941 -2.5190001 -0.090999998
7.9499998 -2.4990001 -0.090999998
7.967 -2.4820001 -0.090999998
7.9970002 -2.4679999 -0.090999998
8.0120001 -2.4489999 -0.090999998
8.0310001 -2.4319999 -0.090999998
8.0369997 -2.411 -0.090999998
8.0489998 -2.392 -0.090999998
8.092 -2.381 -0.092
8.073 -2.352 -0.090999998
8.1009998 -2.3369999 -0.092
8.1230001 -2.3199999 -0.092
8.1379995 -2.3010001 -0.092
8.1759996 -2.2880001 -0.092
8.2080002 -2.2739999 -0.092
8.217 -2.253 -0.092
8.2010002 -2.2249999 -0.092
8.2189999 -2.2060001 -0.092
8.2419996 -2.1889999 -0.092
8.2519999 -2.168 -0.092
8.2709999 -2.1489999 -0.093000002
8.2919998 -2.131 -0.093000002
8.2980003 -2.109 -0.093000002
8.3389997 -2.095 -0.093000002
8.3520002 -2.075 -0.093000002
8.3620005 -2.053 -0.093000002
8.3640003 -2.03 -0.093000002
8.3780003 -2.0090001 -0.093000002
8.4160004 -1.994 -0.093000002
8.4359999 -1.975 -0.093999997
8.441 -1.952 -0.093999997
8.474 -1.9349999 -0.093999997
8.4870005 -1.914 -0.093999997
8.5100002 -1.895 -0.093999997
8.5179996 -1.872 -0.093999997
8.5459995 -1.854 -0.093999997
8.5760002 -1.836 -0.093999997
8.6009998 -1.817 -0.094999999
8.6140003 -1.795 -0.094999999
8.6169996 -1.771 -0.094999999
8.6420002 -1.752 -0.094999999
8.6639996 -1.7309999 -0.094999999
8.6890001 -1.712 -0.094999999
8.6999998 -1.689 -0.094999999
8.7250004 -1.669 -0.094999999
8.7510004 -1.649 -0.094999999
8.7700005 -1.628 -0.096000001
8.7740002 -1.603 -0.094999999
8.7790003 -1.579 -0.094999999
8.8000002 -1.558 -0.096000001
8.8310003 -1.538 -0.096000001
8.8500004 -1.516 -0.096000001
8.8719997 -1.495 -0.096000001
8.9069996 -1.475 -0.096000001
8.9139996 -1.451 -0.096000001
8.9320002 -1.429 -0.096000001
8.9540005 -1.4069999 -0.097000003
8.9700003 -1.3839999 -0.097000003
9.0109997 -1.365 -0.097000003
9.0179996 -1.34 -0.097000003
9.0480003 -1.319 -0.097000003
9.0710001 -1.296 -0.097000003
9.073 -1.271 -0.097000003
9.1079998 -1.25 -0.097000003
9.1379995 -1.228 -0.097999997
9.1820002 -1.2079999 -0.097999997
9.2030001 -1.184 -0.097999997
9.2209997 -1.161 -0.097999997
9.2519999 -1.138 -0.097999997
9.2700005 -1.114 -0.098999999
9.2969999 -1.091 -0.098999999
9.3109999 -1.066 -0.098999999
9.3450003 -1.044 -0.098999999
9.3669996 -1.0190001 -0.098999999
9.3950005 -0.99599999 -0.098999999
9.3990002 -0.97000003 -0.098999999
9.4320002 -0.94599998 -0.1
9.4540005 -0.92199999 -0.1
9.493 -0.89899999 -0.1
9.5380001 -0.87599999 -0.1
9.5609999 -0.85100001 -0.1
9.6079998 -0.82800001 -0.101
9.6520004 -0.80400002 -0.101
9.6630001 -0.778 -0.101
9.6479998 -0.74900001 -0.101
9.71 -0.72600001 -0.101
9.7110004 -0.699 -0.101
9.7849998 -0.67699999 -0.102
9.8439999 -0.653 -0.103
9.849 -0.625 -0.102
9.8870001 -0.60000002 -0.103
9.9420004 -0.57499999 -0.103
10.066 -0.55299997 -0.104
10.123 -0.528 -0.105
