# .PCD v0.7 - Point Cloud Data file format
VERSION 0.7
FIELDS x y z
SIZE 4 4 4
TYPE F F F
COUNT 1 1 1
WIDTH 1926
HEIGHT 1
VIEWPOINT 0 0 0 1 0 0 0
POINTS 1926
DATA ascii
12.615 0.56099999 0.074000001
12.62 0.58200002 0.074000001
12.583 0.60100001 0.074000001
12.599 0.62300003 0.074000001
12.589 0.64399999 0.072999999
12.6 0.66600001 0.072999999
12.596 0.68699998 0.072999999
12.604 0.70999998 0.072999999
12.584 0.73100001 0.072999999
12.571 0.75300002 0.071999997
12.587 0.77700001 0.071999997
12.59 0.801 0.071999997
12.62 0.82599998 0.071999997
12.631 0.85100001 0.071999997
12.629 0.875 0.071999997
12.634 0.89899999 0.071999997
12.656 0.926 0.071999997
12.658 0.95099998 0.071999997
12.661 0.97600001 0.071000002
12.692 1.0039999 0.071000002
12.731 1.033 0.071000002
12.744 1.0599999 0.071000002
12.761 1.0880001 0.071000002
12.785 1.117 0.071000002
12.777 1.143 0.071000002
12.79 1.1720001 0.071000002
12.778 1.198 0.071000002
12.798 1.228 0.071000002
12.796 1.256 0.07
12.805 1.285 0.07
12.82 1.3150001 0.07
12.827 1.345 0.07
12.844 1.376 0.07
12.883 1.409 0.07
12.892 1.4400001 0.07
12.894 1.47 0.07
12.894 1.5 0.07
12.903 1.5319999 0.068999998
12.914 1.564 0.068999998
12.923 1.596 0.068999998
12.921 1.627 0.068999998
12.93 1.66 0.068999998
12.953 1.6950001 0.068999998
12.973 1.729 0.068999998
12.976 1.762 0.068999998
13 1.798 0.068999998
12.994 1.83 0.068000004
13.019 1.867 0.068000004
13.018 1.9 0.068000004
13.07 1.941 0.068000004
13.073 1.976 0.068000004
13.075 2.01 0.068000004
13.09 2.0469999 0.068000004
13.141 2.0899999 0.068000004
13.152 2.1270001 0.068000004
13.168 2.164 0.068000004
13.177 2.2019999 0.068000004
13.203 2.2420001 0.068000004
13.215 2.28 0.068000004
13.259 2.3239999 0.068000004
13.23 2.3559999 0.067000002
13.265 2.3989999 0.067000002
13.309 2.444 0.067000002
13.334 2.487 0.067000002
13.371 2.5309999 0.067000002
13.394 2.5739999 0.067000002
13.411 2.6159999 0.067000002
13.411 2.654 0.067000002
13.433 2.698 0.067000002
13.46 2.743 0.067000002
13.484 2.7869999 0.067000002
13.513 2.8329999 0.067000002
13.547 2.8800001 0.067000002
13.582 2.928 0.067000002
13.578 2.9679999 0.067000002
13.595 3.013 0.067000002
13.625 3.0610001 0.067000002
13.644 3.1070001 0.067000002
13.677 3.1559999 0.067000002
13.713 3.207 0.067000002
13.73 3.2539999 0.067000002
13.783 3.309 0.067000002
13.781 3.352 0.066
13.704 3.3759999 0.066
13.674 3.4119999 0.066
13.713 3.4649999 0.066
13.92 3.562 0.066
13.952 3.615 0.066
14.007 3.675 0.067000002
14.013 3.721 0.066
14.086 3.7869999 0.067000002
9.9350004 2.7030001 0.046999998
14.207 3.8659999 0.067000002
9.7049999 2.6730001 0.046
9.625 2.6819999 0.045000002
9.5710001 2.6989999 0.045000002
9.5670004 2.73 0.045000002
9.5530005 2.7579999 0.044
9.5679998 2.7939999 0.044
9.6599998 2.8540001 0.045000002
14.344 4.2379999 0.066
14.378 4.2969999 0.066
14.398 4.3520002 0.066
14.462 4.421 0.067000002
9.6669998 2.9879999 0.044
14.482 4.4770002 0.066
9.4309998 2.948 0.043000001
9.3669996 2.96 0.043000001
9.3290005 2.9809999 0.041999999
9.3050003 3.006 0.041999999
9.3240004 3.0450001 0.041999999
9.4110003 3.1059999 0.041999999
14.914 4.9229999 0.067000002
14.856 4.9569998 0.067000002
14.908 5.0279999 0.067000002
14.929 5.0879998 0.067000002
14.981 5.1589999 0.067000002
15.155 5.2740002 0.068000004
15.174 5.336 0.067000002
15.125 5.3740001 0.067000002
15.277 5.4840002 0.068000004
15.232 5.5229998 0.067000002
15.366 5.6290002 0.068000004
15.387 5.6929998 0.068000004
15.415 5.7610002 0.067000002
15.469 5.8390002 0.068000004
15.515 5.914 0.068000004
15.527 5.9780002 0.067000002
15.544 6.0430002 0.067000002
15.61 6.1269999 0.067000002
15.649 6.2020001 0.067000002
15.703 6.2839999 0.067000002
15.719 6.3509998 0.067000002
15.738 6.4190001 0.067000002
15.742 6.4819999 0.067000002
12.303 5.9549999 0.050000001
12.165 5.9390001 0.048999999
12.008 5.9120002 0.048
11.944 5.9299998 0.048
11.911 5.9640002 0.048
12.048 6.0840001 0.048
12.184 6.204 0.048
12.23 6.2800002 0.048999999
12.181 6.3060002 0.048
12.307 6.4239998 0.048999999
12.126 6.381 0.048
12.055 6.3959999 0.046999998
7.553 -4.9749999 0.14
7.6030002 -4.96 0.141
7.6199999 -4.9239998 0.141
7.6459999 -4.8940001 0.142
7.677 -4.8660002 0.142
7.7010002 -4.835 0.14300001
7.7309999 -4.8070002 0.14300001
7.7600002 -4.7789998 0.14399999
7.7880001 -4.75 0.14399999
7.8049998 -4.7150002 0.14399999
7.8210001 -4.6799998 0.145
7.8590002 -4.6570001 0.145
7.8730001 -4.6209998 0.145
7.8979998 -4.5910001 0.146
7.9330001 -4.5669999 0.146
7.9489999 -4.5320001 0.147
7.96 -4.4949999 0.147
7.9829998 -4.4640002 0.147
8.0170002 -4.4400001 0.148
8.0319996 -4.4050002 0.148
8.0670004 -4.382 0.149
8.0839996 -4.348 0.149
8.0880003 -4.3080001 0.149
8.1379995 -4.2930002 0.15000001
8.165 -4.2649999 0.15000001
8.2040005 -4.243 0.15099999
8.2340002 -4.217 0.15099999
8.2370005 -4.178 0.15099999
8.2670002 -4.152 0.152
8.2939997 -4.125 0.152
8.3179998 -4.0960002 0.153
8.3450003 -4.0689998 0.153
8.3809996 -4.046 0.154
8.3929996 -4.0110002 0.154
8.4160004 -3.983 0.154
8.4300003 -3.9489999 0.155
8.4639997 -3.9260001 0.155
8.4919996 -3.9000001 0.156
8.5340004 -3.8789999 0.156
8.552 -3.849 0.15700001
8.6059999 -3.8340001 0.15800001
8.6120005 -3.7980001 0.15800001
8.6300001 -3.7679999 0.15800001
8.6499996 -3.7379999 0.15800001
8.6829996 -3.714 0.15899999
8.7019997 -3.684 0.15899999
8.7270002 -3.6570001 0.16
8.776 -3.6400001 0.161
8.7889996 -3.608 0.161
8.8280001 -3.586 0.162
8.8549995 -3.5599999 0.162
8.8710003 -3.529 0.162
8.9219999 -3.513 0.163
8.9379997 -3.4820001 0.163
8.974 -3.46 0.164
9.0039997 -3.4349999 0.16500001
9.033 -3.4089999 0.16500001
9.0579996 -3.382 0.16599999
9.0889997 -3.358 0.16599999
9.1269999 -3.336 0.167
9.1700001 -3.316 0.168
9.198 -3.29 0.168
9.2410002 -3.2690001 0.169
9.2790003 -3.247 0.17
9.29 -3.2160001 0.17
9.3470001 -3.2 0.171
9.3940001 -3.181 0.17200001
9.4099998 -3.151 0.17200001
9.4610004 -3.1329999 0.17299999
9.5319996 -3.1210001 0.17399999
9.5640001 -3.0969999 0.175
9.5909996 -3.0710001 0.175
9.7279997 -3.079 0.178
9.7290001 -3.0450001 0.178
9.7159996 -3.006 0.177
9.7360001 -2.9779999 0.178
9.7589998 -2.951 0.178
9.7749996 -2.921 0.178
9.8039999 -2.8959999 0.17900001
9.8389997 -2.872 0.18000001
9.8590002 -2.8440001 0.18000001
9.8830004 -2.8180001 0.18000001
9.9169998 -2.7939999 0.18099999
9.9180002 -2.7609999 0.18099999
9.967 -2.7409999 0.182
9.9919996 -2.7149999 0.182
10.012 -2.687 0.183
10.05 -2.664 0.183
10.062 -2.635 0.184
10.112 -2.615 0.185
10.14 -2.5899999 0.185
10.165 -2.5639999 0.186
10.185 -2.5369999 0.186
10.21 -2.5109999 0.186
10.242 -2.487 0.18700001
10.277 -2.4630001 0.18799999
10.293 -2.4349999 0.18799999
10.32 -2.4100001 0.18799999
10.342 -2.3840001 0.189
10.36 -2.3559999 0.189
10.326 -2.3180001 0.189
10.148 -2.247 0.185
10.122 -2.211 0.185
10.175 -2.1930001 0.186
10.252 -2.1789999 0.18700001
10.456 -2.1919999 0.191
10.572 -2.1860001 0.193
10.607 -2.1630001 0.19400001
10.572 -2.125 0.193
10.493 -2.0799999 0.192
10.485 -2.0480001 0.192
10.517 -2.0250001 0.192
10.573 -2.006 0.193
10.605 -1.983 0.19400001
10.629 -1.9579999 0.19400001
10.679 -1.938 0.19499999
10.793 -1.9299999 0.197
10.893 -1.918 0.199
10.928 -1.895 0.2
10.971 -1.873 0.20100001
10.993 -1.848 0.20100001
11.019 -1.823 0.20200001
11.067 -1.802 0.20299999
11.128 -1.783 0.204
11.192 -1.7640001 0.205
11.182 -1.734 0.205
11.156 -1.702 0.204
11.202 -1.6799999 0.205
11.25 -1.659 0.206
11.248 -1.631 0.206
11.276 -1.607 0.207
11.324 -1.586 0.207
11.391 -1.567 0.20900001
11.424 -1.544 0.20900001
11.477 -1.523 0.20999999
11.492 -1.497 0.211
11.511 -1.472 0.211
11.552 -1.45 0.212
11.55 -1.423 0.212
11.607 -1.402 0.213
11.621 -1.377 0.213
11.693 -1.358 0.215
11.709 -1.3329999 0.215
11.741 -1.3099999 0.215
11.815 -1.2920001 0.21699999
11.86 -1.27 0.21799999
11.833 -1.24 0.21699999
11.836 -1.215 0.21699999
11.892 -1.194 0.21799999
11.931 -1.1720001 0.219
11.975 -1.15 0.22
12.008 -1.127 0.221
12.093 -1.109 0.222
12.141 -1.0880001 0.223
12.166 -1.064 0.22400001
12.189 -1.04 0.22400001
12.228 -1.018 0.22499999
12.245 -0.99400002 0.22499999
12.286 -0.972 0.226
12.306 -0.94800001 0.227
12.353 -0.92699999 0.227
12.4 0.162 0.111
12.433 0.185 0.111
12.453 0.208 0.111
12.502 0.23199999 0.111
12.485 0.255 0.111
12.522 0.27900001 0.111
12.524 0.303 0.111
12.566 0.32800001 0.111
12.573 0.352 0.111
12.572 0.377 0.111
12.585 0.40200001 0.111
12.62 0.42899999 0.111
12.621 0.454 0.111
12.618 0.47999999 0.111
12.661 0.50800002 0.111
12.658 0.53399998 0.111
12.639 0.56 0.11
12.661 0.588 0.11
12.638 0.61400002 0.11
12.658 0.64200002 0.11
12.677 0.671 0.11
12.658 0.69700003 0.109
12.657 0.72500002 0.109
12.692 0.75599998 0.109
12.686 0.78399998 0.109
12.678 0.81199998 0.109
12.691 0.84200001 0.109
12.707 0.87300003 0.109
12.717 0.903 0.109
12.764 0.93599999 0.109
12.767 0.96700001 0.109
12.774 0.99699998 0.109
12.778 1.028 0.108
12.841 1.064 0.109
12.843 1.096 0.109
12.903 1.133 0.109
12.914 1.165 0.109
12.886 1.1950001 0.109
12.898 1.228 0.108
12.902 1.261 0.108
12.909 1.294 0.108
12.909 1.327 0.108
12.936 1.363 0.108
12.92 1.395 0.108
12.948 1.431 0.108
12.974 1.4680001 0.108
13.006 1.506 0.108
12.981 1.5369999 0.108
12.991 1.573 0.107
13.008 1.61 0.107
13.022 1.646 0.107
13.032 1.683 0.107
13.039 1.719 0.107
13.065 1.758 0.107
13.087 1.7970001 0.107
13.111 1.837 0.107
13.125 1.875 0.107
13.143 1.914 0.107
13.162 1.954 0.107
13.221 2 0.108
13.23 2.0380001 0.107
13.269 2.082 0.108
13.302 2.125 0.108
13.313 2.165 0.108
13.355 2.211 0.108
13.34 2.247 0.107
13.366 2.29 0.108
13.447 2.3429999 0.108
13.438 2.381 0.108
13.467 2.4260001 0.108
13.499 2.4719999 0.108
13.536 2.5190001 0.108
13.558 2.563 0.108
13.601 2.612 0.108
13.62 2.6570001 0.108
13.654 2.7049999 0.108
13.659 2.747 0.108
13.714 2.8 0.108
13.753 2.8499999 0.109
13.787 2.8989999 0.109
13.789 2.9419999 0.109
13.835 2.9949999 0.109
13.853 3.0420001 0.109
13.913 3.098 0.109
13.945 3.1489999 0.109
13.939 3.191 0.109
13.971 3.2420001 0.109
14.05 3.3050001 0.109
14.005 3.339 0.109
13.809 3.336 0.107
13.705 3.355 0.106
13.719 3.402 0.106
14.096 3.5409999 0.109
14.173 3.6059999 0.109
14.179 3.6530001 0.109
14.209 3.707 0.109
14.273 3.77 0.11
14.407 3.8529999 0.111
9.7489996 2.6389999 0.075000003
14.948 4.046 0.115
9.6420002 2.642 0.074000001
9.5939999 2.6600001 0.072999999
9.5629997 2.6830001 0.072999999
9.5489998 2.711 0.072999999
9.5570002 2.7449999 0.071999997
9.5810003 2.783 0.072999999
14.937 4.3400002 0.113
9.7390003 2.862 0.074000001
14.791 4.3470001 0.112
14.802 4.3990002 0.112
14.882 4.473 0.112
9.6759996 2.941 0.072999999
14.921 4.5349998 0.113
9.4510002 2.904 0.071000002
9.3699999 2.911 0.07
9.3430004 2.934 0.07
9.3199997 2.9590001 0.07
9.3170004 2.99 0.07
9.3839998 3.043 0.07
15.238 4.994 0.114
15.272 5.0580001 0.114
15.338 5.132 0.114
15.379 5.1989999 0.114
15.483 5.2880001 0.115
15.511 5.3509998 0.115
15.526 5.4099998 0.115
15.66 5.5110002 0.116
15.627 5.5539999 0.115
15.697 5.6329999 0.116
15.792 5.723 0.116
15.794 5.7789998 0.116
15.823 5.8449998 0.116
15.838 5.9060001 0.116
15.896 5.9840002 0.116
15.962 6.0650001 0.117
15.999 6.1360002 0.117
16.063999 6.217 0.117
16.061001 6.2729998 0.117
16.091999 6.3429999 0.117
16.132999 6.4159999 0.117
14.779 6.0359998 0.107
14.808 6.1009998 0.107
12.318 5.9219999 0.086000003
12.301 5.9590001 0.086000003
12.217 5.9619999 0.085000001
12.013 5.9070001 0.083999999
11.921 5.9050002 0.082999997
11.919 5.947 0.082999997
11.894 5.9790001 0.082000002
11.976 6.0630002 0.082999997
12.236 6.2399998 0.085000001
12.221 6.277 0.083999999
12.25 6.3369999 0.083999999
12.201 6.3559999 0.083999999
12.169 6.3839998 0.083999999
12.073 6.3769999 0.082999997
12.057 6.4130001 0.082999997
12.194 6.5300002 0.082999997
8.2040005 -4.8390002 0.169
8.2299995 -4.8309999 0.17
8.2349997 -4.8099999 0.17
8.2510004 -4.796 0.171
8.243 -4.7680001 0.17
8.2589998 -4.7529998 0.171
8.2819996 -4.743 0.171
8.3039999 -4.7319999 0.17200001
8.283 -4.6960001 0.171
8.3120003 -4.6890001 0.17200001
8.3120003 -4.665 0.17200001
8.3199997 -4.6459999 0.17200001
8.3369999 -4.631 0.17299999
8.3529997 -4.6160002 0.17299999
8.3699999 -4.6020002 0.17299999
8.3699999 -4.5780001 0.17299999
8.3889999 -4.5640001 0.17399999
8.3999996 -4.546 0.17399999
8.4350004 -4.5409999 0.175
8.4320002 -4.5149999 0.175
8.434 -4.4920001 0.175
8.4650002 -4.4840002 0.176
8.4829998 -4.4689999 0.176
8.4820004 -4.4439998 0.176
8.5459995 -4.4530001 0.177
8.5559998 -4.4330001 0.178
8.5799999 -4.421 0.178
8.5790005 -4.3959999 0.178
8.5799999 -4.3709998 0.178
8.5830002 -4.348 0.178
8.5880003 -4.3260002 0.178
8.6049995 -4.309 0.17900001
8.6420002 -4.303 0.18000001
8.6499996 -4.2820001 0.18000001
8.6669998 -4.2649999 0.18000001
8.6820002 -4.2480001 0.18000001
8.7060003 -4.2340002 0.18099999
8.6990004 -4.2059999 0.18099999
8.6969995 -4.1789999 0.18099999
8.7279997 -4.1690001 0.182
8.7209997 -4.1399999 0.18099999
8.7609997 -4.1339998 0.182
8.7729998 -4.1139998 0.183
8.7799997 -4.092 0.183
8.7980003 -4.0749998 0.183
8.8109999 -4.0549998 0.183
8.8280001 -4.0370002 0.184
8.8439999 -4.0190001 0.184
8.875 -4.007 0.185
8.8959999 -3.9909999 0.185
8.8940001 -3.964 0.185
8.9090004 -3.9449999 0.186
8.9209995 -3.925 0.186
8.9309998 -3.9030001 0.186
8.9650002 -3.892 0.18700001
8.9779997 -3.8710001 0.18700001
8.9910002 -3.8510001 0.18700001
9.0129995 -3.8340001 0.18799999
9.0389996 -3.819 0.189
9.052 -3.7980001 0.189
9.0810003 -3.7839999 0.189
9.0959997 -3.763 0.19
9.1160002 -3.7449999 0.19
9.1339998 -3.7260001 0.191
9.151 -3.707 0.191
9.1680002 -3.687 0.191
9.1750002 -3.6630001 0.192
9.2110004 -3.651 0.192
9.224 -3.6289999 0.193
9.2580004 -3.615 0.193
9.2749996 -3.595 0.19400001
9.3149996 -3.5840001 0.19499999
9.316 -3.5569999 0.19499999
9.3439999 -3.5409999 0.19499999
9.368 -3.523 0.19599999
9.3769999 -3.4990001 0.19599999
9.4130001 -3.4849999 0.197
9.4359999 -3.4660001 0.197
9.4569998 -3.4460001 0.198
9.4659996 -3.4219999 0.198
9.4770002 -3.3989999 0.198
9.5030003 -3.3800001 0.199
9.5369997 -3.365 0.2
9.5539999 -3.3429999 0.2
9.5839996 -3.326 0.20100001
9.5909996 -3.3 0.20100001
9.6230001 -3.283 0.20100001
9.6429996 -3.2620001 0.20200001
9.6599998 -3.24 0.20200001
9.6890001 -3.2219999 0.20299999
9.7030001 -3.198 0.20299999
9.724 -3.177 0.204
9.7370005 -3.1530001 0.204
9.7869997 -3.141 0.205
9.8389997 -3.1289999 0.206
9.8470001 -3.1029999 0.206
9.8549995 -3.0769999 0.206
9.8649998 -3.052 0.207
9.8620005 -3.0220001 0.207
9.8920002 -3.003 0.207
9.8979998 -2.9760001 0.207
9.908 -2.951 0.208
9.934 -2.9300001 0.208
9.9379997 -2.902 0.208
9.9689999 -2.882 0.20900001
9.9940004 -2.8610001 0.20999999
10.022 -2.8399999 0.20999999
10.033 -2.8139999 0.20999999
10.057 -2.7920001 0.211
10.077 -2.7679999 0.211
10.105 -2.747 0.212
10.137 -2.7260001 0.213
10.142 -2.698 0.213
10.184 -2.6800001 0.214
10.199 -2.655 0.214
10.23 -2.6329999 0.215
10.241 -2.6059999 0.215
10.282 -2.5869999 0.21600001
10.283 -2.5580001 0.21600001
10.317 -2.5369999 0.21699999
10.355 -2.516 0.21699999
10.359 -2.487 0.21699999
10.386 -2.464 0.21799999
10.408 -2.4389999 0.219
10.434 -2.415 0.219
10.458 -2.391 0.22
10.475 -2.365 0.22
10.507 -2.342 0.221
10.53 -2.3169999 0.221
10.171 -2.2079999 0.214
10.066 -2.1570001 0.211
10.086 -2.132 0.212
10.169 -2.1199999 0.214
10.339 -2.1259999 0.21699999
10.725 -2.175 0.22499999
10.724 -2.1440001 0.22499999
10.704 -2.109 0.22499999
10.514 -2.0409999 0.221
10.475 -2.0039999 0.22
10.498 -1.978 0.221
10.542 -1.956 0.222
10.607 -1.938 0.223
10.675 -1.92 0.22400001
10.826 -1.916 0.228
11.035 -1.921 0.23199999
11.075 -1.896 0.233
11.125 -1.873 0.234
11.153 -1.846 0.235
11.165 -1.816 0.235
11.267 -1.8 0.237
11.397 -1.789 0.23999999
11.322 -1.744 0.23800001
11.338 -1.714 0.23800001
11.43 -1.696 0.23999999
11.435 -1.664 0.241
11.463 -1.635 0.241
11.53 -1.612 0.243
11.589 -1.587 0.244
11.646 -1.561 0.245
11.671 -1.531 0.24600001
11.705 -1.502 0.24600001
11.715 -1.47 0.24600001
11.794 -1.446 0.248
11.879 -1.423 0.25
11.916 -1.393 0.25099999
11.914 -1.359 0.25099999
11.955 -1.33 0.252
11.995 -1.3 0.252
12.083 -1.275 0.25400001
12.134 -1.2460001 0.255
12.19 -1.217 0.257
12.27 -1.1900001 0.25799999
12.281 -1.156 0.25799999
12.33 -1.125 0.25999999
12.34 -1.091 0.25999999
12.401 -1.061 0.26100001
12.471 -1.031 0.26300001
13.25 0.449 0.14399999
13.311 0.47099999 0.14399999
13.254 0.48899999 0.14399999
13.184 0.50599998 0.14300001
13.124 0.52399999 0.142
13.129 0.54400003 0.142
13.117 0.565 0.141
13.13 0.58600003 0.141
13.132 0.60799998 0.141
13.114 0.62800002 0.141
13.122 0.65100002 0.141
13.119 0.67299998 0.141
13.131 0.69599998 0.14
13.108 0.71700001 0.14
13.128 0.74199998 0.14
13.111 0.764 0.14
13.113 0.78799999 0.14
13.115 0.81199998 0.139
13.105 0.83499998 0.139
13.131 0.861 0.139
13.11 0.88499999 0.139
13.132 0.91100001 0.139
13.124 0.93599999 0.139
13.115 0.96100003 0.138
13.122 0.98699999 0.138
13.12 1.013 0.138
13.13 1.04 0.138
13.16 1.0700001 0.138
13.19 1.099 0.138
13.228 1.13 0.139
13.242 1.158 0.139
13.241 1.186 0.139
13.196 1.21 0.138
13.187 1.238 0.138
13.176 1.266 0.13699999
13.205 1.2970001 0.138
13.212 1.327 0.138
13.226 1.358 0.138
13.247 1.39 0.138
13.244 1.42 0.13699999
13.267 1.452 0.138
13.279 1.484 0.13699999
13.309 1.5190001 0.138
13.3 1.549 0.13699999
13.299 1.58 0.13699999
13.321 1.614 0.13699999
13.327 1.647 0.13699999
13.367 1.684 0.138
13.381 1.719 0.138
13.403 1.7539999 0.138
13.433 1.791 0.138
13.436 1.825 0.138
13.457 1.862 0.138
13.49 1.901 0.138
13.508 1.938 0.138
13.518 1.974 0.138
13.517 2.0079999 0.138
13.541 2.0469999 0.138
13.559 2.085 0.138
13.571 2.1229999 0.138
13.597 2.1630001 0.138
13.606 2.201 0.138
13.631 2.2409999 0.138
13.677 2.286 0.139
13.689 2.325 0.139
13.724 2.368 0.139
13.768 2.414 0.139
13.791 2.4560001 0.139
13.871 2.5090001 0.14
13.849 2.5439999 0.14
13.886 2.5899999 0.14
13.905 2.6329999 0.14
13.931 2.677 0.14
13.972 2.7260001 0.141
14.001 2.7720001 0.141
14.054 2.823 0.141
14.075 2.868 0.141
14.127 2.9200001 0.142
14.142 2.9649999 0.142
14.148 3.0079999 0.142
14.194 3.0599999 0.142
14.232 3.1110001 0.142
14.268 3.1619999 0.14300001
14.313 3.2160001 0.14300001
14.368 3.2720001 0.14300001
14.425 3.329 0.14399999
14.456 3.381 0.14399999
14.446 3.4230001 0.14399999
14.514 3.4849999 0.14399999
14.545 3.5369999 0.145
13.736 3.3840001 0.13600001
13.697 3.418 0.13600001
13.761 3.477 0.13699999
14.771 3.78 0.146
14.258 3.694 0.141
14.2 3.7249999 0.141
14.239 3.7809999 0.141
14.343 3.8559999 0.142
14.772 4.0190001 0.146
9.6999998 2.671 0.096000001
9.6160002 2.6800001 0.094999999
9.5760002 2.7 0.093999997
9.5509996 2.7249999 0.093999997
9.533 2.7520001 0.093999997
9.5209999 2.78 0.093999997
9.5509996 2.8210001 0.093999997
9.677 2.892 0.094999999
15.223 4.5489998 0.15000001
15.285 4.6199999 0.15000001
9.6520004 2.95 0.094999999
15.332 4.6859999 0.15099999
9.4460001 2.9200001 0.093000002
9.3760004 2.9300001 0.092
9.3380003 2.951 0.090999998
9.3170004 2.977 0.090999998
9.3310003 3.0139999 0.090999998
9.3889999 3.066 0.092
15.746 5.197 0.154
15.793 5.2690001 0.155
15.779 5.3200002 0.154
15.787 5.3800001 0.154
15.875 5.467 0.155
15.917 5.539 0.156
15.992 5.6230001 0.156
16.02 5.691 0.156
16.017 5.7490001 0.156
16.108999 5.8410001 0.15700001
16.191 5.9299998 0.15800001
16.183001 5.987 0.15800001
16.200001 6.053 0.15800001
16.231001 6.1259999 0.15800001
12.393 5.895 0.12
12.336 5.9190001 0.119
12.26 5.9330001 0.118
12.008 5.8610001 0.116
11.953 5.8839998 0.115
11.952 5.934 0.115
11.994 6.0050001 0.116
12.241 6.336 0.118
12.182 6.3579998 0.117
12.101 6.3670001 0.117
12.123 6.4310002 0.117
7.8210001 -5.1500001 0.183
7.8590002 -5.125 0.183
7.902 -5.1040001 0.184
7.9369998 -5.0780001 0.185
7.9720001 -5.0510001 0.186
7.9860001 -5.0120001 0.186
8.0139999 -4.9809999 0.186
8.0439997 -4.9520001 0.18700001
8.0760002 -4.9239998 0.18799999
8.0959997 -4.8899999 0.18799999
8.1199999 -4.8569999 0.18799999
8.1619997 -4.835 0.189
8.1859999 -4.803 0.19
8.217 -4.7750001 0.19
8.2469997 -4.7459998 0.191
8.2629995 -4.7090001 0.191
8.2919998 -4.6799998 0.192
8.3210001 -4.652 0.192
8.3360004 -4.6149998 0.193
8.3809996 -4.5949998 0.19400001
8.4069996 -4.5650001 0.19400001
8.4619999 -4.5510001 0.19499999
8.4919996 -4.5219998 0.19599999
8.4969997 -4.4809999 0.19599999
8.5120001 -4.4450002 0.19599999
8.533 -4.4130001 0.197
8.552 -4.3790002 0.197
8.5950003 -4.3579998 0.198
8.6199999 -4.3280001 0.199
8.6549997 -4.303 0.199
8.677 -4.2709999 0.2
8.7080002 -4.244 0.2
8.7259998 -4.211 0.20100001
8.7370005 -4.1750002 0.20100001
8.757 -4.1430001 0.20100001
8.7989998 -4.1209998 0.20200001
8.7939997 -4.0780001 0.20200001
8.8409996 -4.059 0.20299999
8.8649998 -4.0289998 0.20299999
8.9049997 -4.007 0.204
8.9180002 -3.9719999 0.205
8.948 -3.9449999 0.205
8.974 -3.9170001 0.206
9.0019999 -3.8889999 0.206
9.033 -3.8629999 0.207
9.0690002 -3.839 0.208
9.1260004 -3.823 0.20900001
9.1260004 -3.7839999 0.20900001
9.1560001 -3.7579999 0.20999999
9.1859999 -3.7309999 0.20999999
9.2189999 -3.7060001 0.211
9.2519999 -3.6800001 0.212
9.2650003 -3.6470001 0.212
9.3190002 -3.6300001 0.213
9.3459997 -3.602 0.214
9.3760004 -3.576 0.214
9.4189997 -3.5539999 0.215
9.4630003 -3.533 0.21600001
9.5019999 -3.51 0.21699999
9.5220003 -3.48 0.21799999
9.5430002 -3.45 0.21799999
9.5710001 -3.4230001 0.219
9.5790005 -3.3889999 0.219
9.6289997 -3.369 0.22
9.6820002 -3.3510001 0.221
9.6899996 -3.3169999 0.221
9.724 -3.2920001 0.222
9.7779999 -3.2739999 0.223
9.7709999 -3.2349999 0.223
9.7969999 -3.2079999 0.223
9.8330002 -3.184 0.22400001
9.941 -3.1819999 0.227
9.9650002 -3.154 0.227
9.9320002 -3.108 0.226
9.9449997 -3.0769999 0.227
9.9519997 -3.0439999 0.227
10.006 -3.0250001 0.228
10.033 -2.9979999 0.229
10.047 -2.967 0.229
10.074 -2.941 0.229
10.084 -2.9089999 0.23
10.135 -2.8889999 0.23100001
10.164 -2.8629999 0.23100001
10.176 -2.832 0.23199999
10.196 -2.8039999 0.23199999
10.229 -2.779 0.233
10.281 -2.7590001 0.234
10.301 -2.7309999 0.234
10.355 -2.7119999 0.236
10.384 -2.6860001 0.236
10.433 -2.665 0.237
10.428 -2.6300001 0.237
10.456 -2.6040001 0.23800001
10.465 -2.5739999 0.23800001
10.501 -2.55 0.23899999
10.533 -2.5250001 0.23999999
10.555 -2.497 0.23999999
10.568 -2.4679999 0.23999999
10.601 -2.4430001 0.241
10.623 -2.4159999 0.242
10.67 -2.395 0.243
10.108 -2.2379999 0.23
10.033 -2.1919999 0.228
10.066 -2.1689999 0.229
10.147 -2.1570001 0.23100001
10.318 -2.164 0.235
10.853 -2.244 0.24699999
10.881 -2.2190001 0.248
10.895 -2.1900001 0.248
10.541 -2.089 0.23999999
10.479 -2.0469999 0.23800001
10.482 -2.0190001 0.23800001
10.52 -1.9960001 0.23899999
10.554 -1.974 0.23999999
10.658 -1.964 0.242
11.212 -2.0350001 0.255
11.247 -2.0109999 0.25600001
11.251 -1.9809999 0.25600001
11.269 -1.954 0.25600001
11.322 -1.933 0.25799999
11.35 -1.908 0.25799999
11.364 -1.88 0.259
11.449 -1.864 0.26100001
11.48 -1.84 0.26100001
11.523 -1.817 0.26199999
11.537 -1.789 0.26300001
11.571 -1.765 0.26300001
11.652 -1.748 0.26499999
11.686 -1.724 0.266
11.727 -1.7 0.26699999
11.774 -1.678 0.26800001
11.756 -1.646 0.26800001
11.813 -1.625 0.26899999
11.822 -1.598 0.26899999
11.867 -1.575 0.27000001
11.887 -1.549 0.271
11.895 -1.522 0.271
11.92 -1.497 0.27200001
11.972 -1.475 0.273
12.029 -1.454 0.27399999
12.019 -1.425 0.27399999
12.068 -1.403 0.27500001
12.116 -1.38 0.27599999
12.142 -1.355 0.27700001
12.152 -1.329 0.27700001
12.22 -1.309 0.27900001
12.232 -1.283 0.27900001
12.25 -1.258 0.27900001
12.3 -1.2359999 0.28
12.325 -1.211 0.28099999
12.354 -1.187 0.28200001
12.46 -1.17 0.28400001
12.511 -1.1210001 0.285
12.629 -1.105 0.28799999
12.882 0.171 0.178
12.948 0.19499999 0.17900001
12.95 0.21799999 0.17900001
12.978 0.242 0.17900001
12.987 0.26699999 0.17900001
13.017 0.292 0.17900001
13.072 0.31799999 0.18000001
13.058 0.34200001 0.17900001
13.041 0.36700001 0.17900001
13.061 0.39300001 0.17900001
13.065 0.419 0.17900001
13.058 0.44499999 0.17900001
13.038 0.47099999 0.178
13.08 0.49900001 0.17900001
13.063 0.52499998 0.178
13.083 0.55299997 0.178
13.067 0.57999998 0.178
13.074 0.60799998 0.178
13.097 0.63700002 0.178
13.081 0.66500002 0.178
13.124 0.69599998 0.178
13.132 0.72500002 0.178
13.115 0.75300002 0.177
13.126 0.78299999 0.177
13.121 0.81199998 0.177
13.142 0.84299999 0.177
13.126 0.87199998 0.177
13.132 0.903 0.177
13.137 0.93400002 0.177
13.132 0.96399999 0.177
13.124 0.995 0.176
13.127 1.026 0.176
13.155 1.0599999 0.176
13.191 1.094 0.177
13.223 1.1289999 0.177
13.268 1.166 0.177
13.265 1.198 0.177
13.256 1.23 0.177
13.236 1.261 0.176
13.236 1.294 0.176
13.25 1.329 0.176
13.265 1.365 0.176
13.288 1.401 0.177
13.294 1.436 0.177
13.337 1.475 0.177
13.361 1.513 0.177
13.369 1.549 0.177
13.362 1.5829999 0.177
13.384 1.6210001 0.177
13.41 1.66 0.177
13.443 1.7 0.177
13.456 1.738 0.178
13.512 1.7819999 0.178
13.513 1.819 0.178
13.549 1.8609999 0.178
13.575 1.902 0.17900001
13.596 1.943 0.17900001
13.609 1.982 0.17900001
13.646 2.026 0.17900001
13.655 2.066 0.17900001
13.69 2.1099999 0.17900001
13.697 2.1500001 0.17900001
13.731 2.194 0.18000001
13.76 2.2379999 0.18000001
13.816 2.2869999 0.18099999
13.851 2.3329999 0.18099999
13.881 2.3789999 0.18099999
13.947 2.431 0.182
14.003 2.4809999 0.182
14.022 2.526 0.183
14.08 2.5780001 0.183
14.126 2.6289999 0.184
14.141 2.674 0.184
14.172 2.7219999 0.184
14.242 2.7780001 0.185
14.28 2.829 0.185
14.324 2.881 0.186
14.386 2.937 0.186
14.422 2.9890001 0.18700001
14.479 3.0450001 0.18700001
14.552 3.105 0.18799999
14.607 3.1619999 0.189
14.679 3.223 0.19
14.696 3.273 0.19
14.68 3.3150001 0.189
14.752 3.3770001 0.19
14.808 3.437 0.191
14.832 3.4890001 0.191
14.917 3.556 0.192
14.954 3.6129999 0.192
13.77 3.3710001 0.177
13.704 3.398 0.176
13.731 3.4489999 0.176
15.136 3.8510001 0.19400001
14.335 3.6930001 0.184
14.203 3.7049999 0.182
14.218 3.7550001 0.182
14.325 3.8310001 0.183
15.534 4.2049999 0.199
9.7480001 2.671 0.125
15.772 4.3210001 0.20200001
9.6269999 2.6689999 0.123
9.5799999 2.687 0.122
9.5369997 2.707 0.122
9.5229998 2.7349999 0.121
9.4960003 2.7590001 0.121
9.5 2.7909999 0.121
9.5290003 2.832 0.121
9.6379995 2.8959999 0.123
15.843 4.7620001 0.20200001
9.6120005 2.921 0.122
15.933 4.842 0.20299999
9.4589996 2.9059999 0.12
9.3839998 2.915 0.119
9.3409996 2.9330001 0.119
9.3339996 2.9630001 0.118
9.3330002 2.994 0.118
9.3559999 3.0339999 0.119
9.4209995 3.0869999 0.119
16.344999 5.4120002 0.208
16.327 5.4619999 0.207
16.368999 5.533 0.208
16.375 5.5910001 0.208
16.403 5.658 0.208
16.499001 5.7480001 0.20900001
16.466999 5.7940001 0.20900001
16.579 5.8920002 0.20999999
16.559999 5.9419999 0.20999999
16.632999 6.027 0.20999999
16.690001 6.1059999 0.211
16.736 6.1810002 0.212
13.148 5.605 0.16500001
12.913 5.5510001 0.162
12.72 5.5139999 0.16
12.613 5.513 0.15800001
12.783 5.6339998 0.161
12.313 5.9190001 0.154
12.268 5.9419999 0.154
12.183 6.0339999 0.152
12.16 6.0669999 0.152
12.148 6.105 0.152
12.237 6.2839999 0.153
12.188 6.3039999 0.152
12.253 6.382 0.153
12.228 6.414 0.153
8.5579996 -5.052 0.21699999
8.5799999 -5.04 0.21799999
8.5780001 -5.0139999 0.21799999
8.5860004 -4.9949999 0.21799999
8.5749998 -4.9640002 0.21699999
8.6040001 -4.9559999 0.21799999
8.6330004 -4.948 0.219
8.6269999 -4.9200001 0.219
8.6459999 -4.9060001 0.219
8.6520004 -4.8850002 0.22
8.6759996 -4.8730001 0.22
8.6960001 -4.8600001 0.221
8.71 -4.8429999 0.221
8.7130003 -4.8189998 0.221
8.7209997 -4.7979999 0.221
8.7360001 -4.7820001 0.222
8.7460003 -4.7620001 0.222
8.7519999 -4.7399998 0.222
8.7530003 -4.7150002 0.222
8.7659998 -4.697 0.223
8.7889996 -4.684 0.223
8.7910004 -4.6599998 0.223
8.8030005 -4.6399999 0.22400001
8.8179998 -4.6230001 0.22400001
8.8620005 -4.6209998 0.22499999
8.8979998 -4.6139998 0.226
8.8900003 -4.5840001 0.226
8.868 -4.5469999 0.22499999
8.8559999 -4.5149999 0.22499999
8.8809996 -4.5019999 0.226
8.8909998 -4.4819999 0.226
8.9020004 -4.461 0.226
8.9200001 -4.4439998 0.227
8.9560003 -4.4359999 0.228
8.9560003 -4.4099998 0.228
8.9770002 -4.395 0.228
8.993 -4.3769999 0.229
9.0039997 -4.355 0.229
9.0190001 -4.3369999 0.23
9.0340004 -4.3179998 0.23
9.059 -4.303 0.23100001
9.0740004 -4.2839999 0.23100001
9.1110001 -4.2750001 0.23199999
9.1099997 -4.2480001 0.23199999
9.1129999 -4.223 0.23199999
9.1300001 -4.2049999 0.23199999
9.1400003 -4.1830001 0.233
9.1759996 -4.1719999 0.234
9.1850004 -4.1500001 0.234
9.1960001 -4.1279998 0.234
9.2110004 -4.1079998 0.235
9.2309999 -4.0900002 0.235
9.2519999 -4.072 0.236
9.2659998 -4.052 0.236
9.2889996 -4.0349998 0.237
9.2939997 -4.0100002 0.237
9.3310003 -3.9990001 0.23800001
9.3470001 -3.9779999 0.23800001
9.3640003 -3.9579999 0.23899999
9.3690004 -3.9330001 0.23899999
9.3959999 -3.9170001 0.23899999
9.4099998 -3.8959999 0.23999999
9.4359999 -3.8789999 0.241
9.4519997 -3.858 0.241
9.4729996 -3.839 0.241
9.4899998 -3.8180001 0.242
9.4890003 -3.7909999 0.242
9.5229998 -3.776 0.243
9.5559998 -3.7609999 0.244
9.5780001 -3.7420001 0.244
9.5710001 -3.7119999 0.244
9.6169996 -3.7019999 0.245
9.6099997 -3.671 0.245
9.6140003 -3.645 0.245
9.6560001 -3.632 0.24600001
9.677 -3.612 0.24699999
9.6990004 -3.5929999 0.24699999
9.717 -3.5710001 0.248
9.724 -3.5450001 0.248
9.7150002 -3.5139999 0.248
9.7559996 -3.5 0.249
9.7650003 -3.4749999 0.249
9.802 -3.46 0.25
9.8170004 -3.437 0.25
9.8479996 -3.4189999 0.25099999
9.842 -3.388 0.25099999
9.868 -3.369 0.252
9.8809996 -3.3440001 0.252
9.8940001 -3.3199999 0.252
9.941 -3.3069999 0.25400001
9.9610004 -3.2850001 0.25400001
9.9750004 -3.26 0.255
10.025 -3.2479999 0.25600001
10.082 -3.237 0.257
10.069 -3.204 0.257
10.105 -3.1860001 0.25799999
10.103 -3.1559999 0.25799999
10.094 -3.1240001 0.25799999
10.101 -3.0969999 0.25799999
10.135 -3.0780001 0.259
10.159 -3.056 0.259
10.181 -3.033 0.25999999
10.203 -3.01 0.25999999
10.21 -2.983 0.26100001
10.231 -2.9590001 0.26100001
10.247 -2.934 0.26199999
10.283 -2.915 0.26300001
10.305 -2.891 0.26300001
10.325 -2.8670001 0.264
10.356 -2.846 0.264
10.377 -2.8210001 0.26499999
10.403 -2.7980001 0.266
10.446 -2.78 0.26699999
10.458 -2.753 0.26699999
10.48 -2.7279999 0.26800001
10.537 -2.7130001 0.26899999
10.556 -2.687 0.27000001
10.561 -2.658 0.27000001
10.609 -2.6400001 0.271
10.601 -2.6070001 0.271
10.615 -2.5799999 0.271
10.636 -2.5539999 0.27200001
10.678 -2.5339999 0.273
10.696 -2.507 0.273
10.716 -2.4809999 0.27399999
10.754 -2.4590001 0.27500001
10.782 -2.434 0.27500001
10.831 -2.414 0.27700001
10.864 -2.3900001 0.27700001
10.157 -2.2060001 0.259
10.052 -2.154 0.257
10.071 -2.1289999 0.257
10.147 -2.1159999 0.259
10.293 -2.1170001 0.26300001
11.043 -2.2390001 0.28200001
11.071 -2.2130001 0.28299999
11.129 -2.1930001 0.28400001
10.549 -2.0480001 0.26899999
10.481 -2.0050001 0.26800001
10.486 -1.976 0.26800001
10.544 -1.957 0.26899999
10.701 -1.955 0.273
11.436 -2.0569999 0.292
11.407 -2.0179999 0.29100001
11.46 -1.995 0.29300001
11.522 -1.973 0.294
11.56 -1.946 0.29499999
11.568 -1.914 0.29499999
11.645 -1.8940001 0.29699999
11.637 -1.859 0.29699999
11.747 -1.8430001 0.30000001
11.767 -1.813 0.30000001
11.778 -1.781 0.301
11.868 -1.76 0.303
11.902 -1.7309999 0.30399999
11.94 -1.7029999 0.30500001
11.946 -1.669 0.30500001
11.979 -1.64 0.30599999
12.005 -1.609 0.30599999
12.007 -1.575 0.30599999
12.084 -1.55 0.308
12.133 -1.522 0.31
12.164 -1.4910001 0.31
12.218 -1.4630001 0.31200001
12.287 -1.436 0.31400001
12.325 -1.405 0.31400001
12.382 -1.376 0.31600001
12.389 -1.342 0.31600001
12.466 -1.3150001 0.31799999
12.712 -1.304 0.324
13.569 0.48199999 0.213
13.529 0.50099999 0.212
13.526 0.52100003 0.212
13.495 0.54100001 0.211
13.499 0.56199998 0.211
13.48 0.583 0.211
13.468 0.60399997 0.20999999
13.481 0.62599999 0.20999999
13.453 0.64700001 0.20999999
13.438 0.66900003 0.20900001
13.439 0.69099998 0.20900001
13.451 0.71499997 0.20900001
13.429 0.73699999 0.20900001
13.439 0.76099998 0.20900001
13.468 0.787 0.20900001
13.437 0.80900002 0.208
13.416 0.83200002 0.208
13.438 0.85799998 0.208
13.432 0.88300002 0.208
13.454 0.91000003 0.208
13.463 0.93599999 0.208
13.463 0.96200001 0.208
13.487 0.99000001 0.208
13.495 1.017 0.208
13.507 1.045 0.208
13.508 1.072 0.208
13.527 1.101 0.208
13.57 1.132 0.20900001
13.665 1.168 0.20999999
13.654 1.196 0.20999999
13.613 1.221 0.20900001
13.589 1.248 0.208
13.617 1.28 0.20900001
13.61 1.309 0.208
13.605 1.3380001 0.208
13.665 1.374 0.20900001
13.711 1.409 0.20999999
13.749 1.444 0.20999999
13.796 1.48 0.211
13.781 1.51 0.20999999
13.792 1.543 0.20999999
13.809 1.577 0.211
13.803 1.608 0.20999999
13.864 1.648 0.211
13.887 1.684 0.211
13.88 1.716 0.211
13.925 1.756 0.212
13.929 1.79 0.212
13.948 1.827 0.212
13.95 1.8609999 0.212
14.028 1.9069999 0.213
14.044 1.944 0.213
14.088 1.9859999 0.214
14.1 2.023 0.214
14.128 2.063 0.214
14.17 2.1059999 0.215
14.2 2.1470001 0.215
14.256 2.1930001 0.21600001
14.262 2.2320001 0.21600001
14.296 2.2750001 0.21600001
14.35 2.322 0.21699999
14.411 2.3699999 0.21799999
14.482 2.421 0.219
14.47 2.4579999 0.219
14.504 2.5039999 0.219
14.527 2.5469999 0.219
14.542 2.5899999 0.22
14.578 2.6370001 0.22
14.621 2.6860001 0.221
14.668 2.7360001 0.221
14.772 2.7969999 0.223
14.791 2.8429999 0.223
14.836 2.8940001 0.22400001
14.842 2.938 0.22400001
14.848 2.983 0.22400001
14.895 3.0350001 0.22400001
14.929 3.086 0.22499999
14.974 3.1400001 0.22499999
15.003 3.1900001 0.226
15.017 3.2379999 0.226
15.048 3.29 0.226
15.168 3.362 0.228
15.172 3.4089999 0.228
15.204 3.4619999 0.229
15.237 3.517 0.229
15.266 3.5699999 0.23
15.29 3.6229999 0.23
15.414 3.701 0.23199999
13.8 3.3559999 0.207
13.683 3.3710001 0.206
13.684 3.414 0.206
13.787 3.484 0.207
14.199 3.6789999 0.213
14.144 3.71 0.213
14.188 3.7679999 0.213
14.49 3.895 0.21799999
9.7040005 2.6719999 0.146
9.618 2.6800001 0.14399999
9.5579996 2.6949999 0.14300001
9.5209999 2.7160001 0.14300001
9.4989996 2.7420001 0.14300001
9.4899998 2.7709999 0.142
9.4779997 2.8 0.142
9.4860001 2.8340001 0.142
9.5559998 2.888 0.14300001
9.4980001 2.9030001 0.14300001
9.4139996 2.9089999 0.141
9.3730001 2.9289999 0.141
9.349 2.954 0.14
9.3360004 2.983 0.14
9.3479996 3.0190001 0.14
9.3999996 3.069 0.141
9.6049995 3.1700001 0.14399999
16.646999 5.494 0.25
16.615999 5.5430002 0.25
16.721001 5.6370001 0.252
16.778 5.717 0.252
16.846001 5.8000002 0.25400001
16.855 5.8649998 0.25400001
16.895 5.9400001 0.25400001
16.908001 6.006 0.255
13.12 5.5019999 0.198
12.949 5.4809999 0.19599999
12.812 5.474 0.19400001
12.665 5.461 0.192
12.562 5.4660001 0.19
12.667 5.5619998 0.192
12.274 6.0929999 0.18700001
12.206 6.1100001 0.186
12.201 6.3150001 0.186
12.218 6.3759999 0.18700001
12.173 6.4050002 0.186
12.208 6.4759998 0.18700001
8.1630001 -5.3730001 0.229
8.2089996 -5.3520002 0.23
8.2510004 -5.3280001 0.23199999
8.2869997 -5.3000002 0.23199999
8.3240004 -5.2729998 0.233
8.3439999 -5.2350001 0.234
8.375 -5.204 0.234
8.4040003 -5.1719999 0.235
8.4239998 -5.1350002 0.235
8.4700003 -5.1129999 0.237
8.4910002 -5.0770001 0.237
8.5249996 -5.0479999 0.23800001
8.5410004 -5.0089998 0.23800001
8.5670004 -4.9770002 0.23899999
8.5939999 -4.9439998 0.23899999
8.5959997 -4.8979998 0.23899999
8.6370001 -4.8740001 0.23999999
8.6590004 -4.8390002 0.241
8.7010002 -4.816 0.242
8.7139997 -4.777 0.242
8.7650003 -4.7579999 0.243
8.7770004 -4.7179999 0.244
8.7959995 -4.6830001 0.244
8.8039999 -4.6409998 0.244
8.8140001 -4.6020002 0.244
8.8389997 -4.5700002 0.245
8.8839998 -4.5479999 0.24600001
8.9040003 -4.513 0.24699999
8.9320002 -4.4840002 0.24699999
8.9580002 -4.4520001 0.248
8.9790001 -4.4190001 0.248
9.0089998 -4.3899999 0.249
9.026 -4.355 0.249
9.0830002 -4.3390002 0.25099999
9.1140003 -4.3109999 0.252
9.1280003 -4.2740002 0.252
9.1379995 -4.2360001 0.252
9.165 -4.2069998 0.25299999
9.1949997 -4.178 0.25299999
9.2180004 -4.1469998 0.25400001
9.2469997 -4.118 0.255
9.2799997 -4.0910001 0.25600001
9.3050003 -4.0599999 0.25600001
9.3310003 -4.0300002 0.257
9.3590002 -4.0009999 0.257
9.382 -3.97 0.25799999
9.4300003 -3.95 0.259
9.4449997 -3.915 0.25999999
9.4969997 -3.8970001 0.26100001
9.5139999 -3.8629999 0.26100001
9.526 -3.8280001 0.26199999
9.5629997 -3.803 0.26300001
9.5500002 -3.7579999 0.26199999
9.6049995 -3.7409999 0.264
9.6520004 -3.7190001 0.26499999
9.6730003 -3.688 0.26499999
9.6829996 -3.6530001 0.26499999
9.7150002 -3.6259999 0.266
9.7370005 -3.596 0.26699999
9.7849998 -3.575 0.26800001
9.8030005 -3.543 0.26800001
9.8179998 -3.51 0.26899999
9.8400002 -3.48 0.26899999
9.8649998 -3.451 0.27000001
9.9239998 -3.434 0.27200001
9.9280005 -3.398 0.27200001
9.9540005 -3.369 0.27200001
9.993 -3.345 0.273
10.004 -3.312 0.273
10.055 -3.2920001 0.27500001
10.086 -3.2650001 0.27599999
10.191 -3.2620001 0.278
10.196 -3.227 0.27900001
10.217 -3.197 0.27900001
10.194 -3.1530001 0.278
10.215 -3.1240001 0.27900001
10.252 -3.099 0.28
10.284 -3.073 0.28099999
10.294 -3.04 0.28099999
10.347 -3.02 0.28200001
10.365 -2.99 0.28299999
10.392 -2.9619999 0.28299999
10.423 -2.9360001 0.28400001
10.465 -2.9119999 0.285
10.495 -2.8859999 0.28600001
10.529 -2.8599999 0.287
10.564 -2.835 0.28799999
10.582 -2.8050001 0.28799999
10.636 -2.7850001 0.28999999
10.671 -2.76 0.29100001
10.711 -2.7360001 0.292
10.717 -2.7030001 0.292
10.76 -2.6800001 0.29300001
10.79 -2.6530001 0.294
10.801 -2.622 0.294
10.846 -2.5999999 0.29499999
10.896 -2.5780001 0.29699999
10.914 -2.549 0.29699999
10.975 -2.529 0.29899999
10.994 -2.5009999 0.29899999
11.021 -2.474 0.30000001
10.304 -2.2820001 0.28
10.081 -2.2019999 0.27399999
10.073 -2.171 0.27399999
10.111 -2.1489999 0.27500001
10.243 -2.148 0.27900001
11.289 -2.335 0.30700001
11.293 -2.303 0.30700001
11.348 -2.2820001 0.30899999
10.679 -2.1170001 0.29100001
10.496 -2.0510001 0.28600001
10.466 -2.016 0.285
10.492 -1.9910001 0.285
10.6 -1.982 0.28799999
11.785 -2.1719999 0.32100001
11.613 -2.108 0.31600001
11.641 -2.082 0.317
11.71 -2.062 0.31900001
11.75 -2.0380001 0.31999999
11.796 -2.0139999 0.32100001
11.819 -1.987 0.32100001
11.872 -1.965 0.32300001
11.966 -1.949 0.32499999
12.083 -1.937 0.329
12.014 -1.8940001 0.32699999
11.984 -1.859 0.32600001
12.006 -1.832 0.32699999
12.06 -1.8099999 0.32800001
12.077 -1.7819999 0.32800001
12.113 -1.757 0.329
12.141 -1.7309999 0.33000001
12.162 -1.704 0.331
12.175 -1.676 0.331
12.205 -1.65 0.33199999
12.221 -1.623 0.33199999
12.263 -1.599 0.33399999
12.298 -1.574 0.33500001
12.319 -1.5470001 0.33500001
12.376 -1.525 0.33700001
12.377 -1.4960001 0.33700001
12.446 -1.476 0.33899999
12.427 -1.4450001 0.338
12.461 -1.42 0.33899999
12.571 -1.404 0.34200001
12.589 -1.377 0.34299999
12.637 -1.354 0.34400001
12.691 -1.332 0.345
12.703 -1.3049999 0.34599999
12.819 -1.288 0.34900001
12.816 -1.26 0.34900001
13.374 0.17900001 0.25
13.419 0.204 0.25099999
13.428 0.228 0.25099999
13.412 0.252 0.25
13.444 0.278 0.25099999
13.435 0.303 0.25
13.437 0.32800001 0.25
13.44 0.354 0.25
13.464 0.38100001 0.25
13.462 0.40700001 0.25
13.465 0.43399999 0.25
13.461 0.461 0.25
13.445 0.48699999 0.249
13.431 0.514 0.249
13.472 0.54299998 0.249
13.468 0.57099998 0.249
13.483 0.60000002 0.249
13.481 0.62900001 0.249
13.479 0.65700001 0.249
13.487 0.68699998 0.249
13.485 0.71600002 0.249
13.49 0.74599999 0.248
13.494 0.77600002 0.248
13.505 0.80699998 0.248
13.499 0.83700001 0.248
13.515 0.86799997 0.248
13.535 0.90100002 0.248
13.524 0.93099999 0.248
13.56 0.96499997 0.249
13.547 0.99599999 0.248
13.562 1.029 0.248
13.544 1.0599999 0.248
13.55 1.0930001 0.248
13.58 1.128 0.248
13.609 1.163 0.249
13.749 1.209 0.25099999
13.767 1.244 0.25099999
13.758 1.278 0.25099999
13.774 1.313 0.25099999
13.779 1.349 0.25099999
13.779 1.383 0.25099999
13.811 1.4220001 0.25099999
13.867 1.4630001 0.252
13.949 1.507 0.25400001
14.006 1.55 0.255
13.992 1.585 0.25400001
13.994 1.622 0.25400001
13.995 1.659 0.25400001
14.021 1.699 0.25400001
14.096 1.7460001 0.25600001
14.152 1.791 0.257
14.155 1.829 0.257
14.163 1.869 0.257
14.202 1.9119999 0.257
14.23 1.955 0.25799999
14.282 2.0020001 0.25799999
14.329 2.0480001 0.259
14.357 2.092 0.25999999
14.417 2.141 0.26100001
14.485 2.1919999 0.26199999
14.555 2.244 0.26300001
14.571 2.2869999 0.26300001
14.644 2.3410001 0.264
14.657 2.385 0.264
14.758 2.444 0.266
14.754 2.4860001 0.266
14.771 2.5309999 0.266
14.798 2.579 0.26699999
14.795 2.622 0.266
14.873 2.6800001 0.26800001
14.915 2.7309999 0.26899999
14.997 2.7909999 0.27000001
15.023 2.8410001 0.27000001
15.083 2.8970001 0.271
15.121 2.95 0.27200001
15.165 3.0039999 0.273
15.175 3.052 0.273
15.197 3.1029999 0.273
15.236 3.1570001 0.27399999
15.296 3.217 0.27500001
15.373 3.28 0.27599999
15.463 3.3469999 0.278
15.453 3.3929999 0.27700001
15.523 3.457 0.27900001
15.588 3.52 0.28
15.607 3.573 0.28
15.666 3.6359999 0.28099999
15.749 3.7049999 0.28200001
15.827 3.773 0.28400001
13.77 3.3269999 0.24699999
13.707 3.355 0.24600001
13.694 3.3959999 0.245
13.881 3.487 0.249
14.169 3.6500001 0.25400001
14.138 3.688 0.25299999
14.251 3.7639999 0.255
16.226999 4.3390002 0.29100001
9.9160004 2.684 0.177
16.267 4.4029999 0.29100001
9.6789999 2.651 0.17299999
9.592 2.6589999 0.17200001
9.5450001 2.677 0.171
9.5129995 2.7 0.17
9.4890003 2.7249999 0.17
9.4809999 2.7539999 0.17
9.4619999 2.78 0.169
9.4650002 2.812 0.169
9.4809999 2.849 0.17
9.4560003 2.8729999 0.169
9.4119997 2.892 0.168
9.3780003 2.9130001 0.168
9.3549995 2.937 0.167
9.3389997 2.964 0.167
9.3579998 3.0020001 0.167
9.4119997 3.0510001 0.168
9.5279999 3.122 0.17
17.209 5.6389999 0.308
17.089001 5.658 0.30599999
17.152 5.7379999 0.30700001
17.247 5.829 0.30899999
17.347 5.9229999 0.31099999
17.316 5.9720001 0.31
13.04 5.4640002 0.234
12.919 5.46 0.23199999
12.819 5.4640002 0.23
12.737 5.4749999 0.229
12.62 5.4699998 0.227
12.514 5.4699998 0.22499999
12.499 5.5079999 0.22499999
12.765 5.6719999 0.229
12.272 5.8979998 0.221
12.219 5.9169998 0.22
12.208 6.4029999 0.221
12.163 6.4229999 0.22
12.198 6.4860001 0.221
8.7849998 -5.1900001 0.264
8.8059998 -5.177 0.264
8.8299999 -5.1659999 0.26499999
8.8170004 -5.1329999 0.26499999
8.8380003 -5.1199999 0.26499999
8.8649998 -5.1110001 0.266
8.8549995 -5.079 0.266
8.8610001 -5.0570002 0.266
8.8889999 -5.0479999 0.26699999
8.8900003 -5.0229998 0.26699999
8.915 -5.0110002 0.26800001
8.927 -4.993 0.26800001
8.9239998 -4.9650002 0.26800001
8.9420004 -4.9499998 0.26899999
8.9580002 -4.9330001 0.26899999
8.9689999 -4.9130001 0.27000001
8.9820004 -4.8940001 0.27000001
9.0059996 -4.881 0.271
9.0229998 -4.8639998 0.271
9.0310001 -4.8429999 0.27200001
9.0450001 -4.8239999 0.27200001
9.0489998 -4.8000002 0.27200001
9.066 -4.783 0.273
9.1160002 -4.783 0.27399999
9.1359997 -4.7670002 0.27500001
9.25 -4.7989998 0.278
9.224 -4.7589998 0.27700001
9.1700001 -4.7049999 0.27599999
9.151 -4.6690001 0.27500001
9.151 -4.6420002 0.27500001
9.1709995 -4.6259999 0.27599999
9.1820002 -4.6040001 0.27599999
9.2030001 -4.5890002 0.27700001
9.224 -4.572 0.27700001
9.2320004 -4.5500002 0.278
9.2449999 -4.5289998 0.278
9.2620001 -4.5100002 0.27900001
9.2740002 -4.4889998 0.27900001
9.3009996 -4.4749999 0.28
9.3219995 -4.4580002 0.28
9.349 -4.4439998 0.28099999
9.3649998 -4.4239998 0.28200001
9.3730001 -4.401 0.28200001
9.3789997 -4.3759999 0.28200001
9.3859997 -4.3530002 0.28200001
9.4160004 -4.3390002 0.28299999
9.4309998 -4.3179998 0.28400001
9.441 -4.296 0.28400001
9.4580002 -4.276 0.285
9.4650002 -4.2509999 0.285
9.4890003 -4.2350001 0.28600001
9.5150003 -4.2179999 0.28600001
9.5089998 -4.1880002 0.28600001
9.5360003 -4.1719999 0.287
9.5469999 -4.1490002 0.287
9.5419998 -4.119 0.287
9.585 -4.1100001 0.28799999
9.5950003 -4.086 0.289
9.6120005 -4.0650001 0.289
9.6549997 -4.0560002 0.29100001
9.6599998 -4.0289998 0.29100001
9.6610003 -4.0019999 0.29100001
9.6630001 -3.974 0.29100001
9.6870003 -3.9560001 0.292
9.7040005 -3.9349999 0.292
9.7200003 -3.9130001 0.29300001
9.7379999 -3.892 0.29300001
9.7530003 -3.869 0.294
9.79 -3.8559999 0.29499999
9.8059998 -3.8329999 0.29499999
9.8240004 -3.812 0.296
9.8400002 -3.789 0.296
9.8549995 -3.766 0.29699999
9.8699999 -3.744 0.29699999
9.9049997 -3.7279999 0.29800001
9.908 -3.7 0.29800001
9.9399996 -3.6830001 0.29899999
9.9519997 -3.6589999 0.29899999
9.9779997 -3.6389999 0.30000001
9.9879999 -3.6140001 0.301
10.019 -3.596 0.301
10.021 -3.5680001 0.30199999
10.057 -3.5510001 0.303
10.073 -3.5280001 0.303
10.085 -3.503 0.303
10.102 -3.4790001 0.30399999
10.12 -3.4560001 0.30500001
10.14 -3.4330001 0.30500001
10.163 -3.411 0.30599999
10.184 -3.3889999 0.30599999
10.21 -3.368 0.30700001
10.24 -3.348 0.308
10.31 -3.3410001 0.31
10.367 -3.3299999 0.31200001
10.34 -3.2909999 0.31099999
10.345 -3.2620001 0.31099999
10.35 -3.234 0.31099999
10.359 -3.207 0.31200001
10.365 -3.1789999 0.31200001
10.376 -3.152 0.31200001
10.411 -3.1329999 0.31299999
10.441 -3.1110001 0.31400001
10.452 -3.0840001 0.31400001
10.49 -3.0650001 0.31600001
10.52 -3.0439999 0.31600001
10.527 -3.0150001 0.317
10.563 -2.9949999 0.31799999
10.588 -2.971 0.31799999
10.646 -2.957 0.31999999
10.653 -2.928 0.31999999
10.695 -2.9089999 0.322
10.713 -2.882 0.322
10.735 -2.8570001 0.32300001
10.745 -2.829 0.32300001
10.762 -2.802 0.324
10.841 -2.7920001 0.32600001
10.855 -2.7639999 0.32600001
10.898 -2.743 0.32800001
10.946 -2.724 0.329
10.982 -2.701 0.33000001
11.009 -2.6760001 0.331
11.045 -2.6530001 0.33199999
11.044 -2.6210001 0.33199999
11.083 -2.598 0.333
11.146 -2.5810001 0.33500001
11.147 -2.549 0.33500001
11.171 -2.523 0.336
11.22 -2.5009999 0.33700001
11.261 -2.4779999 0.338
11.31 -2.4560001 0.34
10.131 -2.171 0.30399999
10.084 -2.132 0.303
10.109 -2.108 0.30399999
10.201 -2.098 0.30599999
11.502 -2.3329999 0.345
11.555 -2.3099999 0.347
11.623 -2.29 0.34900001
10.718 -2.0810001 0.322
10.496 -2.0079999 0.315
10.456 -1.97 0.31400001
10.5 -1.948 0.315
10.697 -1.954 0.32100001
11.814 -2.1240001 0.35499999
11.855 -2.098 0.35600001
11.89 -2.0699999 0.35699999
11.97 -2.049 0.359
11.993 -2.0190001 0.36000001
12.004 -1.9859999 0.36000001
12.092 -1.966 0.36300001
12.267 -1.96 0.368
12.223 -1.9170001 0.36700001
12.181 -1.876 0.36500001
12.197 -1.844 0.366
12.251 -1.817 0.368
12.283 -1.786 0.368
12.302 -1.7539999 0.36899999
12.363 -1.727 0.37099999
12.366 -1.692 0.37099999
12.445 -1.6670001 0.373
12.49 -1.638 0.375
12.509 -1.604 0.375
12.542 -1.573 0.37599999
12.625 -1.5470001 0.37900001
12.719 -1.522 0.38100001
12.768 -1.4910001 0.38299999
12.861 -1.466 0.38600001
12.892 -1.432 0.38600001
12.939 -1.4 0.38800001
14.005 0.52100003 0.287
14.029 0.54299998 0.28799999
14.136 0.56900001 0.28999999
14.047 0.58700001 0.28799999
14.029 0.60900003 0.287
13.976 0.62900001 0.28600001
13.97 0.65100002 0.285
13.987 0.67500001 0.28600001
13.994 0.69800001 0.28600001
13.982 0.72100002 0.285
13.981 0.745 0.285
13.985 0.76999998 0.285
14.02 0.796 0.285
14.036 0.82200003 0.28600001
14.041 0.847 0.28600001
14.063 0.87400001 0.28600001
14.08 0.90100002 0.28600001
14.104 0.92900002 0.28600001
13.648 1.03 0.27599999
13.679 1.0599999 0.27700001
13.656 1.085 0.27599999
13.644 1.112 0.27599999
14.325 1.226 0.28999999
14.305 1.2539999 0.289
14.318 1.286 0.289
14.338 1.318 0.28999999
14.338 1.349 0.289
14.388 1.385 0.28999999
14.405 1.418 0.29100001
14.473 1.457 0.292
14.579 1.5 0.294
14.641 1.539 0.29499999
14.64 1.572 0.29499999
14.571 1.598 0.294
14.597 1.6339999 0.294
14.601 1.668 0.294
14.639 1.707 0.29499999
14.623 1.74 0.294
14.694 1.783 0.296
14.696 1.818 0.296
14.724 1.857 0.296
14.743 1.896 0.296
14.739 1.931 0.296
14.793 1.975 0.29699999
14.867 2.0220001 0.29899999
14.902 2.0639999 0.29899999
14.915 2.1029999 0.30000001
14.973 2.1489999 0.301
15.009 2.1930001 0.301
15.061 2.2390001 0.30199999
15.081 2.2809999 0.303
15.097 2.323 0.303
15.135 2.369 0.30399999
15.15 2.411 0.30399999
15.142 2.45 0.30399999
15.178 2.497 0.30500001
15.216 2.5439999 0.30500001
15.227 2.5869999 0.30599999
15.276 2.6370001 0.30700001
15.316 2.6860001 0.30700001
15.354 2.7349999 0.308
15.358 2.779 0.308
15.391 2.8280001 0.30899999
15.428 2.878 0.31
15.461 2.928 0.31
15.494 2.9790001 0.31099999
15.536 3.0309999 0.31200001
15.575 3.0840001 0.31299999
15.62 3.138 0.31299999
15.666 3.1930001 0.31400001
15.698 3.2460001 0.315
15.839 3.3210001 0.31799999
15.86 3.3729999 0.31799999
15.884 3.425 0.31900001
15.91 3.4790001 0.31900001
15.99 3.5439999 0.32100001
16.024 3.5999999 0.322
16.079 3.6619999 0.32300001
16.125 3.7219999 0.324
16.164 3.78 0.32499999
16.18 3.8340001 0.32499999
16.209999 3.892 0.32600001
13.991 3.4030001 0.28099999
13.737 3.3840001 0.27599999
13.682 3.414 0.27500001
13.692 3.46 0.27500001
