# .PCD v0.7 - Point Cloud Data file format
VERSION 0.7
FIELDS x y z
SIZE 4 4 4
TYPE F F F
COUNT 1 1 1
WIDTH 1858
HEIGHT 1
VIEWPOINT 0 0 0 1 0 0 0
POINTS 1858
DATA ascii
8.717 -4.7459998 0.221
8.7320004 -4.7290001 0.222
8.7390003 -4.7080002 0.222
8.75 -4.6880002 0.222
8.7600002 -4.6690001 0.223
8.7749996 -4.651 0.223
8.7959995 -4.6370001 0.22400001
8.8179998 -4.6230001 0.22400001
8.8529997 -4.6160002 0.22499999
8.8809996 -4.605 0.226
8.882 -4.5799999 0.226
8.875 -4.5510001 0.226
8.8730001 -4.5240002 0.226
8.8690004 -4.4959998 0.226
8.8909998 -4.4819999 0.226
8.8879995 -4.454 0.226
8.9060001 -4.4380002 0.227
8.9359999 -4.4260001 0.227
8.9399996 -4.402 0.227
8.9549999 -4.3839998 0.228
8.9829998 -4.3709998 0.229
8.9969997 -4.3520002 0.229
9.0019999 -4.329 0.229
9.026 -4.3140001 0.23
9.0369997 -4.2930002 0.23
9.0690002 -4.2820001 0.23100001
9.073 -4.2579999 0.23100001
9.092 -4.2399998 0.23100001
9.1049995 -4.2189999 0.23199999
9.1110001 -4.1960001 0.23199999
9.1370001 -4.1810002 0.233
9.1370001 -4.1550002 0.233
9.1639996 -4.1399999 0.233
9.1759996 -4.119 0.234
9.1999998 -4.1030002 0.234
9.224 -4.0869999 0.235
9.2200003 -4.0580001 0.235
9.257 -4.0479999 0.236
9.2790003 -4.0300002 0.236
9.2989998 -4.0120001 0.237
9.3140001 -3.9909999 0.237
9.3210001 -3.967 0.23800001
9.3570004 -3.9549999 0.23800001
9.3610001 -3.9300001 0.23899999
9.3979998 -3.918 0.23999999
9.3999996 -3.891 0.23999999
9.4029999 -3.865 0.23999999
9.4320002 -3.8499999 0.23999999
9.4390001 -3.825 0.241
9.4659996 -3.809 0.241
9.4940004 -3.7920001 0.242
9.5100002 -3.7709999 0.242
9.5469999 -3.7579999 0.243
9.5670004 -3.7379999 0.244
9.5830002 -3.7160001 0.244
9.5909996 -3.6919999 0.245
9.6040001 -3.6689999 0.245
9.6040001 -3.641 0.245
9.6590004 -3.6329999 0.24600001
9.6719999 -3.6099999 0.24699999
9.6859999 -3.5880001 0.24699999
9.7030001 -3.566 0.24699999
9.7150002 -3.5420001 0.248
9.7270002 -3.5179999 0.248
9.7410002 -3.4949999 0.249
9.7700005 -3.477 0.249
9.7939997 -3.457 0.25
9.8170004 -3.437 0.25
9.8450003 -3.418 0.25099999
9.8450003 -3.3889999 0.25099999
9.8710003 -3.369 0.252
9.8809996 -3.3440001 0.252
9.8970003 -3.3210001 0.25299999
9.9429998 -3.3069999 0.25400001
9.9490004 -3.2809999 0.25400001
9.9709997 -3.2590001 0.25400001
10.02 -3.2460001 0.25600001
10.078 -3.2349999 0.257
10.077 -3.2060001 0.257
10.091 -3.181 0.25799999
10.105 -3.1559999 0.25799999
10.088 -3.122 0.257
10.111 -3.0999999 0.25799999
10.135 -3.0780001 0.259
10.161 -3.056 0.259
10.169 -3.029 0.25999999
10.211 -3.0120001 0.26100001
10.203 -2.98 0.25999999
10.241 -2.9619999 0.26100001
10.265 -2.9389999 0.26199999
10.252 -2.9059999 0.26199999
10.299 -2.8900001 0.26300001
10.311 -2.8629999 0.26300001
10.362 -2.8469999 0.26499999
10.372 -2.8199999 0.26499999
10.402 -2.7980001 0.266
10.425 -2.7739999 0.266
10.444 -2.7490001 0.26699999
10.481 -2.7290001 0.26800001
10.527 -2.71 0.26899999
10.56 -2.688 0.27000001
10.573 -2.661 0.27000001
10.604 -2.638 0.271
10.599 -2.6070001 0.271
10.606 -2.5780001 0.271
10.621 -2.5510001 0.271
10.658 -2.529 0.27200001
10.685 -2.5050001 0.273
10.72 -2.4820001 0.27399999
10.765 -2.461 0.27500001
10.781 -2.434 0.27500001
10.831 -2.414 0.27700001
10.836 -2.3840001 0.27700001
10.877 -2.362 0.278
10.899 -2.335 0.278
10.946 -2.3139999 0.27900001
10.984 -2.29 0.28
11.017 -2.266 0.28099999
11.034 -2.2379999 0.28200001
11.074 -2.214 0.28299999
11.111 -2.1889999 0.28400001
11.168 -2.168 0.285
11.238 -2.1500001 0.287
11.233 -2.1170001 0.287
11.298 -2.096 0.28799999
11.362 -2.076 0.28999999
11.401 -2.05 0.29100001
11.373 -2.013 0.28999999
11.449 -1.993 0.292
11.513 -1.971 0.294
11.526 -1.941 0.294
11.57 -1.915 0.29499999
11.632 -1.892 0.29699999
11.62 -1.857 0.29699999
11.744 -1.8430001 0.30000001
11.788 -1.816 0.301
11.772 -1.78 0.30000001
11.824 -1.7539999 0.30199999
11.873 -1.727 0.303
11.932 -1.701 0.30500001
11.931 -1.6670001 0.30399999
11.974 -1.6390001 0.30599999
11.996 -1.608 0.30599999
12.036 -1.579 0.30700001
12.088 -1.551 0.308
12.105 -1.518 0.30899999
12.159 -1.4910001 0.31
12.203 -1.461 0.31099999
12.261 -1.433 0.31299999
12.309 -1.403 0.31400001
12.346 -1.372 0.315
12.385 -1.341 0.31600001
12.443 -1.312 0.317
12.528 -1.285 0.31999999
12.599 -1.257 0.32100001
12.705 -1.2309999 0.324
13.595 0.44400001 0.214
13.572 0.463 0.213
13.511 0.47999999 0.212
13.551 0.50199997 0.213
13.487 0.51999998 0.211
13.452 0.53899997 0.211
13.482 0.56099999 0.211
13.501 0.583 0.211
13.489 0.60399997 0.211
13.448 0.62400001 0.20999999
13.463 0.64700001 0.20999999
13.464 0.67000002 0.20999999
13.427 0.69099998 0.20900001
13.432 0.71399999 0.20900001
13.41 0.736 0.208
13.436 0.76099998 0.20900001
13.416 0.78399998 0.208
13.447 0.81 0.208
13.426 0.833 0.208
13.429 0.85799998 0.208
13.434 0.88300002 0.208
13.448 0.90899998 0.208
13.458 0.93599999 0.208
13.472 0.963 0.208
13.452 0.98699999 0.207
13.485 1.016 0.208
13.498 1.044 0.208
13.504 1.072 0.208
13.508 1.099 0.208
13.582 1.133 0.20900001
13.65 1.1670001 0.20999999
13.651 1.196 0.20999999
13.609 1.221 0.20900001
13.605 1.249 0.20900001
13.61 1.279 0.20900001
13.602 1.308 0.208
13.601 1.337 0.208
13.641 1.3710001 0.20900001
13.728 1.411 0.20999999
13.763 1.4450001 0.20999999
13.779 1.478 0.20999999
13.769 1.5089999 0.20999999
13.774 1.541 0.20999999
13.8 1.576 0.20999999
13.824 1.6109999 0.211
13.831 1.6440001 0.211
13.866 1.681 0.211
13.896 1.7180001 0.211
13.913 1.7539999 0.212
13.932 1.79 0.212
13.933 1.825 0.212
13.965 1.863 0.212
14.017 1.905 0.213
14.033 1.942 0.213
14.07 1.983 0.213
14.09 2.0220001 0.214
14.095 2.059 0.214
14.132 2.0999999 0.214
14.203 2.148 0.215
14.227 2.1889999 0.215
14.23 2.2260001 0.215
14.284 2.273 0.21600001
14.329 2.3180001 0.21699999
14.402 2.369 0.21799999
14.447 2.415 0.21799999
14.458 2.4560001 0.21799999
14.478 2.4990001 0.219
14.512 2.5450001 0.219
14.559 2.5929999 0.22
14.538 2.6300001 0.219
14.604 2.6830001 0.22
14.671 2.737 0.221
14.745 2.7920001 0.222
14.814 2.8469999 0.223
14.836 2.8940001 0.22400001
14.842 2.938 0.22400001
14.833 2.98 0.22400001
14.891 3.0350001 0.22400001
14.921 3.085 0.22499999
14.977 3.1400001 0.226
14.986 3.187 0.226
15.018 3.2379999 0.226
15.029 3.286 0.226
15.119 3.3510001 0.228
15.156 3.405 0.228
15.218 3.4660001 0.229
15.235 3.516 0.229
15.225 3.5610001 0.229
15.307 3.6270001 0.23
15.437 3.7060001 0.23199999
15.45 3.7579999 0.23199999
15.482 3.8139999 0.233
15.448 3.8540001 0.23199999
15.5 3.9170001 0.233
15.552 3.9790001 0.234
15.622 4.0469999 0.235
15.673 4.1110001 0.236
15.736 4.1789999 0.236
15.787 4.244 0.237
15.796 4.2979999 0.237
15.885 4.3740001 0.23899999
9.1099997 2.539 0.13699999
8.9919996 2.5350001 0.13500001
8.9219999 2.546 0.134
8.8780003 2.563 0.133
8.849 2.5840001 0.133
8.8409996 2.6110001 0.133
8.8540001 2.645 0.133
8.9099998 2.6930001 0.134
8.9139996 2.724 0.134
8.8699999 2.7409999 0.133
8.8559999 2.7679999 0.133
8.8299999 2.79 0.133
8.8050003 2.813 0.132
8.8190002 2.848 0.132
8.835 2.885 0.133
8.8889999 2.934 0.133
16.65 5.5539999 0.25
16.711 5.6339998 0.25099999
16.773001 5.7150002 0.252
16.819 5.7909999 0.25299999
16.923 5.888 0.255
16.856001 5.9260001 0.25400001
16.93 6.0139999 0.255
17.025 6.1090002 0.25600001
8.9209995 3.3 0.134
8.8310003 3.299 0.133
8.7980003 3.3199999 0.132
8.7799997 3.346 0.132
8.7889996 3.382 0.132
8.8149996 3.4260001 0.133
8.8850002 3.487 0.134
8.8120003 3.4920001 0.133
8.7189999 3.4879999 0.131
8.6879997 3.5090001 0.131
8.6499996 3.527 0.13
8.6300001 3.552 0.13
8.6459999 3.592 0.131
8.6990004 3.648 0.131
13.144 5.513 0.199
12.95 5.4819999 0.19599999
12.821 5.4780002 0.19400001
12.653 5.4559999 0.191
12.559 5.4650002 0.19
12.675 5.566 0.192
12.349 5.8730001 0.18799999
12.241 5.8720002 0.186
12.305 6.1079998 0.18700001
12.211 6.112 0.186
8.4949999 4.4330001 0.13
8.3219995 4.3779998 0.127
8.2370005 4.369 0.126
8.2089996 4.3899999 0.126
8.1809998 4.4109998 0.125
8.1870003 4.4499998 0.125
8.1870003 4.4850001 0.125
8.1960001 4.526 0.126
8.191 4.559 0.126
8.1899996 4.5949998 0.126
8.2110004 4.6430001 0.126
8.2290001 4.6900001 0.126
8.2690001 4.7490001 0.127
8.151 -5.3649998 0.229
8.1990004 -5.3449998 0.23
8.2379999 -5.3189998 0.23100001
8.2810001 -5.296 0.23199999
8.3170004 -5.2680001 0.233
8.3299999 -5.2259998 0.233
8.3640003 -5.197 0.234
8.3859997 -5.1609998 0.235
8.4370003 -5.1430001 0.236
8.4569998 -5.1059999 0.236
8.4960003 -5.0799999 0.237
8.5100002 -5.04 0.237
8.533 -5.0050001 0.23800001
8.5670004 -4.9770002 0.23899999
8.585 -4.9390001 0.23899999
8.6029997 -4.902 0.23999999
8.6359997 -4.8740001 0.23999999
8.6560001 -4.8379998 0.241
8.6809998 -4.8049998 0.241
8.7110004 -4.7750001 0.242
8.7519999 -4.7509999 0.243
8.79 -4.7249999 0.244
8.7799997 -4.6739998 0.244
8.7959995 -4.6370001 0.244
8.8140001 -4.6020002 0.244
8.8430004 -4.572 0.245
8.8620005 -4.5370002 0.245
8.901 -4.5120001 0.24600001
8.9250002 -4.48 0.24699999
8.9580002 -4.4520001 0.248
8.9709997 -4.415 0.248
9.0030003 -4.3870001 0.249
9.0419998 -4.3629999 0.25
9.0830002 -4.3390002 0.25099999
9.1280003 -4.3169999 0.252
9.1230001 -4.2719998 0.252
9.1520004 -4.243 0.252
9.1590004 -4.204 0.25299999
9.1969995 -4.1789999 0.25400001
9.2200003 -4.1479998 0.25400001
9.2320004 -4.1110001 0.25400001
9.2690001 -4.086 0.255
9.2910004 -4.0539999 0.25600001
9.3120003 -4.0219998 0.25600001
9.3540001 -3.9990001 0.257
9.3850002 -3.9719999 0.25799999
9.4209995 -3.9460001 0.259
9.4469995 -3.9170001 0.25999999
9.4770002 -3.8889999 0.25999999
9.5 -3.858 0.26100001
9.5249996 -3.8280001 0.26199999
9.559 -3.8010001 0.26199999
9.5670004 -3.7650001 0.26300001
9.6000004 -3.7379999 0.26300001
9.6400003 -3.7149999 0.264
9.6610003 -3.684 0.26499999
9.6920004 -3.6570001 0.266
9.7180004 -3.6270001 0.266
9.7650003 -3.6059999 0.26800001
9.7609997 -3.566 0.26699999
9.7980003 -3.5409999 0.26800001
9.8179998 -3.51 0.26899999
9.8240004 -3.4749999 0.26899999
9.8730001 -3.454 0.27000001
9.9230003 -3.434 0.27200001
9.9280005 -3.398 0.27200001
9.9569998 -3.3699999 0.27200001
9.9940004 -3.346 0.273
10.01 -3.3139999 0.27399999
10.047 -3.289 0.27500001
10.101 -3.27 0.27599999
10.173 -3.256 0.278
10.179 -3.221 0.278
10.201 -3.1919999 0.27900001
10.185 -3.1500001 0.278
10.222 -3.1259999 0.27900001
10.248 -3.098 0.28
10.272 -3.069 0.28
10.306 -3.043 0.28099999
10.334 -3.016 0.28200001
10.373 -2.9920001 0.28299999
10.388 -2.961 0.28299999
10.425 -2.9360001 0.28400001
10.456 -2.9100001 0.285
10.5 -2.8870001 0.28600001
10.536 -2.862 0.287
10.542 -2.829 0.287
10.596 -2.809 0.289
10.624 -2.7820001 0.28999999
10.662 -2.757 0.29100001
10.696 -2.7320001 0.29100001
10.711 -2.7019999 0.292
10.734 -2.6730001 0.292
10.797 -2.655 0.294
10.778 -2.6170001 0.294
10.84 -2.598 0.29499999
10.884 -2.575 0.296
10.908 -2.5469999 0.29699999
10.968 -2.5280001 0.29899999
10.988 -2.4990001 0.29899999
11.03 -2.4760001 0.30000001
11.033 -2.4430001 0.30000001
11.056 -2.415 0.301
11.114 -2.395 0.30199999
11.147 -2.3699999 0.303
11.205 -2.349 0.30500001
11.234 -2.323 0.30599999
11.291 -2.302 0.30700001
11.323 -2.276 0.308
11.369 -2.253 0.30899999
11.404 -2.2279999 0.31
11.457 -2.2060001 0.31200001
11.474 -2.178 0.31200001
11.527 -2.1559999 0.31400001
11.616 -2.1400001 0.31600001
11.587 -2.1029999 0.315
11.624 -2.079 0.31600001
11.662 -2.0539999 0.317
11.717 -2.0320001 0.31900001
11.767 -2.0090001 0.31999999
11.799 -1.984 0.32100001
11.861 -1.9630001 0.32300001
11.96 -1.948 0.32499999
12.065 -1.934 0.32800001
11.963 -1.887 0.32499999
11.993 -1.86 0.32600001
11.999 -1.831 0.32600001
12.066 -1.8099999 0.32800001
12.077 -1.7819999 0.32800001
12.096 -1.7539999 0.329
12.155 -1.733 0.331
12.161 -1.704 0.331
12.177 -1.676 0.331
12.184 -1.647 0.331
12.218 -1.622 0.33199999
12.261 -1.598 0.33399999
12.276 -1.571 0.33399999
12.334 -1.549 0.336
12.349 -1.522 0.336
12.38 -1.497 0.33700001
12.428 -1.474 0.338
12.442 -1.446 0.33899999
12.457 -1.42 0.33899999
12.542 -1.401 0.34099999
12.538 -1.372 0.34099999
12.623 -1.353 0.34400001
12.693 -1.332 0.34599999
12.715 -1.306 0.34599999
12.836 -1.29 0.34900001
12.904 -1.268 0.35100001
13.351 0.17900001 0.25
13.384 0.20299999 0.25
13.421 0.228 0.25099999
13.46 0.25299999 0.25099999
13.475 0.27900001 0.25099999
13.442 0.303 0.25
13.446 0.329 0.25
13.46 0.35499999 0.25
13.436 0.38 0.25
13.454 0.40700001 0.25
13.449 0.433 0.25
13.47 0.461 0.25
13.448 0.48699999 0.249
13.458 0.51499999 0.249
13.475 0.54400003 0.249
13.483 0.57200003 0.249
13.471 0.60000002 0.249
13.47 0.62800002 0.249
13.467 0.65700001 0.249
13.461 0.685 0.248
13.471 0.71499997 0.248
13.484 0.74599999 0.248
13.497 0.77600002 0.248
13.498 0.80599999 0.248
13.503 0.83700001 0.248
13.494 0.86699998 0.248
13.513 0.89899999 0.248
13.514 0.93000001 0.248
13.537 0.963 0.248
13.547 0.99599999 0.248
13.544 1.028 0.248
13.544 1.0599999 0.248
13.557 1.0930001 0.248
13.56 1.126 0.248
13.618 1.164 0.249
13.722 1.206 0.25099999
13.765 1.244 0.25099999
13.753 1.277 0.25099999
13.756 1.312 0.25099999
13.766 1.347 0.25099999
13.776 1.383 0.25099999
13.786 1.419 0.25099999
13.843 1.46 0.252
13.94 1.506 0.25400001
13.987 1.548 0.25400001
13.951 1.58 0.25299999
13.976 1.62 0.25400001
14.001 1.659 0.25400001
14.016 1.698 0.25400001
14.052 1.74 0.255
14.131 1.788 0.25600001
14.121 1.825 0.25600001
14.131 1.864 0.25600001
14.178 1.909 0.257
14.235 1.956 0.25799999
14.284 2.0020001 0.25799999
14.315 2.046 0.259
14.368 2.0940001 0.25999999
14.395 2.138 0.25999999
14.461 2.188 0.26100001
14.515 2.237 0.26199999
14.568 2.2869999 0.26300001
14.625 2.3380001 0.264
14.667 2.3859999 0.26499999
14.736 2.4400001 0.266
14.716 2.4790001 0.26499999
14.777 2.5320001 0.266
14.78 2.576 0.266
14.812 2.625 0.26699999
14.873 2.6800001 0.26800001
14.9 2.7290001 0.26800001
14.982 2.7880001 0.27000001
15.015 2.839 0.27000001
15.1 2.9000001 0.27200001
15.128 2.951 0.27200001
15.152 3.0020001 0.27200001
15.183 3.0539999 0.273
15.198 3.1029999 0.273
15.221 3.154 0.273
15.299 3.217 0.27500001
15.372 3.28 0.27599999
15.413 3.336 0.27700001
15.465 3.395 0.278
15.498 3.451 0.278
15.549 3.5109999 0.27900001
15.563 3.563 0.27900001
15.657 3.6340001 0.28099999
15.736 3.7019999 0.28200001
15.779 3.7620001 0.28299999
15.845 3.8280001 0.28400001
15.839 3.8770001 0.28400001
15.871 3.9360001 0.285
15.938 4.0029998 0.28600001
15.981 4.066 0.28600001
15.989 4.119 0.287
16.037001 4.184 0.287
16.089001 4.25 0.28799999
16.125999 4.3119998 0.289
16.212 4.388 0.28999999
9.2080002 2.5220001 0.16500001
16.35 4.4790001 0.29300001
9.0469999 2.5079999 0.162
8.9689999 2.516 0.16
8.908 2.5280001 0.15899999
8.8579998 2.543 0.15800001
8.842 2.5680001 0.15800001
8.8380003 2.5969999 0.15800001
8.8330002 2.625 0.15800001
8.8629999 2.6630001 0.15800001
8.8929996 2.7019999 0.15899999
8.8760004 2.727 0.15899999
8.8559999 2.7509999 0.15800001
8.8290005 2.7720001 0.15800001
8.8199997 2.8 0.15800001
8.8009996 2.823 0.15700001
8.8319998 2.8640001 0.15800001
8.8710003 2.9070001 0.15899999
9.0120001 2.984 0.161
17.181999 5.6890001 0.308
17.209 5.757 0.308
17.188999 5.809 0.308
17.263 5.8940001 0.30899999
17.273001 5.9569998 0.30899999
8.9469995 3.3039999 0.16
8.8459997 3.2980001 0.15800001
8.8000002 3.312 0.15800001
8.7779999 3.3340001 0.15700001
8.7639999 3.3599999 0.15700001
8.783 3.398 0.15700001
8.783 3.4300001 0.15700001
8.8070002 3.47 0.15800001
8.7819996 3.4920001 0.15700001
8.7119999 3.4949999 0.156
8.6850004 3.5150001 0.156
8.6540003 3.5339999 0.155
8.6450005 3.5610001 0.155
8.6260004 3.5840001 0.155
8.6610003 3.6289999 0.155
13.087 5.4840002 0.235
8.7290001 3.6889999 0.15700001
12.926 5.4629998 0.23199999
12.825 5.467 0.23
12.737 5.4749999 0.229
12.64 5.4790001 0.227
12.525 5.474 0.22499999
12.509 5.5120001 0.22499999
12.723 5.6529999 0.229
12.286 5.9050002 0.221
12.227 5.921 0.22
8.4359999 4.4239998 0.152
8.3059998 4.3860002 0.15000001
8.2480001 4.3860002 0.149
8.2229996 4.402 0.149
8.1969995 4.4190001 0.148
8.1999998 4.4499998 0.148
8.1899996 4.4749999 0.148
8.191 4.5050001 0.148
8.1990004 4.539 0.149
8.2080002 4.5739999 0.149
8.2130003 4.6069999 0.149
8.2220001 4.6420002 0.149
8.2229996 4.6719999 0.149
8.2559996 4.7199998 0.15000001
8.3710003 4.8169999 0.152
8.7969999 -5.197 0.264
8.8000002 -5.1729999 0.264
8.8059998 -5.152 0.264
8.8170004 -5.1329999 0.26499999
8.8249998 -5.1129999 0.26499999
8.8570004 -5.1059999 0.266
8.8479996 -5.0749998 0.266
8.8459997 -5.0489998 0.266
8.882 -5.0440001 0.26699999
8.8769999 -5.0159998 0.26699999
8.9020004 -5.0040002 0.26699999
8.9219999 -4.9899998 0.26800001
8.9239998 -4.9650002 0.26800001
8.9370003 -4.947 0.26899999
8.948 -4.927 0.26899999
8.9630003 -4.9099998 0.26899999
8.9700003 -4.8870001 0.27000001
8.9860001 -4.8699999 0.27000001
9.0050001 -4.8540001 0.271
9.0120001 -4.8319998 0.271
9.0360003 -4.8189998 0.27200001
9.0419998 -4.796 0.27200001
9.066 -4.783 0.273
9.1090002 -4.7789998 0.27399999
9.1330004 -4.7649999 0.27500001
9.2519999 -4.8010001 0.278
9.1809998 -4.737 0.27599999
9.1540003 -4.697 0.27500001
9.151 -4.6690001 0.27500001
9.158 -4.6459999 0.27500001
9.158 -4.619 0.27500001
9.1820002 -4.6040001 0.27599999
9.1920004 -4.5830002 0.27700001
9.2110004 -4.566 0.27700001
9.2320004 -4.5489998 0.278
9.2460003 -4.5289998 0.278
9.2609997 -4.5100002 0.27900001
9.2700005 -4.487 0.27900001
9.2950001 -4.473 0.28
9.3149996 -4.4549999 0.28
9.3570004 -4.448 0.28200001
9.3649998 -4.4239998 0.28200001
9.3730001 -4.401 0.28200001
9.3730001 -4.3740001 0.28200001
9.3909998 -4.355 0.28299999
9.415 -4.3379998 0.28299999
9.4169998 -4.3119998 0.28299999
9.4440002 -4.2969999 0.28400001
9.4519997 -4.2729998 0.28400001
9.4619999 -4.25 0.285
9.4840002 -4.2319999 0.285
9.5019999 -4.2129998 0.28600001
9.5039997 -4.1859999 0.28600001
9.5229998 -4.1659999 0.287
9.5539999 -4.152 0.28799999
9.5500002 -4.1230001 0.287
9.573 -4.1040001 0.28799999
9.585 -4.0819998 0.28799999
9.6059999 -4.0630002 0.289
9.6490002 -4.053 0.28999999
9.6560001 -4.0279999 0.29100001
9.6630001 -4.0029998 0.29100001
9.6700001 -3.977 0.29100001
9.6890001 -3.957 0.292
9.7019997 -3.934 0.292
9.7259998 -3.915 0.29300001
9.724 -3.8859999 0.29300001
9.7580004 -3.872 0.294
9.7849998 -3.8540001 0.294
9.8199997 -3.839 0.296
9.8190002 -3.8099999 0.29499999
9.8260002 -3.7839999 0.296
9.8629999 -3.77 0.29699999
9.8859997 -3.75 0.29800001
9.9099998 -3.73 0.29800001
9.9200001 -3.7049999 0.29899999
9.941 -3.684 0.29899999
9.9519997 -3.6589999 0.29899999
9.9720001 -3.6370001 0.30000001
9.9879999 -3.6140001 0.301
10.02 -3.5969999 0.30199999
10.028 -3.5699999 0.30199999
10.049 -3.5480001 0.30199999
10.073 -3.5280001 0.303
10.098 -3.507 0.30399999
10.113 -3.483 0.30399999
10.112 -3.4530001 0.30399999
10.14 -3.4330001 0.30500001
10.16 -3.411 0.30599999
10.181 -3.388 0.30599999
10.206 -3.3670001 0.30700001
10.235 -3.3469999 0.308
10.281 -3.332 0.30899999
10.345 -3.323 0.31099999
10.348 -3.2939999 0.31099999
10.345 -3.2620001 0.31099999
10.335 -3.2290001 0.31099999
10.333 -3.1989999 0.31099999
10.354 -3.175 0.31099999
10.381 -3.154 0.31200001
10.398 -3.1289999 0.31299999
10.415 -3.1040001 0.31299999
10.444 -3.082 0.31400001
10.486 -3.0639999 0.315
10.516 -3.0420001 0.31600001
10.527 -3.0150001 0.317
10.572 -2.997 0.31799999
10.582 -2.97 0.31799999
10.601 -2.944 0.31900001
10.636 -2.9230001 0.31999999
10.673 -2.9030001 0.32100001
10.695 -2.878 0.322
10.726 -2.855 0.32300001
10.745 -2.829 0.32300001
10.746 -2.7980001 0.32300001
10.809 -2.7839999 0.32499999
10.846 -2.7620001 0.32600001
10.891 -2.7420001 0.32699999
10.948 -2.724 0.329
10.947 -2.6930001 0.329
11.009 -2.6760001 0.331
11.028 -2.6489999 0.331
11.038 -2.6199999 0.33199999
11.075 -2.5969999 0.333
11.108 -2.572 0.33399999
11.139 -2.5469999 0.33500001
11.166 -2.5209999 0.336
11.201 -2.497 0.33700001
11.221 -2.4690001 0.33700001
11.254 -2.444 0.338
11.302 -2.4219999 0.34
11.368 -2.4030001 0.34200001
11.4 -2.3770001 0.34200001
11.43 -2.3510001 0.34299999
11.458 -2.3239999 0.34400001
11.532 -2.3050001 0.34599999
11.58 -2.2820001 0.34799999
11.609 -2.2539999 0.34900001
11.644 -2.227 0.34999999
11.687 -2.2019999 0.35100001
11.716 -2.174 0.352
11.752 -2.1470001 0.35299999
11.792 -2.1199999 0.354
11.822 -2.092 0.35499999
11.911 -2.073 0.35800001
11.955 -2.0469999 0.359
11.979 -2.016 0.36000001
11.998 -1.985 0.36000001
12.07 -1.9630001 0.36199999
12.315 -1.967 0.37
12.212 -1.916 0.366
12.163 -1.873 0.36500001
12.194 -1.8430001 0.366
12.251 -1.817 0.368
12.311 -1.79 0.36899999
12.303 -1.7539999 0.36899999
12.352 -1.725 0.37
12.374 -1.693 0.37099999
12.439 -1.666 0.373
12.478 -1.636 0.37400001
12.516 -1.605 0.375
12.539 -1.572 0.37599999
12.628 -1.5470001 0.37900001
12.681 -1.518 0.38
12.75 -1.489 0.382
12.841 -1.4630001 0.38499999
12.849 -1.427 0.38499999
13.977 0.45899999 0.287
14.042 0.48100001 0.28799999
13.971 0.49900001 0.287
14.075 0.52399999 0.289
13.936 0.54000002 0.28600001
14.079 0.56699997 0.28799999
13.955 0.583 0.28600001
14.005 0.60799998 0.28600001
13.953 0.62800002 0.285
13.952 0.64999998 0.285
13.993 0.67500001 0.28600001
13.956 0.69599998 0.285
13.946 0.71899998 0.28400001
13.948 0.74299997 0.28400001
13.973 0.76899999 0.285
14.004 0.79500002 0.285
14.004 0.81999999 0.285
14.016 0.84600002 0.285
14.021 0.87199998 0.285
14.02 0.89700001 0.285
14.087 0.92799997 0.28600001
13.646 1.057 0.27599999
13.638 1.084 0.27599999
13.684 1.115 0.27700001
14.307 1.225 0.289
14.294 1.2539999 0.289
14.303 1.284 0.289
14.317 1.316 0.289
14.32 1.347 0.289
14.365 1.383 0.28999999
14.381 1.416 0.28999999
14.441 1.4529999 0.29100001
14.587 1.5 0.294
14.643 1.539 0.29499999
14.637 1.572 0.29499999
14.591 1.6 0.294
14.6 1.6339999 0.294
14.582 1.666 0.294
14.598 1.702 0.294
14.623 1.74 0.294
14.649 1.778 0.29499999
14.689 1.818 0.29499999
14.73 1.858 0.296
14.738 1.895 0.296
14.709 1.927 0.296
14.785 1.974 0.29699999
14.848 2.0190001 0.29800001
14.885 2.0610001 0.29899999
14.94 2.1070001 0.30000001
14.948 2.1459999 0.30000001
14.991 2.1900001 0.301
15.046 2.237 0.30199999
15.064 2.279 0.30199999
15.134 2.329 0.30399999
15.143 2.3699999 0.30399999
15.167 2.414 0.30399999
15.164 2.454 0.30399999
15.192 2.4990001 0.30500001
15.233 2.5469999 0.30599999
15.236 2.589 0.30599999
15.259 2.6340001 0.30599999
15.325 2.688 0.30700001
15.338 2.733 0.308
15.378 2.783 0.30899999
15.4 2.8299999 0.30899999
15.431 2.8789999 0.31
15.484 2.9330001 0.31099999
15.52 2.984 0.31099999
15.533 3.0309999 0.31200001
15.55 3.079 0.31200001
15.591 3.132 0.31299999
15.652 3.1900001 0.31400001
15.717 3.2490001 0.315
15.799 3.313 0.317
15.845 3.3699999 0.31799999
15.911 3.431 0.31900001
15.937 3.484 0.31999999
15.974 3.5409999 0.32100001
16.048 3.6059999 0.322
16.086 3.6630001 0.32300001
16.120001 3.721 0.324
16.153 3.7780001 0.32499999
16.177 3.8340001 0.32499999
16.218 3.8940001 0.32600001
16.301001 3.9649999 0.32800001
16.337999 4.0250001 0.32800001
16.358999 4.0819998 0.329
16.346001 4.131 0.329
16.409 4.1989999 0.33000001
16.426001 4.256 0.331
16.488001 4.3249998 0.33199999
16.503 4.382 0.33199999
16.555 4.4499998 0.333
16.639 4.527 0.33500001
16.764999 4.6160002 0.338
9.1820002 2.5580001 0.185
16.961 4.7259998 0.34200001
9.0100002 2.54 0.18099999
8.9370003 2.55 0.18000001
8.8970003 2.5680001 0.17900001
8.8430004 2.582 0.178
8.823 2.6059999 0.178
8.8129997 2.6329999 0.178
8.8129997 2.6630001 0.178
8.835 2.7 0.178
8.8540001 2.7360001 0.17900001
8.8529997 2.767 0.17900001
8.8360004 2.7920001 0.17900001
8.816 2.816 0.178
8.8140001 2.8469999 0.178
8.8149996 2.878 0.178
8.8430004 2.918 0.17900001
8.9449997 2.984 0.18099999
17.754999 5.9860001 0.36000001
17.738001 6.0430002 0.36000001
17.709999 6.0970001 0.36000001
8.9139996 3.2969999 0.18099999
8.8179998 3.2939999 0.18000001
8.7849998 3.3150001 0.17900001
8.7679996 3.3410001 0.17900001
8.7670002 3.3740001 0.17900001
8.7749996 3.4100001 0.17900001
8.7860003 3.447 0.17900001
8.7580004 3.47 0.17900001
8.7159996 3.487 0.178
8.6730003 3.503 0.177
8.6560001 3.529 0.177
8.6440001 3.5580001 0.177
8.6549997 3.595 0.177
13.085 5.4359999 0.26800001
8.7460003 3.6670001 0.17900001
12.916 5.4159999 0.26499999
12.799 5.4169998 0.26300001
12.721 5.434 0.26100001
12.594 5.4299998 0.259
12.52 5.447 0.25799999
12.594 5.5300002 0.259
12.268 5.8340001 0.25400001
12.263 5.882 0.25400001
8.5100002 4.4039998 0.178
8.3599997 4.362 0.175
8.2779999 4.355 0.17299999
8.2469997 4.3740001 0.17299999
8.2209997 4.3959999 0.17200001
8.2089996 4.4250002 0.17200001
8.2069998 4.46 0.17200001
8.2110004 4.4980001 0.17299999
8.2139997 4.5349998 0.17299999
8.2159996 4.573 0.17299999
8.2209997 4.612 0.17299999
8.2259998 4.651 0.17299999
8.2489996 4.7010002 0.17399999
8.3540001 4.7979999 0.177
8.4119997 -5.5349998 0.27599999
8.4490004 -5.506 0.27700001
8.4799995 -5.474 0.278
8.5190001 -5.4460001 0.27900001
8.54 -5.408 0.28
8.5790005 -5.3800001 0.28099999
8.6029997 -5.3439999 0.28099999
8.6269999 -5.3080001 0.28200001
8.6499996 -5.2709999 0.28299999
8.6850004 -5.2420001 0.28299999
8.7060003 -5.204 0.28400001
8.7419996 -5.1760001 0.285
8.7690001 -5.1420002 0.28600001
8.7880001 -5.1030002 0.28600001
8.8360004 -5.0819998 0.28799999
8.8540001 -5.0430002 0.28799999
8.8739996 -5.006 0.28799999
8.9040003 -4.9749999 0.289
8.9499998 -4.9520001 0.29100001
8.9639997 -4.9120002 0.29100001
9.0270004 -4.8990002 0.29300001
9.0609999 -4.869 0.294
9.0670004 -4.8260002 0.294
9.0539999 -4.7719998 0.29300001
9.0740004 -4.7360001 0.294
9.1079998 -4.7069998 0.29499999
9.1300001 -4.6729999 0.29499999
9.1619997 -4.6430001 0.296
9.1789999 -4.6059999 0.296
9.1999998 -4.5710001 0.29699999
9.2309999 -4.5419998 0.29800001
9.2659998 -4.5139999 0.29899999
9.302 -4.487 0.30000001
9.3380003 -4.46 0.301
9.3710003 -4.4310002 0.30199999
9.3959999 -4.3990002 0.303
9.4069996 -4.3600001 0.303
9.4209995 -4.323 0.303
9.4510002 -4.2940001 0.30399999
9.4919996 -4.2690001 0.30500001
9.5030003 -4.2309999 0.30500001
9.5159998 -4.1939998 0.30599999
9.5459995 -4.165 0.30700001
9.5780001 -4.1360002 0.30700001
9.5900002 -4.099 0.308
9.6190004 -4.0700002 0.30899999
9.6590004 -4.0450001 0.31
9.6890001 -4.0159998 0.31099999
9.7370005 -3.994 0.31200001
9.75 -3.9579999 0.31200001
9.7489996 -3.9170001 0.31200001
9.7939997 -3.8940001 0.31299999
9.8059998 -3.858 0.31400001
9.8389997 -3.8310001 0.315
9.8800001 -3.806 0.31600001
9.9069996 -3.777 0.317
9.948 -3.753 0.31799999
9.9870005 -3.727 0.31900001
10.009 -3.6960001 0.31999999
10.032 -3.665 0.31999999
10.049 -3.631 0.32100001
10.071 -3.5999999 0.32100001
10.103 -3.573 0.322
10.127 -3.5420001 0.32300001
10.16 -3.5150001 0.324
10.193 -3.4879999 0.32499999
10.226 -3.461 0.32600001
10.257 -3.4330001 0.32699999
10.263 -3.3970001 0.32699999
10.292 -3.369 0.32800001
10.346 -3.349 0.329
10.445 -3.3429999 0.333
10.421 -3.2980001 0.33199999
10.426 -3.2620001 0.33199999
10.457 -3.234 0.333
10.477 -3.2030001 0.333
10.494 -3.1719999 0.33399999
10.533 -3.1470001 0.33500001
10.559 -3.118 0.336
10.637 -3.1040001 0.338
10.695 -3.085 0.34
10.706 -3.0510001 0.34
10.763 -3.0309999 0.34200001
10.805 -3.007 0.34299999
10.829 -2.9779999 0.34400001
10.863 -2.951 0.345
10.914 -2.9289999 0.34599999
10.952 -2.9030001 0.34799999
11.019 -2.885 0.34999999
11.055 -2.859 0.35100001
11.116 -2.839 0.35299999
11.16 -2.8150001 0.354
11.245 -2.8010001 0.35699999
11.233 -2.7620001 0.35600001
11.304 -2.744 0.35800001
11.339 -2.7179999 0.359
11.348 -2.6849999 0.36000001
11.366 -2.654 0.36000001
11.398 -2.6270001 0.361
11.496 -2.615 0.36399999
11.48 -2.5769999 0.36399999
11.47 -2.54 0.36300001
11.553 -2.5239999 0.366
11.634 -2.507 0.368
11.658 -2.4790001 0.36899999
11.687 -2.451 0.37
11.724 -2.424 0.37099999
11.774 -2.401 0.373
11.81 -2.375 0.37400001
11.887 -2.3559999 0.37599999
11.894 -2.3239999 0.37599999
11.92 -2.296 0.377
11.98 -2.2739999 0.37900001
12.003 -2.2449999 0.38
12.081 -2.2260001 0.382
12.091 -2.1949999 0.38299999
12.122 -2.168 0.384
12.173 -2.1440001 0.38499999
12.222 -2.1199999 0.38699999
12.214 -2.086 0.38600001
12.242 -2.0580001 0.38699999
12.276 -2.0320001 0.38800001
12.342 -2.01 0.38999999
12.468 -1.999 0.39399999
12.495 -1.939 0.39500001
12.471 -1.903 0.39399999
12.472 -1.872 0.39399999
12.521 -1.848 0.396
12.546 -1.8200001 0.39700001
12.595 -1.796 0.398
12.597 -1.765 0.398
12.701 -1.748 0.40200001
12.697 -1.717 0.40099999
12.76 -1.6950001 0.40400001
12.786 -1.6670001 0.40400001
12.851 -1.645 0.40599999
12.85 -1.614 0.40599999
12.908 -1.591 0.40799999
13.717 0.186 0.32300001
13.745 0.211 0.32300001
13.775 0.236 0.324
13.789 0.26100001 0.324
13.774 0.287 0.32300001
13.795 0.31299999 0.324
13.783 0.33899999 0.32300001
13.829 0.366 0.324
13.849 0.39399999 0.324
13.876 0.421 0.32499999
13.859 0.44800001 0.324
13.859 0.47600001 0.324
13.864 0.50400001 0.324
13.899 0.53399998 0.32499999
13.903 0.56199998 0.32499999
13.885 0.59100002 0.324
13.884 0.62 0.324
13.924 0.65100002 0.32499999
13.907 0.68000001 0.324
13.94 0.71100003 0.32499999
13.929 0.741 0.324
13.923 0.77100003 0.324
13.985 0.80599999 0.32499999
13.998 0.838 0.32499999
14.026 0.87099999 0.32600001
14.018 0.90200001 0.32600001
14.044 0.93599999 0.32600001
14.064 0.97000003 0.32600001
13.6 1.098 0.315
13.603 1.131 0.315
13.591 1.163 0.31400001
14.382 1.301 0.333
14.369 1.335 0.33199999
14.375 1.372 0.33199999
14.433 1.413 0.333
14.435 1.45 0.333
14.496 1.493 0.33500001
14.6 1.541 0.33700001
14.698 1.589 0.33899999
14.735 1.631 0.34
14.683 1.664 0.33899999
14.679 1.702 0.338
14.712 1.745 0.33899999
14.717 1.784 0.33899999
14.793 1.8329999 0.34099999
14.808 1.874 0.34099999
14.863 1.921 0.34200001
14.911 1.9680001 0.34299999
14.948 2.0139999 0.34400001
15.02 2.0639999 0.34599999
15.033 2.108 0.34599999
15.104 2.1589999 0.347
15.129 2.2049999 0.34799999
15.175 2.2539999 0.34900001
15.193 2.3 0.34900001
15.27 2.3540001 0.35100001
15.299 2.402 0.352
15.312 2.448 0.352
15.358 2.4990001 0.35299999
15.417 2.553 0.354
15.454 2.6040001 0.35499999
15.468 2.651 0.35499999
15.495 2.701 0.35600001
15.547 2.756 0.35699999
15.597 2.8099999 0.35800001
15.62 2.8610001 0.359
15.651 2.9130001 0.359
15.719 2.9719999 0.361
15.803 3.036 0.36300001
15.854 3.0929999 0.36399999
15.947 3.1589999 0.366
16.032 3.2249999 0.368
16.077 3.283 0.36899999
16.131001 3.3429999 0.37
16.204 3.408 0.37200001
16.222 3.461 0.373
16.26 3.52 0.373
16.288 3.576 0.37400001
16.358999 3.6429999 0.37599999
16.413 3.7060001 0.377
16.475 3.7720001 0.37799999
16.525 3.835 0.38
16.549999 3.8929999 0.38
16.636 3.9660001 0.382
16.700001 4.0339999 0.384
16.806999 4.1139998 0.38600001
16.782 4.1609998 0.38600001
16.895 4.244 0.38800001
16.898001 4.2989998 0.38800001
16.903999 4.355 0.389
16.959 4.4239998 0.38999999
17.02 4.4949999 0.391
17.132999 4.5809999 0.39399999
17.113001 4.632 0.39399999
9.2650003 2.5380001 0.213
17.299 4.7389998 0.398
9.0129995 2.4979999 0.207
8.9350004 2.506 0.205
8.8999996 2.526 0.205
8.8629999 2.5450001 0.204
8.8319998 2.5650001 0.20299999
8.8120003 2.589 0.20299999
8.8039999 2.6159999 0.20299999
8.8140001 2.648 0.20299999
8.8249998 2.681 0.20299999
8.8430004 2.717 0.204
8.835 2.744 0.20299999
8.8280001 2.7720001 0.20299999
8.8140001 2.7969999 0.20299999
8.8050003 2.825 0.20299999
8.8219995 2.8599999 0.20299999
8.8430004 2.8970001 0.204
8.9569998 2.9649999 0.207
18.334999 6.1329999 0.42399999
18.334999 6.1960001 0.42399999
9.0799999 3.3210001 0.20999999
8.868 3.2739999 0.205
8.8070002 3.283 0.204
8.7880001 3.3069999 0.204
8.7510004 3.3239999 0.20299999
8.7469997 3.3529999 0.20299999
8.7399998 3.381 0.20299999
8.7410002 3.4130001 0.20299999
8.7410002 3.444 0.20299999
8.7229996 3.4679999 0.20299999
8.6999998 3.49 0.20200001
8.6800003 3.513 0.20200001
8.6610003 3.536 0.20100001
8.6569996 3.5650001 0.20100001
8.6789999 3.605 0.20200001
13.178 5.4749999 0.30700001
8.7159996 3.652 0.20299999
12.951 5.427 0.30199999
12.853 5.4320002 0.30000001
12.785 5.4489999 0.29800001
12.725 5.4689999 0.29699999
12.641 5.4790001 0.29499999
12.563 5.4899998 0.29300001
12.72 5.605 0.29699999
8.4689999 4.3790002 0.2
8.3760004 4.362 0.198
8.3369999 4.3720002 0.197
8.2840004 4.3740001 0.19599999
8.2510004 4.3870001 0.19499999
8.2399998 4.4109998 0.19499999
8.2279997 4.4349999 0.19499999
8.2200003 4.461 0.19499999
8.21 4.4850001 0.19499999
8.2189999 4.52 0.19499999
8.2089996 4.5440001 0.19499999
8.2119999 4.5760002 0.19499999
8.2180004 4.6090002 0.19599999
8.2349997 4.6479998 0.19599999
8.25 4.6869998 0.197
8.2930002 4.7410002 0.198
9.0089998 -5.3260002 0.31299999
9.0299997 -5.3130002 0.31299999
9.0380001 -5.2919998 0.31400001
9.0469999 -5.2709999 0.31400001
9.0509996 -5.2480001 0.31400001
9.0880003 -5.243 0.315
9.0760002 -5.21 0.315
9.1000004 -5.198 0.31600001
9.1040001 -5.1739998 0.31600001
9.1120005 -5.152 0.31600001
9.1540003 -5.1500001 0.31799999
9.1680002 -5.131 0.31799999
9.1619997 -5.1009998 0.31799999
9.1709995 -5.0799999 0.31799999
9.1949997 -5.0669999 0.31900001
9.2060003 -5.046 0.31999999
9.2220001 -5.0289998 0.31999999
9.243 -5.013 0.32100001
9.2340002 -4.9819999 0.32100001
9.2580004 -4.9679999 0.32100001
9.2849998 -4.9549999 0.322
9.2889996 -4.9310002 0.322
9.2989998 -4.9089999 0.32300001
9.3070002 -4.8870001 0.32300001
9.3050003 -4.8590002 0.32300001
9.3439999 -4.8520002 0.324
9.3699999 -4.8379998 0.32499999
9.3660002 -4.809 0.32499999
9.382 -4.79 0.32600001
9.4160004 -4.7800002 0.32699999
9.4230003 -4.756 0.32699999
9.4300003 -4.7319999 0.32699999
9.4530001 -4.7160001 0.32800001
9.4689999 -4.697 0.329
9.4829998 -4.6760001 0.329
9.5050001 -4.6589999 0.33000001
9.5159998 -4.6370001 0.33000001
9.5279999 -4.6149998 0.331
9.5430002 -4.5939999 0.331
9.5500002 -4.5700002 0.331
9.5620003 -4.5479999 0.33199999
9.5810003 -4.5289998 0.333
9.5880003 -4.5040002 0.333
9.6049995 -4.4850001 0.333
9.6289997 -4.4679999 0.33399999
9.6359997 -4.4429998 0.33399999
9.6440001 -4.4190001 0.33500001
9.6660004 -4.401 0.33500001
9.6990004 -4.3870001 0.33700001
9.7200003 -4.369 0.33700001
9.7489996 -4.3530002 0.338
9.757 -4.3280001 0.33899999
9.7729998 -4.3070002 0.33899999
9.7729998 -4.2779999 0.33899999
9.8000002 -4.2620001 0.34
9.816 -4.2399998 0.34099999
9.8199997 -4.2129998 0.34099999
9.8249998 -4.1859999 0.34099999
9.849 -4.1680002 0.34200001
9.8789997 -4.152 0.34299999
9.8859997 -4.1259999 0.34299999
9.8999996 -4.1030002 0.34299999
9.9230003 -4.0840001 0.34400001
9.9530001 -4.0669999 0.345
9.9560003 -4.039 0.345
9.9709997 -4.0159998 0.34599999
10.004 -4 0.347
10.013 -3.9749999 0.347
10.056 -3.9619999 0.34900001
10.061 -3.9349999 0.34900001
10.057 -3.904 0.34900001
10.095 -3.8900001 0.34999999
10.11 -3.8659999 0.35100001
10.163 -3.8570001 0.352
10.182 -3.8340001 0.35299999
10.177 -3.803 0.35299999
10.196 -3.78 0.35299999
10.21 -3.7550001 0.354
10.229 -3.733 0.35499999
10.229 -3.7030001 0.35499999
10.237 -3.6760001 0.35499999
10.271 -3.658 0.35600001
10.292 -3.6359999 0.35699999
10.309 -3.612 0.35699999
10.324 -3.5869999 0.35800001
10.351 -3.566 0.359
10.395 -3.5510001 0.36000001
10.378 -3.5150001 0.36000001
10.416 -3.4979999 0.361
10.411 -3.4660001 0.361
10.457 -3.451 0.36199999
10.496 -3.4330001 0.36399999
10.534 -3.415 0.36500001
10.557 -3.392 0.366
10.598 -3.3740001 0.36700001
10.617 -3.3499999 0.368
10.63 -3.323 0.368
10.646 -3.2969999 0.36899999
10.67 -3.2739999 0.36899999
10.642 -3.234 0.368
10.715 -3.2249999 0.37099999
10.759 -3.207 0.37200001
10.751 -3.174 0.37200001
10.822 -3.1630001 0.375
10.85 -3.1400001 0.37599999
10.89 -3.1199999 0.377
10.921 -3.0969999 0.37799999
10.936 -3.0699999 0.37799999
10.97 -3.0480001 0.38
11.015 -3.0280001 0.38100001
11.087 -3.016 0.384
11.119 -2.993 0.38499999
11.129 -2.9630001 0.38499999
11.156 -2.938 0.38600001
11.201 -2.918 0.38699999
11.27 -2.9030001 0.38999999
11.278 -2.872 0.38999999
11.307 -2.8469999 0.391
11.351 -2.826 0.39199999
11.372 -2.7980001 0.39300001
11.442 -2.7820001 0.396
11.473 -2.756 0.39700001
11.498 -2.7290001 0.39700001
11.539 -2.7060001 0.39899999
11.596 -2.6860001 0.40099999
11.594 -2.652 0.40099999
11.616 -2.6229999 0.40099999
11.673 -2.6029999 0.403
11.683 -2.5710001 0.40400001
11.716 -2.5450001 0.405
11.787 -2.526 0.40700001
11.806 -2.4960001 0.40799999
11.828 -2.467 0.40799999
11.867 -2.441 0.41
11.917 -2.4170001 0.41100001
11.983 -2.3959999 0.414
12.002 -2.365 0.414
12.016 -2.3329999 0.41499999
12.069 -2.309 0.417
12.118 -2.283 0.41800001
12.155 -2.2550001 0.419
12.19 -2.227 0.421
12.244 -2.201 0.42199999
12.303 -2.177 0.42399999
12.329 -2.1459999 0.42500001
12.344 -2.1129999 0.426
12.385 -2.085 0.42699999
12.462 -2.062 0.43000001
12.488 -2.03 0.43099999
12.594 -2.0109999 0.43399999
12.805 -2.0079999 0.44100001
12.646 -1.911 0.43599999
12.687 -1.881 0.43700001
12.747 -1.853 0.43900001
12.784 -1.822 0.44
12.854 -1.795 0.44299999
14.764 0.62 0.373
14.672 0.639 0.37099999
14.78 0.79000002 0.37200001
14.82 0.81800002 0.373
14.762 0.83999997 0.37200001
14.868 0.87300003 0.37400001
14.729 0.89099997 0.37
14.945 0.93099999 0.37599999
14.866 0.954 0.37400001
14.843 0.98000002 0.373
13.615 1.084 0.34099999
13.551 1.1059999 0.34
13.603 1.138 0.34099999
15.422 1.354 0.38600001
15.093 1.357 0.37799999
15.046 1.385 0.377
15.087 1.421 0.37799999
15.13 1.4579999 0.37900001
15.138 1.492 0.37900001
15.199 1.531 0.38
15.279 1.573 0.382
15.325 1.612 0.38299999
15.286 1.642 0.382
15.264 1.675 0.382
15.251 1.709 0.38100001
15.274 1.747 0.382
15.333 1.789 0.38299999
15.353 1.8279999 0.384
15.417 1.872 0.38499999
15.473 1.916 0.38699999
15.506 1.957 0.38699999
15.502 1.994 0.38699999
15.52 2.0350001 0.38800001
15.533 2.075 0.38800001
15.572 2.119 0.389
15.594 2.1600001 0.389
15.636 2.2060001 0.391
15.67 2.25 0.391
15.714 2.2969999 0.39300001
15.766 2.345 0.39399999
15.801 2.391 0.39500001
15.848 2.4400001 0.396
15.878 2.4860001 0.39700001
15.897 2.5309999 0.39700001
15.92 2.5769999 0.398
15.947 2.6240001 0.39899999
15.973 2.671 0.39899999
15.998 2.7190001 0.40000001
16.061001 2.773 0.40099999
16.125 2.829 0.403
16.229 2.892 0.40599999
16.254 2.9419999 0.40599999
16.294001 2.994 0.40799999
16.374001 3.0550001 0.41
16.392 3.105 0.41
16.448999 3.1630001 0.412
16.591999 3.2379999 0.41499999
16.575001 3.2820001 0.41499999
16.528 3.3210001 0.414
16.563 3.3759999 0.41499999
16.608 3.434 0.41600001
16.636 3.4890001 0.417
16.73 3.5580001 0.419
16.726 3.6070001 0.419
16.837 3.6819999 0.42199999
16.848 3.7349999 0.42300001
16.858 3.7880001 0.42300001
16.896999 3.848 0.42399999
16.926001 3.9070001 0.42500001
17.02 3.9809999 0.428
17.028999 4.0349998 0.428
17.174 4.1230001 0.43200001
17.236 4.1919999 0.433
17.313 4.2649999 0.43599999
17.408001 4.3439999 0.43799999
17.395 4.3959999 0.43799999
17.530001 4.4860001 0.44100001
17.464001 4.5250001 0.44
17.68 4.6370001 0.44600001
17.672001 4.6929998 0.44600001
17.673 4.75 0.44600001
17.872 4.862 0.45100001
9.3070002 2.563 0.235
17.985001 4.9520001 0.454
9.0179996 2.513 0.228
8.9370003 2.52 0.226
8.8979998 2.5380001 0.22499999
8.8529997 2.5550001 0.22400001
8.816 2.5739999 0.223
8.8079996 2.6010001 0.223
8.8000002 2.6289999 0.223
8.809 2.6619999 0.223
8.8199997 2.6949999 0.223
8.8269997 2.7279999 0.22400001
8.8319998 2.76 0.22400001
8.8260002 2.7880001 0.22400001
8.8000002 2.8110001 0.223
8.8109999 2.845 0.22400001
8.8269997 2.882 0.22400001
8.8889999 2.9330001 0.226
18.587 6.1989999 0.47400001
18.65 6.2870002 0.47499999
18.659 6.3569999 0.47600001
9.0059996 3.2969999 0.23100001
8.8459997 3.2709999 0.227
8.7930002 3.2850001 0.22499999
8.7700005 3.309 0.22499999
8.7580004 3.3369999 0.22499999
8.7419996 3.3640001 0.22499999
8.7279997 3.391 0.22400001
8.7259998 3.424 0.22499999
8.7220001 3.4549999 0.22499999
8.7010002 3.48 0.22400001
8.6859999 3.5079999 0.22400001
8.665 3.5320001 0.22400001
8.6800003 3.572 0.22400001
8.7089996 3.618 0.22499999
13.05 5.421 0.338
8.8450003 3.7090001 0.229
12.916 5.4159999 0.33399999
12.862 5.4429998 0.333
12.819 5.4759998 0.333
12.776 5.5079999 0.33199999
12.741 5.5430002 0.331
12.52 5.7989998 0.32699999
12.419 5.803 0.32499999
12.413 5.8509998 0.32499999
12.444 5.9169998 0.32600001
8.7030001 4.4660001 0.23
8.4209995 4.3569999 0.223
8.3479996 4.355 0.221
8.309 4.3709998 0.22
8.2700005 4.3860002 0.22
8.243 4.4070001 0.219
8.243 4.4429998 0.219
8.2259998 4.4699998 0.219
8.198 4.4899998 0.219
8.1870003 4.52 0.219
8.1859999 4.5549998 0.219
8.1870003 4.592 0.219
8.2030001 4.6370001 0.22
8.2159996 4.6810002 0.22
8.2519999 4.7389998 0.222
8.3439999 4.829 0.22400001
8.6260004 -5.6729999 0.324
8.665 -5.645 0.32499999
8.6999998 -5.6139998 0.32600001
8.7390003 -5.585 0.32800001
8.7650003 -5.5489998 0.32800001
8.8120003 -5.5250001 0.33000001
8.8339996 -5.4860001 0.33000001
8.8520002 -5.4439998 0.331
8.8830004 -5.4109998 0.33199999
8.9110003 -5.3759999 0.333
8.9390001 -5.342 0.333
8.9619999 -5.3039999 0.33399999
9.0010004 -5.277 0.33500001
9.026 -5.2399998 0.336
9.0410004 -5.198 0.336
9.0880003 -5.1750002 0.338
9.1040001 -5.1339998 0.338
9.125 -5.0970001 0.33899999
9.151 -5.0619998 0.34
9.1689997 -5.0229998 0.34
9.2180004 -5.0009999 0.34200001
9.2309999 -4.96 0.34200001
9.2320004 -4.9120002 0.34200001
9.2650003 -4.882 0.34299999
9.3030005 -4.8540001 0.34400001
9.3369999 -4.8239999 0.345
9.3590002 -4.789 0.34599999
9.3870001 -4.756 0.347
9.4119997 -4.7220001 0.347
9.4420004 -4.6900001 0.34799999
9.4630003 -4.6550002 0.34900001
9.4919996 -4.6230001 0.34999999
9.5039997 -4.5830002 0.34999999
9.533 -4.552 0.35100001
9.5830002 -4.5300002 0.35299999
9.5780001 -4.4829998 0.352
9.6309996 -4.4629998 0.354
9.6219997 -4.414 0.354
9.658 -4.3870001 0.35499999
9.6920004 -4.3579998 0.35600001
9.7349997 -4.3330002 0.35699999
9.7559996 -4.2989998 0.35800001
9.8009996 -4.2750001 0.359
9.8179998 -4.2389998 0.36000001
9.8430004 -4.2069998 0.361
9.8669996 -4.1739998 0.361
9.8889999 -4.1409998 0.36199999
9.9160004 -4.1090002 0.36300001
9.9399996 -4.0770001 0.36399999
9.9919996 -4.0560002 0.366
10.007 -4.02 0.366
10.039 -3.9909999 0.36700001
10.063 -3.9590001 0.368
10.099 -3.931 0.36899999
10.134 -3.904 0.37
10.143 -3.8659999 0.37
10.176 -3.8380001 0.37099999
10.226 -3.816 0.373
10.259 -3.7869999 0.37400001
10.303 -3.763 0.37599999
10.304 -3.723 0.37599999
10.326 -3.691 0.37599999
10.384 -3.6719999 0.37799999
10.41 -3.641 0.37900001
10.416 -3.6029999 0.37900001
10.471 -3.5829999 0.38100001
10.501 -3.5539999 0.382
10.56 -3.5339999 0.384
10.606 -3.51 0.38600001
10.667 -3.4909999 0.38800001
10.681 -3.457 0.38800001
10.775 -3.448 0.391
10.832 -3.427 0.39300001
10.826 -3.3870001 0.39300001
10.836 -3.3510001 0.39300001
10.888 -3.329 0.39500001
10.941 -3.306 0.39700001
11.035 -3.296 0.40000001
11.045 -3.2609999 0.40099999
11.115 -3.243 0.403
11.135 -3.211 0.40400001
11.204 -3.1930001 0.40599999
11.252 -3.1689999 0.40799999
11.267 -3.135 0.40799999
11.329 -3.115 0.41
11.326 -3.076 0.41
11.388 -3.056 0.412
11.434 -3.0309999 0.414
11.481 -3.006 0.41600001
11.508 -2.9760001 0.41600001
11.558 -2.9519999 0.41800001
11.616 -2.9300001 0.41999999
11.66 -2.904 0.42199999
11.691 -2.875 0.42300001
11.715 -2.8440001 0.42399999
11.745 -2.8150001 0.42500001
11.835 -2.8 0.428
11.87 -2.7720001 0.42899999
11.872 -2.7360001 0.42899999
11.93 -2.714 0.43099999
11.974 -2.687 0.433
12.04 -2.6659999 0.435
12.033 -2.6289999 0.435
12.084 -2.605 0.43599999
12.102 -2.573 0.43700001
12.147 -2.5469999 0.43900001
12.204 -2.5239999 0.44100001
12.248 -2.4979999 0.442
12.245 -2.4619999 0.442
12.31 -2.4400001 0.44400001
12.411 -2.425 0.44800001
12.435 -2.395 0.449
12.483 -2.369 0.44999999
12.486 -2.335 0.44999999
12.551 -2.313 0.45300001
12.644 -2.296 0.456
12.67 -2.266 0.45699999
12.7 -2.237 0.458
12.725 -2.207 0.45899999
12.758 -2.1789999 0.46000001
12.77 -2.1470001 0.46000001
12.846 -2.1259999 0.463
13.849 -1.643 0.49900001
13.82 -1.608 0.498
14.031 -1.35 0.50599998
14.1 -1.326 0.50800002
14.383 0.197 0.40799999
14.45 0.22400001 0.41
14.467 0.25 0.41
14.494 0.27700001 0.41
14.522 0.30399999 0.41100001
14.525 0.331 0.41100001
14.599 0.361 0.41299999
14.557 0.38800001 0.41100001
14.616 0.417 0.41299999
14.619 0.44600001 0.41299999
14.615 0.47499999 0.412
14.664 0.505 0.414
14.663 0.53500003 0.41299999
14.666 0.565 0.41299999
14.628 0.59399998 0.412
14.716 0.62800002 0.414
14.701 0.65799999 0.414
14.743 0.69099998 0.41499999
14.782 0.72399998 0.41600001
14.8 0.75700003 0.41600001
14.79 0.78799999 0.41600001
14.786 0.82099998 0.41499999
14.867 0.85799998 0.417
14.853 0.88999999 0.417
14.885 0.926 0.41800001
14.936 0.963 0.419
15.11 1.008 0.42399999
13.595 1.066 0.38100001
13.53 1.0930001 0.37900001
13.55 1.128 0.37900001
13.575 1.1619999 0.38
15.269 1.382 0.42699999
15.253 1.419 0.42699999
15.25 1.456 0.426
15.255 1.495 0.426
15.304 1.539 0.428
15.369 1.584 0.42899999
15.481 1.635 0.433
15.535 1.681 0.43399999
15.471 1.714 0.43200001
15.44 1.751 0.43099999
15.512 1.799 0.433
15.539 1.844 0.43399999
15.606 1.893 0.43599999
15.673 1.943 0.43799999
15.718 1.99 0.43900001
15.719 2.033 0.43900001
15.713 2.075 0.43799999
15.741 2.1210001 0.43900001
15.798 2.1719999 0.44100001
15.824 2.2190001 0.442
15.9 2.2739999 0.44400001
15.967 2.3280001 0.44499999
16.02 2.3800001 0.447
16.042 2.4289999 0.44800001
16.056999 2.4760001 0.44800001
16.112 2.53 0.449
16.143 2.5810001 0.44999999
16.145 2.628 0.44999999
16.275999 2.6960001 0.454
16.296 2.7460001 0.45500001
16.377001 2.8080001 0.45699999
16.476 2.872 0.46000001
16.485001 2.9219999 0.46000001
16.552999 2.983 0.46200001
16.584 3.0380001 0.463
16.639999 3.0969999 0.46399999
16.764 3.1700001 0.46799999
16.820999 3.2320001 0.47
16.847 3.2869999 0.47
16.886 3.346 0.472
16.872 3.3940001 0.47099999
16.951 3.461 0.47299999
17.014999 3.526 0.47499999
17.027 3.5810001 0.47600001
17.128 3.655 0.479
17.122999 3.707 0.479
17.212 3.779 0.48100001
17.271 3.846 0.48300001
17.318001 3.9100001 0.484
17.371 3.977 0.486
17.429001 4.0450001 0.48800001
17.492001 4.1149998 0.48899999
17.575001 4.1900001 0.49200001
17.783001 4.296 0.498
18.056 4.5929999 0.50599998
18.033001 4.6459999 0.505
18.024 4.7020001 0.505
18.1 4.7800002 0.50800002
18.148001 4.8520002 0.509
18.205999 4.927 0.51099998
18.271 5.0050001 0.51300001
9.0310001 2.503 0.25299999
8.934 2.506 0.25099999
8.8920002 2.523 0.25
8.8520002 2.5420001 0.249
8.8330002 2.5650001 0.248
8.7959995 2.5840001 0.24699999
8.7969999 2.6140001 0.24699999
8.7919998 2.642 0.24699999
8.8009996 2.674 0.248
8.8050003 2.7049999 0.248
8.8070002 2.7349999 0.248
8.8199997 2.7690001 0.248
8.802 2.793 0.248
8.7969999 2.822 0.248
8.802 2.8529999 0.248
8.8299999 2.8929999 0.249
8.9379997 2.9590001 0.252
15.715 5.474 0.44499999
15.474 5.4429998 0.43799999
15.315 5.441 0.43399999
15.197 5.4520001 0.43099999
15.195 5.5040002 0.43099999
8.9250002 3.2950001 0.25299999
8.816 3.286 0.25
8.7779999 3.303 0.249
8.7530003 3.3239999 0.249
8.7200003 3.3429999 0.248
8.7159996 3.372 0.248
8.7080002 3.4000001 0.248
8.6999998 3.427 0.248
8.6949997 3.4560001 0.248
8.7040005 3.4909999 0.248
8.6879997 3.5150001 0.248
8.6850004 3.5450001 0.248
8.6739998 3.572 0.248
8.6700001 3.6010001 0.248
8.6759996 3.635 0.248
13.276 5.5619998 0.38
8.7729998 3.707 0.25099999
13.029 5.506 0.373
12.988 5.5349998 0.37200001
13.159 5.6550002 0.377
12.376 5.632 0.35600001
12.362 5.671 0.35600001
12.439 5.7509999 0.359
12.41 5.783 0.35800001
12.327 5.789 0.35600001
12.283 5.8130002 0.35499999
12.263 5.848 0.35499999
12.279 5.9000001 0.35499999
12.342 5.9759998 0.35699999
8.5509996 4.421 0.249
8.3839998 4.3649998 0.245
8.3380003 4.3720002 0.243
8.3129997 4.3899999 0.243
8.2880001 4.4060001 0.242
8.2639999 4.4239998 0.242
8.2399998 4.441 0.241
8.2150002 4.4569998 0.241
8.165 4.46 0.23899999
8.1359997 4.474 0.23899999
8.1239996 4.4970002 0.23899999
8.1409998 4.5359998 0.23899999
8.1520004 4.572 0.23999999
8.1789999 4.6170001 0.241
8.1929998 4.6539998 0.241
8.1440001 4.6560001 0.23999999
8.1000004 4.6599998 0.23899999
8.0900002 4.684 0.23899999
8.1590004 4.7529998 0.241
9.2559996 -5.4770002 0.36399999
9.2700005 -5.4590001 0.36500001
9.2790003 -5.4380002 0.36500001
9.2869997 -5.4159999 0.36500001
9.3149996 -5.4050002 0.36700001
9.3030005 -5.3709998 0.366
9.3330002 -5.362 0.36700001
9.3369999 -5.3369999 0.36700001
9.3559999 -5.322 0.368
9.3760004 -5.3060002 0.36899999
9.4020004 -5.2940001 0.37
9.4110003 -5.2709999 0.37
9.4230003 -5.2509999 0.37099999
9.4460001 -5.2360001 0.37200001
9.4490004 -5.211 0.37200001
9.4630003 -5.191 0.37200001
9.4659996 -5.1659999 0.37200001
9.5 -5.1560001 0.37400001
9.5100002 -5.1350002 0.37400001
9.5200005 -5.112 0.375
9.5249996 -5.0879998 0.375
9.5369997 -5.066 0.375
9.5609999 -5.0510001 0.37599999
9.599 -5.0430002 0.37799999
9.6300001 -5.0320001 0.37900001
