# .PCD v0.7 - Point Cloud Data file format
VERSION 0.7
FIELDS x y z
SIZE 4 4 4
TYPE F F F
COUNT 1 1 1
WIDTH 1824
HEIGHT 1
VIEWPOINT 0 0 0 1 0 0 0
POINTS 1824
DATA ascii
7.2309999 2.5409999 0.185
7.223 2.5650001 0.184
7.204 2.5840001 0.184
7.1890001 2.605 0.184
7.1869998 2.631 0.184
7.2480001 2.681 0.186
7.4310002 2.776 0.19
13.028 5.4120002 0.33700001
12.913 5.415 0.33399999
12.855 5.441 0.333
12.824 5.4780002 0.333
12.798 5.5170002 0.33199999
12.787 5.5630002 0.33199999
12.517 5.7979999 0.32699999
12.426 5.8060002 0.32499999
12.415 5.8520002 0.32499999
12.432 5.9109998 0.32600001
8.6429996 -5.6849999 0.32499999
8.6730003 -5.6500001 0.32600001
8.7080002 -5.619 0.32699999
8.7440004 -5.5879998 0.32800001
8.7709999 -5.552 0.329
8.816 -5.527 0.33000001
8.8549995 -5.4990001 0.331
8.8669996 -5.454 0.331
8.8879995 -5.414 0.33199999
8.9219999 -5.3829999 0.333
8.9490004 -5.348 0.33399999
8.9770002 -5.3130002 0.33500001
9.0120001 -5.283 0.336
9.0319996 -5.244 0.336
9.059 -5.2090001 0.33700001
9.0950003 -5.1799998 0.338
9.1040001 -5.1339998 0.338
9.1309996 -5.0999999 0.33899999
9.1719999 -5.0739999 0.34
9.1859999 -5.0320001 0.34099999
9.2189999 -5.0019999 0.34200001
9.2320004 -4.96 0.34200001
9.2410002 -4.9169998 0.34200001
9.2849998 -4.8920002 0.34400001
9.3179998 -4.862 0.345
9.342 -4.8270001 0.345
9.368 -4.7940001 0.34599999
9.401 -4.763 0.347
9.4200001 -4.7259998 0.34799999
9.4469995 -4.6929998 0.34900001
9.4860001 -4.6659999 0.34999999
9.5 -4.6269999 0.34999999
9.5170002 -4.5890002 0.35100001
9.5480003 -4.559 0.352
9.5819998 -4.5300002 0.35299999
9.5939999 -4.4910002 0.35299999
9.625 -4.46 0.354
9.6370001 -4.421 0.354
9.6719999 -4.3930001 0.35499999
9.7030001 -4.3629999 0.35600001
9.7370005 -4.3340001 0.35699999
9.7670002 -4.3039999 0.35800001
9.7980003 -4.2740002 0.359
9.8319998 -4.2449999 0.36000001
9.8400002 -4.2049999 0.361
9.8579998 -4.1700001 0.361
9.8990002 -4.145 0.36199999
9.9250002 -4.1129999 0.36300001
9.948 -4.0799999 0.36399999
9.9790001 -4.0510001 0.36500001
10.008 -4.02 0.366
10.064 -4.0009999 0.368
10.093 -3.971 0.36899999
10.086 -3.9260001 0.368
10.138 -3.905 0.37
10.154 -3.8710001 0.37099999
10.207 -3.8499999 0.37200001
10.226 -3.816 0.373
10.261 -3.7880001 0.37400001
10.283 -3.756 0.375
10.298 -3.721 0.375
10.334 -3.694 0.37599999
10.386 -3.6719999 0.37799999
10.393 -3.635 0.37799999
10.426 -3.6070001 0.37900001
10.475 -3.5840001 0.38100001
10.497 -3.552 0.382
10.563 -3.5350001 0.384
10.621 -3.5150001 0.38600001
10.644 -3.484 0.38699999
10.68 -3.457 0.38800001
10.76 -3.4430001 0.391
10.821 -3.424 0.39300001
10.849 -3.3940001 0.39399999
10.84 -3.352 0.39399999
10.897 -3.3310001 0.39500001
10.976 -3.3169999 0.398
11.021 -3.2920001 0.40000001
11.066 -3.267 0.40099999
11.129 -3.2479999 0.40400001
11.199 -3.23 0.40599999
11.221 -3.198 0.40700001
11.231 -3.1630001 0.40700001
11.255 -3.132 0.40799999
11.345 -3.119 0.41100001
10.657 -2.895 0.38600001
10.522 -2.823 0.38100001
10.503 -2.7839999 0.38
10.498 -2.7490001 0.38
10.508 -2.717 0.38
10.548 -2.694 0.382
10.588 -2.6700001 0.38299999
11.683 -2.9100001 0.42300001
11.691 -2.875 0.42300001
11.743 -2.8510001 0.42500001
11.77 -2.8210001 0.426
11.798 -2.7909999 0.426
11.853 -2.7679999 0.428
11.907 -2.744 0.43000001
11.955 -2.7190001 0.43200001
11.97 -2.687 0.43200001
12.004 -2.658 0.43399999
12.058 -2.635 0.43599999
12.183 -2.6259999 0.44
10.584 -2.25 0.382
10.57 -2.2160001 0.382
10.585 -2.1889999 0.382
10.68 -2.178 0.38499999
12.33 -2.4790001 0.44499999
12.342 -2.447 0.44499999
12.391 -2.421 0.447
12.411 -2.3900001 0.44800001
12.463 -2.3659999 0.44999999
12.524 -2.3429999 0.45199999
12.629 -2.3269999 0.456
12.61 -2.29 0.45500001
12.594 -2.2520001 0.454
12.688 -2.2349999 0.458
12.772 -2.2160001 0.461
12.755 -2.1789999 0.46000001
12.734 -2.141 0.45899999
12.801 -2.119 0.461
14.044 -1.351 0.50599998
14.112 -1.327 0.50800002
12.767 -1.012 0.46000001
12.68 -0.98000002 0.45699999
12.721 -0.95700002 0.458
12.86 -0.94099998 0.463
12.532 -0.76899999 0.45199999
12.447 -0.74000001 0.449
12.428 -0.71499997 0.44800001
12.435 -0.69199997 0.44800001
12.445 -0.66900003 0.449
12.482 -0.648 0.44999999
14.385 0.197 0.40799999
14.456 0.22400001 0.41
14.523 0.25099999 0.41100001
14.563 0.278 0.412
14.565 0.30500001 0.412
14.58 0.333 0.412
14.597 0.361 0.41299999
14.587 0.38800001 0.412
14.635 0.41800001 0.41299999
14.663 0.447 0.414
14.62 0.47499999 0.41299999
14.653 0.505 0.41299999
14.657 0.53500003 0.41299999
14.68 0.565 0.414
14.679 0.59600002 0.41299999
14.675 0.62599999 0.41299999
14.884 0.66600001 0.419
14.849 0.69599998 0.41800001
14.797 0.72500002 0.41600001
14.839 0.759 0.417
14.794 0.78899997 0.41600001
14.903 0.82700002 0.419
14.892 0.85900003 0.41800001
14.938 0.89499998 0.419
14.948 0.93000001 0.419
14.946 0.963 0.419
15.138 1.01 0.42500001
13.512 1.092 0.37799999
13.545 1.127 0.37900001
11.305 0.96799999 0.31600001
11.071 0.97500002 0.31
11.006 0.99599999 0.308
10.966 1.02 0.30700001
10.954 1.046 0.30599999
10.949 1.073 0.30599999
10.952 1.101 0.30599999
10.985 1.132 0.30700001
11.077 1.17 0.30899999
11.176 1.209 0.31200001
11.188 1.239 0.31200001
11.14 1.263 0.31099999
11.119 1.29 0.31
11.117 1.319 0.31
11.117 1.348 0.31
11.135 1.38 0.31099999
11.211 1.419 0.31299999
16.169001 2.0469999 0.45100001
15.776 2.04 0.44
15.757 2.0799999 0.44
15.801 2.1289999 0.44100001
15.831 2.177 0.442
15.857 2.224 0.442
15.94 2.28 0.44499999
15.981 2.3299999 0.44600001
16.02 2.3800001 0.447
16.051001 2.4300001 0.44800001
16.080999 2.48 0.449
16.104 2.529 0.449
16.128 2.579 0.44999999
16.232 2.642 0.45300001
16.245001 2.691 0.45300001
16.316999 2.75 0.45500001
16.348 2.802 0.456
16.429001 2.8640001 0.458
16.489 2.9230001 0.46000001
16.552999 2.983 0.46200001
16.583 3.0380001 0.463
16.646 3.098 0.465
16.723 3.1630001 0.46700001
16.827999 3.233 0.47
16.879999 3.293 0.47099999
16.893999 3.3469999 0.472
16.900999 3.4000001 0.472
16.987 3.4690001 0.47400001
17.041 3.5320001 0.47600001
17.059999 3.5880001 0.477
17.143 3.658 0.479
17.138 3.71 0.479
17.212 3.779 0.48100001
17.275 3.8469999 0.48300001
17.323999 3.9119999 0.484
17.377001 3.9779999 0.486
17.511 4.0640001 0.49000001
17.497999 4.1160002 0.49000001
17.539 4.1810002 0.491
17.690001 4.2740002 0.495
18.146999 4.6750002 0.509
18.037001 4.7049999 0.50599998
18.056 4.7690001 0.50599998
18.156 4.8540001 0.509
18.162001 4.915 0.50999999
18.274 5.006 0.51300001
18.316 5.0770001 0.514
18.368999 5.1529999 0.51599997
18.393999 5.2199998 0.51700002
18.712 5.5599999 0.52700001
18.796 5.6479998 0.52899998
18.889999 5.7399998 0.53200001
18.798 5.7750001 0.52999997
7.7620001 2.411 0.21799999
7.5489998 2.3699999 0.213
7.4710002 2.3710001 0.20999999
7.4169998 2.3789999 0.20900001
7.3839998 2.3940001 0.208
7.3429999 2.405 0.207
7.3179998 2.4219999 0.206
7.2940001 2.4400001 0.206
7.27 2.4560001 0.205
7.25 2.4749999 0.205
7.2350001 2.494 0.204
7.2270002 2.517 0.204
7.224 2.5409999 0.204
7.224 2.566 0.204
7.2090001 2.586 0.204
7.191 2.605 0.204
7.1620002 2.619 0.20299999
7.158 2.6429999 0.20299999
7.2540002 2.704 0.206
13.174 5.5190001 0.377
13.011 5.4980001 0.373
12.979 5.5310001 0.37200001
13.117 5.6370001 0.37599999
12.689 5.7290001 0.36500001
12.38 5.6339998 0.35699999
12.363 5.671 0.35600001
12.467 5.7639999 0.36000001
12.404 5.7800002 0.35800001
12.327 5.789 0.35600001
12.278 5.8109999 0.35499999
12.266 5.8499999 0.35499999
12.275 5.8990002 0.35499999
12.338 5.974 0.35699999
12.188 6.835 0.359
11.955 6.7480001 0.352
11.894 6.756 0.35100001
11.959 6.8369999 0.35299999
9.2539997 -5.4749999 0.36399999
9.2799997 -5.4640002 0.36500001
9.2770004 -5.4359999 0.36500001
9.2869997 -5.4159999 0.36500001
9.2989998 -5.3959999 0.366
9.3129997 -5.3769999 0.366
9.323 -5.3559999 0.36700001
9.3400002 -5.3390002 0.368
9.3710003 -5.3299999 0.36899999
9.3800001 -5.3080001 0.36899999
9.4049997 -5.2950001 0.37
9.4020004 -5.2659998 0.37
9.4130001 -5.2449999 0.37
9.4420004 -5.2340002 0.37200001
9.4549999 -5.2140002 0.37200001
9.4560003 -5.1869998 0.37200001
9.493 -5.1799998 0.37400001
9.4919996 -5.152 0.373
9.4980001 -5.1279998 0.37400001
9.5109997 -5.1079998 0.37400001
9.5249996 -5.0879998 0.375
9.5469999 -5.072 0.37599999
9.5609999 -5.0510001 0.37599999
9.5930004 -5.04 0.377
9.6129999 -5.0229998 0.37799999
9.6149998 -4.9959998 0.37799999
9.6079998 -4.9640002 0.37799999
9.625 -4.9450002 0.37900001
9.6440001 -4.927 0.37900001
9.6490002 -4.902 0.38
9.6759996 -4.8870001 0.38100001
9.6829996 -4.8629999 0.38100001
9.6949997 -4.8400002 0.38100001
9.7189999 -4.8239999 0.382
9.7220001 -4.7969999 0.382
9.7440004 -4.7800002 0.38299999
9.7370005 -4.7480001 0.38299999
9.7690001 -4.7350001 0.384
9.7939997 -4.7189999 0.38499999
9.7950001 -4.691 0.38499999
9.8240004 -4.6760001 0.38600001
9.8330002 -4.651 0.38699999
9.8470001 -4.6290002 0.38699999
9.8769999 -4.6139998 0.38800001
9.8879995 -4.5910001 0.389
9.8850002 -4.5609999 0.389
9.9130001 -4.5450001 0.38999999
9.934 -4.5250001 0.38999999
9.9429998 -4.5 0.391
9.9779997 -4.487 0.39199999
10.006 -4.4699998 0.39300001
10.027 -4.4499998 0.39399999
10.051 -4.4320002 0.39500001
10.038 -4.3969998 0.39399999
10.049 -4.3720002 0.39500001
10.074 -4.3540001 0.396
10.072 -4.3239999 0.396
10.112 -4.3109999 0.39700001
10.15 -4.2979999 0.39899999
10.147 -4.2670002 0.39899999
10.163 -4.244 0.39899999
10.178 -4.2199998 0.40000001
10.205 -4.2020001 0.40099999
10.243 -4.1880002 0.40200001
10.254 -4.1620002 0.403
10.256 -4.1329999 0.403
10.281 -4.1129999 0.40400001
10.33 -4.1030002 0.40599999
10.328 -4.072 0.405
10.339 -4.046 0.40599999
10.379 -4.0310001 0.40700001
10.393 -4.006 0.40799999
10.417 -3.9849999 0.40900001
10.438 -3.9630001 0.41
10.487 -3.951 0.41100001
10.494 -3.9230001 0.412
10.5 -3.8940001 0.412
10.531 -3.875 0.41299999
10.555 -3.8529999 0.414
10.579 -3.8310001 0.41499999
10.614 -3.813 0.41600001
10.653 -3.796 0.41800001
10.692 -3.779 0.419
10.707 -3.753 0.41999999
10.711 -3.723 0.41999999
10.735 -3.7 0.421
10.794 -3.6889999 0.42300001
10.818 -3.6659999 0.42399999
10.87 -3.652 0.426
10.874 -3.622 0.426
10.942 -3.612 0.42899999
10.974 -3.5910001 0.43000001
11 -3.5680001 0.43099999
11.011 -3.539 0.43099999
11.102 -3.536 0.435
11.182 -3.529 0.43799999
11.15 -3.487 0.43700001
11.155 -3.4560001 0.43700001
11.145 -3.4200001 0.43599999
11.179 -3.398 0.43799999
11.225 -3.3800001 0.43900001
11.257 -3.3570001 0.44100001
11.306 -3.339 0.44299999
11.307 -3.306 0.44299999
11.328 -3.279 0.44299999
11.388 -3.2639999 0.44600001
11.408 -3.2360001 0.44600001
11.434 -3.211 0.447
11.455 -3.1830001 0.44800001
11.466 -3.1530001 0.449
11.52 -3.135 0.45100001
11.547 -3.109 0.45199999
10.56 -2.812 0.41299999
10.506 -2.7679999 0.41100001
10.502 -2.7360001 0.41100001
10.513 -2.7090001 0.41100001
10.499 -2.675 0.41
10.522 -2.6500001 0.41100001
10.55 -2.6259999 0.412
10.554 -2.5969999 0.412
10.612 -2.5810001 0.41499999
11.982 -2.8789999 0.46799999
11.914 -2.829 0.465
11.97 -2.8069999 0.46799999
12.02 -2.7839999 0.46900001
12.048 -2.756 0.47
12.101 -2.733 0.472
12.129 -2.704 0.47400001
12.162 -2.677 0.47499999
12.198 -2.6500001 0.47600001
12.206 -2.6159999 0.47600001
12.239 -2.5880001 0.47799999
12.358 -2.5780001 0.48199999
10.669 -2.194 0.41600001
10.576 -2.145 0.41299999
10.583 -2.1159999 0.41299999
10.637 -2.096 0.41499999
12.631 -2.4530001 0.493
12.576 -2.4059999 0.49000001
12.606 -2.375 0.491
12.654 -2.348 0.493
12.775 -2.3340001 0.498
13.833 -1.892 0.53799999
13.923 -1.864 0.542
13.894 -1.8200001 0.54000002
13.882 -1.739 0.54000002
13.966 -1.71 0.54299998
13.978 -1.631 0.54299998
14.096 -1.604 0.54799998
14.051 -1.5190001 0.546
14.131 -1.487 0.54900002
14.162 -1.45 0.55000001
12.787 -1.163 0.49599999
12.664 -1.115 0.491
12.715 -1.0829999 0.493
12.671 -0.935 0.491
12.422 -0.88099998 0.48199999
12.423 -0.84600002 0.48199999
12.454 -0.81199998 0.48300001
11.18 0.93599999 0.33399999
11.062 0.949 0.33000001
10.994 0.96600002 0.32800001
10.974 0.98799998 0.32699999
10.957 1.0089999 0.32699999
10.954 1.033 0.32699999
10.95 1.056 0.32699999
10.955 1.08 0.32699999
10.977 1.107 0.32699999
11.038 1.137 0.329
11.131 1.1720001 0.33199999
11.157 1.2 0.333
11.126 1.222 0.33199999
11.123 1.247 0.33199999
11.114 1.272 0.331
11.125 1.299 0.33199999
11.155 1.329 0.333
11.221 1.363 0.33500001
16.778 2.0380001 0.50099999
11.484 1.4220001 0.34200001
16.455 2.039 0.491
16.479 2.0810001 0.49200001
16.488001 2.122 0.49200001
16.496 2.164 0.49200001
16.513 2.207 0.493
16.551001 2.253 0.49399999
16.594 2.3 0.495
16.613001 2.345 0.49599999
16.687 2.3970001 0.498
16.737 2.447 0.5
16.784 2.497 0.50099999
16.806 2.5439999 0.50199997
16.849001 2.595 0.50300002
16.860001 2.641 0.50400001
16.972 2.7030001 0.50700003
16.995001 2.7520001 0.50800002
17.034 2.8039999 0.509
17.056 2.8529999 0.50999999
17.091 2.905 0.51099998
17.118 2.957 0.51200002
17.167 3.0120001 0.514
17.201 3.066 0.51499999
17.198 3.1129999 0.51499999
17.228001 3.1670001 0.51599997
17.316999 3.2320001 0.51899999
17.357 3.2880001 0.51999998
17.540001 3.3729999 0.52600002
17.554001 3.4260001 0.52600002
17.591 3.484 0.52700001
17.636999 3.5439999 0.52899998
17.674999 3.6029999 0.52999997
17.756001 3.6719999 0.53299999
17.746 3.7219999 0.53299999
17.718 3.7690001 0.53200001
17.896999 3.8599999 0.53799999
17.875 3.9089999 0.537
18.028 3.997 0.542
18.063 4.059 0.54299998
18.083 4.119 0.54400003
18.402 4.2480001 0.55400002
18.322001 4.2849998 0.55199999
18.365 4.3520002 0.55299997
18.605 4.467 0.56099999
18.614 4.586 0.56199998
18.624001 4.6469998 0.56199998
18.688 4.7220001 0.565
19.035 4.9320002 0.57599998
18.782 4.927 0.56800002
18.844999 5.0040002 0.57099998
18.646999 5.0120001 0.565
18.767 5.1059999 0.56900001
18.941 5.2150002 0.574
18.875999 5.2600002 0.57300001
18.955 5.3439999 0.57499999
7.5570002 2.3870001 0.23100001
7.454 2.381 0.228
7.4120002 2.3929999 0.226
7.368 2.405 0.22499999
7.3179998 2.415 0.22400001
7.3130002 2.4389999 0.22400001
7.29 2.457 0.223
7.257 2.4719999 0.223
7.23 2.4890001 0.222
7.2210002 2.5120001 0.222
7.2140002 2.5350001 0.222
7.224 2.5650001 0.222
7.2030001 2.5840001 0.222
7.1799998 2.602 0.221
7.1539998 2.619 0.221
7.1849999 2.6570001 0.222
7.3730001 2.7539999 0.228
14.62 5.7919998 0.454
14.689 5.875 0.45699999
12.42 5.6009998 0.391
12.352 5.6209998 0.389
12.418 5.7010002 0.39199999
12.415 5.75 0.39199999
12.329 5.7610002 0.38999999
12.292 5.7940001 0.389
12.267 5.8319998 0.389
12.29 5.8940001 0.38999999
12.422 6.0089998 0.39500001
11.995 6.7810001 0.38999999
11.868 6.763 0.38600001
11.87 6.816 0.38699999
8.8760004 -5.836 0.375
8.901 -5.7969999 0.37599999
8.9510002 -5.7740002 0.37799999
8.9709997 -5.7319999 0.37799999
8.9960003 -5.6929998 0.37900001
9.0360003 -5.664 0.38100001
9.0670004 -5.6290002 0.382
9.099 -5.5949998 0.38299999
9.1230001 -5.5560002 0.38299999
9.1490002 -5.5180001 0.384
9.1809998 -5.4850001 0.38499999
9.2040005 -5.4460001 0.38600001
9.2390003 -5.414 0.38699999
9.2749996 -5.3829999 0.389
9.2950001 -5.3429999 0.389
9.3249998 -5.309 0.38999999
9.3540001 -5.2740002 0.391
9.3809996 -5.2379999 0.39199999
9.4060001 -5.2020001 0.39300001
9.4219999 -5.1599998 0.39300001
9.4569998 -5.1300001 0.39399999
9.5019999 -5.1040001 0.396
9.5290003 -5.0689998 0.39700001
9.5360003 -5.0229998 0.39700001
9.5559998 -4.9850001 0.398
9.5839996 -4.9510002 0.39899999
9.6160002 -4.9190001 0.40000001
9.6549997 -4.8909998 0.40099999
9.6619997 -4.8470001 0.40099999
9.6850004 -4.8099999 0.40200001
9.7180004 -4.7789998 0.403
9.7480001 -4.7470002 0.40400001
9.7600002 -4.7059999 0.40400001
9.7910004 -4.6739998 0.405
9.8369999 -4.6500001 0.40700001
9.8540001 -4.6110001 0.40799999
9.8920002 -4.5830002 0.40900001
9.908 -4.5450001 0.41
9.9329996 -4.5110002 0.41
9.9700003 -4.4819999 0.412
10.004 -4.4520001 0.41299999
10.026 -4.4169998 0.414
10.077 -4.395 0.41600001
10.107 -4.3629999 0.417
10.115 -4.322 0.417
10.159 -4.2969999 0.41800001
10.179 -4.2610002 0.419
10.229 -4.2379999 0.421
10.225 -4.1929998 0.421
10.271 -4.1680002 0.42199999
10.307 -4.1399999 0.42399999
10.344 -4.112 0.42500001
10.398 -4.0900002 0.42699999
10.416 -4.0539999 0.428
10.452 -4.026 0.42899999
10.517 -4.0079999 0.43099999
10.55 -3.9779999 0.433
10.575 -3.9449999 0.43399999
10.606 -3.915 0.435
10.668 -3.8959999 0.43700001
10.694 -3.8640001 0.43799999
10.767 -3.848 0.44100001
10.804 -3.819 0.442
10.872 -3.802 0.44499999
10.894 -3.7679999 0.44600001
10.928 -3.7390001 0.447
10.955 -3.707 0.44800001
11.029 -3.691 0.45100001
11.063 -3.661 0.45199999
11.13 -3.642 0.45500001
11.145 -3.6070001 0.45500001
11.217 -3.589 0.458
11.383 -3.6010001 0.465
11.361 -3.553 0.463
11.338 -3.506 0.46200001
11.369 -3.4749999 0.46399999
11.402 -3.4460001 0.465
11.439 -3.4170001 0.46599999
11.51 -3.398 0.46900001
11.527 -3.3640001 0.47
11.552 -3.3310001 0.47
11.596 -3.3050001 0.472
11.595 -3.2650001 0.472
11.667 -3.2460001 0.47499999
10.585 -2.9100001 0.43099999
10.504 -2.8529999 0.42699999
10.505 -2.819 0.42699999
10.516 -2.7869999 0.428
10.516 -2.753 0.42699999
10.516 -2.7190001 0.42699999
10.51 -2.684 0.42699999
10.532 -2.6559999 0.428
10.626 -2.6459999 0.43200001
12.068 -2.967 0.49000001
12.118 -2.9419999 0.49200001
12.212 -2.927 0.49599999
12.235 -2.895 0.49700001
12.295 -2.8710001 0.49900001
12.316 -2.8380001 0.5
12.341 -2.8069999 0.50099999
12.405 -2.7839999 0.50300002
12.538 -2.777 0.50800002
12.566 -2.7460001 0.50999999
10.808 -2.329 0.43799999
10.585 -2.25 0.42899999
10.552 -2.2130001 0.428
10.583 -2.1889999 0.42899999
10.702 -2.1819999 0.43399999
13.471 -2.595 0.546
13.469 -2.5569999 0.54500002
13.478 -2.5209999 0.546
13.921 -2.125 0.56300002
13.854 -2.0799999 0.56
13.862 -2.046 0.56099999
13.99 -2.03 0.56599998
13.993 -1.961 0.56599998
14.062 -1.936 0.56900001
14.026 -1.897 0.56699997
14.109 -1.841 0.56999999
14.205 -1.819 0.574
14.198 -1.785 0.574
14.192 -1.75 0.574
14.174 -1.682 0.57300001
14.175 -1.649 0.57300001
14.23 -1.623 0.57499999
14.256 -1.5930001 0.57599998
14.359 -1.572 0.57999998
14.374 -1.5420001 0.58099997
12.759 -1.0650001 0.51599997
12.68 -1.0319999 0.51200002
12.667 -1.005 0.51200002
12.641 -0.977 0.51099998
12.7 -0.95599997 0.51300001
12.795 -0.93699998 0.51700002
12.471 -0.76599997 0.50400001
12.411 -0.73799998 0.50199997
12.398 -0.71399999 0.50099999
12.447 -0.69300002 0.50300002
12.503 -0.67299998 0.50599998
15.152 0.20999999 0.50199997
15.183 0.237 0.50300002
15.341 0.26699999 0.50800002
15.299 0.29499999 0.50700003
15.335 0.32300001 0.50800002
15.271 0.35100001 0.505
15.348 0.38100001 0.50800002
15.431 0.53399998 0.509
15.535 0.56900001 0.51200002
15.485 0.59799999 0.51099998
15.394 0.62599999 0.50700003
15.54 0.69700003 0.51200002
15.461 0.72600001 0.509
15.51 0.76200002 0.51099998
15.543 0.79699999 0.51200002
11.183 0.986 0.36700001
11.05 1.001 0.36199999
10.97 1.021 0.36000001
10.961 1.0470001 0.359
10.947 1.074 0.359
10.94 1.1 0.359
10.938 1.128 0.35800001
10.953 1.1569999 0.359
11.012 1.192 0.361
11.111 1.2309999 0.36399999
11.128 1.262 0.36500001
11.108 1.289 0.36399999
11.114 1.319 0.36399999
11.122 1.349 0.36399999
11.15 1.382 0.36500001
11.254 1.425 0.36899999
16.714001 2.1170001 0.54799998
16.601 2.148 0.54400003
16.629 2.1960001 0.54500002
16.649 2.244 0.546
16.711 2.2980001 0.54799998
16.764999 2.352 0.54900002
16.848 2.4100001 0.55199999
16.929001 2.4690001 0.55500001
16.993999 2.526 0.55699998
17.011 2.576 0.55800003
17.059999 2.631 0.55900002
17.110001 2.688 0.56099999
17.159 2.744 0.56300002
17.202 2.8 0.56400001
17.209 2.8510001 0.56400001
17.253 2.908 0.56599998
17.327999 2.971 0.56900001
17.379 3.03 0.56999999
17.444 3.0929999 0.57200003
17.524 3.1589999 0.57499999
17.58 3.22 0.57700002
17.673 3.29 0.57999998
17.870001 3.3800001 0.58700001
18.004999 3.4590001 0.59100002
18.16 3.5439999 0.597
18.122999 3.5910001 0.59600002
18.077 3.6370001 0.59399998
18.101 3.697 0.59500003
18.219999 3.776 0.59899998
18.296 3.848 0.602
18.506001 3.9489999 0.60900003
18.497999 4.0050001 0.60900003
18.544001 4.072 0.61000001
18.615 4.145 0.61299998
18.622 4.2049999 0.61299998
18.632 4.2659998 0.61400002
18.660999 4.3309999 0.61500001
18.791 4.421 0.62
18.929001 4.513 0.62400001
19.122999 4.6199999 0.63099998
18.975 4.645 0.62599999
18.974001 4.7049999 0.62599999
18.927 4.7540002 0.625
19.011 4.836 0.62800002
19.083 4.9159999 0.63099998
19.059999 4.9720001 0.63
19.096001 5.0430002 0.63200003
19.150999 5.1199999 0.634
19.160999 5.1859999 0.634
19.243999 5.2709999 0.63700002
19.75 5.7360001 0.65499997
19.747999 5.802 0.65600002
19.671 5.8449998 0.653
7.783 2.4170001 0.259
7.5289998 2.3640001 0.25
7.4349999 2.359 0.24699999
7.3829999 2.368 0.24600001
7.355 2.3840001 0.245
7.323 2.3989999 0.244
7.3010001 2.4170001 0.243
7.2820001 2.4349999 0.243
7.2490001 2.4489999 0.242
7.2389998 2.471 0.242
7.2210002 2.49 0.241
7.2189999 2.5139999 0.241
7.2150002 2.5380001 0.241
7.223 2.566 0.242
7.1880002 2.5780001 0.241
7.1550002 2.5910001 0.23999999
7.1539998 2.6159999 0.23999999
7.2340002 2.671 0.243
12.58 5.7249999 0.43000001
12.476 5.7220001 0.42699999
12.487 5.7729998 0.42699999
12.4 5.7779999 0.42500001
12.332 5.7909999 0.42300001
12.293 5.8169999 0.42199999
12.291 5.8610001 0.42199999
12.311 5.9159999 0.42300001
12.291 5.9510002 0.42300001
12.355 6.027 0.42500001
12.141 6.8530002 0.426
11.945 6.7849998 0.419
11.94 6.8249998 0.41999999
9.5349998 -5.6469998 0.41999999
9.559 -5.6329999 0.421
9.5459995 -5.598 0.41999999
9.5810003 -5.5910001 0.42199999
9.5930004 -5.5710001 0.42199999
9.6040001 -5.5500002 0.42300001
9.6260004 -5.5349998 0.42300001
9.6409998 -5.5159998 0.42399999
9.6610003 -5.4990001 0.42500001
9.6859999 -5.4850001 0.426
9.6879997 -5.4590001 0.426
9.6630001 -5.4159999 0.42500001
9.6960001 -5.4070001 0.426
9.7209997 -5.3930001 0.428
9.7379999 -5.3740001 0.428
9.7469997 -5.3509998 0.42899999
9.7480001 -5.323 0.42899999
9.7580004 -5.3010001 0.42899999
9.7779999 -5.283 0.43000001
9.7709999 -5.2509999 0.43000001
9.8030005 -5.2399998 0.43099999
9.8190002 -5.2199998 0.43200001
9.8540001 -5.2090001 0.433
9.8529997 -5.1810002 0.433
9.8879995 -5.1700001 0.435
9.8920002 -5.1430001 0.435
9.8900003 -5.1139998 0.435
9.9020004 -5.0910001 0.435
9.9130001 -5.0679998 0.43599999
9.9469995 -5.0570002 0.43700001
9.9799995 -5.0440001 0.43900001
9.9890003 -5.0190001 0.43900001
10.012 -5.0019999 0.44
10.021 -4.9770002 0.44
10.037 -4.9559999 0.44100001
10.051 -4.9330001 0.442
10.071 -4.914 0.442
10.101 -4.8990002 0.44400001
10.122 -4.8800001 0.44499999
10.12 -4.849 0.44400001
10.119 -4.8189998 0.44400001
10.137 -4.7979999 0.44499999
10.178 -4.7880001 0.447
10.197 -4.7670002 0.44800001
10.217 -4.7459998 0.449
10.226 -4.7210002 0.449
10.257 -4.7049999 0.44999999
10.29 -4.6900001 0.45199999
10.304 -4.6659999 0.45199999
10.326 -4.6459999 0.45300001
10.35 -4.6269999 0.454
10.375 -4.6079998 0.45500001
10.404 -4.5900002 0.456
10.404 -4.5599999 0.456
10.407 -4.5310001 0.45699999
10.422 -4.507 0.45699999
10.476 -4.4990001 0.45899999
10.48 -4.4710002 0.46000001
10.502 -4.4489999 0.461
10.528 -4.4299998 0.46200001
10.549 -4.408 0.463
10.558 -4.381 0.463
10.586 -4.3610001 0.46399999
10.611 -4.3400002 0.465
10.649 -4.3249998 0.46700001
10.67 -4.302 0.46799999
10.71 -4.2870002 0.46900001
10.777 -4.2820001 0.472
10.826 -4.27 0.47400001
10.915 -4.2729998 0.47799999
10.942 -4.2519999 0.479
10.925 -4.2140002 0.479
10.945 -4.1890001 0.479
10.899 -4.1399999 0.477
10.901 -4.1090002 0.477
10.939 -4.0910001 0.479
10.965 -4.0689998 0.47999999
10.972 -4.04 0.47999999
10.993 -4.0149999 0.48100001
11.049 -4.0029998 0.484
11.081 -3.983 0.48500001
11.081 -3.95 0.48500001
11.1 -3.925 0.486
11.141 -3.9070001 0.48699999
11.187 -3.8900001 0.48899999
11.2 -3.862 0.49000001
11.205 -3.8310001 0.49000001
11.266 -3.819 0.493
11.284 -3.7920001 0.493
11.298 -3.7639999 0.49399999
11.312 -3.7360001 0.495
11.359 -3.7179999 0.49700001
11.383 -3.6930001 0.498
11.411 -3.6689999 0.49900001
11.516 -3.6700001 0.50300002
11.661 -3.6819999 0.50999999
11.631 -3.638 0.50800002
11.591 -3.592 0.50599998
11.586 -3.5569999 0.50599998
11.619 -3.533 0.50700003
11.611 -3.497 0.50700003
11.658 -3.477 0.509
11.679 -3.45 0.50999999
11.711 -3.425 0.51099998
11.719 -3.3940001 0.51200002
11.778 -3.3770001 0.514
11.816 -3.3529999 0.51599997
11.823 -3.3210001 0.51599997
11.819 -3.286 0.51599997
11.874 -3.266 0.51800001
11.941 -3.25 0.52100003
10.583 -2.8499999 0.461
10.54 -2.8080001 0.46000001
10.566 -2.7839999 0.461
10.587 -2.7590001 0.461
10.632 -2.74 0.463
10.619 -2.7060001 0.463
10.581 -2.665 0.461
10.547 -2.6259999 0.45899999
10.533 -2.592 0.45899999
10.541 -2.5639999 0.45899999
10.603 -2.5480001 0.46200001
12.408 -2.9460001 0.54000002
12.398 -2.908 0.54000002
12.465 -2.888 0.54299998
12.488 -2.8570001 0.54400003
12.591 -2.8440001 0.54799998
12.739 -2.8410001 0.55400002
10.635 -2.188 0.46200001
10.583 -2.1459999 0.46000001
10.58 -2.115 0.46000001
10.664 -2.1010001 0.463
13.515 -2.546 0.58700001
13.566 -2.517 0.58899999
13.623 -2.4879999 0.59200001
13.628 -2.45 0.59200001
13.685 -2.421 0.59399998
13.713 -2.3859999 0.59500003
13.781 -2.359 0.59799999
13.732 -2.3110001 0.59600002
13.907 -2.3 0.60399997
13.981 -2.112 0.60600001
14.028 -2.079 0.60799998
14.058 -2.043 0.60900003
14.117 -2.0109999 0.61199999
14.173 -1.978 0.61400002
14.17 -1.937 0.61400002
14.219 -1.903 0.616
14.305 -1.832 0.62
14.262 -1.786 0.61799997
14.325 -1.753 0.62
12.692 -1.189 0.54900002
12.636 -1.148 0.546
12.624 -1.1109999 0.54500002
12.669 -1.0779999 0.54699999
12.735 -1.048 0.55000001
12.438 -0.91600001 0.537
12.389 -0.87699997 0.53500003
12.413 -0.84399998 0.53600001
12.637 -0.82300001 0.54500002
12.99 0.117 0.45899999
13 0.12899999 0.45899999
12.988 0.141 0.458
12.994 0.154 0.458
12.993 0.167 0.45699999
12.971 0.17900001 0.456
12.987 0.193 0.45699999
13.002 0.207 0.45699999
13.014 0.221 0.45699999
12.988 0.235 0.456
12.993 0.25 0.456
12.986 0.26499999 0.45500001
12.969 0.28 0.45500001
12.978 0.296 0.45500001
12.967 0.31200001 0.454
12.956 0.32800001 0.45300001
12.95 0.34400001 0.45300001
12.95 0.361 0.45300001
12.955 0.37900001 0.45300001
12.931 0.39500001 0.45199999
12.939 0.414 0.45199999
12.918 0.43099999 0.45100001
12.911 0.449 0.44999999
12.913 0.46799999 0.44999999
12.897 0.48699999 0.44999999
12.892 0.50599998 0.449
12.903 0.52600002 0.449
12.887 0.54500002 0.449
12.906 0.56599998 0.449
12.915 0.58700001 0.449
12.919 0.60799998 0.449
12.939 0.63 0.44999999
12.966 0.653 0.45100001
12.984 0.676 0.45100001
13.022 0.69999999 0.45199999
13.053 0.72399998 0.45300001
13.226 0.75599998 0.45899999
11.129 0.95599997 0.38499999
11.019 0.97000003 0.382
10.986 0.99000001 0.38
10.966 1.011 0.38
10.938 1.0319999 0.37900001
10.936 1.056 0.37900001
10.934 1.079 0.37900001
10.925 1.102 0.37799999
10.941 1.128 0.37900001
10.967 1.155 0.38
11.018 1.186 0.382
11.09 1.219 0.384
11.091 1.244 0.384
11.096 1.271 0.384
11.111 1.298 0.38499999
11.126 1.326 0.38499999
11.204 1.362 0.38800001
11.415 1.415 0.396
17.246 2.138 0.59799999
17.193001 2.1730001 0.59600002
17.215 2.217 0.597
17.337 2.2750001 0.60100001
17.422001 2.329 0.60399997
17.43 2.3740001 0.60500002
17.504 2.427 0.60699999
17.523001 2.474 0.60799998
17.563999 2.5239999 0.61000001
17.546 2.5669999 0.60900003
17.615999 2.622 0.61199999
17.615 2.668 0.61199999
17.697001 2.7260001 0.61500001
17.743 2.78 0.616
17.778 2.832 0.61799997
17.861 2.8929999 0.62099999
17.891001 2.9460001 0.62199998
17.938999 3.0020001 0.62400001
18.014999 3.063 0.62699997
18.104 3.128 0.63
18.27 3.207 0.63599998
18.318001 3.266 0.63800001
18.249001 3.3039999 0.63599998
18.492001 3.4000001 0.64399999
18.476999 3.4489999 0.64399999
18.612 3.527 0.64899999
18.625 3.582 0.64999998
18.575001 3.6259999 0.648
18.617001 3.688 0.64999998
18.657 3.75 0.65200001
18.676001 3.8080001 0.653
18.691999 3.8659999 0.653
18.722 3.927 0.65499997
18.790001 3.997 0.65700001
18.778 4.0510001 0.65700001
18.808001 4.1129999 0.65899998
18.830999 4.1750002 0.66000003
18.906 4.2490001 0.66299999
18.909 4.3070002 0.66299999
18.986 4.3829999 0.66600001
19.091999 4.4660001 0.67000002
19.125 4.533 0.67199999
19.184999 4.6059999 0.67400002
19.632 4.8369999 0.69099998
19.672001 4.9089999 0.69300002
19.777 4.9980001 0.69700003
7.645 2.415 0.273
7.4770002 2.388 0.26699999
7.4109998 2.3929999 0.26499999
7.3579998 2.402 0.26300001
7.3390002 2.421 0.26199999
7.2969999 2.4330001 0.26100001
7.2779999 2.4530001 0.26100001
7.25 2.4690001 0.25999999
7.2150002 2.483 0.259
7.211 2.5079999 0.259
7.2179999 2.5369999 0.259
7.223 2.5650001 0.25999999
7.1890001 2.579 0.259
7.1500001 2.5910001 0.25799999
7.1589999 2.6210001 0.25799999
7.2859998 2.694 0.26300001
12.558 5.7649999 0.46399999
12.408 5.7459998 0.45899999
12.386 5.7870002 0.45899999
12.357 5.8239999 0.45899999
12.367 5.8800001 0.45899999
12.353 5.9239998 0.45899999
12.356 5.9759998 0.46000001
9.1129999 -5.9910002 0.428
9.165 -5.967 0.43000001
9.1899996 -5.927 0.43099999
9.2290001 -5.895 0.433
9.257 -5.8559999 0.43399999
9.283 -5.8169999 0.43399999
9.3269997 -5.789 0.43599999
9.368 -5.7589998 0.43799999
9.3900003 -5.717 0.43799999
9.4250002 -5.6830001 0.44
9.4610004 -5.6500001 0.44100001
9.4849997 -5.6110001 0.442
9.5209999 -5.5780001 0.44299999
9.54 -5.5359998 0.44400001
9.5670004 -5.4980001 0.44499999
9.6059999 -5.4679999 0.44600001
9.6440001 -5.4359999 0.44800001
9.6400003 -5.382 0.447
9.6780005 -5.3509998 0.449
9.7180004 -5.3210001 0.44999999
9.7110004 -5.2659998 0.44999999
9.7609997 -5.2420001 0.45199999
9.7930002 -5.2080002 0.45300001
9.8129997 -5.1680002 0.454
9.8590002 -5.1420002 0.456
9.8809996 -5.1030002 0.456
9.9139996 -5.0710001 0.458
9.9460001 -5.0370002 0.45899999
9.9689999 -4.9990001 0.46000001
10.01 -4.9699998 0.461
10.042 -4.9369998 0.463
10.077 -4.9060001 0.46399999
10.08 -4.8590002 0.46399999
10.126 -4.8330002 0.46599999
10.158 -4.8010001 0.46700001
10.171 -4.7589998 0.46700001
10.208 -4.7280002 0.46900001
10.237 -4.6950002 0.47
10.284 -4.6690001 0.472
10.327 -4.6420002 0.47400001
10.366 -4.6129999 0.47499999
10.407 -4.5840001 0.477
10.43 -4.5479999 0.47799999
10.455 -4.5120001 0.47799999
10.483 -4.4780002 0.47999999
10.53 -4.4530001 0.48100001
10.562 -4.421 0.48300001
10.612 -4.3959999 0.48500001
10.645 -4.3649998 0.486
10.675 -4.3319998 0.48699999
10.716 -4.303 0.48899999
10.767 -4.2789998 0.491
10.791 -4.244 0.49200001
10.907 -4.2449999 0.49700001
11.005 -4.2379999 0.50099999
11.065 -4.217 0.50400001
11.062 -4.171 0.50400001
11.055 -4.1240001 0.50300002
11.069 -4.085 0.50300002
11.083 -4.0469999 0.50400001
11.136 -4.0229998 0.50599998
11.158 -3.987 0.50700003
11.213 -3.964 0.509
11.28 -3.944 0.51200002
11.299 -3.908 0.51300001
11.334 -3.8770001 0.514
11.375 -3.848 0.51599997
11.4 -3.8139999 0.51700002
11.427 -3.7809999 0.51800001
11.461 -3.75 0.51899999
11.525 -3.7290001 0.52200001
11.558 -3.698 0.523
11.734 -3.7119999 0.53100002
11.717 -3.665 0.52999997
11.729 -3.6270001 0.53100002
11.731 -3.586 0.53100002
11.755 -3.552 0.53200001
11.794 -3.523 0.53299999
11.834 -3.494 0.53500003
11.872 -3.464 0.537
11.949 -3.4460001 0.54000002
11.999 -3.4189999 0.542
12.001 -3.3789999 0.542
12.041 -3.3499999 0.54400003
10.661 -2.931 0.48100001
10.613 -2.8829999 0.479
10.753 -2.885 0.48500001
10.607 -2.743 0.47799999
10.531 -2.6889999 0.47499999
10.504 -2.6489999 0.47299999
10.524 -2.6210001 0.47400001
10.618 -2.6110001 0.47799999
13.495 -3.029 0.60699999
13.399 -2.967 0.60299999
13.483 -2.9460001 0.60600001
10.596 -2.253 0.47600001
10.563 -2.2149999 0.47499999
10.581 -2.188 0.47499999
10.661 -2.174 0.479
13.78 -2.654 0.61900002
13.788 -2.618 0.61900002
13.821 -2.586 0.62099999
13.883 -2.5209999 0.62300003
13.906 -2.487 0.62400001
13.957 -2.4590001 0.62599999
13.939 -2.418 0.625
14.13 -2.414 0.634
14.206 -2.2409999 0.63700002
14.211 -2.2060001 0.63700002
14.184 -2.165 0.63599998
14.307 -2.148 0.64099997
14.293 -2.1099999 0.64099997
14.334 -2.0799999 0.64300001
14.349 -2.0469999 0.64300001
14.396 -1.983 0.64499998
14.351 -1.942 0.64300001
14.391 -1.9119999 0.64499998
14.475 -1.8890001 0.64899999
14.436 -1.849 0.64700001
14.543 -1.8279999 0.65200001
14.607 -1.802 0.65399998
12.907 -1.132 0.57800001
12.726 -1.089 0.56999999
12.658 -1.057 0.56699997
12.651 -1.03 0.56699997
12.634 -1.003 0.56599998
12.624 -0.97600001 0.565
12.669 -0.954 0.56699997
12.695 -0.93000001 0.56900001
12.703 -0.90499997 0.56900001
12.77 -0.88499999 0.57200003
12.482 -0.79100001 0.55900002
12.4 -0.76200002 0.55500001
12.385 -0.73699999 0.55500001
12.382 -0.713 0.55500001
12.44 -0.69300002 0.55699998
13.123 0.155 0.59100002
13.079 0.17200001 0.58899999
13.033 0.189 0.58700001
13.03 0.206 0.58700001
13.033 0.223 0.58700001
13.005 0.23899999 0.58600003
13.02 0.25600001 0.58700001
13.032 0.273 0.58700001
13.032 0.289 0.588
13.019 0.30500001 0.58700001
13.016 0.32100001 0.58700001
13.018 0.33700001 0.58700001
13.026 0.35299999 0.588
13.054 0.36899999 0.58899999
13.069 0.38499999 0.58999997
13.085 0.40000001 0.59100002
13.115 0.41600001 0.59200001
13.157 0.433 0.59399998
12.83 0.17900001 0.48699999
12.847 0.20299999 0.48699999
12.832 0.22499999 0.486
12.856 0.249 0.48699999
12.84 0.273 0.486
12.863 0.29699999 0.48699999
12.865 0.32100001 0.48699999
12.844 0.345 0.486
12.847 0.37 0.486
12.851 0.39500001 0.486
12.842 0.41999999 0.48500001
12.842 0.44600001 0.48500001
12.841 0.472 0.48500001
12.849 0.498 0.48500001
12.862 0.52499998 0.48500001
12.85 0.551 0.48500001
12.847 0.57800001 0.48500001
12.862 0.60600001 0.48500001
12.899 0.63499999 0.486
12.915 0.66299999 0.48699999
12.941 0.69300002 0.48800001
12.963 0.722 0.48800001
13.02 0.75400001 0.49000001
13.061 0.78500003 0.49200001
13.031 0.81300002 0.491
13.107 0.847 0.493
13.163 0.88099998 0.495
13.131 0.90899998 0.49399999
13.152 0.94099998 0.495
13.122 0.96899998 0.49399999
13.141 1.002 0.49399999
13.136 1.0319999 0.49399999
13.107 1.061 0.493
13.102 1.092 0.493
13.117 1.125 0.493
11.196 0.98799998 0.421
11.038 1.001 0.41499999
10.973 1.022 0.412
10.951 1.0470001 0.412
10.92 1.072 0.41
10.922 1.099 0.41
10.922 1.127 0.41
10.933 1.156 0.41100001
10.933 1.184 0.41100001
10.978 1.217 0.41299999
11.052 1.2539999 0.41499999
11.087 1.2869999 0.417
11.085 1.316 0.417
11.122 1.35 0.41800001
11.179 1.387 0.41999999
11.385 1.443 0.428
17.577 2.2279999 0.66100001
17.584 2.276 0.66100001
17.580999 2.323 0.66100001
17.604 2.3740001 0.662
17.622 2.425 0.66299999
17.635 2.4749999 0.66399997
17.667 2.5280001 0.66500002
17.754999 2.5899999 0.66799998
17.847 2.6530001 0.67199999
17.98 2.723 0.67699999
18.056999 2.786 0.68000001
18.052 2.836 0.68000001
18.094999 2.895 0.68199998
18.138 2.9530001 0.68300003
18.219999 3.0190001 0.68699998
18.304001 3.086 0.69
18.365999 3.1500001 0.69199997
18.462999 3.22 0.69599998
18.591 3.2969999 0.70099998
18.620001 3.3570001 0.70200002
18.742001 3.434 0.70700002
18.726999 3.487 0.70700002
18.790001 3.5539999 0.70899999
18.795 3.612 0.70999998
18.857 3.6800001 0.71200001
19.009001 3.767 0.71799999
19.056 3.8340001 0.72000003
19.097 3.9000001 0.722
19.169001 3.974 0.72500002
19.156 4.0289998 0.72500002
19.166 4.0910001 0.72500002
19.157 4.1479998 0.72500002
19.292 4.237 0.73100001
19.495001 4.342 0.73799998
19.549 4.415 0.741
19.552 4.4770002 0.741
19.740999 4.5819998 0.74900001
19.847 4.7950001 0.75400001
19.711 4.8249998 0.74900001
19.739 4.895 0.75
19.900999 4.9990001 0.75700003
20.785999 5.8299999 0.79400003
20.698 5.8740001 0.79100001
7.7719998 2.4400001 0.29800001
7.526 2.388 0.289
7.427 2.382 0.285
7.382 2.3929999 0.28400001
7.3520002 2.408 0.28299999
7.322 2.4230001 0.28200001
7.3000002 2.441 0.28099999
7.2719998 2.457 0.28
7.2280002 2.467 0.27900001
7.2199998 2.4890001 0.278
7.2160001 2.513 0.278
7.223 2.54 0.27900001
7.2140002 2.562 0.27900001
7.1690001 2.5710001 0.27700001
7.1399999 2.586 0.27599999
7.145 2.6129999 0.27700001
7.2529998 2.677 0.28099999
14.725 5.8530002 0.574
14.582 5.848 0.56900001
10.774 7.474 0.45699999
10.727 7.4759998 0.45500001
10.684 7.4809999 0.454
10.643 7.487 0.45300001
10.619 7.5050001 0.45199999
10.602 7.526 0.45199999
10.573 7.539 0.45100001
10.542 7.5500002 0.45100001
10.534 7.5780001 0.45100001
10.506 7.5910001 0.44999999
10.495 7.6149998 0.44999999
10.471 7.6300001 0.44999999
9.9130001 -5.875 0.48199999
9.915 -5.848 0.48199999
9.9160004 -5.8200002 0.48199999
9.9429998 -5.8070002 0.48300001
9.9619999 -5.79 0.484
9.9569998 -5.7579999 0.484
10.001 -5.7550001 0.486
9.9910002 -5.7199998 0.486
10.012 -5.7030001 0.48699999
10.009 -5.6729999 0.48699999
10.023 -5.652 0.48699999
10.05 -5.638 0.48800001
10.04 -5.6030002 0.48800001
10.053 -5.5819998 0.48899999
10.076 -5.5650001 0.49000001
10.086 -5.5409999 0.49000001
10.103 -5.5209999 0.491
10.146 -5.5149999 0.493
10.161 -5.494 0.49399999
10.166 -5.467 0.49399999
10.184 -5.447 0.495
10.236 -5.4450002 0.49700001
10.239 -5.4169998 0.49700001
10.272 -5.4039998 0.49900001
10.308 -5.3930001 0.50099999
10.239 -5.3280001 0.49700001
10.285 -5.322 0.49900001
10.313 -5.3060002 0.50099999
10.32 -5.2800002 0.50099999
10.342 -5.2610002 0.50199997
10.35 -5.2350001 0.50199997
10.357 -5.2080002 0.50300002
10.376 -5.1869998 0.50400001
10.407 -5.1719999 0.505
10.444 -5.1599998 0.50700003
10.47 -5.1420002 0.50800002
10.467 -5.1110001 0.50800002
10.472 -5.0819998 0.50800002
10.479 -5.0549998 0.50800002
10.515 -5.0419998 0.50999999
10.53 -5.0180001 0.51099998
10.57 -5.006 0.51300001
10.597 -4.9879999 0.514
10.592 -4.9549999 0.514
10.629 -4.941 0.51499999
10.646 -4.9180002 0.51599997
10.679 -4.902 0.51800001
10.678 -4.8699999 0.51800001
10.703 -4.8499999 0.51899999
10.748 -4.8390002 0.52100003
10.75 -4.809 0.52100003
10.777 -4.789 0.52200001
10.775 -4.756 0.52200001
10.794 -4.7340002 0.523
10.849 -4.7259998 0.52600002
10.862 -4.6989999 0.52600002
10.901 -4.6849999 0.528
10.923 -4.6620002 0.52899998
10.929 -4.6329999 0.52899998
10.954 -4.6110001 0.52999997
10.958 -4.5809999 0.52999997
10.982 -4.559 0.53200001
11.021 -4.5430002 0.53299999
11.05 -4.5219998 0.53500003
11.085 -4.5040002 0.53600001
11.095 -4.4759998 0.537
11.114 -4.4510002 0.53799999
11.184 -4.4460001 0.54100001
11.234 -4.4330001 0.54299998
11.39 -4.395 0.551
11.333 -4.3400002 0.54799998
11.294 -4.2919998 0.546
11.302 -4.2620001 0.546
11.333 -4.2399998 0.54799998
11.364 -4.2189999 0.54900002
11.371 -4.1880002 0.54900002
11.397 -4.165 0.551
11.43 -4.1430001 0.55199999
11.44 -4.1129999 0.55299997
11.456 -4.086 0.55299997
11.5 -4.0679998 0.55500001
11.523 -4.0430002 0.55599999
11.558 -4.0209999 0.55800003
11.566 -3.99 0.55800003
11.586 -3.9630001 0.55900002
11.615 -3.9389999 0.56099999
11.609 -3.9030001 0.56
11.657 -3.885 0.56199998
11.664 -3.8540001 0.56300002
11.728 -3.8410001 0.56599998
11.772 -3.8210001 0.56800002
11.768 -3.7850001 0.56699997
11.833 -3.7720001 0.57099998
11.96 -3.777 0.57700002
11.944 -3.7379999 0.57599998
11.933 -3.6989999 0.57499999
11.986 -3.681 0.57800001
11.976 -3.6429999 0.57700002
11.974 -3.608 0.57700002
12.033 -3.5899999 0.57999998
12.059 -3.563 0.58099997
12.1 -3.54 0.583
12.149 -3.5190001 0.58499998
12.214 -3.503 0.588
12.263 -3.4809999 0.58999997
12.271 -3.448 0.59100002
12.358 -3.4360001 0.59500003
12.477 -3.4330001 0.60000002
10.643 -2.6819999 0.51099998
10.544 -2.6259999 0.50700003
10.509 -2.5869999 0.505
10.511 -2.5569999 0.505
10.548 -2.536 0.50700003
10.713 -2.5439999 0.514
13.422 -3.1099999 0.64399999
13.483 -3.085 0.64700001
13.451 -3.039 0.64600003
13.47 -3.0039999 0.64600003
13.544 -2.9820001 0.64999998
13.57 -2.948 0.65100002
13.615 -2.9189999 0.653
13.65 -2.8870001 0.65499997
10.749 -2.2420001 0.51499999
10.591 -2.1789999 0.50800002
10.576 -2.145 0.50700003
10.594 -2.118 0.50800002
10.773 -2.1229999 0.51599997
13.963 -2.631 0.66900003
13.97 -2.592 0.66900003
14.096 -2.575 0.67500001
13.99 -2.5150001 0.67000002
14.066 -2.4879999 0.67299998
14.119 -2.457 0.676
14.133 -2.4189999 0.676
14.213 -2.391 0.68000001
14.317 -2.244 0.685
14.34 -2.207 0.68599999
14.447 -2.1819999 0.69099998
14.463 -2.1429999 0.69099998
14.525 -2.1099999 0.69400001
14.525 -2.0680001 0.69400001
14.524 -2.026 0.69400001
14.548 -1.988 0.69499999
14.565 -1.949 0.69599998
14.688 -1.923 0.70099998
12.707 -1.1900001 0.60500002
12.648 -1.148 0.602
12.613 -1.109 0.60000002
12.639 -1.075 0.602
12.655 -1.04 0.602
12.689 -1.006 0.60399997
12.423 -0.91399997 0.59100002
12.382 -0.87599999 0.58899999
12.378 -0.83999997 0.58899999
12.55 -0.81599998 0.597
12.944 0.23100001 0.61199999
12.903 0.26699999 0.61000001
12.895 0.30399999 0.60900003
12.887 0.34099999 0.60900003
12.889 0.37799999 0.60900003
12.878 0.414 0.60799998
12.883 0.45100001 0.60799998
12.886 0.48800001 0.60799998
12.893 0.52499998 0.60799998
12.882 0.56199998 0.60799998
12.892 0.59899998 0.60799998
12.891 0.63599998 0.60799998
12.904 0.67299998 0.60799998
12.905 0.70999998 0.60799998
12.9 0.74699998 0.60799998
12.918 0.78500003 0.60799998
12.911 0.82200003 0.60799998
12.915 0.85900003 0.60799998
12.903 0.89499998 0.60699999
12.782 0.119 0.51200002
12.787 0.13 0.51200002
12.795 0.142 0.51200002
12.789 0.154 0.51099998
12.783 0.167 0.51099998
12.781 0.17900001 0.51099998
12.777 0.193 0.50999999
12.768 0.206 0.509
12.762 0.22 0.509
12.759 0.234 0.509
12.756 0.248 0.50800002
12.747 0.26300001 0.50800002
12.752 0.278 0.50700003
12.746 0.29300001 0.50700003
12.749 0.30899999 0.50700003
12.747 0.32499999 0.50700003
12.751 0.34099999 0.50700003
12.749 0.35800001 0.50599998
12.741 0.375 0.50599998
12.748 0.39199999 0.50599998
12.739 0.40900001 0.505
12.733 0.42699999 0.505
12.727 0.44499999 0.50400001
12.72 0.463 0.50400001
12.731 0.48199999 0.50400001
12.722 0.50099999 0.50400001
12.729 0.52100003 0.50400001
12.716 0.54000002 0.50300002
12.724 0.56 0.50300002
12.714 0.57999998 0.50300002
12.705 0.60000002 0.50199997
12.706 0.62099999 0.50199997
12.711 0.64200002 0.50199997
12.738 0.66500002 0.50300002
12.77 0.68800002 0.50400001
12.846 0.71399999 0.50700003
12.895 0.73900002 0.509
12.931 0.764 0.50999999
12.95 0.78799999 0.51099998
12.961 0.81300002 0.51099998
12.962 0.83600003 0.51099998
12.957 0.86000001 0.51099998
12.956 0.884 0.51099998
12.942 0.90799999 0.50999999
12.935 0.93199998 0.50999999
12.917 0.95599997 0.509
12.906 0.98000002 0.509
12.905 1.006 0.509
12.926 1.033 0.50999999
12.913 1.058 0.509
12.932 1.086 0.50999999
11.2 0.96399999 0.44100001
11.038 0.97299999 0.435
10.975 0.99000001 0.433
10.952 1.011 0.43200001
10.936 1.033 0.43099999
10.933 1.056 0.43099999
10.913 1.0779999 0.43000001
10.916 1.102 0.43000001
10.927 1.128 0.43099999
10.938 1.153 0.43099999
10.952 1.179 0.43200001
11 1.21 0.43399999
11.064 1.242 0.43599999
11.089 1.271 0.43700001
11.113 1.299 0.43799999
11.193 1.335 0.442
18.478001 2.2479999 0.72899997
18.452 2.289 0.72799999
18.538 2.3440001 0.73199999
18.632999 2.401 0.736
18.601 2.4419999 0.73500001
18.636 2.493 0.736
18.653999 2.5409999 0.73699999
18.743999 2.6010001 0.741
18.785999 2.654 0.74299997
18.816999 2.7060001 0.74400002
18.811001 2.753 0.74400002
18.863001 2.809 0.74599999
18.844 2.855 0.74599999
18.910999 2.914 0.74900001
18.865999 2.957 0.74699998
18.966999 3.023 0.75099999
19.021999 3.082 0.75400001
19.034 3.135 0.75400001
18.987 3.178 0.75300002
19.08 3.2449999 0.75700003
19.091999 3.299 0.75800002
19.114 3.3559999 0.759
19.167 3.418 0.76099998
19.197001 3.477 0.76300001
19.250999 3.54 0.76499999
19.253 3.595 0.76499999
19.313 3.6600001 0.76800001
19.474001 3.7460001 0.77499998
19.601 3.8269999 0.77999997
19.683001 3.8989999 0.78399998
19.653999 3.951 0.78299999
19.761999 4.0300002 0.78799999
19.694 5.23 0.79400003
19.763 5.3119998 0.79799998
19.715 5.3639998 0.796
7.6900001 2.4289999 0.31299999
7.4809999 2.3889999 0.30500001
7.4159999 2.395 0.303
7.375 2.4070001 0.301
7.3499999 2.425 0.301
7.316 2.4400001 0.29899999
7.2940001 2.4579999 0.29899999
7.2379999 2.4649999 0.29699999
7.2210002 2.4849999 0.296
7.2010002 2.5050001 0.296
7.224 2.539 0.29699999
7.1960001 2.5550001 0.296
7.151 2.5650001 0.29499999
7.1269999 2.5829999 0.294
7.1810002 2.628 0.296
7.3959999 2.7349999 0.30599999
14.82 5.7579999 0.616
14.778 5.7969999 0.61500001
14.617 5.789 0.60900003
14.539 5.8140001 0.60600001
14.739 5.9510002 0.61500001
11.021 7.0349998 0.49399999
10.939 7.0349998 0.491
10.894 7.0570002 0.49000001
10.838 7.072 0.48800001
10.825 7.1139998 0.48899999
10.784 7.1389999 0.48800001
10.762 7.1760001 0.48699999
10.737 7.21 0.48699999
10.683 7.2249999 0.48500001
10.666 7.2649999 0.48500001
10.627 7.29 0.484
10.606 7.3270001 0.484
10.582 7.362 0.484
10.547 7.3889999 0.48300001
10.523 7.4239998 0.48300001
10.495 7.4549999 0.48199999
10.461 7.4819999 0.48199999
10.422 7.506 0.48100001
9.4429998 -6.2059999 0.48800001
9.4940004 -6.1799998 0.49000001
9.5279999 -6.1430001 0.49200001
9.5509996 -6.099 0.49200001
9.5959997 -6.0689998 0.49399999
9.6219997 -6.0279999 0.495
9.6660004 -5.9980001 0.49700001
9.6940002 -5.9580002 0.498
9.7349997 -5.9250002 0.5
9.75 -5.8779998 0.5
9.7939997 -5.848 0.50199997
9.8269997 -5.8119998 0.50400001
9.8590002 -5.7750001 0.505
9.8889999 -5.737 0.50599998
9.9119997 -5.6950002 0.50700003
9.9510002 -5.6620002 0.509
9.9980001 -5.6339998 0.51099998
10.034 -5.5999999 0.51200002
10.059 -5.5609999 0.51300001
10.079 -5.5180001 0.514
10.159 -5.5079999 0.51700002
10.143 -5.4460001 0.51599997
10.159 -5.402 0.51700002
10.202 -5.3720002 0.51899999
10.253 -5.3460002 0.52100003
10.286 -5.3109999 0.52200001
10.305 -5.2690001 0.523
10.343 -5.237 0.52499998
10.364 -5.1960001 0.52499998
10.385 -5.1560001 0.52600002
10.435 -5.1300001 0.528
10.462 -5.092 0.52899998
10.516 -5.0689998 0.53200001
10.537 -5.0279999 0.53299999
10.569 -4.994 0.53399998
10.615 -4.9660001 0.53600001
10.648 -4.9320002 0.537
10.681 -4.8969998 0.53899997
10.716 -4.8639998 0.54000002
10.755 -4.8330002 0.542
10.812 -4.8099999 0.54500002
10.824 -4.7670002 0.54500002
10.847 -4.7290001 0.546
10.898 -4.7030001 0.54799998
10.923 -4.6659999 0.54900002
10.979 -4.6420002 0.55199999
11.015 -4.6100001 0.55299997
11.04 -4.573 0.55400002
11.084 -4.5440001 0.55599999
11.101 -4.5040002 0.55699998
11.147 -4.4759998 0.55900002
11.173 -4.4400001 0.56
11.226 -4.415 0.56199998
11.307 -4.4000001 0.56599998
11.404 -4.3909998 0.57099998
11.612 -4.4239998 0.58099997
11.442 -4.3130002 0.57200003
11.416 -4.2579999 0.57099998
11.439 -4.2210002 0.57200003
11.481 -4.1919999 0.574
11.499 -4.1529999 0.574
11.547 -4.1259999 0.57700002
11.569 -4.0890002 0.57700002
11.628 -4.066 0.57999998
11.665 -4.0339999 0.58200002
11.676 -3.994 0.58200002
11.715 -3.9630001 0.58399999
11.779 -3.941 0.58700001
11.8 -3.904 0.588
11.847 -3.8759999 0.58999997
11.92 -3.8570001 0.59299999
11.933 -3.8169999 0.59399998
12.046 -3.8099999 0.59899998
12.179 -3.766 0.60500002
12.19 -3.7260001 0.60600001
12.228 -3.6949999 0.60799998
12.355 -3.6900001 0.61400002
12.32 -3.6370001 0.61199999
12.488 -3.6429999 0.62
12.6 -3.6329999 0.625
12.666 -3.609 0.62800002
13.332 -3.5339999 0.66100001
13.456 -3.523 0.66600001
10.619 -2.7119999 0.52600002
10.516 -2.652 0.51999998
10.483 -2.6099999 0.51899999
10.502 -2.582 0.51899999
10.6 -2.573 0.52399999
13.576 -3.2119999 0.671
13.634 -3.184 0.67400002
13.621 -3.1389999 0.67299998
13.688 -3.1129999 0.676
13.686 -3.072 0.676
13.744 -3.0439999 0.67900002
13.805 -3.016 0.68199998
13.925 -3.0020001 0.68800002
10.609 -2.256 0.52399999
10.56 -2.214 0.52100003
10.566 -2.1849999 0.52100003
10.627 -2.1670001 0.52399999
14.117 -2.799 0.69599998
14.132 -2.7620001 0.69700003
14.229 -2.7409999 0.70200002
14.184 -2.6930001 0.699
14.237 -2.664 0.70200002
14.319 -2.5999999 0.70599997
14.294 -2.5569999 0.704
14.357 -2.53 0.70700002
14.425 -2.503 0.71100003
14.426 -2.4649999 0.71100003
14.598 -2.3789999 0.71899998
14.562 -2.335 0.71700001
14.506 -2.289 0.71399999
14.566 -2.2609999 0.71700001
14.639 -2.2349999 0.72100002
14.636 -2.198 0.72000003
14.754 -2.178 0.72600001
14.705 -2.1340001 0.72399998
14.791 -2.1099999 0.72799999
14.782 -2.036 0.727
14.843 -2.0079999 0.73000002
12.767 -1.0140001 0.62699997
12.672 -0.98000002 0.62300003
12.699 -0.95599997 0.62400001
12.742 -0.93400002 0.62599999
12.675 -0.90399998 0.62300003
12.633 -0.875 0.62099999
12.637 -0.85100001 0.62099999
12.599 -0.82300001 0.61900002
12.467 -0.79000002 0.61299998
12.396 -0.76200002 0.60900003
12.36 -0.736 0.60799998
12.379 -0.71399999 0.60799998
12.415 -0.69199997 0.61000001
12.989 0.082999997 0.64099997
12.874 0.1 0.63499999
12.839 0.117 0.634
12.817 0.134 0.63300002
12.817 0.152 0.63300002
12.824 0.169 0.63300002
12.825 0.186 0.63300002
