# .PCD v0.7 - Point Cloud Data file format
VERSION 0.7
FIELDS x y z
SIZE 4 4 4
TYPE F F F
COUNT 1 1 1
WIDTH 1833
HEIGHT 1
VIEWPOINT 0 0 0 1 0 0 0
POINTS 1833
DATA ascii
14.29 1.283 0.289
14.332 1.318 0.289
14.345 1.35 0.28999999
14.368 1.383 0.28999999
14.363 1.414 0.28999999
14.405 1.45 0.28999999
14.572 1.499 0.294
14.595 1.534 0.294
14.619 1.5700001 0.29499999
14.597 1.601 0.294
14.553 1.6289999 0.29300001
14.601 1.668 0.294
14.615 1.704 0.294
14.612 1.738 0.294
14.676 1.781 0.29499999
14.705 1.8200001 0.296
14.686 1.853 0.29499999
14.734 1.8940001 0.296
14.739 1.931 0.296
14.781 1.973 0.29699999
14.84 2.0179999 0.29800001
14.902 2.0639999 0.29899999
14.901 2.1010001 0.29899999
14.921 2.142 0.30000001
14.982 2.1889999 0.301
15.025 2.234 0.30199999
15.075 2.28 0.303
15.1 2.3239999 0.303
15.147 2.3710001 0.30399999
15.165 2.414 0.30399999
15.173 2.4549999 0.30399999
15.177 2.497 0.30500001
15.215 2.5439999 0.30500001
15.247 2.5910001 0.30599999
15.252 2.6329999 0.30599999
15.316 2.6860001 0.30700001
15.336 2.7320001 0.308
15.357 2.779 0.308
15.439 2.8369999 0.31
12.83 2.3929999 0.257
12.652 2.3959999 0.25400001
11.026 2.1199999 0.221
10.831 2.1129999 0.21699999
10.757 2.1300001 0.21600001
10.725 2.155 0.215
10.725 2.1860001 0.215
10.73 2.2179999 0.215
10.765 2.257 0.21600001
10.807 2.2980001 0.21699999
10.858 2.3410001 0.21799999
10.81 2.3629999 0.21699999
10.789 2.391 0.21600001
10.785 2.4230001 0.21600001
10.825 2.4649999 0.21699999
10.995 2.5380001 0.221
16.166 3.7309999 0.32499999
16.132999 3.773 0.324
16.169001 3.832 0.32499999
16.190001 3.8870001 0.32499999
16.281 3.96 0.32699999
16.35 4.0279999 0.329
16.351999 4.0799999 0.329
16.343 4.1300001 0.329
16.417 4.2010002 0.33000001
16.403 4.25 0.33000001
16.49 4.3260002 0.33199999
16.459999 4.3709998 0.331
16.530001 4.4429998 0.333
16.608999 4.5190001 0.33500001
16.691999 4.5960002 0.336
16.75 4.6669998 0.338
16.860001 4.7540002 0.34
16.856001 4.809 0.34
16.863001 4.8670001 0.34
16.951 4.9499998 0.34200001
16.989 5.0180001 0.34299999
17.028999 5.0879998 0.34400001
17.143999 5.1810002 0.34599999
17.224001 5.2639999 0.34799999
17.264999 5.336 0.34900001
17.417 5.4429998 0.352
17.41 5.5009999 0.352
17.450001 5.5749998 0.35299999
17.469 5.6420002 0.354
17.493999 5.7119999 0.354
17.493999 5.7729998 0.35499999
17.511 5.8410001 0.35499999
17.771 5.9910002 0.36000001
17.695 6.0289998 0.359
17.805 6.1300001 0.361
8.3529997 3.089 0.17
8.2200003 3.0710001 0.167
8.1470003 3.0739999 0.16599999
8.1239996 3.096 0.16599999
8.1140003 3.122 0.16500001
8.1079998 3.151 0.16500001
8.118 3.1849999 0.16599999
8.1350002 3.223 0.16599999
8.1669998 3.267 0.167
8.1829996 3.3039999 0.167
8.1999998 3.3429999 0.168
8.2609997 3.4000001 0.169
8.3660002 3.4760001 0.171
13.25 5.5050001 0.27200001
8.4259996 3.533 0.17299999
12.938 5.4260001 0.26499999
12.812 5.4229999 0.26300001
12.717 5.4330001 0.26100001
12.577 5.4219999 0.259
12.51 5.4429998 0.257
12.618 5.54 0.25999999
12.277 5.8379998 0.25400001
12.262 5.882 0.25400001
12.275 6.4050002 0.257
12.271 6.4559999 0.257
12.35 6.5500002 0.259
8.4119997 -5.5349998 0.27599999
8.4429998 -5.5019999 0.27700001
8.4799995 -5.474 0.278
8.5249996 -5.4499998 0.27900001
8.5389996 -5.4070001 0.28
8.5670004 -5.3730001 0.28
8.6079998 -5.3470001 0.28099999
8.6269999 -5.3080001 0.28200001
8.651 -5.2709999 0.28299999
8.6829996 -5.2410002 0.28299999
8.7130003 -5.2080002 0.28400001
8.7290001 -5.1680002 0.285
8.7559996 -5.1339998 0.285
8.79 -5.105 0.28600001
8.8299999 -5.079 0.287
8.8559999 -5.0450001 0.28799999
8.8719997 -5.0050001 0.28799999
8.9029999 -4.974 0.289
8.9429998 -4.948 0.28999999
8.9589996 -4.9089999 0.29100001
9.0290003 -4.9000001 0.29300001
9.0760002 -4.8779998 0.294
9.0550003 -4.8189998 0.29300001
9.0649996 -4.7779999 0.294
9.0819998 -4.7399998 0.294
9.1049995 -4.7059999 0.29499999
9.1239996 -4.6700001 0.29499999
9.1529999 -4.6389999 0.296
9.1739998 -4.6040001 0.296
9.1999998 -4.5710001 0.29699999
9.2290001 -4.5409999 0.29800001
9.2600002 -4.5110002 0.29899999
9.2849998 -4.4790001 0.29899999
9.3360004 -4.4590001 0.301
9.3640003 -4.428 0.30199999
9.3730001 -4.388 0.30199999
9.4169998 -4.3649998 0.303
9.408 -4.3169999 0.303
9.4399996 -4.289 0.30399999
9.4779997 -4.263 0.30500001
9.5109997 -4.2340002 0.30599999
9.5299997 -4.1999998 0.30599999
9.5459995 -4.165 0.30700001
9.5629997 -4.1300001 0.30700001
9.5839996 -4.0970001 0.308
9.6210003 -4.0710001 0.30899999
9.6470003 -4.04 0.30899999
9.6870003 -4.0149999 0.31
9.7270002 -3.99 0.31200001
9.75 -3.9579999 0.31200001
9.7580004 -3.921 0.31200001
9.7860003 -3.891 0.31299999
9.7980003 -3.855 0.31299999
9.8380003 -3.8310001 0.315
9.8859997 -3.809 0.31600001
9.8900003 -3.77 0.31600001
9.9320002 -3.747 0.317
9.9650002 -3.7190001 0.31799999
10.005 -3.694 0.31999999
10.039 -3.6670001 0.32100001
10.042 -3.6289999 0.32100001
10.077 -3.602 0.322
10.103 -3.573 0.322
10.13 -3.543 0.32300001
10.161 -3.516 0.324
10.2 -3.49 0.32499999
10.217 -3.4579999 0.32600001
10.254 -3.4319999 0.32699999
10.279 -3.402 0.32699999
10.294 -3.3699999 0.32800001
10.343 -3.348 0.329
10.444 -3.3429999 0.33199999
10.432 -3.3010001 0.33199999
10.44 -3.266 0.33199999
10.457 -3.234 0.333
10.467 -3.2 0.333
10.492 -3.171 0.33399999
10.525 -3.1440001 0.33500001
10.559 -3.118 0.336
10.631 -3.102 0.338
10.707 -3.0880001 0.34
10.719 -3.0550001 0.34099999
10.74 -3.0250001 0.34099999
10.794 -3.0039999 0.34299999
10.815 -2.974 0.34299999
10.872 -2.9530001 0.345
10.923 -2.931 0.347
10.96 -2.905 0.34799999
10.992 -2.878 0.34900001
11.026 -2.8510001 0.34999999
11.111 -2.8380001 0.352
11.16 -2.8150001 0.354
11.219 -2.7939999 0.35600001
11.27 -2.7709999 0.35699999
11.304 -2.744 0.35800001
11.313 -2.7119999 0.359
11.348 -2.6849999 0.36000001
11.361 -2.6530001 0.36000001
11.398 -2.6270001 0.361
11.484 -2.612 0.36399999
11.486 -2.5780001 0.36399999
11.498 -2.546 0.36399999
11.561 -2.526 0.366
11.639 -2.5090001 0.36899999
11.667 -2.48 0.36899999
11.699 -2.4530001 0.37
11.735 -2.427 0.37200001
11.778 -2.402 0.373
11.852 -2.3829999 0.375
11.878 -2.355 0.37599999
11.906 -2.326 0.377
11.936 -2.299 0.37799999
11.988 -2.276 0.37900001
12.015 -2.247 0.38
12.087 -2.227 0.382
12.076 -2.1919999 0.382
12.135 -2.1700001 0.384
12.138 -2.138 0.384
12.21 -2.118 0.38600001
12.237 -2.0899999 0.38699999
12.227 -2.056 0.38699999
12.282 -2.033 0.38800001
12.342 -2.01 0.38999999
12.408 -1.989 0.39199999
12.554 -1.948 0.39700001
12.464 -1.902 0.39399999
12.464 -1.87 0.39399999
12.525 -1.848 0.396
12.537 -1.819 0.396
12.593 -1.795 0.398
12.656 -1.773 0.40000001
12.687 -1.7460001 0.40099999
12.724 -1.721 0.40200001
12.727 -1.6900001 0.40200001
12.776 -1.666 0.40400001
12.818 -1.641 0.405
12.904 -1.6210001 0.40799999
12.95 -1.596 0.41
13.73 0.186 0.32300001
13.751 0.211 0.324
13.767 0.236 0.324
13.774 0.26100001 0.324
13.814 0.287 0.324
13.816 0.31299999 0.324
13.803 0.33899999 0.324
13.841 0.36700001 0.324
13.844 0.39300001 0.324
13.843 0.41999999 0.324
13.851 0.44800001 0.324
13.871 0.47600001 0.324
13.868 0.50400001 0.324
13.881 0.53299999 0.324
13.915 0.56300002 0.32499999
13.915 0.59200001 0.32499999
13.892 0.62 0.324
13.9 0.64999998 0.324
13.908 0.68000001 0.324
13.946 0.71200001 0.32499999
13.931 0.741 0.324
13.951 0.773 0.32499999
13.968 0.80500001 0.32499999
13.995 0.83700001 0.32499999
14.009 0.87 0.32499999
14.036 0.903 0.32600001
14.055 0.93699998 0.32600001
14.088 0.97100002 0.32699999
13.592 1.097 0.315
13.592 1.13 0.315
13.604 1.164 0.315
14.395 1.302 0.333
14.352 1.334 0.33199999
14.403 1.374 0.333
14.4 1.41 0.333
14.41 1.448 0.333
14.461 1.489 0.33399999
14.58 1.539 0.336
14.709 1.59 0.33899999
14.711 1.6289999 0.33899999
14.694 1.665 0.33899999
14.685 1.7029999 0.33899999
14.695 1.742 0.33899999
14.744 1.7869999 0.34
14.764 1.829 0.34
14.799 1.873 0.34099999
14.855 1.92 0.34200001
14.914 1.9680001 0.34299999
14.892 2.006 0.34299999
14.976 2.0580001 0.345
15.014 2.105 0.345
15.098 2.158 0.347
15.142 2.207 0.34799999
15.179 2.2550001 0.34900001
15.196 2.3 0.34900001
15.264 2.3529999 0.35100001
15.263 2.3970001 0.35100001
15.316 2.448 0.352
15.361 2.5 0.35299999
15.366 2.5450001 0.35299999
15.44 2.602 0.35499999
15.462 2.6500001 0.35499999
15.492 2.7 0.35600001
15.526 2.7520001 0.35699999
15.591 2.809 0.35800001
15.617 2.8599999 0.359
15.668 2.9159999 0.36000001
15.854 2.9979999 0.36399999
11.078 2.128 0.25400001
10.826 2.112 0.248
10.745 2.1289999 0.24699999
10.706 2.1530001 0.24600001
10.72 2.1889999 0.24600001
10.735 2.224 0.24600001
10.778 2.266 0.24699999
10.834 2.312 0.249
10.827 2.3440001 0.248
10.785 2.368 0.248
10.76 2.3959999 0.24699999
10.813 2.4419999 0.248
10.942 2.5050001 0.25099999
16.621 3.8050001 0.382
16.513 3.832 0.37900001
16.554001 3.8940001 0.38
16.556 3.947 0.38
16.664 4.026 0.38299999
16.771999 4.105 0.38499999
16.792999 4.164 0.38600001
16.872999 4.2379999 0.38800001
16.882 4.2950001 0.38800001
16.899 4.3540001 0.38800001
16.955999 4.4229999 0.38999999
17.049 4.5029998 0.39199999
17.07 4.5640001 0.39300001
17.136999 4.638 0.39399999
17.115 4.6880002 0.39399999
17.186001 4.7639999 0.39500001
17.259001 4.8410001 0.39700001
17.403 4.9390001 0.40099999
17.540001 5.0359998 0.40400001
17.572001 5.1040001 0.405
17.608 5.1729999 0.40599999
17.664 5.2490001 0.40700001
17.782 5.3439999 0.41
17.837999 5.4200001 0.41100001
17.889999 5.4959998 0.412
17.993999 5.5890002 0.41499999
18.004999 5.6539998 0.41499999
18.041 5.7259998 0.41600001
18.091999 5.8039999 0.417
18.099001 5.868 0.41800001
18.034 5.908 0.41600001
18.134001 6.0029998 0.419
18.169001 6.0780001 0.41999999
18.368999 6.2080002 0.42399999
18.466999 6.3049998 0.42699999
8.3450003 3.082 0.193
8.2069998 3.059 0.19
8.1560001 3.069 0.189
8.1239996 3.086 0.18799999
8.1049995 3.1070001 0.18799999
8.0839996 3.128 0.18700001
8.0710001 3.151 0.18700001
8.0760002 3.1819999 0.18700001
8.0749998 3.21 0.18700001
8.0799999 3.2409999 0.18799999
8.1090002 3.2809999 0.18799999
8.118 3.3139999 0.189
8.151 3.3570001 0.19
8.2110004 3.411 0.191
8.3079996 3.4809999 0.193
8.3769999 3.54 0.19499999
12.903 5.4530001 0.301
8.6099997 3.6689999 0.20100001
12.784 5.4489999 0.29800001
12.735 5.473 0.29699999
12.639 5.4780002 0.29499999
12.567 5.4920001 0.29300001
12.695 5.5939999 0.29699999
9.0139999 -5.329 0.31299999
9.04 -5.3189998 0.31400001
9.0249996 -5.2849998 0.31299999
9.0559998 -5.276 0.31400001
9.0719995 -5.2600002 0.315
9.0699997 -5.2329998 0.315
9.0839996 -5.2150002 0.315
9.092 -5.1929998 0.31600001
9.1009998 -5.1729999 0.31600001
9.1199999 -5.1570001 0.317
9.1459999 -5.1459999 0.317
9.1610003 -5.1269999 0.31799999
9.1739998 -5.1079998 0.31799999
9.1730003 -5.0809999 0.31799999
9.184 -5.0609999 0.31900001
9.2139997 -5.0510001 0.31999999
9.2119999 -5.0229998 0.31999999
9.2299995 -5.006 0.31999999
9.2530003 -4.9920001 0.32100001
9.2679996 -4.973 0.322
9.2770004 -4.9510002 0.322
9.2910004 -4.9320002 0.32300001
9.2969999 -4.908 0.32300001
9.3109999 -4.8889999 0.32300001
9.3059998 -4.8590002 0.32300001
9.3459997 -4.8530002 0.324
9.3540001 -4.8299999 0.32499999
9.368 -4.8099999 0.32499999
9.3789997 -4.7880001 0.32600001
9.4110003 -4.777 0.32699999
9.4250002 -4.757 0.32699999
9.4329996 -4.7340002 0.32699999
9.46 -4.7199998 0.32800001
9.4709997 -4.698 0.329
9.4829998 -4.6760001 0.329
9.4980001 -4.6560001 0.33000001
9.5010004 -4.6300001 0.33000001
9.5279999 -4.6149998 0.331
9.5450001 -4.5949998 0.331
9.5620003 -4.5760002 0.33199999
9.5719995 -4.553 0.33199999
9.5900002 -4.5339999 0.333
9.6009998 -4.5110002 0.333
9.6129999 -4.4879999 0.33399999
9.6289997 -4.4679999 0.33399999
9.6400003 -4.4450002 0.33500001
9.658 -4.4250002 0.33500001
9.6680002 -4.401 0.336
9.6990004 -4.3870001 0.33700001
9.717 -4.3670001 0.33700001
9.7259998 -4.3429999 0.33700001
9.743 -4.322 0.338
9.7659998 -4.3039999 0.33899999
9.7790003 -4.2810001 0.33899999
9.7869997 -4.256 0.34
9.8039999 -4.2350001 0.34
9.823 -4.2140002 0.34099999
9.8369999 -4.1919999 0.34099999
9.8549995 -4.1700001 0.34200001
9.8620005 -4.145 0.34200001
9.8889999 -4.1269999 0.34299999
9.9060001 -4.105 0.34400001
9.9230003 -4.0840001 0.34400001
9.9589996 -4.0689998 0.345
9.9530001 -4.0380001 0.345
9.9790001 -4.0190001 0.34599999
9.9890003 -3.994 0.34599999
10.019 -3.977 0.347
10.049 -3.96 0.34799999
10.044 -3.928 0.34799999
10.062 -3.9059999 0.34900001
10.087 -3.8859999 0.34999999
10.101 -3.8629999 0.34999999
10.157 -3.8540001 0.352
10.156 -3.8239999 0.352
10.185 -3.8050001 0.35299999
10.196 -3.78 0.35299999
10.202 -3.753 0.354
10.212 -3.7260001 0.354
10.215 -3.698 0.354
10.238 -3.677 0.35499999
10.282 -3.6619999 0.35600001
10.286 -3.6340001 0.35600001
10.302 -3.609 0.35699999
10.317 -3.5840001 0.35800001
10.34 -3.563 0.35800001
10.386 -3.5480001 0.36000001
10.4 -3.523 0.36000001
10.416 -3.4979999 0.361
10.439 -3.4749999 0.36199999
10.474 -3.4560001 0.36300001
10.499 -3.434 0.36399999
10.514 -3.4089999 0.36399999
10.569 -3.3959999 0.366
10.604 -3.3759999 0.36700001
10.629 -3.3529999 0.368
10.63 -3.323 0.368
10.632 -3.293 0.368
10.647 -3.266 0.36899999
10.658 -3.2390001 0.36899999
10.687 -3.217 0.37
10.741 -3.2019999 0.37200001
10.765 -3.178 0.373
10.822 -3.1630001 0.375
10.883 -3.1489999 0.377
10.893 -3.1210001 0.377
10.916 -3.096 0.37799999
10.93 -3.0680001 0.37799999
10.959 -3.0450001 0.37900001
11.042 -3.036 0.382
11.071 -3.0120001 0.38299999
11.125 -2.994 0.38499999
11.129 -2.9630001 0.38499999
11.147 -2.9360001 0.38600001
11.191 -2.915 0.38699999
11.264 -2.901 0.38999999
11.255 -2.8659999 0.389
11.292 -2.8429999 0.38999999
11.322 -2.8180001 0.391
11.372 -2.7980001 0.39300001
11.448 -2.7839999 0.396
11.488 -2.76 0.39700001
11.485 -2.7260001 0.39700001
11.549 -2.7079999 0.39899999
11.586 -2.6830001 0.40000001
11.602 -2.654 0.40099999
11.622 -2.625 0.40200001
11.654 -2.598 0.403
11.689 -2.572 0.40400001
11.731 -2.5480001 0.405
11.767 -2.5220001 0.40599999
11.801 -2.4949999 0.40799999
11.821 -2.4649999 0.40799999
11.861 -2.4400001 0.41
11.893 -2.4119999 0.41100001
11.989 -2.3970001 0.414
12.007 -2.3659999 0.41499999
12.039 -2.3380001 0.41600001
12.073 -2.3099999 0.417
12.097 -2.279 0.41800001
12.146 -2.2539999 0.419
12.202 -2.2290001 0.421
12.253 -2.2030001 0.42300001
12.287 -2.174 0.42399999
12.324 -2.145 0.42500001
12.326 -2.1099999 0.42500001
12.385 -2.085 0.42699999
12.451 -2.0599999 0.42899999
12.479 -2.029 0.43000001
12.588 -2.0109999 0.43399999
12.724 -1.9960001 0.43900001
12.677 -1.916 0.43700001
12.7 -1.883 0.43799999
12.75 -1.854 0.43900001
12.805 -1.825 0.44100001
12.854 -1.795 0.44299999
12.997 -1.778 0.44800001
13.059 -1.749 0.44999999
14.746 0.66600001 0.37200001
14.784 0.69099998 0.373
14.706 0.71200001 0.37099999
14.707 0.736 0.37099999
14.735 0.787 0.37099999
14.691 0.81099999 0.37
14.729 0.838 0.37099999
14.662 0.861 0.36899999
14.774 0.89399999 0.37200001
14.798 0.92199999 0.37200001
14.835 0.95200002 0.373
15.186 1.002 0.382
13.573 1.08 0.34
13.623 1.112 0.34099999
13.602 1.138 0.34099999
15.289 1.342 0.38299999
15.067 1.355 0.377
15.063 1.386 0.377
15.058 1.418 0.377
15.121 1.457 0.37799999
15.127 1.49 0.37799999
15.21 1.5319999 0.38
15.282 1.573 0.382
15.29 1.608 0.382
15.272 1.641 0.382
15.25 1.673 0.38100001
15.243 1.7079999 0.38100001
15.269 1.7460001 0.382
15.286 1.784 0.382
15.349 1.827 0.384
15.413 1.8710001 0.38499999
15.501 1.919 0.38699999
15.518 1.959 0.38800001
15.502 1.994 0.38699999
15.52 2.0350001 0.38800001
15.536 2.075 0.38800001
15.585 2.1199999 0.389
15.589 2.1600001 0.389
15.612 2.2019999 0.38999999
15.643 2.2460001 0.391
15.719 2.2969999 0.39300001
15.759 2.3440001 0.39399999
15.783 2.388 0.39399999
15.815 2.4349999 0.39500001
15.843 2.48 0.396
15.875 2.527 0.39700001
15.918 2.5769999 0.398
15.937 2.622 0.398
15.992 2.675 0.40000001
15.988 2.717 0.40000001
16.044001 2.7709999 0.40099999
16.093 2.823 0.40200001
16.219999 2.8900001 0.40599999
16.264999 2.944 0.40700001
16.273001 2.9909999 0.40700001
16.368999 3.0539999 0.40900001
16.483999 3.1229999 0.412
10.903 2.096 0.273
10.778 2.1029999 0.27000001
10.73 2.125 0.26800001
10.7 2.1500001 0.26800001
10.713 2.184 0.26800001
10.724 2.217 0.26899999
10.762 2.257 0.27000001
10.793 2.2950001 0.27000001
10.808 2.3310001 0.271
10.765 2.3540001 0.27000001
10.747 2.382 0.26899999
10.769 2.4200001 0.27000001
10.824 2.4649999 0.27200001
10.956 2.529 0.27500001
17.082001 3.9430001 0.42899999
16.965 3.9679999 0.426
17.096001 4.0510001 0.43000001
17.128 4.112 0.43099999
17.216999 4.1880002 0.433
17.287001 4.2589998 0.435
17.337 4.3260002 0.43599999
17.452 4.4099998 0.43900001
17.517 4.4819999 0.44100001
17.490999 4.5320001 0.44100001
17.648001 4.6290002 0.44499999
17.597 4.6729999 0.44400001
17.712 4.7610002 0.447
17.75 4.829 0.44800001
17.773001 4.8940001 0.449
17.847 4.973 0.45100001
17.937 5.0570002 0.45300001
18.056 5.151 0.45699999
18.101 5.2249999 0.458
18.048 5.27 0.45699999
18.153999 5.362 0.46000001
18.195 5.4359999 0.461
18.250999 5.5149999 0.463
18.216 5.5669999 0.46200001
18.290001 5.652 0.46399999
18.379999 5.744 0.46700001
18.393 5.8119998 0.46700001
18.399 5.8769999 0.46799999
18.511 5.9780002 0.47099999
18.475 6.0310001 0.47
18.554001 6.1220002 0.472
18.677999 6.23 0.47600001
18.631001 6.2800002 0.47499999
18.724001 6.3790002 0.47799999
8.2840004 3.0639999 0.212
8.1789999 3.0550001 0.20999999
8.1330004 3.0680001 0.20900001
8.0979996 3.085 0.208
8.0749998 3.1070001 0.207
8.0649996 3.1329999 0.207
8.0570002 3.161 0.207
8.0679998 3.1960001 0.208
8.0740004 3.2290001 0.208
8.1110001 3.2750001 0.20900001
8.1140003 3.3080001 0.20900001
8.1520004 3.355 0.211
8.2229996 3.4159999 0.213
8.3310003 3.493 0.21600001
13.049 5.4710002 0.338
8.4689999 3.5840001 0.219
12.878 5.4499998 0.33399999
12.808 5.4710002 0.33199999
12.789 5.513 0.33199999
12.756 5.5500002 0.331
12.522 5.8000002 0.32699999
12.416 5.802 0.32499999
12.41 5.8499999 0.32499999
12.44 5.915 0.32600001
8.6300001 -5.6760001 0.324
8.6700001 -5.6490002 0.32499999
8.7019997 -5.6149998 0.32600001
8.7460003 -5.5900002 0.32800001
8.7600002 -5.5450001 0.32800001
8.8050003 -5.52 0.33000001
8.8409996 -5.4899998 0.331
8.8549995 -5.4460001 0.331
8.8879995 -5.414 0.33199999
8.9169998 -5.3800001 0.333
8.9390001 -5.342 0.333
8.9709997 -5.3099999 0.33399999
8.9940004 -5.2719998 0.33500001
9.0190001 -5.2360001 0.336
9.0509996 -5.204 0.33700001
9.0810003 -5.171 0.338
9.0930004 -5.1290002 0.338
9.1280003 -5.099 0.33899999
9.1560001 -5.0650001 0.34
9.1800003 -5.0289998 0.34099999
9.217 -5 0.34200001
9.2119999 -4.9499998 0.34099999
9.2119999 -4.901 0.34099999
9.2770004 -4.888 0.34299999
9.3070002 -4.8559999 0.34400001
9.3409996 -4.8270001 0.345
9.375 -4.7969999 0.34599999
9.3979998 -4.7620001 0.347
9.4230003 -4.7280002 0.34799999
9.4350004 -4.6869998 0.34799999
9.467 -4.6570001 0.34900001
9.4890003 -4.6220002 0.34999999
9.5360003 -4.599 0.35100001
9.5539999 -4.5619998 0.352
9.5649996 -4.5219998 0.352
9.5939999 -4.4899998 0.35299999
9.6160002 -4.4559999 0.354
9.6339998 -4.4200001 0.354
9.6700001 -4.3920002 0.35499999
9.6890001 -4.3569999 0.35600001
9.7299995 -4.3309999 0.35699999
9.7749996 -4.3070002 0.359
9.8059998 -4.277 0.36000001
9.816 -4.2379999 0.36000001
9.8389997 -4.2049999 0.361
9.8739996 -4.177 0.36199999
9.8990002 -4.145 0.36199999
9.908 -4.1059999 0.36300001
9.9399996 -4.0770001 0.36399999
9.9759998 -4.0489998 0.36500001
10.01 -4.0209999 0.366
10.038 -3.9909999 0.36700001
10.056 -3.9560001 0.36700001
10.076 -3.9219999 0.368
10.121 -3.8989999 0.37
10.145 -3.8670001 0.37
10.19 -3.8429999 0.37200001
10.237 -3.8199999 0.373
10.267 -3.79 0.37400001
10.283 -3.756 0.375
10.293 -3.7190001 0.375
10.328 -3.6919999 0.37599999
10.384 -3.6719999 0.37799999
10.384 -3.632 0.37799999
10.414 -3.6029999 0.37900001
10.462 -3.5799999 0.38100001
10.488 -3.549 0.382
10.51 -3.517 0.382
10.595 -3.507 0.38499999
10.641 -3.483 0.38699999
10.684 -3.4579999 0.38800001
10.778 -3.4489999 0.39199999
10.808 -3.4200001 0.39300001
10.829 -3.388 0.39300001
10.863 -3.359 0.39399999
10.87 -3.323 0.39500001
10.939 -3.306 0.39700001
10.991 -3.283 0.39899999
11.048 -3.2620001 0.40099999
11.108 -3.2420001 0.403
11.156 -3.217 0.40400001
11.178 -3.1860001 0.405
11.228 -3.1619999 0.40700001
11.258 -3.1329999 0.40799999
11.339 -3.118 0.41100001
11.321 -3.075 0.41
11.384 -3.0550001 0.412
11.428 -3.029 0.414
11.458 -3 0.41499999
11.497 -2.973 0.41600001
11.534 -2.9460001 0.417
11.598 -2.925 0.41999999
11.644 -2.9000001 0.421
11.683 -2.8729999 0.42300001
11.706 -2.842 0.42300001
11.737 -2.813 0.42399999
11.804 -2.793 0.42699999
11.84 -2.7650001 0.428
11.896 -2.7420001 0.43000001
11.904 -2.7079999 0.43000001
11.991 -2.691 0.433
12.007 -2.6589999 0.43399999
12.024 -2.6270001 0.43399999
12.081 -2.6040001 0.43599999
12.111 -2.575 0.43700001
12.147 -2.5469999 0.43900001
12.201 -2.523 0.44
12.224 -2.493 0.44100001
12.253 -2.464 0.442
12.326 -2.4430001 0.44499999
12.371 -2.4170001 0.44600001
12.403 -2.3889999 0.447
12.45 -2.3629999 0.449
12.495 -2.3369999 0.45100001
12.522 -2.3080001 0.45199999
12.614 -2.29 0.45500001
12.62 -2.257 0.45500001
12.709 -2.2390001 0.458
12.753 -2.2119999 0.46000001
12.747 -2.177 0.46000001
12.794 -2.151 0.461
12.88 -2.132 0.46399999
12.994 -2.1170001 0.46799999
13.134 -2.0380001 0.47299999
13.106 -2 0.472
13.09 -1.965 0.472
13.111 -1.9349999 0.472
13.184 -1.913 0.47499999
13.893 -1.648 0.50099999
13.816 -1.607 0.498
13.915 -1.587 0.50099999
13.934 -1.557 0.50199997
14.404 0.197 0.40900001
14.406 0.223 0.40799999
14.444 0.25 0.40900001
14.559 0.278 0.412
14.531 0.30399999 0.41100001
14.559 0.33199999 0.412
14.615 0.361 0.41299999
14.607 0.389 0.41299999
14.604 0.417 0.412
14.595 0.44499999 0.412
14.62 0.47499999 0.41299999
14.637 0.505 0.41299999
14.607 0.53299999 0.412
14.674 0.565 0.41299999
14.662 0.59500003 0.41299999
14.678 0.62599999 0.41299999
14.709 0.65799999 0.414
14.764 0.69199997 0.41499999
14.769 0.72399998 0.41499999
14.777 0.75599998 0.41499999
14.787 0.78799999 0.41600001
14.921 0.82800001 0.419
14.901 0.86000001 0.41800001
14.889 0.89200002 0.41800001
14.899 0.92699999 0.41800001
14.943 0.963 0.419
15.077 1.006 0.42300001
13.642 1.0700001 0.382
13.508 1.091 0.37799999
13.547 1.127 0.37900001
13.572 1.1619999 0.38
15.28 1.383 0.42699999
15.217 1.415 0.426
15.24 1.455 0.426
15.264 1.4960001 0.42699999
15.292 1.5369999 0.42699999
15.379 1.585 0.43000001
15.449 1.632 0.43200001
15.457 1.6720001 0.43200001
15.479 1.715 0.43200001
15.481 1.755 0.43200001
15.506 1.799 0.433
15.536 1.8430001 0.43399999
15.627 1.895 0.43599999
15.675 1.943 0.43799999
15.734 1.992 0.43900001
15.743 2.036 0.43900001
15.704 2.073 0.43799999
15.766 2.1240001 0.44
15.793 2.171 0.44100001
15.798 2.2149999 0.44100001
15.928 2.2780001 0.44400001
15.976 2.329 0.44600001
16.02 2.3800001 0.447
16.049 2.4300001 0.44800001
16.042999 2.474 0.44800001
16.094 2.5280001 0.449
16.141001 2.5810001 0.44999999
16.177999 2.6329999 0.45100001
16.218 2.6860001 0.45199999
16.298 2.747 0.45500001
16.339001 2.8010001 0.456
16.426001 2.8640001 0.458
16.532 2.931 0.461
16.531 2.9790001 0.461
16.563 3.0339999 0.46200001
16.646 3.098 0.465
16.768999 3.171 0.46799999
10.907 2.095 0.30399999
10.788 2.105 0.301
10.718 2.1229999 0.29899999
10.699 2.152 0.29899999
10.702 2.1849999 0.29899999
10.73 2.224 0.30000001
10.771 2.2650001 0.301
10.799 2.3039999 0.30199999
10.785 2.3340001 0.301
10.757 2.362 0.301
10.737 2.391 0.30000001
10.792 2.437 0.30199999
10.852 2.484 0.303
17.478001 4.0560002 0.48899999
17.528 4.1230001 0.49000001
17.570999 4.1890001 0.49200001
17.714001 4.2789998 0.49599999
18.079 4.599 0.50700003
18.056 4.652 0.50599998
18.042 4.7059999 0.50599998
18.056999 4.7690001 0.50599998
18.054001 4.8270001 0.50599998
18.167999 4.9169998 0.50999999
18.218 4.9899998 0.51099998
18.327 5.0799999 0.51499999
18.312 5.1360002 0.514
18.382 5.217 0.51700002
18.483 5.3070002 0.51999998
18.443001 5.3569999 0.51899999
18.444 5.4190001 0.51899999
18.558001 5.5139999 0.52200001
18.851 5.664 0.53100002
18.763 5.7010002 0.528
18.797001 5.7750001 0.52999997
18.813999 5.8429999 0.52999997
18.819 5.9089999 0.53100002
18.833 5.9770002 0.53100002
15.669 5.4569998 0.44400001
15.508 5.4549999 0.43900001
15.323 5.4439998 0.43399999
15.209 5.4559999 0.43099999
15.228 5.5159998 0.43200001
8.4770002 3.1300001 0.23999999
8.2539997 3.076 0.234
8.1499996 3.066 0.23100001
8.1120005 3.0810001 0.23
8.0869999 3.0999999 0.23
8.0690002 3.1210001 0.229
8.0530005 3.1440001 0.229
8.0500002 3.171 0.229
8.052 3.201 0.229
8.0509996 3.2290001 0.23
8.0620003 3.2620001 0.23
8.0860004 3.3010001 0.23100001
8.1090002 3.339 0.23199999
8.1269999 3.3759999 0.23199999
8.1750002 3.425 0.234
8.2419996 3.483 0.236
8.3719997 3.5680001 0.23999999
12.393 5.6399999 0.35699999
12.368 5.6739998 0.35600001
12.443 5.7529998 0.359
12.412 5.7839999 0.35800001
12.325 5.7880001 0.35600001
12.275 5.809 0.35499999
12.264 5.848 0.35499999
12.278 5.9000001 0.35499999
12.394 6.0009999 0.359
11.96 6.7509999 0.352
11.888 6.7529998 0.35100001
11.926 6.8179998 0.352
9.2659998 -5.4829998 0.36500001
9.2690001 -5.4580002 0.36500001
9.2690001 -5.4320002 0.36500001
9.2799997 -5.4109998 0.36500001
9.302 -5.3969998 0.366
9.3140001 -5.3779998 0.36700001
9.3219995 -5.3559999 0.36700001
9.3540001 -5.3470001 0.368
9.3620005 -5.3249998 0.368
9.3699999 -5.302 0.36899999
9.3920002 -5.2880001 0.37
9.4040003 -5.2680001 0.37
9.4200001 -5.2490001 0.37099999
9.4399996 -5.2329998 0.37099999
9.4510002 -5.2119999 0.37200001
9.4469995 -5.1820002 0.37200001
9.4689999 -5.1669998 0.373
9.5019999 -5.158 0.37400001
9.4969997 -5.1269999 0.37400001
9.5139999 -5.1090002 0.37400001
9.5150003 -5.0819998 0.37400001
9.5129995 -5.053 0.37400001
9.5780001 -5.0599999 0.377
9.5950003 -5.0409999 0.377
9.6199999 -5.026 0.37799999
9.6210003 -4.9990001 0.37799999
9.6079998 -4.9640002 0.37799999
9.6169996 -4.941 0.37799999
9.6379995 -4.9239998 0.37900001
9.6560001 -4.9050002 0.38
9.6560001 -4.8769999 0.38
9.6780005 -4.8600001 0.38100001
9.6949997 -4.8400002 0.38100001
9.7030001 -4.816 0.382
9.7299995 -4.8010001 0.38299999
9.7390003 -4.777 0.38299999
9.7399998 -4.7490001 0.38299999
9.7729998 -4.737 0.384
9.7939997 -4.7189999 0.38499999
9.7860003 -4.6859999 0.38499999
9.8140001 -4.671 0.38600001
9.8409996 -4.6550002 0.38699999
9.8479996 -4.6290002 0.38699999
9.8610001 -4.6069999 0.38800001
9.8710003 -4.5830002 0.38800001
9.8990002 -4.5669999 0.389
9.908 -4.5419998 0.389
9.934 -4.5250001 0.38999999
9.9429998 -4.5 0.391
9.9809999 -4.4889998 0.39199999
9.9840002 -4.461 0.39199999
10.014 -4.4450002 0.39399999
10.063 -4.4369998 0.39500001
10.049 -4.401 0.39500001
10.046 -4.3709998 0.39500001
10.07 -4.3520002 0.396
10.082 -4.3280001 0.396
10.103 -4.3070002 0.39700001
10.141 -4.2940001 0.398
10.146 -4.2659998 0.398
10.163 -4.244 0.39899999
10.187 -4.224 0.40000001
10.199 -4.1999998 0.40099999
10.221 -4.1789999 0.40099999
10.243 -4.158 0.40200001
10.256 -4.1329999 0.403
10.28 -4.1129999 0.40400001
10.311 -4.0949998 0.405
10.309 -4.0640001 0.405
10.331 -4.0430002 0.405
10.385 -4.0339999 0.40799999
10.384 -4.0029998 0.40799999
10.391 -3.9749999 0.40799999
10.463 -3.9719999 0.41100001
10.477 -3.947 0.41100001
10.493 -3.9219999 0.412
10.514 -3.9000001 0.412
10.537 -3.8770001 0.41299999
10.556 -3.8540001 0.414
10.586 -3.8340001 0.41499999
10.621 -3.816 0.417
10.645 -3.793 0.417
10.669 -3.7709999 0.41800001
10.706 -3.753 0.41999999
10.705 -3.721 0.41999999
10.751 -3.7060001 0.421
10.769 -3.681 0.42199999
10.813 -3.664 0.42399999
10.859 -3.648 0.426
10.881 -3.6240001 0.426
10.93 -3.608 0.428
10.951 -3.5840001 0.42899999
10.995 -3.566 0.43099999
10.998 -3.5350001 0.43099999
11.093 -3.533 0.435
11.183 -3.53 0.43799999
11.155 -3.4879999 0.43700001
11.164 -3.4590001 0.43700001
11.153 -3.4230001 0.43700001
11.173 -3.3970001 0.43700001
11.203 -3.3729999 0.43900001
11.227 -3.348 0.43900001
11.282 -3.3310001 0.442
11.296 -3.303 0.442
11.307 -3.273 0.442
11.365 -3.257 0.44499999
11.402 -3.2349999 0.44600001
11.4 -3.201 0.44600001
11.435 -3.178 0.447
11.472 -3.155 0.449
11.497 -3.128 0.44999999
11.549 -3.109 0.45199999
11.561 -3.079 0.45199999
11.575 -3.049 0.45300001
11.598 -3.0220001 0.45300001
11.66 -3.0039999 0.456
11.686 -2.977 0.45699999
11.724 -2.9530001 0.458
11.763 -2.928 0.46000001
11.779 -2.8989999 0.46000001
11.846 -2.881 0.463
11.879 -2.855 0.46399999
11.914 -2.829 0.465
11.933 -2.7980001 0.46599999
11.974 -2.7739999 0.46799999
12.037 -2.753 0.47
12.091 -2.7309999 0.472
12.119 -2.7019999 0.47299999
12.12 -2.668 0.47299999
12.155 -2.6400001 0.47400001
12.182 -2.6110001 0.47499999
12.246 -2.589 0.47799999
12.296 -2.5639999 0.47999999
12.315 -2.533 0.47999999
12.372 -2.5090001 0.48300001
12.399 -2.4790001 0.484
12.423 -2.448 0.48500001
12.496 -2.4260001 0.48699999
12.549 -2.401 0.48899999
12.621 -2.378 0.49200001
12.666 -2.3499999 0.49399999
12.701 -2.3199999 0.495
13.256 -2.1930001 0.51599997
13.11 -2.131 0.51099998
13.107 -2.0929999 0.50999999
13.124 -2.0580001 0.51099998
13.094 -2.016 0.50999999
13.067 -1.974 0.509
13.09 -1.9400001 0.509
13.214 -1.92 0.514
13.829 -1.931 0.53799999
13.757 -1.881 0.53500003
13.788 -1.846 0.53600001
13.824 -1.811 0.53799999
13.834 -1.773 0.53799999
13.857 -1.7359999 0.53899997
13.96 -1.709 0.54299998
13.994 -1.673 0.54400003
14.039 -1.638 0.546
14.087 -1.603 0.54699999
14.024 -1.516 0.54500002
14.145 -1.489 0.54900002
16.201 1.424 0.484
15.983 1.439 0.477
16.027 1.477 0.47799999
16.054001 1.5140001 0.479
16.07 1.55 0.47999999
16.114 1.589 0.48100001
16.136999 1.627 0.48100001
16.173 1.666 0.48300001
16.172001 1.7029999 0.48199999
16.197001 1.742 0.48300001
16.198999 1.779 0.48300001
16.261 1.823 0.48500001
16.304001 1.8660001 0.486
16.278999 1.901 0.486
16.316999 1.944 0.48699999
16.297001 1.98 0.486
16.388 2.03 0.48899999
16.448 2.0769999 0.491
16.469999 2.1199999 0.491
16.48 2.1619999 0.49200001
16.525 2.2079999 0.493
16.544001 2.2520001 0.49399999
16.612 2.303 0.49599999
16.610001 2.3440001 0.49599999
16.694 2.398 0.498
16.728001 2.4460001 0.49900001
16.763 2.494 0.50099999
16.813 2.5450001 0.50199997
16.843 2.5940001 0.50300002
16.827999 2.635 0.50300002
16.924999 2.6949999 0.50599998
16.986 2.75 0.50800002
16.995001 2.7969999 0.50800002
17 2.8440001 0.50800002
17.066999 2.901 0.50999999
17.146 2.9619999 0.51300001
17.146999 3.0090001 0.51300001
17.167999 3.0599999 0.514
17.228001 3.119 0.51599997
17.243 3.1700001 0.51599997
17.266001 3.2219999 0.51700002
11.05 2.0929999 0.331
17.479 3.312 0.52399999
10.885 2.0929999 0.32600001
10.791 2.1059999 0.32300001
10.718 2.122 0.32100001
10.691 2.148 0.31999999
10.693 2.1800001 0.32100001
10.704 2.2130001 0.32100001
10.734 2.2509999 0.322
10.76 2.289 0.32300001
10.764 2.3210001 0.32300001
10.741 2.349 0.32300001
10.73 2.3789999 0.322
10.71 2.4059999 0.322
10.745 2.447 0.32300001
10.804 2.494 0.32499999
11.006 2.5739999 0.331
18.415001 4.3639998 0.55500001
18.525 4.448 0.55900002
18.559999 4.5139999 0.56
18.725 4.6719999 0.565
18.752001 4.7379999 0.56699997
18.743 4.8559999 0.56699997
18.716999 4.9099998 0.56599998
18.604 4.9400001 0.56300002
18.617001 5.0040002 0.56400001
18.768 5.1059999 0.56900001
18.856001 5.1919999 0.57200003
18.837999 5.2490001 0.57200003
18.896 5.3280001 0.574
18.966 5.4109998 0.57599998
19.370001 5.7870002 0.58999997
19.225 5.809 0.58600003
19.320999 5.9039998 0.58899999
19.422001 6.0019999 0.59299999
15.546 5.408 0.47799999
15.346 5.3940001 0.472
15.202 5.3979998 0.46799999
15.078 5.4089999 0.465
15.076 5.4640002 0.465
8.3690004 3.095 0.25799999
8.198 3.062 0.25299999
8.132 3.0680001 0.25099999
8.0900002 3.082 0.25
8.0749998 3.1070001 0.25
8.0579996 3.131 0.25
8.0509996 3.1589999 0.25
8.0480003 3.188 0.25
8.0530005 3.22 0.25
8.085 3.2639999 0.252
8.0790005 3.293 0.252
8.1129999 3.3380001 0.25299999
8.1459999 3.3840001 0.25400001
8.217 3.4449999 0.257
8.3330002 3.526 0.26100001
12.408 5.5960002 0.391
12.354 5.6220002 0.38999999
12.442 5.7119999 0.39300001
12.401 5.744 0.39199999
12.329 5.7610002 0.38999999
12.284 5.79 0.389
12.283 5.8400002 0.389
12.288 5.8930001 0.38999999
11.966 6.7649999 0.389
11.861 6.7579999 0.38600001
11.872 6.8179998 0.38699999
8.8549995 -5.823 0.37400001
8.901 -5.7969999 0.37599999
8.9289999 -5.7600002 0.377
8.9680004 -5.73 0.37799999
8.993 -5.691 0.37900001
9.0299997 -5.6599998 0.38
9.04 -5.612 0.38
9.0810003 -5.5840001 0.382
9.1129999 -5.5500002 0.38299999
9.1420002 -5.5139999 0.384
9.1719999 -5.48 0.38499999
9.2089996 -5.4489999 0.38600001
9.2360001 -5.4130001 0.38699999
9.257 -5.3730001 0.38800001
9.2939997 -5.3429999 0.389
9.3199997 -5.3060002 0.38999999
9.349 -5.2709999 0.391
9.3649998 -5.23 0.391
9.3900003 -5.1929998 0.39199999
9.4219999 -5.1599998 0.39300001
9.4580002 -5.1300001 0.39399999
9.4890003 -5.0970001 0.39500001
9.5080004 -5.0580001 0.396
9.5229998 -5.0159998 0.396
9.5609999 -4.9879999 0.398
9.5830002 -4.9499998 0.39899999
9.5979996 -4.9099998 0.39899999
9.6300001 -4.8779998 0.40000001
9.6529999 -4.842 0.40099999
9.6719999 -4.8039999 0.40099999
9.7089996 -4.7750001 0.403
9.7299995 -4.7379999 0.403
9.7510004 -4.7010002 0.40400001
9.7969999 -4.677 0.40599999
9.8280001 -4.645 0.40700001
9.8430004 -4.6059999 0.40700001
9.8640003 -4.5700002 0.40799999
9.9049997 -4.5430002 0.40900001
9.9230003 -4.506 0.41
9.9530001 -4.474 0.41100001
9.9809999 -4.4419999 0.412
10.017 -4.4130001 0.41299999
10.081 -4.3959999 0.41600001
10.107 -4.3629999 0.417
10.107 -4.3189998 0.41600001
10.122 -4.2810001 0.417
10.157 -4.2519999 0.41800001
10.2 -4.2259998 0.41999999
10.217 -4.1900001 0.41999999
10.271 -4.1680002 0.42199999
10.291 -4.1329999 0.42300001
10.325 -4.1040001 0.42399999
10.37 -4.079 0.426
10.398 -4.0469999 0.42699999
10.438 -4.02 0.428
10.491 -3.9979999 0.43000001
10.542 -3.9749999 0.43200001
10.558 -3.9389999 0.433
10.608 -3.9159999 0.435
10.642 -3.8859999 0.43599999
10.697 -3.865 0.43799999
10.757 -3.8440001 0.44
10.794 -3.816 0.442
10.831 -3.7880001 0.44299999
10.869 -3.76 0.44499999
10.906 -3.7309999 0.44600001
10.972 -3.7119999 0.44800001
10.989 -3.677 0.449
11.041 -3.654 0.45100001
11.094 -3.6300001 0.45300001
11.099 -3.592 0.45300001
11.257 -3.602 0.45899999
11.334 -3.586 0.46200001
11.318 -3.54 0.46200001
11.315 -3.4990001 0.461
11.345 -3.4679999 0.463
11.397 -3.444 0.465
11.43 -3.414 0.46599999
11.474 -3.3870001 0.46700001
11.501 -3.3559999 0.46799999
11.509 -3.319 0.46900001
11.568 -3.2969999 0.47099999
11.608 -3.2690001 0.472
11.641 -3.2390001 0.47400001
11.697 -3.2160001 0.47600001
11.715 -3.1819999 0.47600001
11.737 -3.1489999 0.477
11.787 -3.1240001 0.479
11.846 -3.1010001 0.48199999
11.91 -3.0799999 0.484
11.98 -3.0599999 0.48699999
12.013 -3.03 0.48800001
12.004 -2.9890001 0.48800001
12.059 -2.9649999 0.49000001
12.107 -2.9389999 0.49200001
12.205 -2.925 0.495
12.234 -2.8940001 0.49700001
12.302 -2.8729999 0.49900001
12.303 -2.836 0.49900001
12.329 -2.8039999 0.5
12.431 -2.79 0.50400001
12.457 -2.7590001 0.505
12.505 -2.7320001 0.50700003
12.63 -2.7219999 0.51200002
13.299 -2.599 0.53899997
13.097 -2.523 0.52999997
13.07 -2.4809999 0.52899998
13.213 -2.4719999 0.53500003
13.569 -2.464 0.54900002
13.641 -2.4400001 0.55199999
13.606 -2.3970001 0.551
13.636 -2.3659999 0.55199999
13.73 -2.346 0.55599999
13.188 -2.2179999 0.53399998
13.096 -2.168 0.52999997
13.055 -2.1270001 0.528
13.035 -2.0899999 0.52700001
13.032 -2.056 0.52700001
13.04 -2.0239999 0.52700001
13.11 -2.0009999 0.52999997
13.267 -1.992 0.537
13.96 -2.0610001 0.565
13.986 -1.995 0.565
13.927 -1.952 0.56300002
13.958 -1.9220001 0.56400001
14.046 -1.9 0.56800002
14.012 -1.8609999 0.56599998
14.124 -1.842 0.57099998
14.12 -1.808 0.57099998
14.182 -1.783 0.57300001
14.186 -1.75 0.57300001
14.192 -1.684 0.574
14.198 -1.652 0.574
14.227 -1.623 0.57499999
14.272 -1.595 0.57700002
14.287 -1.5650001 0.57700002
14.315 -1.535 0.579
15.122 0.20900001 0.50099999
15.198 0.237 0.50400001
15.261 0.266 0.50599998
15.245 0.29300001 0.505
15.26 0.322 0.505
15.235 0.34999999 0.50400001
15.32 0.38100001 0.50700003
15.351 0.41100001 0.50700003
15.547 0.56900001 0.51300001
15.444 0.597 0.509
13.206 0.537 0.435
13.214 0.565 0.435
15.479 0.69400001 0.50999999
15.461 0.72600001 0.509
15.511 0.76200002 0.51099998
15.536 0.796 0.51099998
16.156 1.5039999 0.52999997
16.069 1.536 0.52700001
16.125 1.582 0.52899998
16.132 1.623 0.52899998
16.128 1.663 0.52899998
16.193001 1.711 0.53100002
16.233999 1.757 0.53200001
16.315001 1.808 0.53500003
16.343 1.854 0.53600001
16.358999 1.899 0.53600001
16.393 1.946 0.537
16.427 1.993 0.53799999
16.462999 2.0409999 0.53899997
16.513 2.092 0.54100001
16.556999 2.142 0.54299998
16.638 2.198 0.54500002
16.658001 2.2449999 0.546
16.698999 2.2969999 0.54699999
16.753 2.3499999 0.54900002
16.805 2.404 0.551
16.888 2.4630001 0.55400002
16.948999 2.5190001 0.55599999
16.955 2.5680001 0.55599999
17.051001 2.6300001 0.55900002
17.094999 2.6849999 0.56099999
17.108 2.7360001 0.56099999
17.195 2.799 0.56400001
17.238001 2.8559999 0.565
17.263 2.9100001 0.56599998
17.33 2.971 0.56900001
17.351 3.026 0.56900001
17.452 3.0940001 0.57300001
17.410999 3.138 0.57099998
17.497 3.2049999 0.574
17.639999 3.2839999 0.579
17.792999 3.365 0.58399999
10.904 2.095 0.35800001
10.777 2.1029999 0.354
10.707 2.1210001 0.352
10.684 2.1489999 0.35100001
10.691 2.1830001 0.35100001
10.711 2.22 0.352
10.752 2.2609999 0.35299999
10.754 2.2950001 0.354
10.744 2.326 0.35299999
10.723 2.355 0.35299999
10.704 2.3829999 0.352
10.737 2.425 0.35299999
10.783 2.4690001 0.35499999
11.098 2.576 0.366
18.716 4.3439999 0.61699998
18.729 4.4060001 0.61799997
18.917999 4.5100002 0.62400001
19.014 4.6539998 0.62800002
18.931999 4.6950002 0.625
18.952999 4.7600002 0.62599999
18.983 4.829 0.62699997
19.006001 4.8959999 0.62800002
19.052 4.9699998 0.63
19.112 5.0479999 0.63200003
19.111 5.1100001 0.63200003
19.118 5.1739998 0.63300002
19.239 5.27 0.63700002
19.783001 5.7459998 0.65700001
19.726 5.7950001 0.65499997
19.750999 5.868 0.65600002
15.459 5.3299999 0.51700002
15.295 5.3270001 0.51200002
15.183 5.3410001 0.509
15.085 5.3579998 0.50599998
15.014 5.3860002 0.50400001
15.074 5.46 0.50599998
8.3249998 3.073 0.27900001
8.1879997 3.052 0.27500001
8.1339998 3.0599999 0.273
8.1049995 3.0780001 0.273
8.0830002 3.098 0.27200001
8.0679998 3.1210001 0.27200001
8.0480003 3.142 0.271
8.0489998 3.171 0.271
8.0509996 3.2 0.27200001
8.0500002 3.2279999 0.27200001
8.0640001 3.263 0.273
8.0629997 3.2909999 0.273
8.0860004 3.3299999 0.27399999
8.1149998 3.3699999 0.27500001
8.1669998 3.4219999 0.27700001
8.2510004 3.4860001 0.28
8.3719997 3.5680001 0.28400001
12.583 5.7259998 0.43000001
12.495 5.7309999 0.42699999
12.5 5.7789998 0.428
12.39 5.7729998 0.42399999
12.324 5.7870002 0.42199999
12.306 5.8239999 0.42199999
12.297 5.8639998 0.42199999
12.301 5.9109998 0.42300001
12.3 5.9549999 0.42300001
12.351 6.0250001 0.42500001
12.114 6.8369999 0.42500001
11.941 6.783 0.419
11.955 6.8340001 0.41999999
9.5190001 -5.6370001 0.419
9.5229998 -5.612 0.419
9.5500002 -5.6009998 0.41999999
9.5760002 -5.5879998 0.421
9.5799999 -5.5630002 0.421
9.5860004 -5.539 0.42199999
9.6210003 -5.5320001 0.42300001
9.6459999 -5.5180001 0.42399999
9.6560001 -5.4970002 0.42500001
9.658 -5.4699998 0.42500001
9.6829996 -5.4559999 0.426
9.6680002 -5.4190001 0.42500001
9.7060003 -5.4130001 0.42699999
9.6990004 -5.381 0.42699999
9.724 -5.3670001 0.428
9.7360001 -5.3449998 0.428
9.7589998 -5.329 0.42899999
9.7709999 -5.3080001 0.43000001
9.7819996 -5.2849998 0.43000001
9.7930002 -5.2620001 0.43099999
9.802 -5.2389998 0.43099999
9.8129997 -5.2160001 0.43099999
9.8319998 -5.198 0.43200001
9.8559999 -5.1820002 0.433
9.8900003 -5.171 0.435
9.8979998 -5.1469998 0.435
9.8610001 -5.099 0.433
9.908 -5.0939999 0.435
9.9160004 -5.0689998 0.43599999
9.9379997 -5.052 0.43700001
9.9799995 -5.0440001 0.43900001
9.9829998 -5.0170002 0.43900001
9.9919996 -4.9920001 0.43900001
10.014 -4.974 0.44
10.035 -4.9549999 0.44100001
10.044 -4.9299998 0.44100001
10.061 -4.9089999 0.442
10.102 -4.9000001 0.44400001
10.1 -4.869 0.44400001
10.119 -4.849 0.44400001
10.133 -4.8260002 0.44499999
10.123 -4.7909999 0.44400001
10.172 -4.7849998 0.447
10.19 -4.7639999 0.447
10.207 -4.7420001 0.44800001
10.231 -4.723 0.449
10.243 -4.6989999 0.44999999
10.254 -4.6739998 0.44999999
10.287 -4.6589999 0.45199999
10.332 -4.6490002 0.45300001
10.354 -4.6290002 0.454
10.351 -4.5970001 0.454
10.384 -4.5809999 0.456
10.398 -4.5570002 0.456
10.387 -4.5219998 0.456
10.429 -4.5100002 0.45699999
10.45 -4.4879999 0.458
10.486 -4.473 0.46000001
10.501 -4.4489999 0.46000001
10.528 -4.4299998 0.46200001
10.528 -4.3990002 0.46200001
10.556 -4.3790002 0.463
10.579 -4.3579998 0.46399999
10.601 -4.336 0.465
10.641 -4.3210001 0.46599999
10.649 -4.2940001 0.46700001
10.712 -4.2880001 0.46900001
10.746 -4.27 0.47099999
10.841 -4.276 0.47499999
10.932 -4.2800002 0.479
10.913 -4.2410002 0.47799999
10.915 -4.21 0.47799999
10.941 -4.1880002 0.479
10.885 -4.1339998 0.477
10.909 -4.112 0.47799999
10.914 -4.0819998 0.47799999
10.94 -4.059 0.479
10.972 -4.039 0.47999999
11.008 -4.0209999 0.48199999
11.018 -3.9920001 0.48199999
11.042 -3.9690001 0.48300001
11.059 -3.9419999 0.484
11.105 -3.9260001 0.486
11.12 -3.9000001 0.48699999
11.173 -3.885 0.48899999
11.181 -3.8559999 0.48899999
11.211 -3.8329999 0.49000001
11.271 -3.8210001 0.493
11.278 -3.7909999 0.493
11.294 -3.763 0.49399999
11.312 -3.7360001 0.495
11.337 -3.711 0.49599999
11.352 -3.6830001 0.49599999
11.387 -3.661 0.498
11.488 -3.6600001 0.50199997
11.701 -3.694 0.51099998
11.594 -3.6270001 0.50700003
11.579 -3.589 0.50599998
11.552 -3.546 0.505
11.604 -3.529 0.50700003
11.614 -3.4979999 0.50700003
11.621 -3.4660001 0.50700003
11.666 -3.4460001 0.509
11.653 -3.408 0.509
11.745 -3.401 0.51300001
11.786 -3.3789999 0.514
11.769 -3.3399999 0.514
11.795 -3.313 0.51499999
11.845 -3.293 0.51700002
11.858 -3.2620001 0.51700002
11.893 -3.237 0.51899999
11.901 -3.2049999 0.51899999
11.942 -3.181 0.52100003
11.967 -3.1530001 0.52200001
12.019 -3.132 0.52399999
12.075 -3.112 0.52600002
12.091 -3.0810001 0.52700001
12.164 -3.0639999 0.52999997
12.17 -3.03 0.52999997
12.22 -3.0079999 0.53200001
12.221 -2.9719999 0.53200001
12.267 -2.948 0.53399998
12.323 -2.9260001 0.537
12.393 -2.9070001 0.54000002
12.448 -2.8840001 0.542
12.471 -2.8529999 0.54299998
12.524 -2.829 0.54500002
12.614 -2.813 0.54900002
13.221 -2.4909999 0.574
13.07 -2.425 0.56800002
13.086 -2.3900001 0.56800002
13.683 -2.46 0.59399998
13.685 -2.421 0.59399998
13.689 -2.382 0.59399998
13.748 -2.3529999 0.597
13.696 -2.3050001 0.59500003
13.113 -2.131 0.56900001
13.041 -2.082 0.56599998
13.029 -2.043 0.565
13.076 -2.013 0.56699997
13.224 -1.997 0.57300001
14.136 -2.095 0.61299998
14.079 -2.046 0.61000001
14.183 -2.02 0.61500001
14.143 -1.974 0.61299998
14.184 -1.939 0.61500001
14.176 -1.897 0.61400002
14.201 -1.86 0.61500001
14.26 -1.827 0.61799997
14.306 -1.791 0.62
14.3 -1.75 0.61900002
14.404 -1.721 0.62400001
13.01 0.118 0.45899999
12.994 0.12899999 0.458
12.988 0.141 0.458
12.99 0.154 0.458
12.971 0.16599999 0.45699999
13.005 0.18000001 0.458
12.983 0.193 0.45699999
12.987 0.207 0.456
12.993 0.221 0.456
13.002 0.236 0.456
13.02 0.25099999 0.45699999
12.977 0.26499999 0.45500001
12.984 0.28 0.45500001
12.976 0.296 0.45500001
12.972 0.31200001 0.454
12.965 0.32800001 0.454
12.957 0.34400001 0.45300001
12.95 0.361 0.45300001
12.949 0.37799999 0.45199999
12.949 0.396 0.45199999
12.931 0.41299999 0.45100001
12.906 0.43099999 0.44999999
12.92 0.44999999 0.45100001
12.917 0.46799999 0.44999999
12.912 0.48699999 0.44999999
12.892 0.50599998 0.449
12.894 0.52499998 0.449
12.884 0.54500002 0.449
12.906 0.56599998 0.449
12.897 0.58600003 0.449
12.908 0.60699999 0.449
12.922 0.62900001 0.449
12.951 0.65200001 0.44999999
12.983 0.67500001 0.45100001
13.018 0.699 0.45199999
13.053 0.72399998 0.45300001
13.154 0.75199997 0.45699999
16.965 1.529 0.588
16.790001 1.549 0.58200002
16.820999 1.587 0.583
16.809999 1.623 0.58200002
16.804001 1.659 0.58200002
16.872999 1.7029999 0.58499998
16.865 1.739 0.58399999
16.889 1.78 0.58499998
16.908001 1.8200001 0.58600003
16.921 1.86 0.58600003
16.976999 1.905 0.588
17.039 1.951 0.58999997
17.07 1.995 0.59200001
17.070999 2.0350001 0.59200001
17.09 2.0780001 0.59200001
17.159 2.1270001 0.59500003
17.169001 2.1689999 0.59500003
17.24 2.22 0.59799999
17.257999 2.2650001 0.59799999
17.374001 2.323 0.60299999
17.458 2.3770001 0.60600001
17.440001 2.4189999 0.60500002
17.516001 2.473 0.60799998
17.552999 2.523 0.60900003
17.528 2.5639999 0.60799998
17.587 2.618 0.611
17.663 2.675 0.61299998
17.698 2.7260001 0.61500001
17.735001 2.7780001 0.616
17.766001 2.8299999 0.61699998
17.767 2.878 0.61799997
17.885 2.9449999 0.62199998
17.922001 2.9990001 0.62300003
17.934 3.05 0.62400001
18.094999 3.1259999 0.63
18.167 3.1889999 0.63200003
18.237 3.2509999 0.63499999
18.320999 3.3169999 0.63800001
18.329 3.3699999 0.639
18.479 3.4489999 0.64399999
18.601999 3.5250001 0.64899999
10.948 2.1059999 0.382
10.812 2.1099999 0.377
10.722 2.1240001 0.37400001
10.692 2.1489999 0.373
10.676 2.177 0.373
10.685 2.21 0.373
10.705 2.2449999 0.37400001
10.716 2.279 0.375
10.734 2.3150001 0.37599999
10.716 2.3429999 0.375
10.705 2.3729999 0.375
10.684 2.401 0.37400001
10.689 2.4349999 0.375
10.716 2.474 0.37599999
10.809 2.5280001 0.37900001
19.136999 4.5359998 0.67199999
19.198999 4.6100001 0.67500001
19.365 4.71 0.68099999
19.599001 4.8899999 0.69
19.608999 4.9549999 0.69099998
19.795 5.4499998 0.69999999
19.836 5.527 0.70200002
15.544 5.3509998 0.55800003
15.35 5.3390002 0.55199999
15.214 5.3470001 0.54699999
15.113 5.3660002 0.54400003
15.027 5.3909998 0.54100001
15.083 5.4660001 0.54400003
8.3559999 3.0899999 0.30199999
8.1850004 3.0569999 0.296
8.1359997 3.069 0.294
8.0959997 3.0840001 0.29300001
8.0710001 3.105 0.292
8.0600004 3.131 0.292
8.052 3.1589999 0.292
8.0530005 3.1900001 0.29300001
8.0550003 3.221 0.29300001
8.0559998 3.2520001 0.29300001
8.066 3.2880001 0.294
8.1000004 3.3329999 0.296
8.1420002 3.382 0.29699999
8.2539997 3.46 0.30199999
8.3649998 3.54 0.30599999
12.578 5.7740002 0.465
12.416 5.75 0.46000001
12.379 5.7839999 0.45899999
12.374 5.8319998 0.45899999
12.375 5.8829999 0.46000001
12.381 5.9369998 0.461
12.364 5.98 0.46000001
9.1079998 -5.987 0.428
9.158 -5.9629998 0.43000001
9.1859999 -5.9239998 0.43099999
9.2200003 -5.8889999 0.43200001
9.25 -5.8520002 0.433
9.2749996 -5.8119998 0.43399999
9.3319998 -5.7919998 0.43599999
9.3599997 -5.7529998 0.43700001
9.3870001 -5.7160001 0.43799999
9.434 -5.6890001 0.44
9.4530001 -5.6459999 0.44100001
9.4770002 -5.6059999 0.442
9.5010004 -5.566 0.442
9.5310001 -5.5300002 0.44400001
9.573 -5.5019999 0.44499999
9.592 -5.46 0.44600001
9.6289997 -5.428 0.447
9.6479998 -5.3870001 0.44800001
9.6750002 -5.349 0.449
9.6949997 -5.309 0.449
9.7139997 -5.2680001 0.44999999
9.7539997 -5.2379999 0.45199999
9.7950001 -5.2090001 0.45300001
9.8059998 -5.165 0.45300001
9.835 -5.1290002 0.45500001
9.868 -5.0970001 0.456
9.9069996 -5.0669999 0.45699999
9.9589996 -5.0430002 0.45899999
9.9659996 -4.9980001 0.46000001
9.9790001 -4.9549999 0.46000001
10.007 -4.921 0.461
10.072 -4.9029999 0.46399999
10.089 -4.8629999 0.46399999
10.113 -4.8270001 0.465
10.158 -4.8010001 0.46700001
10.184 -4.7649999 0.46799999
10.229 -4.7379999 0.47
10.243 -4.697 0.47
10.281 -4.6680002 0.472
10.321 -4.6389999 0.47299999
10.363 -4.6110001 0.47499999
10.41 -4.585 0.477
10.406 -4.5370002 0.47600001
10.447 -4.5089998 0.47799999
10.483 -4.4780002 0.47999999
10.497 -4.4390001 0.47999999
10.576 -4.427 0.48300001
10.588 -4.3860002 0.484
10.626 -4.3569999 0.48500001
10.674 -4.3309999 0.48699999
10.732 -4.3099999 0.49000001
10.764 -4.2779999 0.491
10.808 -4.2509999 0.493
10.896 -4.2399998 0.49700001
10.981 -4.2290001 0.5
11.023 -4.2010002 0.50199997
11.058 -4.1690001 0.50300002
11.025 -4.1129999 0.50199997
11.056 -4.0799999 0.50300002
11.073 -4.0430002 0.50300002
11.123 -4.0180001 0.50599998
11.164 -3.9890001 0.50700003
11.203 -3.96 0.509
11.28 -3.944 0.51200002
11.312 -3.9119999 0.51300001
11.334 -3.8770001 0.514
11.355 -3.842 0.51499999
11.393 -3.812 0.51700002
11.438 -3.7850001 0.51899999
11.461 -3.75 0.51899999
11.519 -3.727 0.52200001
11.54 -3.6919999 0.523
11.737 -3.7130001 0.53100002
11.723 -3.6659999 0.53100002
11.697 -3.6170001 0.52899998
11.701 -3.5769999 0.52899998
11.731 -3.5450001 0.53100002
11.801 -3.5250001 0.53399998
