# .PCD v0.7 - Point Cloud Data file format
VERSION 0.7
FIELDS x y z
SIZE 4 4 4
TYPE F F F
COUNT 1 1 1
WIDTH 1792
HEIGHT 1
VIEWPOINT 0 0 0 1 0 0 0
POINTS 1792
DATA ascii
9.1459999 -3.7509999 1.6160001
9.1700001 -3.723 1.619
9.1859999 -3.691 1.6210001
9.2180004 -3.665 1.626
9.2279997 -3.631 1.627
9.243 -3.599 1.6289999
9.2919998 -3.5799999 1.636
9.3739996 -3.5739999 1.65
26.556999 -9.9130001 4.671
26.597 -9.823 4.6750002
26.569 -9.7080002 4.6680002
26.601 -9.6160002 4.6719999
26.627001 -9.5220003 4.6739998
26.641001 -9.4239998 4.6739998
26.604 -9.309 4.6659999
26.688999 -9.2379999 4.678
30.997 3.6010001 5.507
30.990999 3.681 5.5089998
30.923 3.753 5.4990001
30.972 3.8399999 5.5089998
30.917 3.915 5.5019999
30.941 4 5.5089998
30.927999 4.0809999 5.5079999
30.910999 4.1609998 5.5079999
30.868 4.2389998 5.5029998
30.907 4.3280001 5.5120001
30.888 4.4099998 5.5110002
30.891001 4.4949999 5.5149999
30.891001 4.5799999 5.5170002
30.892 4.6659999 5.52
30.896999 4.7529998 5.5240002
30.889999 4.8379998 5.526
30.886 4.9239998 5.5279999
30.910999 5.0159998 5.5349998
30.907 5.1030002 5.5380001
30.923 5.1939998 5.5440001
30.913 5.2810001 5.5450001
30.933001 5.3740001 5.552
30.917999 5.46 5.552
30.910999 5.5489998 5.5539999
30.909 5.6389999 5.5580001
30.923 5.7329998 5.5630002
30.912001 5.822 5.5650001
30.941999 5.9190001 5.5739999
30.954 6.013 5.5799999
30.965 6.1079998 5.585
30.965 6.2010002 5.5890002
30.975 6.2969999 5.5949998
30.965 6.388 5.5970001
30.966 6.4829998 5.6009998
30.965 6.5770001 5.605
30.983 6.6760001 5.612
30.983999 6.7709999 5.6160002
30.983999 6.8670001 5.6199999
31.004 6.967 5.6279998
30.983 7.059 5.6290002
31.004 7.1609998 5.6370001
30.995001 7.256 5.6389999
31.013 7.3569999 5.6469998
31.028 7.4590001 5.6539998
31.073999 7.5679998 5.6669998
31.077999 7.6680002 5.6719999
31.042999 7.7589998 5.671
31.066 7.8639998 5.6799998
31.068001 7.9640002 5.6849999
31.091999 8.0710001 5.6939998
31.101 8.1739998 5.7010002
31.087999 8.2709999 5.7030001
31.134001 8.3850002 5.717
31.257 8.5200005 5.744
31.104 8.5799999 5.7210002
31.104 8.6820002 5.7259998
31.082001 8.7790003 5.7280002
31.121 8.8920002 5.7399998
31.164 9.0080004 5.7529998
31.149 9.1070004 5.756
31.135 9.2069998 5.7589998
31.150999 9.316 5.7670002
31.205 9.4370003 5.783
31.172001 9.5319996 5.7820001
31.208 9.6479998 5.7950001
31.186001 9.7469997 5.796
31.159 9.8439999 5.7969999
31.212999 9.967 5.8130002
31.186001 10.065 5.8140001
31.25 10.192 5.8319998
31.204 10.284 5.829
31.225 10.399 5.8390002
31.247999 10.514 5.849
31.242001 10.728 5.8610001
31.311001 10.86 5.8800001
31.322001 10.973 5.888
31.278999 11.067 5.8870001
9.1400003 -4.2719998 1.658
9.0609999 -4.2069998 1.643
9.0200005 -4.1609998 1.635
9.0190001 -4.1329999 1.6339999
9.0290003 -4.1100001 1.636
9.0249996 -4.0809999 1.635
9.033 -4.0570002 1.636
9.0439997 -4.0339999 1.637
9.0530005 -4.0110002 1.6390001
9.0500002 -3.9820001 1.638
9.0620003 -3.96 1.6390001
9.073 -3.937 1.641
9.0819998 -3.9130001 1.642
9.092 -3.8900001 1.6440001
9.099 -3.8659999 1.645
9.1120005 -3.8440001 1.646
9.1289997 -3.823 1.649
9.1440001 -3.802 1.651
9.1529999 -3.7780001 1.653
9.1660004 -3.7550001 1.655
9.1789999 -3.733 1.6569999
9.2069998 -3.7160001 1.661
9.2309999 -3.698 1.665
9.2840004 -3.691 1.674
9.3959999 -3.707 1.694
26.410999 -10.262 4.7600002
26.466999 -10.204 4.7690001
26.455 -10.119 4.7659998
26.487 -10.051 4.77
26.486 -9.9709997 4.7690001
26.481001 -9.8889999 4.7670002
26.472 -9.8059998 4.7639999
26.511999 -9.7399998 4.77
26.525999 -9.665 4.7709999
26.525999 -9.585 4.77
26.513 -9.5010004 4.7670002
26.537001 -9.4289999 4.77
26.559999 -9.3579998 4.7719998
26.566 -9.2799997 4.7719998
26.905001 -5.862 4.776
26.888 -5.7779999 4.7719998
26.931999 -5.7080002 4.7779999
30.966999 3.1389999 5.5479999
30.98 3.207 5.552
30.987 3.276 5.5560002
31 3.346 5.5599999
30.961 3.4100001 5.5549998
30.976 3.4820001 5.5599999
30.927 3.546 5.5539999
30.961 3.6210001 5.5619998
30.952 3.691 5.5630002
30.945999 3.763 5.5640001
30.957001 3.8369999 5.5689998
30.951 3.9089999 5.5700002
30.951 3.983 5.573
30.959 4.0580001 5.5770001
30.934999 4.1300001 5.5749998
30.955999 4.2080002 5.5819998
30.910999 4.2779999 5.5770001
30.945999 4.3600001 5.586
30.952999 4.4380002 5.5910001
30.936001 4.513 5.5910001
30.923 4.5890002 5.5910001
30.941 4.671 5.598
30.945999 4.7509999 5.6020002
30.966 4.8340001 5.6090002
30.954 4.9130001 5.6110001
30.931 4.9910002 5.6100001
30.951 5.0760002 5.6170001
30.969 5.1609998 5.6240001
30.969 5.244 5.6279998
30.955 5.3249998 5.6290002
30.938 5.4060001 5.6300001
30.966999 5.4949999 5.6389999
30.964001 5.5799999 5.6420002
30.969999 5.6669998 5.6479998
30.974001 5.7540002 5.6529999
30.969999 5.8400002 5.6560001
30.993999 5.9310002 5.665
30.978001 6.0159998 5.6659999
30.99 6.1069999 5.6729999
30.981001 6.1939998 5.6760001
31.011999 6.29 5.6859999
31 6.3769999 5.6880002
31.007999 6.4689999 5.6939998
30.99 6.5570002 5.6960001
31.009001 6.652 5.704
31.044001 6.7519999 5.7150002
31.038 6.8439999 5.7189999
31.027 6.934 5.7220001
30.995001 7.0209999 5.7210002
31.041 7.125 5.7350001
31 7.211 5.7319999
31.021 7.3109999 5.7420001
31.003 7.4029999 5.744
31.027 7.5050001 5.7529998
31.024 7.6009998 5.7579999
31.041 7.7020001 5.7670002
31.030001 7.7969999 5.7709999
31.058001 7.9029999 5.7810001
31.094 8.0109997 5.7940001
31.076 8.1059999 5.796
31.08 8.2069998 5.803
31.047001 8.2989998 5.803
31.069 8.4060001 5.8130002
31.118 8.5209999 5.8280001
31.087 8.6149998 5.829
31.075001 8.7139997 5.8319998
31.052 8.8100004 5.8340001
31.08 8.9219999 5.8460002
31.094999 9.0299997 5.855
31.110001 9.1389999 5.8639998
31.066999 9.2320004 5.8629999
31.110001 9.3500004 5.8779998
31.118 9.4589996 5.8860002
31.105 9.6689997 5.8969998
31.139999 9.7869997 5.9109998
31.15 9.8990002 5.9190001
31.107 9.9940004 5.9180002
31.158001 10.12 5.9349999
31.169001 10.233 5.9450002
31.153999 10.339 5.9489999
31.195 10.463 5.9640002
31.191999 10.574 5.9710002
31.236 10.701 5.987
31.193001 10.799 5.9860001
31.181999 10.908 5.9920001
31.208 11.031 6.0040002
31.177999 11.134 6.006
31.233999 11.268 6.0250001
31.249001 11.389 6.0359998
31.295 11.522 6.053
31.229 11.614 6.0479999
31.283001 11.751 6.066
9.2229996 -4.1890001 1.682
9.0970001 -4.0900002 1.658
9.073 -4.0380001 1.652
9.0760002 -3.9990001 1.652
9.0900002 -3.9649999 1.654
9.0830002 -3.9219999 1.651
9.1049995 -3.892 1.655
9.1140003 -3.8559999 1.655
9.1149998 -3.8169999 1.654
9.1330004 -3.786 1.6569999
9.1450005 -3.7520001 1.658
9.1610003 -3.7190001 1.66
9.1850004 -3.691 1.663
9.2080002 -3.6619999 1.6670001
9.2259998 -3.631 1.669
9.2419996 -3.599 1.671
9.302 -3.585 1.681
9.4960003 -3.6210001 1.716
26.548 -10.017 4.7940001
26.555 -9.9139996 4.7930002
26.565001 -9.8129997 4.7930002
26.59 -9.717 4.7950001
26.584 -9.6110001 4.7919998
26.57 -9.5030003 4.7870002
26.593 -9.4090004 4.789
26.577 -9.3009996 4.7839999
26.639 -9.2220001 4.7930002
26.627001 -9.1169996 4.7880001
26.6 -9.0080004 4.7810001
26.709 -8.9449997 4.7989998
26.649 -8.8260002 4.7859998
26.851999 -6.1929998 4.7709999
26.757 -6.0890002 4.7529998
26.761999 -6.0100002 4.7519999
26.773001 -5.9320002 4.7529998
30.913 2.4560001 5.6269999
30.886 2.526 5.6230001
30.874001 2.598 5.6220002
30.874001 2.671 5.6230001
30.879 2.7449999 5.6259999
30.858 2.8180001 5.6230001
30.861 2.8929999 5.625
30.874001 2.9690001 5.6290002
30.857 3.043 5.6279998
30.870001 3.1210001 5.632
30.872 3.198 5.6339998
30.872 3.276 5.6360002
30.861 3.352 5.6360002
30.879 3.4330001 5.6409998
30.872999 3.5109999 5.6420002
30.865999 3.5899999 5.6430001
30.892 3.6730001 5.6500001
30.879 3.7520001 5.6500001
30.865 3.8310001 5.6490002
30.872 3.9130001 5.6529999
30.872999 3.9949999 5.6550002
30.900999 4.0809999 5.6630001
30.875 4.1599998 5.6609998
30.844999 4.2399998 5.658
30.885 4.329 5.6680002
30.868999 4.4109998 5.6669998
30.868999 4.4949999 5.6700001
30.881001 4.5819998 5.6750002
30.889999 4.6690001 5.6799998
30.889 4.7550001 5.6820002
30.888 4.8410001 5.6849999
30.891001 4.9289999 5.6890001
30.917999 5.02 5.697
30.915001 5.1079998 5.6989999
30.906 5.1950002 5.7010002
30.912001 5.2839999 5.7049999
30.934 5.3769999 5.7129998
30.936001 5.467 5.7160001
30.944 5.559 5.7210002
30.922001 5.645 5.7210002
30.940001 5.7399998 5.7280002
30.965 5.836 5.7360001
30.948 5.9239998 5.7360001
30.969 6.02 5.744
30.982 6.1149998 5.75
30.969999 6.2059999 5.7519999
30.988001 6.303 5.7589998
30.962 6.3909998 5.7589998
30.976 6.4889998 5.7649999
30.997 6.5879998 5.7729998
31 6.6830001 5.7779999
31.021999 6.783 5.7859998
31.021 6.8790002 5.79
31.007 6.9720001 5.7919998
31.025 7.072 5.8000002
31.007999 7.165 5.8010001
31.035 7.2690001 5.8109999
31.032 7.3660002 5.8150001
31.040001 7.4660001 5.8210001
31.059999 7.5689998 5.829
31.042999 7.664 5.8309999
31.032 7.7600002 5.8330002
31.063 7.8670001 5.8439999
31.045 7.9619999 5.8460002
31.091999 8.0749998 5.8590002
31.072001 8.1700001 5.8610001
31.077999 8.2729998 5.8670001
31.120001 8.3850002 5.8800001
31.15 8.4949999 5.8909998
31.118999 8.5880003 5.8899999
31.094 8.684 5.8909998
31.153 8.8030005 5.9070001
31.146 8.9040003 5.9120002
31.160999 9.0109997 5.9200001
31.188 9.1230001 5.9310002
31.148001 9.2150002 5.9289999
31.153 9.3210001 5.9349999
31.243 9.4530001 5.9580002
31.208 9.5469999 5.9569998
31.218 9.6560001 5.9650002
9.1750002 -4.263 1.707
9.0760002 -4.1890001 1.688
9.0439997 -4.1469998 1.682
9.0439997 -4.1199999 1.681
9.0530005 -4.0960002 1.683
9.04 -4.0630002 1.6799999
9.0600004 -4.0440001 1.683
9.0670004 -4.02 1.684
9.0579996 -3.9879999 1.682
9.0790005 -3.97 1.686
9.0710001 -3.9389999 1.684
9.0810003 -3.915 1.6849999
9.0950003 -3.8940001 1.687
9.1059999 -3.8710001 1.689
9.1210003 -3.8499999 1.691
9.1459999 -3.832 1.6950001
9.1499996 -3.806 1.696
9.1689997 -3.786 1.699
9.1800003 -3.763 1.701
9.1920004 -3.74 1.702
9.1990004 -3.7149999 1.7029999
9.2670002 -3.7149999 1.715
9.3710003 -3.7279999 1.734
26.443001 -10.359 4.8920002
26.416 -10.269 4.8850002
26.488001 -10.217 4.8979998
26.534 -10.154 4.9050002
26.518 -10.068 4.901
26.473 -9.9709997 4.8909998
26.492001 -9.8979998 4.8930001
26.554001 -9.8409996 4.9029999
26.52 -9.7480001 4.8959999
26.525 -9.6700001 4.8959999
26.511999 -9.585 4.8920002
26.506001 -9.5030003 4.8899999
26.530001 -9.4309998 4.8930001
26.632999 -9.3879995 4.9109998
26.538 -9.2740002 4.8920002
26.566999 -9.2040005 4.8959999
26.573 -9.1260004 4.895
26.570999 -9.0459995 4.8940001
26.59 -8.9720001 4.8959999
26.584999 -8.8900003 4.8940001
26.582001 -8.809 4.8920002
26.621 -8.7419996 4.8979998
26.666 -8.677 4.9050002
26.667 -8.5970001 4.9039998
26.701 -8.5279999 4.9089999
26.75 -6.6230001 4.8860002
26.75 -6.5440001 4.8850002
26.726999 -6.4590001 4.8790002
26.739 -6.382 4.8800001
26.743999 -6.3039999 4.8790002
26.737 -6.2220001 4.8769999
26.798 -6.1570001 4.8870001
26.754999 -6.0679998 4.8769999
26.771 -5.9920001 4.8790002
26.787001 -5.9159999 4.881
26.752001 -5.829 4.8730001
26.816999 -5.763 4.8829999
30.989 3.2780001 5.7150002
30.947001 3.342 5.71
31.039 3.4219999 5.7290001
30.972 3.484 5.7189999
30.968 3.5539999 5.7210002
30.961 3.6240001 5.7220001
30.927 3.691 5.7179999
30.976999 3.7690001 5.73
30.931999 3.836 5.724
30.959 3.9119999 5.7319999
30.927999 3.9820001 5.7290001
30.908001 4.0539999 5.7280002
30.955999 4.1350002 5.7399998
30.954 4.21 5.7420001
30.943001 4.2849998 5.743
30.951 4.3629999 5.7480001
30.934 4.4369998 5.7480001
30.944 4.5170002 5.7529998
30.941999 4.5949998 5.756
30.945 4.6739998 5.7600002
30.933001 4.7519999 5.7610002
30.955 4.835 5.7690001
30.969 4.9180002 5.7750001
30.955999 4.9970002 5.776
30.968 5.0809999 5.7820001
30.966999 5.1630001 5.7859998
30.938999 5.2410002 5.7839999
30.941 5.3249998 5.789
30.952999 5.4109998 5.7950001
31.003 5.5050001 5.8080001
30.955 5.5809999 5.803
30.961 5.6680002 5.809
30.978001 5.757 5.816
30.982 5.8449998 5.8210001
31.052 5.9450002 5.8390002
30.983 6.02 5.8299999
30.999001 6.112 5.8379998
31.004 6.2010002 5.8429999
31.011999 6.2930002 5.8499999
31.075001 6.3959999 5.8660002
31.025999 6.4759998 5.862
30.995001 6.5609999 5.8610001
30.996 6.6529999 5.8660002
30.989 6.743 5.869
30.999001 6.8379998 5.8759999
30.996 6.9299998 5.881
30.999001 7.0250001 5.8870001
31.027 7.125 5.8979998
31.017 7.2179999 5.901
31.007 7.3109999 5.9039998
31.011999 7.408 5.9109998
31.042999 7.5120001 5.9219999
31.035 7.6069999 5.927
31.01 7.698 5.927
31.038 7.803 5.9390001
31.049 7.9039998 5.947
31.042999 8.1009998 5.9569998
31.037001 8.1990004 5.9619999
31.054001 8.3039999 5.9720001
31.08 8.4119997 5.9829998
31.042 8.5030003 5.9819999
31.041 8.6049995 5.9879999
31.068001 8.7150002 6
31.086 8.8240004 6.0089998
31.073 8.9230003 6.013
31.122 9.0419998 6.0300002
31.115999 9.1450005 6.0349998
31.183001 9.2700005 6.0549998
31.159 9.3690004 6.0570002
31.169001 9.6929998 6.0799999
31.164 9.7989998 6.086
31.125 9.8950005 6.086
31.129 10.005 6.0939999
31.141001 10.119 6.1030002
31.177999 10.241 6.118
31.257999 10.378 6.1409998
31.223 10.477 6.1420002
31.177999 10.574 6.1409998
31.169001 10.683 6.1469998
9.1990004 -4.1370001 1.72
9.1090002 -4.0560002 1.702
9.0860004 -4.0050001 1.697
9.0950003 -3.9679999 1.697
9.0979996 -3.9289999 1.697
9.1099997 -3.895 1.698
9.1129999 -3.8570001 1.698
9.1260004 -3.823 1.699
9.1370001 -3.7880001 1.7
9.1599998 -3.7579999 1.704
9.1800003 -3.7279999 1.706
9.2049999 -3.7 1.71
9.2259998 -3.6700001 1.7130001
9.2340002 -3.635 1.714
9.2650003 -3.609 1.719
9.3950005 -3.6210001 1.742
26.538 -10.016 4.9159999
26.584 -9.927 4.9219999
26.58 -9.8199997 4.9190001
26.570999 -9.7119999 4.915
26.6 -9.6190004 4.9180002
26.611 -9.5200005 4.9180002
26.549999 -9.3950005 4.9039998
26.573999 -9.302 4.9060001
26.625999 -9.2189999 4.914
26.610001 -9.1129999 4.9089999
26.622999 -9.0170002 4.9089999
26.658001 -8.9300003 4.9130001
26.603001 -8.8129997 4.901
26.598 -8.7130003 4.8979998
26.612 -8.6210003 4.8979998
26.631001 -8.5299997 4.9000001
26.653 -8.441 4.902
26.674 -8.3520002 4.9039998
26.787001 -7.1950002 4.901
26.686001 -7.0799999 4.8800001
26.687 -6.994 4.8790002
26.84 -6.8610001 4.9039998
26.716999 -6.744 4.8800001
26.666 -6.6459999 4.869
26.698999 -6.5710001 4.8730001
26.709 -6.4889998 4.8740001
26.725 -6.4099998 4.875
26.712 -6.3239999 4.8709998
26.707001 -6.2410002 4.869
26.707001 -6.1599998 4.8670001
26.740999 -6.086 4.8720002
26.722 -6.0009999 4.8670001
26.805 -5.9390001 4.881
30.941 2.391 5.79
30.923 2.461 5.7880001
30.878 2.53 5.7800002
30.84 2.599 5.7750001
30.851999 2.6730001 5.7779999
30.833 2.7449999 5.776
30.847 2.8210001 5.7800002
30.818001 2.8929999 5.776
30.822001 2.9679999 5.7789998
30.826 3.0439999 5.7810001
30.854 3.1229999 5.7880001
30.841999 3.1989999 5.7880001
30.851999 3.277 5.7919998
30.843 3.3540001 5.7919998
30.844999 3.4330001 5.7940001
30.826 3.5090001 5.7930002
30.84 3.5899999 5.7979999
30.816 3.6670001 5.7950001
30.819 3.7479999 5.7979999
30.816999 3.829 5.8000002
30.846001 3.9130001 5.8080001
30.823 3.9920001 5.8060002
30.843 4.0770001 5.8119998
30.848 4.1599998 5.816
30.85 4.244 5.8189998
30.858999 4.329 5.823
30.853001 4.4120002 5.8249998
30.875999 4.5 5.8319998
30.848 4.5809999 5.8299999
30.867001 4.6690001 5.836
30.867001 4.7550001 5.8390002
30.875 4.8429999 5.8439999
30.878 4.9299998 5.848
30.879999 5.0180001 5.8509998
30.9 5.1090002 5.8579998
30.926001 5.2020001 5.8660002
30.892 5.2849998 5.8629999
30.9 5.375 5.868
30.908001 5.4660001 5.8730001
30.913 5.5570002 5.8779998
30.936001 5.652 5.8860002
30.912001 5.7379999 5.8850002
30.927 5.8319998 5.8920002
30.951 5.928 5.9000001
30.931 6.0170002 5.9000001
30.941999 6.1110001 5.9060001
30.938 6.2030001 5.9089999
30.957001 6.3010001 5.9169998
30.952999 6.3940001 5.9200001
31.000999 6.4980001 5.934
30.971001 6.586 5.9320002
30.974001 6.6820002 5.9369998
30.968 6.7750001 5.9400001
30.997 6.8769999 5.9499998
30.992001 6.9720001 5.954
30.997 7.0700002 5.9590001
31.000999 7.1680002 5.9650002
31.02 7.2690001 5.973
31.044001 7.3730001 5.9819999
31.011999 7.4629998 5.9809999
31.042999 7.5689998 5.9920001
31.033001 7.665 5.9949999
31.042999 7.7670002 6.0009999
31.052 7.869 6.0079999
31.014999 7.9590001 6.006
31.042 8.066 6.0159998
31.073999 8.1750002 6.0279999
31.080999 8.2779999 6.0339999
31.108999 8.3870001 6.0450001
31.080999 8.4799995 6.0450001
31.08 8.5819998 6.0500002
31.063 8.6789999 6.052
31.218 8.9289999 6.0939999
31.171 9.0190001 6.0910001
31.115 9.1059999 6.085
31.183001 9.2299995 6.1040001
26.204 -12.663 5.0079999
26.167999 -12.566 5
26.198 -12.5 5.0040002
26.252001 -12.286 5.0110002
26.198 -12.181 5
26.254999 -12.127 5.0089998
9.2930002 -4.2639999 1.772
9.1630001 -4.1760001 1.747
9.1120005 -4.125 1.737
9.0900002 -4.0879998 1.732
9.0819998 -4.0570002 1.73
9.092 -4.033 1.732
9.099 -4.0089998 1.733
9.1049995 -3.984 1.734
9.092 -3.95 1.7309999
9.1059999 -3.928 1.733
9.1160002 -3.905 1.734
9.1090002 -3.8740001 1.733
9.1420002 -3.8610001 1.739
9.1639996 -3.842 1.742
9.1870003 -3.8239999 1.7460001
9.1929998 -3.7980001 1.747
9.2259998 -3.7839999 1.753
9.2609997 -3.77 1.7589999
9.2889996 -3.753 1.7640001
26.409 -10.431 5.0110002
26.403 -10.349 5.0089998
26.393 -10.265 5.006
26.459 -10.211 5.0170002
26.440001 -10.123 5.0120001
26.458 -10.05 5.0139999
26.466999 -9.9729996 5.0149999
26.464001 -9.8920002 5.013
26.483 -9.8190002 5.0149999
26.473 -9.7349997 5.0120001
26.479 -9.6569996 5.0120001
26.474001 -9.5749998 5.0100002
26.471001 -9.4940004 5.0079999
26.521 -9.4320002 5.0159998
26.507999 -9.3479996 5.0120001
26.511 -9.2690001 5.0110002
26.535 -9.1969995 5.0149999
26.57 -9.1289997 5.02
26.566 -9.0469999 5.0180001
26.577999 -8.9720001 5.0190001
26.625 -8.9069996 5.027
26.566999 -8.8079996 5.0139999
26.59 -8.7349997 5.0170002
26.579 -8.6520004 5.0139999
26.587999 -8.5749998 5.0139999
26.617001 -8.5039997 5.0180001
26.607 -8.4209995 5.0149999
26.650999 -7.9549999 5.0149999
26.621 -7.8660002 5.0079999
26.754999 -7.8249998 5.0320001
26.714001 -7.7329998 5.0229998
26.646 -7.6339998 5.0089998
26.702 -7.5700002 5.0180001
26.733 -7.4990001 5.0219998
26.729 -7.178 5.0159998
26.676001 -7.0840001 5.0050001
26.681 -7.006 5.0040002
26.747999 -6.9429998 5.0159998
26.704 -6.8520002 5.006
26.694 -6.77 5.0029998
26.674999 -6.6859999 4.9980001
26.676001 -6.6059999 4.9970002
26.723 -6.5380001 5.0040002
26.691999 -6.4510002 4.9970002
26.702 -6.3740001 4.9970002
26.719 -6.2989998 4.9990001
26.707001 -6.2160001 4.9949999
26.736 -6.1440001 4.9990001
26.721001 -6.0609999 4.9949999
26.705999 -5.9780002 4.9910002
26.721001 -5.902 4.9920001
26.73 -5.8239999 4.993
30.975 3.4170001 5.8779998
30.959999 3.4849999 5.8779998
31.009001 3.5610001 5.8889999
30.936001 3.6229999 5.8779998
30.938 3.6949999 5.881
30.962 3.77 5.888
30.931999 3.839 5.8850002
30.945 3.9130001 5.8899999
30.943001 3.987 5.8930001
30.945 4.0609999 5.8959999
30.965 4.1389999 5.9029999
30.964001 4.2140002 5.9060001
30.934 4.2859998 5.9029999
30.931999 4.3629999 5.9060001
30.955 4.4429998 5.914
30.950001 4.52 5.9159999
30.962 4.5999999 5.9219999
30.941 4.6760001 5.921
30.9 4.75 5.9169998
30.924999 4.8330002 5.9250002
30.973 4.9219999 5.9380002
30.914 4.993 5.9310002
30.933001 5.0780001 5.9380002
30.948999 5.1630001 5.9450002
30.948999 5.2459998 5.9489999
30.917999 5.3239999 5.947
30.962 5.4159999 5.96
31 5.507 5.9710002
30.955999 5.5840001 5.967
30.976999 5.6739998 5.9759998
30.944 5.7540002 5.974
30.976999 5.8470001 5.9850001
30.99 5.9359999 5.9920001
30.989 6.0240002 5.9959998
30.962 6.1069999 5.9949999
30.959999 6.1960001 6
30.992001 6.2919998 6.0110002
31.006001 6.3839998 6.0180001
31.076 6.4899998 6.0370002
31.023001 6.5700002 6.0320001
31.004 6.6570001 6.033
30.98 6.744 6.0339999
30.985001 6.8379998 6.04
31.014999 6.9380002 6.0510001
31.011 7.0310001 6.0560002
30.996 7.1220002 6.0580001
31.011999 7.2199998 6.0669999
31.031 7.3200002 6.0760002
31.007 7.506 6.0830002
31.058001 7.6160002 6.099
31.042 7.8070002 6.1069999
31.065001 7.9120002 6.118
31.007999 8.0950003 6.119
31.025999 8.1999998 6.1290002
31.069 8.3120003 6.1440001
31.048 8.4069996 6.1459999
31.037001 8.5059996 6.1500001
31.073999 8.618 6.164
31.114 8.7320004 6.178
31.108 9.2519999 6.211
31.09 9.3520002 6.2150002
31.115 10.115 6.2709999
31.169001 10.242 6.29
24.784 -16.284 4.8940001
24.882 -16.193001 4.9089999
24.981001 -16.103001 4.9239998
25.073 -16.009001 4.9369998
25.357 -15.289 4.967
25.469 -15.21 4.9850001
25.527 -15.099 4.9920001
26.211 -12.519 5.0440001
26.216 -12.397 5.0409999
26.240999 -12.286 5.0430002
26.337 -12.209 5.0580001
26.343 -12.091 5.0560002
26.32 -11.96 5.0489998
26.309999 -11.836 5.0440001
26.424 -11.768 5.0619998
9.2410002 -4.0739999 1.7690001
9.1719999 -4.0029998 1.755
9.1440001 -3.95 1.749
9.1429996 -3.9100001 1.747
9.1470003 -3.872 1.747
9.1420002 -3.8299999 1.745
9.1379995 -3.789 1.744
9.1719999 -3.7639999 1.749
9.1789999 -3.7279999 1.749
9.2309999 -3.711 1.758
9.2700005 -3.688 1.765
9.323 -3.671 1.774
9.4580002 -3.6849999 1.799
26.542999 -10.234 5.046
26.495001 -10.108 5.0349998
26.511999 -10.008 5.0349998
26.535999 -9.9110003 5.0370002
26.528999 -9.8030005 5.033
26.528 -9.6990004 5.0310001
26.570999 -9.6099997 5.0370002
26.535 -9.4940004 5.027
26.556999 -9.3999996 5.0289998
26.555 -9.2969999 5.027
26.606001 -9.2139997 5.0339999
26.580999 -9.1049995 5.027
26.604 -9.0129995 5.0289998
26.614 -8.9169998 5.0289998
26.627001 -8.823 5.0289998
26.615999 -8.7209997 5.0250001
26.613001 -8.6219997 5.0219998
26.615999 -8.5270004 5.0209999
26.663 -8.4460001 5.027
26.672001 -8.3529997 5.027
26.66 -7.697 5.0110002
26.676001 -7.6110001 5.0120001
26.724001 -7.5339999 5.02
26.691 -7.2579999 5.0079999
26.674999 -7.165 5.0029998
26.671 -7.0770001 5.0009999
26.67 -6.9899998 4.9990001
26.667999 -6.9029999 4.9970002
26.664 -6.816 4.994
26.662001 -6.7309999 4.9920001
26.684999 -6.652 4.9949999
26.681 -6.5669999 4.993
26.693001 -6.4860001 4.994
26.702999 -6.4050002 4.994
26.695999 -6.3210001 4.9910002
26.684999 -6.2360001 4.987
26.697001 -6.1570001 4.9879999
26.723 -6.0819998 4.9920001
26.709 -5.9990001 4.9879999
26.749001 -5.927 4.994
26.827999 -5.8649998 5.007
30.955 2.54 5.9549999
30.913 2.609 5.9489999
30.860001 2.678 5.9400001
30.856001 2.7509999 5.941
30.833 2.823 5.9380002
30.893999 2.904 5.9510002
30.871 2.977 5.9489999
30.865999 3.052 5.9499998
30.868 3.1289999 5.9520001
30.927 3.2119999 5.9650002
30.882 3.2839999 5.9580002
30.858999 3.3599999 5.9559999
30.851999 3.437 5.9569998
30.832001 3.5139999 5.9549999
30.823 3.592 5.9549999
30.823 3.6719999 5.9580002
30.830999 3.753 5.961
30.855 3.8369999 5.9689999
30.892 3.9230001 5.9780002
30.823999 3.9960001 5.9679999
30.839001 4.0799999 5.973
30.844999 4.164 5.9770002
30.829 4.2449999 5.9770002
30.863001 4.3330002 5.9860001
30.855 4.4159999 5.987
30.874001 4.5040002 5.994
30.865999 4.5869999 5.9949999
30.875999 4.6750002 6
30.879 4.7610002 6.0040002
30.865999 4.8449998 6.0050001
30.864 4.9320002 6.007
30.870001 5.02 6.0120001
30.902 5.1129999 6.0209999
30.888 5.1989999 6.0219998
30.870001 5.2849998 6.0219998
30.91 5.381 6.033
30.884001 5.4660001 6.0320001
30.940001 5.566 6.0469999
30.929001 5.6539998 6.0479999
30.914 5.7420001 6.0489998
30.931 5.8369999 6.0560002
30.938 5.9299998 6.0619998
30.934999 6.0209999 6.0650001
30.938 6.1149998 6.0700002
30.940001 6.2080002 6.0739999
30.969999 6.3070002 6.0840001
30.975 6.402 6.0890002
30.966999 6.4949999 6.092
30.983999 6.5929999 6.0999999
30.962999 6.6830001 6.0999999
30.996 6.7859998 6.1110001
31.000999 6.882 6.1170001
31.039 6.987 6.1290002
31.018 7.079 6.1290002
31.044001 7.1820002 6.1389999
31.017 7.2729998 6.1389999
31.018999 7.3709998 6.1440001
31.098 7.4879999 6.165
31.117001 7.5910001 6.1729999
31.059999 7.776 6.1719999
31.051001 7.8730001 6.1760001
31.047001 7.9710002 6.1799998
31.125 8.092 6.2010002
31.101999 8.1870003 6.2020001
31.049 8.2729998 6.1960001
31.073 8.3809996 6.2069998
31.163 8.6090002 6.2360001
31.097 8.6929998 6.2280002
26.110001 -12.866 5.119
26.115 -12.788 5.119
26.148001 -12.724 5.1240001
26.167999 -12.655 5.1269999
26.181999 -12.581 5.1279998
26.167 -12.494 5.1240001
26.233 -12.445 5.1360002
26.18 -12.34 5.1240001
26.157 -12.249 5.118
26.179001 -12.18 5.1209998
9.2670002 -4.1420002 1.8099999
9.2130003 -4.0890002 1.799
9.1309996 -4.0250001 1.7819999
9.1020002 -3.9849999 1.776
9.0629997 -3.9400001 1.768
9.0570002 -3.9089999 1.767
9.0640001 -3.885 1.768
9.0609999 -3.8559999 1.767
9.0880003 -3.8399999 1.772
9.125 -3.8280001 1.778
9.2270002 -3.8429999 1.798
9.3970003 -3.885 1.83
26.406 -10.837 5.1430001
26.392 -10.751 5.1389999
26.386 -10.668 5.1360002
26.361 -10.578 5.1300001
26.357 -10.496 5.1279998
26.358 -10.416 5.1269999
26.370001 -10.341 5.1279998
26.363001 -10.259 5.125
26.398001 -10.192 5.131
26.416 -10.119 5.1329999
26.429001 -10.044 5.1339998
26.417999 -9.96 5.131
26.438999 -9.8870001 5.1339998
26.438999 -9.8070002 5.132
26.451 -9.7320004 5.1329999
26.464001 -9.6569996 5.1339998
26.481001 -9.5830002 5.1360002
26.440001 -9.4879999 5.1269999
26.451 -9.4119997 5.1279998
26.523001 -9.3570004 5.1409998
26.493999 -9.2670002 5.1329999
26.540001 -9.2030001 5.1409998
26.540001 -9.1230001 5.1399999
26.541 -9.0430002 5.1389999
26.570999 -8.9729996 5.1430001
26.587 -8.8979998 5.145
26.612 -8.8260002 5.1479998
26.559999 -8.7290001 5.1370001
26.569 -8.6520004 5.1370001
26.587 -8.5780001 5.1389999
26.572001 -8.493 5.1350002
26.579 -8.415 5.1350002
26.613001 -8.3459997 5.1399999
26.607 -8.1040001 5.1350002
26.618999 -8.0279999 5.1360002
26.608 -7.9450002 5.132
26.610001 -7.8649998 5.131
26.67 -7.6430001 5.1389999
26.671 -7.5630002 5.1370001
26.684 -7.487 5.138
26.729 -7.2600002 5.1430001
26.665001 -7.1620002 5.1290002
26.659 -7.0809999 5.1269999
26.664 -7.0029998 5.1259999
26.712 -6.9359999 5.1339998
26.67 -6.8449998 5.1240001
26.681 -6.7680001 5.125
26.671 -6.6859999 5.1220002
26.657 -6.6030002 5.118
26.691999 -6.5320001 5.1230001
26.705 -6.4559999 5.1240001
26.694 -6.3730001 5.1209998
26.718 -6.2989998 5.1240001
26.702 -6.2160001 5.119
26.711 -6.1389999 5.119
26.702999 -6.0570002 5.1160002
26.742001 -5.987 5.1220002
26.733 -5.9050002 5.119
26.729 -5.8249998 5.1170001
26.756001 -5.7509999 5.1209998
26.768999 -5.6739998 5.1220002
30.934999 3.7690001 6.0450001
30.929001 3.8410001 6.0469999
30.924999 3.9130001 6.0489998
30.99 3.9949999 6.0650001
30.916 4.0599999 6.053
31.006001 4.3759999 6.0840001
30.983 4.4499998 6.0830002
30.966 4.5250001 6.0830002
30.962999 4.6030002 6.086
30.962999 4.6820002 6.0890002
31.033001 4.7729998 6.1069999
30.986 4.8460002 6.1009998
30.979 4.9250002 6.1040001
31.055 5.0190001 6.1230001
30.947001 5.0830002 6.105
30.936001 5.164 6.1069999
30.982 5.2540002 6.1199999
30.978001 5.3369999 6.1240001
30.983 5.4219999 6.1290002
30.981001 5.506 6.1329999
30.993999 5.5939999 6.1399999
30.999001 5.8540001 6.1539998
31.007999 5.9429998 6.1609998
31.006001 6.0300002 6.165
31.016001 6.1209998 6.1719999
30.966999 6.1999998 6.1669998
30.99 6.2940001 6.177
30.997999 6.3860002 6.1830001
31.042999 6.4860001 6.198
30.995001 6.5669999 6.1929998
31.007 6.6609998 6.2010002
31.083 6.8629999 6.2270002
30.997999 6.9369998 6.2150002
30.986 7.0279999 6.2179999
31.058001 7.1389999 6.2379999
30.983999 7.217 6.2290001
31.042999 7.3260002 6.2470002
31.063 7.427 6.257
31.040001 7.5180001 6.2579999
31.013 8.1000004 6.29
31.103001 8.224 6.3140001
24.764 -16.275 5.0110002
24.839001 -16.169001 5.0219998
24.924 -16.070999 5.0339999
24.995001 -15.964 5.0440001
25.063 -15.855 5.053
25.132 -15.748 5.0630002
25.191999 -15.636 5.0700002
25.247 -15.521 5.0770001
25.295 -15.402 5.0819998
25.358999 -15.294 5.0900002
25.419001 -15.185 5.098
25.455999 -15.062 5.1009998
25.495001 -14.941 5.105
25.559 -14.835 5.1139998
25.613001 -14.724 5.1199999
25.679001 -14.621 5.1290002
25.707001 -14.497 5.131
25.791 -14.405 5.1440001
26.174999 -12.755 5.1680002
26.163 -12.623 5.1620002
26.183001 -12.509 5.1630001
26.214001 -12.4 5.1659999
26.231001 -12.285 5.1659999
26.237 -12.166 5.164
26.283001 -12.066 5.1690001
26.285999 -11.947 5.1669998
26.302999 -11.835 5.1669998
26.333 -11.73 5.1700001
26.412001 -11.647 5.1820002
9.2600002 -3.961 1.813
9.1560001 -3.8759999 1.7920001
9.118 -3.8210001 1.784
9.1009998 -3.7750001 1.779
9.099 -3.7349999 1.778
9.1280003 -3.7079999 1.783
9.2320004 -3.7119999 1.802
26.472 -10.425 5.1630001
26.466999 -10.314 5.1589999
26.457001 -10.203 5.1539998
26.462999 -10.098 5.1529999
26.486 -10 5.1550002
26.488001 -9.8950005 5.1529999
26.504 -9.7959995 5.1529999
26.509001 -9.6940002 5.152
26.507 -9.5889997 5.1490002
26.521 -9.4910002 5.1490002
26.528 -9.3909998 5.1479998
26.511999 -9.2840004 5.1430001
26.549 -9.1960001 5.1469998
26.528999 -9.0889997 5.1409998
26.607 -9.0150003 5.1539998
26.576 -8.9060001 5.1459999
26.573 -8.8059998 5.1430001
26.577999 -8.71 5.1420002
26.649 -8.6359997 5.1529999
26.622999 -8.5310001 5.1459999
26.596001 -8.4259996 5.1389999
26.620001 -8.3380003 5.1409998
26.613001 -8.2410002 5.138
26.625 -8.1499996 5.138
26.629999 -8.0579996 5.1370001
26.632999 -7.9660001 5.1360002
26.645 -7.8769999 5.1360002
26.719 -7.355 5.1389999
26.652 -7.2480001 5.1240001
26.666 -7.164 5.125
26.646999 -7.0710001 5.1199999
26.648001 -6.9850001 5.118
26.683001 -6.908 5.1230001
26.657 -6.8150001 5.1160002
26.653999 -6.7290001 5.1139998
26.662001 -6.6469998 5.1139998
26.674 -6.566 5.1149998
26.660999 -6.4790001 5.1110001
26.663 -6.3959999 5.1090002
26.660999 -6.3130002 5.1079998
26.691999 -6.2379999 5.112
26.694 -6.1570001 5.1110001
26.711 -6.0799999 5.1129999
26.690001 -5.994 5.1069999
26.705 -5.9180002 5.1079998
26.733999 -5.8439999 5.1129999
30.905001 3.2130001 6.1230001
30.865 3.286 6.1170001
30.874001 3.365 6.1209998
30.937 3.451 6.1360002
30.854 3.52 6.1209998
30.882 3.6029999 6.1290002
30.844 3.678 6.1240001
30.802 3.7539999 6.118
30.827 3.8369999 6.1259999
30.843 3.921 6.132
30.830999 4.0009999 6.132
30.889999 4.0910001 6.1459999
30.849001 4.1680002 6.1409998
30.862 4.2529998 6.1459999
30.9 4.342 6.1570001
30.865999 4.4219999 6.1529999
30.865 4.506 6.1560001
30.940001 4.6030002 6.1739998
30.91 4.684 6.171
30.860001 4.7620001 6.164
30.898001 4.8540001 6.1750002
30.893999 4.941 6.177
30.896 5.0289998 6.1810002
30.923 5.1209998 6.1900001
30.923 5.2090001 6.1939998
30.934 5.3000002 6.1999998
30.972 5.3959999 6.211
30.933001 5.4780002 6.2069998
30.934 5.5689998 6.211
30.933001 5.6589999 6.2140002
30.974001 5.7579999 6.2270002
30.944 5.8429999 6.224
30.936001 5.934 6.2270002
31.042 6.046 6.2519999
30.999001 6.131 6.2480001
30.962999 6.2160001 6.2449999
30.948999 6.3070002 6.2459998
30.966 6.4039998 6.2540002
30.962 6.4980001 6.2579999
31.069 6.6149998 6.2839999
31.027 6.7010002 6.2800002
31.021999 6.796 6.2839999
31.011999 6.8889999 6.2859998
31.042999 7.0890002 6.302
31.000999 7.1760001 6.2989998
31.049 7.2849998 6.3130002
31.056999 7.3839998 6.3200002
25.986 -13.291 5.2270002
26.030001 -13.234 5.2350001
26.027 -13.152 5.2329998
26.077999 -13.098 5.2420001
26.068001 -12.933 5.237
26.084999 -12.862 5.2399998
26.084 -12.782 5.2379999
26.094 -12.707 5.2389998
26.113001 -12.636 5.2420001
26.114 -12.557 5.2410002
26.118 -12.479 5.2399998
26.146 -12.412 5.244
26.155001 -12.336 5.2449999
26.184999 -12.271 5.25
26.174999 -12.106 5.2449999
26.226 -12.049 5.2540002
26.277 -11.992 5.263
26.267 -11.907 5.2600002
26.24 -11.815 5.2529998
26.268999 -11.748 5.257
9.132 -4.0279999 1.826
9.0699997 -3.973 1.814
9.0290003 -3.927 1.8049999
9.0120001 -3.892 1.801
9.0159998 -3.8670001 1.802
9.026 -3.8429999 1.803
9.0439997 -3.823 1.806
9.0629997 -3.8039999 1.8099999
9.1269999 -3.803 1.822
26.329 -10.731 5.2519999
26.330999 -10.652 5.2509999
26.333 -10.572 5.25
26.327 -10.49 5.2480001
26.371 -10.427 5.2550001
26.344 -10.337 5.2490001
26.349001 -10.258 5.2480001
26.381001 -10.191 5.2529998
26.415001 -10.124 5.2589998
26.389999 -10.034 5.2519999
26.388 -9.9530001 5.2509999
26.385 -9.8719997 5.2490001
26.412001 -9.802 5.2529998
26.436001 -9.7309999 5.256
26.427999 -9.6479998 5.2529998
26.42 -9.5649996 5.25
26.427999 -9.4879999 5.25
26.462 -9.4200001 5.256
26.455 -9.3369999 5.2529998
26.462999 -9.2600002 5.2529998
26.499001 -9.1929998 5.2589998
26.476 -9.1040001 5.2529998
26.488001 -9.0290003 5.2540002
26.546 -8.9680004 5.2639999
26.556 -8.8909998 5.2649999
26.563 -8.6529999 5.2620001
26.541 -8.566 5.256
26.575001 -8.4969997 5.2610002
26.540001 -8.4060001 5.2529998
26.568001 -8.335 5.257
26.603001 -8.2659998 5.263
26.615 -8.1890001 5.2639999
26.573999 -8.0970001 5.2540002
26.570999 -8.0159998 5.2519999
26.594 -7.9429998 5.2550001
26.601999 -7.8649998 5.2550001
26.594 -7.783 5.2519999
26.672001 -7.2459998 5.2579999
26.657 -7.1620002 5.2529998
26.662001 -7.0840001 5.2529998
26.656 -7.0019999 5.25
26.67 -6.9260001 5.2509999
26.657 -6.8429999 5.2470002
26.672001 -6.7670002 5.2490001
26.657 -6.684 5.244
26.663 -6.6059999 5.244
26.658001 -6.5250001 5.2420001
26.676001 -6.4499998 5.244
26.694 -6.3740001 5.2459998
26.681 -6.2919998 5.2420001
26.677 -6.211 5.2389998
26.716999 -6.1409998 5.2459998
26.705 -6.059 5.2420001
26.691 -5.9759998 5.2379999
26.707001 -5.9000001 5.2389998
26.718 -5.823 5.2399998
26.750999 -5.75 5.2449999
26.781 -5.677 5.2490001
30.962999 3.8469999 6.2179999
30.912001 3.914 6.211
30.929001 4.3670001 6.2329998
30.950001 4.448 6.2410002
30.961 4.527 6.2470002
30.958 4.684 6.2540002
30.92 4.7579999 6.25
30.968 5.1719999 6.2789998
31.041 5.2670002 6.2989998
30.966999 5.3379998 6.2880001
30.965 5.592 6.3010001
31 5.684 6.3119998
30.98 5.7659998 6.3130002
30.993 5.8559999 6.3210001
31.004 5.9450002 6.3270001
31.027 6.2150002 6.3470001
31.025999 6.3049998 6.3520002
31.017 6.5749998 6.3660002
31.017 6.6659999 6.3709998
30.954 6.7449999 6.3639998
24.738001 -16.261999 5.1279998
24.826 -16.166 5.1409998
24.910999 -16.066999 5.1539998
24.961 -15.947 5.1599998
25.031 -15.839 5.1690001
25.1 -15.732 5.1789999
25.15 -15.614 5.1849999
25.202999 -15.498 5.191
25.249001 -15.379 5.1960001
25.301001 -15.264 5.2020001
25.379 -15.165 5.2140002
25.421 -15.045 5.2179999
25.452 -14.92 5.2199998
25.511 -14.811 5.2280002
25.549 -14.692 5.2319999
25.606001 -14.584 5.2389998
25.642 -14.464 5.2420001
25.695 -14.355 5.2490001
25.733999 -14.239 5.2529998
25.756001 -14.114 5.2529998
25.837999 -14.022 5.2659998
25.85 -13.894 5.2649999
25.919001 -13.796 5.2750001
25.955 -13.682 5.2779999
26.045 -13.334 5.2849998
26.032 -13.197 5.2789998
26.030001 -13.068 5.2750001
26.058001 -12.954 5.277
26.106001 -12.85 5.283
26.114 -12.728 5.2810001
26.141001 -12.616 5.283
26.142 -12.492 5.2800002
26.172001 -12.383 5.283
26.211 -12.279 5.2870002
26.212999 -12.158 5.2839999
26.253 -12.055 5.289
26.297001 -11.955 5.2950001
26.306999 -11.84 5.2930002
26.313 -11.724 5.2909999
26.337999 -11.617 5.2930002
26.348 -11.504 5.2919998
26.349001 -11.389 5.289
9.1370001 -3.869 1.832
9.0760002 -3.8039999 1.819
9.066 -3.7609999 1.816
9.0699997 -3.724 1.8150001
9.085 -3.6919999 1.817
9.1440001 -3.678 1.8279999
26.489 -10.434 5.2909999
26.451 -10.31 5.2810001
26.42 -10.191 5.2719998
26.459999 -10.099 5.277
26.487 -10.003 5.2800002
26.499001 -9.9020004 5.2800002
26.493 -9.7939997 5.276
26.482 -9.6859999 5.2709999
26.493 -9.5860004 5.2709999
26.507999 -9.4879999 5.2709999
26.500999 -9.3830004 5.2680001
26.530001 -9.2919998 5.2709999
26.533001 -9.1920004 5.2690001
26.525999 -9.0889997 5.2649999
26.548 -8.9969997 5.2670002
26.563999 -8.9029999 5.2680001
26.566999 -8.8059998 5.2659998
26.587999 -8.7150002 5.2680001
26.622 -8.6280003 5.2729998
26.584999 -8.5200005 5.263
26.594 -8.427 5.263
26.615999 -8.3380003 5.2649999
26.605 -8.2399998 5.2610002
26.614 -8.1479998 5.2610002
26.59 -8.0469999 5.2540002
26.586 -7.9530001 5.2509999
26.611 -7.869 5.2540002
26.607 -7.7750001 5.2509999
26.68 -7.7049999 5.263
26.688999 -7.4369998 5.2589998
26.665001 -7.3410001 5.2529998
26.664 -7.2519999 5.2509999
26.643999 -7.1589999 5.2449999
26.663 -7.0760002 5.2470002
26.657 -6.9879999 5.244
26.655001 -6.901 5.2420001
26.681999 -6.822 5.2449999
26.665001 -6.7329998 5.2399998
26.659 -6.6459999 5.237
26.655001 -6.5609999 5.2350001
26.656 -6.4780002 5.2329998
26.671 -6.3990002 5.2350001
26.653 -6.3119998 5.23
26.684999 -6.237 5.2340002
26.679001 -6.1539998 5.2319999
26.715 -6.0809999 5.237
26.732 -6.0040002 5.2389998
26.690001 -5.915 5.2290001
26.709999 -5.8390002 5.2319999
30.912001 3.2179999 6.2880001
30.863001 3.29 6.2810001
30.872999 3.369 6.2849998
30.806999 3.4400001 6.2740002
30.872999 3.526 6.289
30.827 3.6010001 6.2820001
30.798 3.677 6.2789998
30.801001 3.757 6.2820001
30.843 3.8429999 6.2930002
30.823999 3.9219999 6.2919998
30.813 4.0029998 6.2919998
30.837999 4.0879998 6.3000002
30.834999 4.1700001 6.302
30.844 4.2550001 6.3070002
30.836 4.3369999 6.309
30.843 4.4219999 6.3130002
30.827 4.5050001 6.3130002
30.858999 4.5939999 6.323
30.863001 4.6810002 6.3270001
30.865 4.7670002 6.3299999
30.843 4.8499999 6.329
30.884001 4.9429998 6.3410001
30.837999 5.0229998 6.335
30.844 5.112 6.3400002
30.893999 5.2080002 6.3540001
30.875999 5.2940001 6.3540001
30.888 5.3850002 6.3600001
30.851999 5.4679999 6.3569999
30.917 5.5700002 6.3740001
30.93 5.6630001 6.381
30.884001 5.7449999 6.375
30.9 5.8390002 6.382
30.961 5.9429998 6.3990002
30.941 6.0310001 6.3990002
30.944 6.1240001 6.4039998
30.938999 6.309 6.4120002
31.042999 6.4239998 6.4380002
30.993999 6.5079999 6.4320002
31.025 6.6100001 6.4439998
31.009001 6.7020001 6.4450002
30.954 6.7849998 6.4380002
31.099001 6.9130001 6.473
31.006001 7.1820002 6.4689999
30.951 7.2659998 6.4619999
31.014999 7.3790002 6.4809999
31.101 7.4980001 6.5040002
25.983 -13.299 5.3530002
26.028 -13.242 5.3610001
26.033001 -13.165 5.3610001
26.011 -13.074 5.355
26.054001 -13.015 5.362
26.035999 -12.927 5.3569999
26.062 -12.86 5.3610001
26.089001 -12.793 5.3660002
26.08 -12.709 5.3629999
26.082001 -12.629 5.362
26.073 -12.545 5.3590002
26.079 -12.468 5.3579998
26.107 -12.402 5.3629999
26.121 -12.328 5.3649998
26.181999 -12.277 5.3759999
26.186001 -12.038 5.3730001
26.162001 -11.947 5.3660002
26.198 -11.883 5.3720002
26.194 -11.801 5.3699999
26.247 -11.745 5.3800001
9.0810003 -4.0079999 1.86
9.0270004 -3.957 1.849
9.0179996 -3.925 1.846
9.0059996 -3.892 1.8430001
8.9949999 -3.8599999 1.841
8.9980001 -3.8340001 1.841
9.0220003 -3.816 1.845
9.0340004 -3.7939999 1.847
9.0860004 -3.7880001 1.857
9.2440004 -3.826 1.8890001
26.368 -10.753 5.3870001
26.327 -10.656 5.3769999
26.320999 -10.573 5.375
26.309999 -10.489 5.3709998
26.318001 -10.411 5.3709998
26.329 -10.336 5.3720002
26.351 -10.265 5.375
26.403999 -10.124 5.3829999
26.385 -10.037 5.3779998
26.392 -9.96 5.3779998
26.372999 -9.8719997 5.3730001
26.415001 -9.8079996 5.3800001
26.414 -9.7270002 5.3779998
26.438999 -9.6560001 5.382
26.445 -9.5780001 5.382
26.405001 -9.4840002 5.3720002
26.424999 -9.4110003 5.375
26.474001 -9.3479996 5.3829999
26.455 -9.2609997 5.3779998
26.487 -9.1920004 5.3829999
26.466 -9.1049995 5.3769999
26.483 -9.0299997 5.3790002
26.539 -8.9689999 5.3889999
26.537001 -8.8889999 5.388
26.584 -8.7440004 5.3940001
26.586 -8.6639996 5.3930001
26.538 -8.5679998 5.382
26.521999 -8.4829998 5.3769999
26.558001 -8.415 5.3829999
26.587 -8.3439999 5.3870001
26.563999 -8.2559996 5.381
26.591 -8.1850004 5.3850002
26.563 -8.0959997 5.3779998
26.551001 -8.0120001 5.3740001
26.549999 -7.9320002 5.3720002
26.542999 -7.8499999 5.3699999
26.580999 -7.7820001 5.3759999
26.629 -7.7160001 5.3839998
26.627001 -7.6350002 5.382
26.653999 -7.5630002 5.3860002
26.660999 -7.4850001 5.3860002
26.618 -7.3930001 5.3759999
26.673 -7.3280001 5.3850002
26.631001 -7.237 5.3759999
26.614 -7.152 5.3709998
26.653999 -7.0830002 5.3769999
26.622999 -6.836 5.3660002
26.632999 -6.7589998 5.3670001
26.653999 -6.684 5.3699999
26.65 -6.6040001 5.3670001
26.681 -6.5320001 5.3720002
26.645 -6.4429998 5.3629999
26.663 -6.368 5.3649998
26.66 -6.2880001 5.3629999
26.672001 -6.211 5.3639998
26.688 -6.1350002 5.3660002
26.702999 -6.059 5.3670001
26.698999 -5.9780002 5.3649998
26.705 -5.9000001 5.3649998
26.764 -5.8330002 5.375
26.735001 -5.7470002 5.368
26.733 -5.6669998 5.3660002
30.907 5 6.4260001
30.948999 5.0890002 6.4390001
30.988001 5.178 6.4510002
24.719999 -16.254999 5.2470002
24.816 -16.164 5.2620001
24.882999 -16.054001 5.2709999
24.941 -15.938 5.2789998
25.028999 -15.842 5.2919998
25.082001 -15.725 5.2989998
25.15 -15.618 5.309
25.205 -15.504 5.3150001
25.25 -15.384 5.3200002
25.299999 -15.268 5.3260002
25.344 -15.148 5.3309999
25.385 -15.028 5.335
25.457001 -14.927 5.3460002
25.49 -14.804 5.348
25.537001 -14.689 5.3540001
25.575001 -14.57 5.3579998
25.621 -14.457 5.3629999
25.662001 -14.341 5.3670001
25.724001 -14.237 5.3759999
25.726999 -14.102 5.3730001
25.771999 -13.991 5.3779998
25.797001 -13.869 5.3790002
25.841999 -13.759 5.3850002
25.889 -13.651 5.3909998
25.896999 -13.523 5.388
25.926001 -13.407 5.3909998
25.962999 -13.295 5.3940001
25.969999 -13.169 5.3920002
26.025 -13.068 5.4000001
26.041 -12.948 5.3990002
26.063999 -12.833 5.4000001
26.101999 -12.726 5.4050002
26.134001 -12.616 5.408
26.134001 -12.491 5.4039998
26.169001 -12.385 5.408
26.174999 -12.265 5.4060001
26.202 -12.156 5.408
26.226 -12.046 5.4099998
26.267 -11.945 5.415
26.313999 -11.846 5.421
26.326 -11.733 5.4200001
26.306 -11.606 5.4130001
26.333 -11.501 5.415
26.365 -11.398 5.4190001
9.3400002 -3.997 1.918
9.0950003 -3.852 1.867
9.0710001 -3.803 1.8609999
9.059 -3.7590001 1.857
9.0459995 -3.7149999 1.854
9.0640001 -3.6849999 1.8559999
9.1160002 -3.6670001 1.8660001
9.3059998 -3.7049999 1.904
26.424999 -10.303 5.401
26.427999 -10.196 5.3990002
26.441999 -10.094 5.3990002
26.482 -10.003 5.4050002
26.504 -9.8000002 5.4039998
26.486 -9.6890001 5.3979998
26.500999 -9.5909996 5.3979998
26.511 -9.4910002 5.3969998
26.469999 -9.375 5.3870001
26.48 -9.2770004 5.3860002
26.525 -9.191 5.3930001
26.542999 -9.0970001 5.3940001
26.603001 -9.0179996 5.4039998
26.569 -8.9069996 5.395
26.540001 -8.7989998 5.3860002
26.646999 -8.7360001 5.4060001
26.632 -8.6330004 5.4000001
26.589001 -8.5229998 5.3889999
26.569 -8.4200001 5.3829999
26.58 -8.3280001 5.3829999
26.599001 -8.2399998 5.3850002
26.563999 -8.1350002 5.3759999
26.552999 -8.0380001 5.3709998
26.555 -7.9450002 5.369
26.558001 -7.8540001 5.368
26.615 -7.7789998 5.3769999
26.632 -7.6919999 5.3790002
26.620001 -7.598 5.3740001
26.598 -7.5019999 5.368
26.612 -7.4169998 5.369
26.601 -7.3239999 5.3649998
26.577 -7.23 5.3579998
26.653 -7.1620002 5.3709998
26.691 -7.085 5.3769999
26.686001 -6.9959998 5.3740001
26.627001 -6.895 5.3610001
26.625 -6.809 5.3590002
26.639 -6.7270002 5.3600001
26.646 -6.6440001 5.3590002
26.635 -6.5570002 5.355
26.643 -6.4749999 5.355
26.629999 -6.3889999 5.3509998
26.657 -6.3130002 5.355
26.653 -6.23 5.3520002
26.655001 -6.1490002 5.3509998
26.686001 -6.0749998 5.3559999
26.718 -6.0009999 5.3610001
26.666 -5.9089999 5.349
26.688 -5.835 5.3520002
30.889999 3.6919999 6.4629998
30.854 3.7679999 6.4580002
30.853001 3.849 6.461
30.855 3.9300001 6.4640002
30.827 4.0079999 6.461
30.853001 4.0939999 6.4689999
30.834999 4.1739998 6.4679999
30.879999 4.2639999 6.4809999
30.85 4.3429999 6.4780002
30.829 4.4239998 6.4759998
30.875999 4.5159998 6.4889998
30.886 4.6020002 6.4949999
30.871 4.6859999 6.4949999
30.915001 4.7789998 6.5079999
30.875999 4.8590002 6.5029998
30.903 4.9499998 6.5120001
30.900999 5.0370002 6.5149999
30.886 5.1230001 6.5159998
30.971001 5.2249999 6.5380001
30.982 5.316 6.5440001
30.971001 5.494 6.5489998
30.974001 5.5840001 6.5539999
26.083 -12.718 5.4899998
26.106001 -12.65 5.494
26.131001 -12.581 5.4980001
9.1140003 -4.0250001 1.911
9.0780001 -3.9809999 1.903
9.0500002 -3.941 1.897
9.0360003 -3.908 1.893
9.0190001 -3.872 1.8890001
9.0100002 -3.8410001 1.887
9.0100002 -3.8139999 1.886
9.0209999 -3.7909999 1.888
9.0699997 -3.7839999 1.898
9.184 -3.803 1.921
26.382999 -10.684 5.5159998
26.32 -10.578 5.5009999
26.285 -10.484 5.493
26.367001 -10.436 5.5079999
26.364 -10.355 5.506
26.393 -9.9650002 5.5050001
26.399 -9.8870001 5.5050001
26.392 -9.8039999 5.5019999
26.41 -9.7299995 5.5040002
26.41 -9.6499996 5.5029998
26.427 -9.5760002 5.5050001
26.441 -9.5010004 5.506
26.434999 -9.4189997 5.5040002
26.481001 -9.3549995 5.5120001
26.503 -9.0410004 5.5100002
26.487 -8.9560003 5.506
26.556 -8.8979998 5.5180001
26.579 -8.665 5.5190001
26.531 -8.5690002 5.507
26.556999 -8.4980001 5.5110002
26.593 -8.4289999 5.5170002
26.568001 -8.3409996 5.5110002
26.556999 -8.257 5.507
26.556999 -8.177 5.5050001
26.524 -8.0869999 5.4970002
26.535999 -8.0109997 5.4980001
26.548 -7.934 5.4990001
26.549999 -7.855 5.4980001
26.583 -7.7849998 5.5029998
26.625 -7.717 5.5100002
26.563999 -7.619 5.4959998
26.613001 -7.553 5.5050001
26.579 -7.4640002 5.4959998
26.584999 -7.3860002 5.4959998
26.601999 -7.3099999 5.4980001
26.591 -7.2280002 5.494
26.611 -7.1529999 5.4970002
26.655001 -7.085 5.5040002
26.674999 -7.0110002 5.507
26.688 -6.934 5.5079999
26.645 -6.8429999 5.4970002
26.671 -6.77 5.5009999
26.615 -6.6760001 5.4879999
26.615999 -6.5970001 5.487
26.632 -6.5209999 5.4879999
26.655001 -6.447 5.4920001
26.68 -6.3730001 5.4949999
26.663 -6.289 5.4899998
26.653999 -6.2080002 5.487
26.657 -6.1290002 5.4860001
26.659 -6.0489998 5.4850001
26.677999 -5.974 5.487
26.716 -5.9029999 5.493
26.732 -5.8270001 5.4949999
26.719999 -5.7449999 5.4910002
26.729 -5.6669998 5.4910002
24.745001 -16.277 5.375
24.837999 -16.183001 5.3899999
24.91 -16.076 5.401
24.988001 -15.973 5.4130001
25.055 -15.864 5.4219999
25.115999 -15.752 5.4310002
25.162001 -15.631 5.4359999
25.226999 -15.522 5.4450002
25.27 -15.4 5.4489999
25.344999 -15.299 5.461
25.400999 -15.187 5.4679999
25.445999 -15.069 5.473
25.483999 -14.947 5.4770002
25.542999 -14.839 5.4850001
25.555 -14.703 5.4829998
25.594999 -14.586 5.487
25.66 -14.483 5.4970002
25.708 -14.37 5.5029998
25.728001 -14.107 5.4990001
25.854 -14.039 5.5209999
25.834999 -13.894 5.513
25.839001 -13.762 5.5100002
25.891001 -13.656 5.5170002
25.944 -13.551 5.5240002
25.938999 -13.417 5.5190001
25.954 -13.294 5.5190001
25.971001 -13.174 5.5180001
26.016001 -13.068 5.5240002
26.034 -12.949 5.5240002
26.059 -12.834 5.526
26.08 -12.718 5.526
26.16 -12.632 5.54
26.159 -12.507 5.5359998
26.146999 -12.378 5.5300002
26.198999 -12.28 5.5370002
26.233999 -12.174 5.5409999
26.240999 -12.056 5.539
26.304001 -11.965 5.5489998
26.364 -11.872 5.5580001
26.34 -11.624 5.5469999
26.334 -11.504 5.5419998
9.1759996 -3.928 1.929
9.1140003 -3.862 1.915
9.0979996 -3.816 1.91
9.0760002 -3.767 1.904
9.0679998 -3.7249999 1.902
9.073 -3.6889999 1.902
9.1160002 -3.668 1.91
9.3719997 -3.7320001 1.962
26.422001 -10.305 5.527
26.417 -10.194 5.5229998
26.454 -10.101 5.5279999
26.514 -10.018 5.5380001
26.525999 -9.7060003 5.5320001
26.528 -9.6029997 5.5300002
26.502001 -9.4899998 5.5219998
26.478001 -9.3800001 5.5139999
26.509001 -9.2889996 5.5180001
26.556 -9.2040005 5.5250001
26.576 -8.9110003 5.5219998
26.528 -8.7959995 5.5100002
26.677 -8.7469997 5.5380001
26.643 -8.5419998 5.526
26.596001 -8.4309998 5.5139999
26.575001 -8.3290005 5.5079999
26.573999 -8.2329998 5.5050001
26.589001 -8.1440001 5.506
26.577999 -8.0469999 5.5019999
26.622999 -7.967 5.5089998
26.568001 -7.8579998 5.4949999
26.601 -7.776 5.5
26.673 -7.7059999 5.513
26.594 -7.592 5.4949999
26.618 -7.5089998 5.4980001
26.601 -7.414 5.4920001
26.594999 -7.3239999 5.4889998
26.618999 -7.2420001 5.4920001
26.593 -7.1469998 5.4840002
26.657 -7.0770001 5.4959998
26.669001 -6.993 5.4959998
26.652 -6.902 5.4910002
26.646 -6.8150001 5.4879999
26.618999 -6.723 5.4809999
26.629999 -6.6409998 5.4809999
26.671 -6.5669999 5.4879999
26.646999 -6.4770002 5.4809999
26.677999 -6.401 5.4860001
26.645 -6.3109999 5.4770002
26.665001 -6.2329998 5.48
26.634001 -6.1440001 5.4720001
26.702 -6.079 5.4840002
26.705 -5.9180002 5.4809999
26.687 -5.835 5.4759998
30.825001 3.372 6.6069999
30.849001 3.4530001 6.6139998
30.839001 3.6099999 6.6170001
30.822001 3.688 6.6160002
30.813 3.767 6.6170001
30.872 3.855 6.632
30.784 3.925 6.6160002
30.820999 4.0120001 6.6269999
30.823999 4.0939999 6.631
30.858999 4.1820002 6.6409998
30.846001 4.263 6.6409998
30.851999 4.348 6.6459999
30.862 4.4330001 6.651
30.837999 4.5139999 6.6500001
30.85 4.6009998 6.6550002
30.856001 5.4770002 6.6939998
30.882 5.572 6.704
30.938 5.6729999 6.7199998
9.1459999 -4.0419998 1.962
9.1289997 -4.006 1.9579999
9.1529999 -3.9879999 1.9630001
9.1260004 -3.9489999 1.957
9.1079998 -3.9130001 1.952
9.0679998 -3.868 1.943
9.0570002 -3.836 1.9400001
9.0790005 -3.8169999 1.9450001
