# .PCD v0.7 - Point Cloud Data file format
VERSION 0.7
FIELDS x y z
SIZE 4 4 4
TYPE F F F
COUNT 1 1 1
WIDTH 1660
HEIGHT 1
VIEWPOINT 0 0 0 1 0 0 0
POINTS 1660
DATA ascii
7.6999998 1.524 -0.62199998
7.711 1.549 -0.62400001
7.7030001 1.5700001 -0.62400001
7.7280002 1.598 -0.62699997
7.723 1.62 -0.62699997
7.7270002 1.6440001 -0.62800002
7.7329998 1.669 -0.62900001
7.7540002 1.697 -0.63200003
7.7509999 1.72 -0.63200003
7.757 1.745 -0.63300002
7.7729998 1.772 -0.63499999
7.7859998 1.8 -0.63700002
7.789 1.825 -0.63800001
7.7950001 1.85 -0.63999999
7.7919998 1.874 -0.63999999
7.8119998 1.904 -0.64300001
7.8189998 1.9299999 -0.64399999
7.8270001 1.957 -0.64499998
7.822 1.9809999 -0.64600003
7.8530002 2.0139999 -0.64899999
7.855 2.04 -0.64999998
7.8540001 2.066 -0.65100002
7.8649998 2.0940001 -0.653
7.8740001 2.1229999 -0.65399998
7.881 2.151 -0.65600002
7.881 2.177 -0.65700001
7.8800001 2.2030001 -0.65700001
7.8759999 2.2279999 -0.65799999
7.8940001 2.26 -0.66000003
7.9070001 2.29 -0.662
7.9169998 2.3199999 -0.66399997
7.915 2.346 -0.66500002
7.9510002 2.3840001 -0.66900003
7.941 2.4089999 -0.66900003
7.9499998 2.4389999 -0.671
7.9569998 2.4690001 -0.67199999
7.9569998 2.4960001 -0.67299998
7.974 2.53 -0.676
7.9720001 2.5569999 -0.676
7.993 2.592 -0.67900002
7.9949999 2.6210001 -0.68000001
7.9990001 2.651 -0.68199998
8.0089998 2.6830001 -0.68400002
8.0290003 2.7179999 -0.68599999
8.0340004 2.7490001 -0.68800002
8.04 2.78 -0.68900001
8.0450001 2.8110001 -0.69099998
8.0530005 2.8429999 -0.69300002
8.0649996 2.8770001 -0.69499999
8.0480003 2.901 -0.69400001
8.0579996 2.9349999 -0.69599998
8.0670004 2.9679999 -0.69800001
8.1070004 3.013 -0.70300001
8.1110001 3.0439999 -0.704
8.1140003 3.076 -0.70599997
8.1289997 3.112 -0.708
8.1309996 3.1440001 -0.70899999
8.1529999 3.184 -0.713
8.1540003 3.2149999 -0.71399999
8.1689997 3.2520001 -0.71600002
8.1719999 3.2850001 -0.71799999
8.1789999 3.319 -0.72000003
8.1929998 3.3570001 -0.722
8.2010002 3.392 -0.72399998
8.2209997 3.4330001 -0.727
8.2279997 3.4679999 -0.72899997
8.2220001 3.497 -0.72899997
8.2410002 3.5380001 -0.73199999
8.2620001 3.5799999 -0.736
8.2679996 3.6159999 -0.73699999
8.3000002 3.6630001 -0.741
8.2930002 3.6930001 -0.74199998
8.3050003 3.7320001 -0.745
8.3170004 3.7709999 -0.74699998
8.323 3.8080001 -0.74900001
8.335 3.8469999 -0.75099999
8.335 3.881 -0.75300002
8.3389997 3.9170001 -0.75400001
8.3260002 3.9449999 -0.75400001
8.3310003 3.983 -0.75599998
8.349 4.026 -0.759
8.3579998 4.0650001 -0.76200002
8.3629999 4.1020002 -0.76300001
8.368 4.1399999 -0.76499999
8.3830004 4.1830001 -0.76800001
8.3699999 4.211 -0.76800001
8.3920002 4.2579999 -0.77200001
8.3889999 4.2919998 -0.773
8.3870001 4.3270001 -0.77399999
8.3809996 4.3600001 -0.77499998
8.3809996 4.3959999 -0.77700001
8.3850002 4.434 -0.778
8.3990002 4.4780002 -0.78100002
8.3970003 4.5139999 -0.78299999
8.4049997 4.5549998 -0.78500003
8.408 4.5929999 -0.787
8.4090004 4.631 -0.78799999
8.4029999 4.664 -0.78899997
8.408 4.704 -0.79100001
8.4160004 4.7459998 -0.79400003
8.4239998 4.7880001 -0.796
8.4200001 4.8239999 -0.79699999
8.4300003 4.8670001 -0.80000001
8.4219999 4.9000001 -0.801
8.4329996 4.9450002 -0.80299997
8.4350004 4.9840002 -0.80500001
8.4429998 5.027 -0.80699998
8.4420004 5.0650001 -0.80900002
8.448 5.1079998 -0.81099999
8.4429998 5.1430001 -0.81199998
8.4540005 5.1890001 -0.815
8.4460001 5.223 -0.81599998
8.4440002 5.2610002 -0.81800002
8.4420004 5.2989998 -0.81900001
8.4239998 5.3270001 -0.81900001
8.4289999 5.3699999 -0.82099998
8.4180002 5.402 -0.82200003
8.4099998 5.4369998 -0.82300001
8.4099998 5.4770002 -0.82499999
8.4020004 5.5110002 -0.82599998
8.401 5.5510001 -0.82700002
8.4029999 5.592 -0.829
8.3920002 5.6240001 -0.82999998
8.408 5.6750002 -0.833
8.3920002 5.7049999 -0.83399999
8.3809996 5.7379999 -0.83399999
8.3780003 5.777 -0.83600003
8.3590002 5.8039999 -0.83600003
8.375 5.8559999 -0.83899999
8.349 5.8790002 -0.838
8.3310003 5.9070001 -0.838
8.3339996 5.9499998 -0.84100002
8.3079996 5.9720001 -0.83999997
8.2840004 5.9959998 -0.83899999
5.4489999 -3.619 -0.33000001
5.4699998 -3.598 -0.331
5.4790001 -3.569 -0.331
5.507 -3.553 -0.333
5.5219998 -3.5280001 -0.333
5.5469999 -3.51 -0.33399999
5.5710001 -3.4920001 -0.33500001
5.586 -3.467 -0.336
5.5949998 -3.4389999 -0.336
5.6100001 -3.415 -0.33700001
5.6240001 -3.391 -0.33700001
5.632 -3.3629999 -0.33700001
5.6459999 -3.339 -0.338
5.6659999 -3.3180001 -0.33899999
5.6939998 -3.302 -0.34
5.7189999 -3.2850001 -0.34099999
5.7199998 -3.253 -0.34099999
5.7280002 -3.2260001 -0.34099999
5.7620001 -3.214 -0.34200001
5.7670002 -3.1849999 -0.34200001
5.7859998 -3.165 -0.34299999
5.8200002 -3.152 -0.345
5.8249998 -3.1240001 -0.345
5.8319998 -3.0969999 -0.345
5.8509998 -3.0769999 -0.34599999
5.8699999 -3.0569999 -0.34599999
5.875 -3.029 -0.34599999
5.9000001 -3.0120001 -0.34799999
5.9180002 -2.9909999 -0.34799999
5.9299998 -2.9679999 -0.34900001
5.9489999 -2.948 -0.34900001
5.9720001 -2.9300001 -0.34999999
5.973 -2.901 -0.34999999
5.994 -2.882 -0.35100001
6.02 -2.8659999 -0.352
6.0219998 -2.8380001 -0.352
6.0419998 -2.819 -0.35299999
6.052 -2.796 -0.35299999
6.0700002 -2.776 -0.354
6.0739999 -2.7490001 -0.354
6.0809999 -2.7249999 -0.354
6.0879998 -2.7 -0.354
6.118 -2.6860001 -0.35600001
6.1389999 -2.668 -0.35699999
6.158 -2.648 -0.35699999
6.1750002 -2.628 -0.35800001
6.191 -2.608 -0.359
6.2059999 -2.5869999 -0.359
6.223 -2.5669999 -0.36000001
6.2319999 -2.5450001 -0.36000001
6.2589998 -2.529 -0.36199999
6.277 -2.5090001 -0.36199999
6.2930002 -2.49 -0.36300001
6.2880001 -2.461 -0.36199999
6.3249998 -2.45 -0.36399999
6.3429999 -2.431 -0.36500001
6.362 -2.4119999 -0.366
6.3699999 -2.3889999 -0.366
6.3839998 -2.369 -0.36700001
6.4060001 -2.352 -0.368
6.415 -2.329 -0.368
6.4239998 -2.3069999 -0.368
6.4510002 -2.2920001 -0.36899999
6.448 -2.266 -0.36899999
6.473 -2.2490001 -0.37
6.494 -2.2320001 -0.37099999
6.5100002 -2.2119999 -0.37200001
6.5289998 -2.194 -0.373
6.5300002 -2.1700001 -0.37200001
6.5380001 -2.1489999 -0.373
6.573 -2.1359999 -0.37400001
6.5939999 -2.118 -0.375
6.599 -2.096 -0.375
6.5999999 -2.072 -0.375
6.6209998 -2.0550001 -0.37599999
6.6269999 -2.033 -0.37599999
6.6399999 -2.013 -0.377
6.6529999 -1.994 -0.377
6.6669998 -1.975 -0.37799999
6.6739998 -1.9529999 -0.37799999
6.6890001 -1.9349999 -0.37900001
6.7119999 -1.918 -0.38
6.7129998 -1.895 -0.37900001
6.7360001 -1.8789999 -0.38100001
6.7449999 -1.859 -0.38100001
6.7610002 -1.841 -0.382
6.7779999 -1.823 -0.382
6.79 -1.803 -0.38299999
6.8010001 -1.784 -0.38299999
6.8150001 -1.765 -0.384
6.8299999 -1.747 -0.384
6.8309999 -1.726 -0.384
6.8509998 -1.709 -0.38499999
6.862 -1.689 -0.38600001
6.882 -1.673 -0.38699999
6.901 -1.656 -0.38699999
6.9130001 -1.637 -0.38800001
6.9380002 -1.6210001 -0.389
6.9569998 -1.604 -0.38999999
6.9679999 -1.585 -0.38999999
6.9720001 -1.5650001 -0.38999999
6.9910002 -1.548 -0.391
7.0159998 -1.533 -0.39199999
7.0219998 -1.513 -0.39300001
7.039 -1.4960001 -0.39300001
7.0570002 -1.479 -0.39399999
7.0689998 -1.461 -0.39500001
7.079 -1.442 -0.39500001
7.0949998 -1.425 -0.396
7.0949998 -1.405 -0.396
7.1170001 -1.3890001 -0.39700001
7.138 -1.372 -0.398
7.1370001 -1.352 -0.39700001
7.1719999 -1.339 -0.39899999
7.197 -1.323 -0.40000001
7.1789999 -1.3 -0.39899999
7.197 -1.284 -0.40000001
7.2150002 -1.267 -0.40099999
7.2189999 -1.248 -0.40099999
7.2360001 -1.232 -0.40200001
7.2449999 -1.214 -0.40200001
7.276 -1.2 -0.40400001
7.2870002 -1.182 -0.40400001
7.303 -1.166 -0.405
7.2930002 -1.145 -0.40400001
7.309 -1.1289999 -0.405
7.3260002 -1.113 -0.40599999
7.3429999 -1.096 -0.40599999
7.3530002 -1.079 -0.40700001
7.3629999 -1.062 -0.40700001
7.3600001 -1.043 -0.40700001
7.3769999 -1.027 -0.40799999
7.3909998 -1.011 -0.40799999
7.3940001 -0.99299997 -0.40799999
7.4180002 -0.97799999 -0.41
7.4260001 -0.96100003 -0.41
7.4429998 -0.94499999 -0.41100001
7.4520001 -0.92799997 -0.41100001
7.46 -0.912 -0.41100001
7.4710002 -0.89499998 -0.412
7.4720001 -0.87800002 -0.412
7.4990001 -0.86299998 -0.41299999
7.4879999 -0.84500003 -0.412
7.5229998 -0.83099997 -0.414
7.5250001 -0.81400001 -0.414
7.5409999 -0.79900002 -0.41499999
7.5500002 -0.78299999 -0.41499999
7.5500002 -0.76599997 -0.41499999
7.5739999 -0.75199997 -0.41600001
7.5749998 -0.73500001 -0.41600001
7.598 -0.72000003 -0.417
7.6069999 -0.70499998 -0.41800001
7.631 -0.69 -0.419
7.6230001 -0.67299998 -0.41800001
7.6550002 -0.65899998 -0.41999999
7.6739998 -0.64499998 -0.421
7.678 -0.62900001 -0.421
7.6929998 -0.61400002 -0.42199999
7.6869998 -0.59799999 -0.421
7.7179999 -0.58399999 -0.42300001
7.7249999 -0.56900001 -0.42300001
7.7280002 -0.55299997 -0.42300001
7.7389998 -0.53799999 -0.42399999
7.757 -0.52399999 -0.42500001
7.7589998 -0.509 -0.42500001
7.7740002 -0.49399999 -0.42500001
7.7820001 -0.479 -0.426
7.7909999 -0.465 -0.426
7.8070002 -0.44999999 -0.42699999
7.8150001 -0.43599999 -0.42699999
7.829 -0.42199999 -0.428
7.8369999 -0.40700001 -0.428
7.8759999 -0.39399999 -0.43000001
7.8800001 -0.38 -0.43099999
7.881 -0.36500001 -0.43099999
7.9029999 -0.352 -0.43200001
7.9180002 -0.338 -0.43200001
7.9180002 -0.32300001 -0.43200001
7.948 -0.31 -0.43399999
7.9629998 -0.29699999 -0.435
7.9780002 -0.28299999 -0.435
8.0080004 -0.27000001 -0.43700001
8.0349998 -0.257 -0.43799999
8.0369997 -0.243 -0.43799999
8.0600004 -0.23 -0.44
8.0799999 -0.21699999 -0.44100001
8.1040001 -0.20299999 -0.442
8.1639996 -0.191 -0.44499999
7.5500002 0.081 -0.56
7.5760002 0.094999999 -0.56199998
7.5879998 0.109 -0.56300002
7.5679998 0.123 -0.56099999
7.5929999 0.138 -0.56400001
7.5999999 0.153 -0.56400001
7.573 0.167 -0.56199998
7.5799999 0.182 -0.56300002
7.5650001 0.19599999 -0.56199998
7.5869999 0.212 -0.56400001
7.5830002 0.227 -0.56400001
7.5650001 0.242 -0.56300002
7.5570002 0.25799999 -0.56199998
7.5479999 0.273 -0.56199998
7.5479999 0.289 -0.56199998
7.5409999 0.30500001 -0.56199998
7.5349998 0.32100001 -0.56199998
7.533 0.33700001 -0.56199998
7.526 0.35299999 -0.56099999
7.5320001 0.37 -0.56199998
7.5339999 0.38699999 -0.56300002
7.5370002 0.40400001 -0.56300002
7.5289998 0.41999999 -0.56300002
7.5349998 0.43799999 -0.56300002
7.54 0.45500001 -0.56400001
7.5409999 0.47299999 -0.56400001
7.5250001 0.49000001 -0.56400001
7.5359998 0.50800002 -0.565
7.5310001 0.52499998 -0.565
7.5359998 0.54400003 -0.565
7.54 0.56199998 -0.56599998
7.539 0.57999998 -0.56599998
7.5430002 0.59899998 -0.56699997
7.5430002 0.61699998 -0.56699997
7.5679998 0.63800001 -0.56999999
7.5609999 0.65600002 -0.56900001
7.579 0.67699999 -0.57099998
7.5619998 0.69400001 -0.56999999
7.5609999 0.71399999 -0.57099998
7.5799999 0.73500001 -0.57200003
7.5960002 0.75599998 -0.574
7.6090002 0.77700001 -0.57499999
7.6100001 0.796 -0.57599998
7.592 0.81400001 -0.57499999
7.5970001 0.83499998 -0.57599998
7.585 0.85399997 -0.57499999
7.598 0.875 -0.57700002
7.5960002 0.89499998 -0.57700002
7.6090002 0.917 -0.57800001
7.6199999 0.93900001 -0.57999998
7.6170001 0.95999998 -0.57999998
7.6149998 0.98000002 -0.57999998
7.6220002 1.002 -0.58099997
7.6149998 1.022 -0.58099997
7.6329999 1.046 -0.583
7.6300001 1.067 -0.583
7.6479998 1.091 -0.58499998
7.6490002 1.112 -0.58600003
7.6479998 1.1339999 -0.58600003
7.6570001 1.1569999 -0.58700001
7.6529999 1.178 -0.58700001
7.671 1.2029999 -0.58899999
7.6859999 1.228 -0.59100002
7.7049999 1.253 -0.59299999
7.7140002 1.277 -0.59399998
7.7090001 1.299 -0.59500003
7.7199998 1.323 -0.59600002
7.7080002 1.344 -0.59600002
7.7189999 1.369 -0.597
7.7290001 1.3940001 -0.59799999
7.744 1.419 -0.60000002
7.7389998 1.442 -0.60000002
7.7490001 1.467 -0.602
7.7589998 1.492 -0.60299999
7.7740002 1.5190001 -0.60500002
7.7810001 1.544 -0.60600001
7.7789998 1.567 -0.60600001
7.7930002 1.594 -0.60799998
7.802 1.62 -0.61000001
7.803 1.6440001 -0.61000001
7.8130002 1.671 -0.61199999
7.8200002 1.697 -0.61299998
7.8210001 1.721 -0.61400002
7.836 1.749 -0.616
7.8309999 1.773 -0.616
7.8449998 1.801 -0.61799997
7.8520002 1.8279999 -0.61900002
7.848 1.852 -0.61900002
7.8610001 1.88 -0.62099999
7.8629999 1.906 -0.62199998
7.8629999 1.931 -0.62300003
7.8839998 1.961 -0.625
7.8720002 1.984 -0.625
7.8909998 2.0139999 -0.62699997
7.8909998 2.04 -0.62800002
7.9050002 2.069 -0.63
7.9310002 2.102 -0.63200003
7.9250002 2.1270001 -0.63300002
7.9320002 2.155 -0.634
7.9310002 2.181 -0.63499999
7.9299998 2.207 -0.63599998
7.9369998 2.2349999 -0.63700002
7.9299998 2.26 -0.63700002
7.9229999 2.2839999 -0.63700002
7.9419999 2.316 -0.63999999
7.96 2.348 -0.64200002
7.974 2.3789999 -0.64399999
7.9860001 2.4100001 -0.64600003
7.9910002 2.438 -0.64700001
7.9959998 2.467 -0.648
7.9889998 2.4920001 -0.648
7.993 2.5209999 -0.64999998
8.0039997 2.552 -0.65100002
8.0030003 2.579 -0.65200001
8.0200005 2.612 -0.65399998
8.0249996 2.641 -0.65600002
8.0369997 2.6730001 -0.65799999
8.0340004 2.7 -0.65799999
8.04 2.73 -0.66000003
8.0489998 2.7609999 -0.66100001
8.0600004 2.7920001 -0.66299999
8.0719995 2.825 -0.66500002
8.0670004 2.8510001 -0.66600001
8.085 2.8859999 -0.66799998
8.0950003 2.918 -0.67000002
8.099 2.948 -0.671
8.0970001 2.9760001 -0.67199999
8.099 3.0050001 -0.67299998
8.1029997 3.0350001 -0.67400002
8.1309996 3.0739999 -0.67799997
8.1490002 3.1099999 -0.68000001
8.1389999 3.135 -0.68000001
8.1520004 3.1689999 -0.68199998
8.1639996 3.2030001 -0.68400002
8.1680002 3.234 -0.68599999
8.1859999 3.27 -0.68800002
8.1960001 3.3039999 -0.69
8.2040005 3.336 -0.69199997
8.2189999 3.372 -0.69400001
8.2139997 3.4000001 -0.69499999
8.2290001 3.4349999 -0.69700003
8.2449999 3.4719999 -0.69999999
8.2510004 3.5039999 -0.70099998
8.2659998 3.54 -0.704
8.2790003 3.576 -0.70599997
8.2880001 3.6099999 -0.708
8.2959995 3.6429999 -0.70899999
8.3389997 3.6930001 -0.71399999
8.349 3.727 -0.71600002
8.3409996 3.7539999 -0.71700001
8.349 3.7880001 -0.71899998
8.3640003 3.825 -0.72100002
8.3640003 3.8559999 -0.722
8.3839998 3.8959999 -0.72500002
8.3970003 3.9319999 -0.727
8.3970003 3.9630001 -0.72799999
8.4110003 4 -0.73100001
8.4160004 4.0339999 -0.73199999
8.4090004 4.0609999 -0.73299998
8.4329996 4.1040001 -0.736
8.4449997 4.1399999 -0.73900002
8.4650002 4.1810002 -0.74199998
8.4540005 4.2069998 -0.74199998
8.4770002 4.2490001 -0.745
8.4940004 4.289 -0.74800003
8.4860001 4.316 -0.74800003
8.5 4.3540001 -0.75099999
8.5039997 4.3870001 -0.75199997
8.5100002 4.4219999 -0.75400001
8.5080004 4.4520001 -0.755
8.5190001 4.4889998 -0.75800002
8.5319996 4.527 -0.75999999
8.5410004 4.5630002 -0.76200002
8.5649996 4.6069999 -0.76599997
8.5690002 4.6409998 -0.76700002
8.5869999 4.6820002 -0.76999998
8.5860004 4.7129998 -0.77100003
8.5950003 4.7490001 -0.77399999
8.6009998 4.7839999 -0.77600002
8.6280003 4.8309999 -0.77899998
8.6450005 4.8709998 -0.78200001
8.6359997 4.8979998 -0.78299999
8.6529999 4.9390001 -0.78600001
8.6590004 4.973 -0.78799999
8.6789999 5.0159998 -0.79100001
8.6829996 5.0500002 -0.79299998
8.6879997 5.0840001 -0.79400003
8.7130003 5.131 -0.79799998
8.7229996 5.1680002 -0.80000001
8.7139997 5.1939998 -0.801
8.7250004 5.2319999 -0.80299997
8.7220001 5.2620001 -0.80500001
8.7320004 5.2989998 -0.80699998
8.7419996 5.336 -0.80900002
8.7510004 5.3730001 -0.81199998
8.7650003 5.4130001 -0.81400001
8.7799997 5.4530001 -0.81699997
8.7889996 5.4899998 -0.81999999
8.8109999 5.5349998 -0.82300001
8.809 5.5640001 -0.824
8.8269997 5.6069999 -0.82800001
8.8310003 5.6399999 -0.829
8.8450003 5.6799998 -0.83200002
8.8669996 5.7249999 -0.83600003
8.8620005 5.7529998 -0.83700001
8.8839998 5.7979999 -0.83999997
8.8809996 5.8270001 -0.84200001
8.8979998 5.868 -0.84500003
8.9110003 5.9070001 -0.847
8.9169998 5.9419999 -0.85000002
8.9549999 5.9970002 -0.85500002
8.941 6.0180001 -0.85500002
8.948 6.053 -0.85699999
8.9639997 6.0939999 -0.86000001
8.9659996 6.1259999 -0.86199999
8.9879999 6.1700001 -0.866
8.9890003 6.1999998 -0.86699998
9.007 6.243 -0.87099999
9.1619997 6.3800001 -0.88700002
5.7690001 -3.3599999 -0.329
5.7690001 -3.3440001 -0.329
5.783 -3.336 -0.33000001
5.7950001 -3.3269999 -0.33000001
5.79 -3.3069999 -0.33000001
5.809 -3.302 -0.331
5.7909999 -3.276 -0.329
5.8060002 -3.2679999 -0.33000001
5.8119998 -3.2550001 -0.33000001
5.822 -3.2449999 -0.331
5.8439999 -3.2409999 -0.33199999
5.8509998 -3.2279999 -0.33199999
5.8499999 -3.2119999 -0.33199999
5.8779998 -3.211 -0.33399999
5.8839998 -3.197 -0.33399999
5.8909998 -3.1849999 -0.33399999
5.8959999 -3.171 -0.33399999
5.9109998 -3.1619999 -0.33500001
5.9120002 -3.1459999 -0.33500001
5.9320002 -3.1400001 -0.336
5.9320002 -3.1229999 -0.336
5.9330001 -3.1070001 -0.336
5.9510002 -3.0999999 -0.336
5.9710002 -3.0940001 -0.33700001
5.9660001 -3.0739999 -0.33700001
5.9920001 -3.0710001 -0.338
5.9920001 -3.053 -0.338
5.993 -3.0369999 -0.338
6.0120001 -3.03 -0.33899999
6.0250001 -3.02 -0.34
6.0320001 -3.006 -0.34
6.0349998 -2.9909999 -0.34
6.053 -2.9820001 -0.34099999
6.053 -2.9649999 -0.34099999
6.0580001 -2.951 -0.34099999
6.066 -2.937 -0.34099999
6.073 -2.9230001 -0.34099999
6.0929999 -2.9159999 -0.34200001
6.099 -2.901 -0.34299999
6.0999999 -2.8840001 -0.34200001
6.1129999 -2.8729999 -0.34299999
6.1129999 -2.8559999 -0.34299999
6.1199999 -2.842 -0.34299999
6.1279998 -2.8280001 -0.34299999
6.1389999 -2.8150001 -0.34400001
6.152 -2.8039999 -0.34400001
6.164 -2.7920001 -0.345
6.165 -2.7750001 -0.345
6.165 -2.757 -0.345
6.1919999 -2.7520001 -0.34599999
6.204 -2.7390001 -0.347
6.2119999 -2.7249999 -0.347
6.23 -2.7160001 -0.34799999
6.237 -2.701 -0.34799999
6.2509999 -2.6889999 -0.34900001
6.257 -2.674 -0.34900001
6.27 -2.661 -0.34900001
6.289 -2.652 -0.34999999
6.29 -2.6340001 -0.34999999
6.3080001 -2.6240001 -0.35100001
6.309 -2.6059999 -0.35100001
6.3270001 -2.595 -0.352
6.335 -2.5810001 -0.352
6.3530002 -2.5699999 -0.35299999
6.3590002 -2.5539999 -0.35299999
6.3670001 -2.54 -0.35299999
6.3790002 -2.526 -0.354
6.3990002 -2.516 -0.35499999
6.4060001 -2.5 -0.35499999
6.4039998 -2.4809999 -0.35499999
6.4039998 -2.4630001 -0.35499999
6.4320002 -2.4549999 -0.35600001
6.4419999 -2.441 -0.35699999
6.4619999 -2.4300001 -0.35699999
6.4679999 -2.414 -0.35800001
6.474 -2.398 -0.35800001
6.474 -2.3789999 -0.35800001
6.494 -2.368 -0.359
6.5 -2.3510001 -0.359
6.5250001 -2.342 -0.36000001
6.5240002 -2.323 -0.36000001
6.5430002 -2.3110001 -0.361
6.5430002 -2.2920001 -0.36000001
6.552 -2.277 -0.361
6.5609999 -2.2609999 -0.361
6.5669999 -2.2449999 -0.361
6.592 -2.2349999 -0.36300001
6.5840001 -2.2130001 -0.36199999
6.5970001 -2.1989999 -0.36199999
6.6090002 -2.184 -0.36300001
6.6079998 -2.165 -0.36300001
6.6220002 -2.1500001 -0.36300001
6.6199999 -2.131 -0.36300001
6.6230001 -2.1129999 -0.36300001
6.6500001 -2.1029999 -0.36399999
6.664 -2.0880001 -0.36500001
6.678 -2.073 -0.366
6.6880002 -2.0569999 -0.366
6.6929998 -2.04 -0.366
6.7119999 -2.026 -0.36700001
6.7090001 -2.007 -0.36700001
6.7220001 -1.9910001 -0.36700001
6.7210002 -1.972 -0.36700001
6.7389998 -1.9579999 -0.368
6.7379999 -1.939 -0.368
6.7509999 -1.923 -0.368
6.7480001 -1.903 -0.368
6.7789998 -1.893 -0.36899999
6.7789998 -1.873 -0.36899999
6.8039999 -1.8609999 -0.37
6.809 -1.8430001 -0.37
6.8280001 -1.829 -0.37099999
6.8319998 -1.8099999 -0.37099999
6.8369999 -1.7920001 -0.37099999
6.842 -1.774 -0.37099999
6.875 -1.763 -0.373
6.8629999 -1.7410001 -0.37200001
6.8769999 -1.724 -0.373
6.8920002 -1.709 -0.373
6.8940001 -1.6900001 -0.373
6.8979998 -1.671 -0.373
6.9299998 -1.659 -0.375
6.934 -1.64 -0.375
6.9520001 -1.625 -0.37599999
6.9629998 -1.608 -0.37599999
6.9749999 -1.591 -0.377
6.9860001 -1.574 -0.377
7.0050001 -1.558 -0.37799999
7.0149999 -1.54 -0.37799999
7.0190001 -1.521 -0.37799999
7.052 -1.508 -0.38
7.0700002 -1.492 -0.38100001
7.0669999 -1.472 -0.38
7.0879998 -1.456 -0.38100001
7.1100001 -1.4400001 -0.382
7.1209998 -1.4220001 -0.38299999
7.1300001 -1.404 -0.38299999
7.151 -1.388 -0.384
7.152 -1.368 -0.384
7.1700001 -1.351 -0.38499999
7.1890001 -1.334 -0.38499999
7.1950002 -1.3150001 -0.38600001
7.21 -1.298 -0.38600001
7.2350001 -1.281 -0.38699999
7.2529998 -1.2640001 -0.38800001
7.277 -1.248 -0.389
7.2800002 -1.228 -0.389
7.2909999 -1.209 -0.38999999
7.2940001 -1.189 -0.38999999
7.3179998 -1.1720001 -0.391
7.336 -1.154 -0.391
7.3530002 -1.136 -0.39199999
7.3649998 -1.117 -0.39300001
7.3839998 -1.099 -0.39300001
7.3990002 -1.081 -0.39399999
7.415 -1.062 -0.39500001
7.4239998 -1.0420001 -0.39500001
7.4419999 -1.024 -0.396
7.46 -1.005 -0.396
7.46 -0.98400003 -0.396
7.4780002 -0.96600002 -0.39700001
7.5089998 -0.949 -0.39899999
7.513 -0.92799997 -0.39899999
7.5289998 -0.90899998 -0.39899999
7.5619998 -0.89099997 -0.40099999
7.5760002 -0.87199998 -0.40099999
7.579 -0.85100001 -0.40099999
7.6020002 -0.83200002 -0.40200001
7.6259999 -0.81300002 -0.403
7.6430001 -0.79299998 -0.40400001
7.6739998 -0.77499998 -0.405
7.691 -0.755 -0.40599999
7.7080002 -0.73500001 -0.40700001
7.7259998 -0.71499997 -0.40799999
7.7389998 -0.69400001 -0.40799999
7.7480001 -0.67299998 -0.40799999
7.77 -0.653 -0.40900001
7.7800002 -0.63200003 -0.41
7.803 -0.61199999 -0.41100001
7.8470001 -0.59299999 -0.41299999
7.8569999 -0.57200003 -0.41299999
7.8860002 -0.55199999 -0.414
7.9029999 -0.53100002 -0.41499999
7.9099998 -0.509 -0.41499999
7.9419999 -0.48899999 -0.417
7.9860001 -0.46900001 -0.419
7.9710002 -0.44600001 -0.41800001
8.0170002 -0.426 -0.41999999
8.0600004 -0.405 -0.42199999
8.1120005 -0.38499999 -0.42500001
8.1610003 -0.36500001 -0.42699999
8.0349998 0.211 -0.57200003
7.9260001 0.219 -0.565
7.908 0.23 -0.56300002
7.8800001 0.241 -0.56199998
7.8499999 0.252 -0.56
7.8369999 0.264 -0.55900002
7.8520002 0.27700001 -0.56
7.8299999 0.28799999 -0.55900002
7.8239999 0.301 -0.55800003
7.796 0.31200001 -0.55699998
7.8080001 0.32600001 -0.55800003
7.8200002 0.33899999 -0.55900002
7.7930002 0.35100001 -0.55699998
7.7859998 0.36500001 -0.55699998
7.79 0.37799999 -0.55699998
7.7909999 0.39199999 -0.55800003
7.7919998 0.40599999 -0.55800003
7.777 0.419 -0.55699998
7.7750001 0.43399999 -0.55699998
7.7750001 0.44800001 -0.55699998
7.7870002 0.463 -0.55900002
7.7610002 0.47600001 -0.55699998
7.7779999 0.49200001 -0.55800003
7.763 0.50599998 -0.55800003
7.7529998 0.52100003 -0.55699998
7.7540002 0.53600001 -0.55800003
7.756 0.55199999 -0.55800003
7.7529998 0.56699997 -0.55800003
7.7519999 0.583 -0.55800003
7.743 0.59799999 -0.55800003
7.7480001 0.61500001 -0.55900002
7.763 0.63200003 -0.56
7.7459998 0.64700001 -0.55900002
7.7529998 0.66399997 -0.56
7.7519999 0.68099999 -0.56
7.7350001 0.69599998 -0.56
7.7459998 0.71399999 -0.56099999
7.7659998 0.73299998 -0.56300002
7.7849998 0.75199997 -0.56400001
7.776 0.76899999 -0.56400001
7.79 0.78799999 -0.565
7.7589998 0.80299997 -0.56400001
7.7649999 0.82099998 -0.56400001
7.763 0.83899999 -0.565
7.777 0.85900003 -0.56599998
7.7680001 0.87599999 -0.56599998
7.7750001 0.89600003 -0.56699997
7.7670002 0.91299999 -0.56699997
7.7729998 0.93300003 -0.56800002
7.756 0.94999999 -0.56699997
7.7740002 0.97100002 -0.56900001
7.7779999 0.991 -0.56900001
7.7750001 1.01 -0.56999999
7.7800002 1.03 -0.56999999
7.777 1.049 -0.57099998
7.7800002 1.0700001 -0.57200003
7.7930002 1.091 -0.57300001
7.8039999 1.113 -0.574
7.8070002 1.1339999 -0.57499999
7.8150001 1.155 -0.57599998
7.8189998 1.177 -0.57700002
7.8319998 1.199 -0.57800001
7.8400002 1.221 -0.57999998
7.8309999 1.2410001 -0.57999998
7.8400002 1.2640001 -0.58099997
7.8540001 1.2869999 -0.58200002
7.8559999 1.309 -0.583
7.8499999 1.33 -0.583
7.8540001 1.352 -0.58399999
7.8509998 1.374 -0.58399999
7.8600001 1.397 -0.58600003
7.8639998 1.42 -0.58700001
7.8709998 1.444 -0.588
7.882 1.4680001 -0.58899999
7.8759999 1.49 -0.58899999
7.888 1.515 -0.59100002
7.8959999 1.539 -0.59200001
7.8839998 1.5599999 -0.59200001
7.8930001 1.585 -0.59299999
7.9089999 1.612 -0.59500003
7.9039998 1.6339999 -0.59600002
7.9060001 1.658 -0.59600002
7.927 1.686 -0.59899998
7.9289999 1.711 -0.59899998
7.9380002 1.737 -0.60100001
7.9260001 1.758 -0.60100001
7.928 1.783 -0.602
7.954 1.813 -0.60399997
7.9549999 1.8380001 -0.60500002
7.9699998 1.867 -0.60699999
7.9580002 1.8890001 -0.60699999
7.967 1.916 -0.60799998
7.9790001 1.944 -0.61000001
7.9879999 1.972 -0.611
7.9879999 1.997 -0.61199999
7.9920001 2.0239999 -0.61299998
8.0220003 2.0569999 -0.616
8.0010004 2.0780001 -0.61500001
8.0229998 2.109 -0.61799997
8.0109997 2.1329999 -0.61799997
8.0279999 2.1630001 -0.62
8.0430002 2.194 -0.62199998
8.0220003 2.2149999 -0.62099999
8.0419998 2.247 -0.62400001
8.0539999 2.2780001 -0.625
8.0469999 2.303 -0.62599999
8.0719995 2.3369999 -0.62900001
8.0839996 2.368 -0.63
8.0909996 2.398 -0.63200003
8.0959997 2.427 -0.63300002
8.1009998 2.4560001 -0.634
8.1120005 2.4879999 -0.63599998
8.0970001 2.5109999 -0.63599998
8.1160002 2.5450001 -0.63800001
8.1210003 2.575 -0.63999999
8.1330004 2.608 -0.64200002
8.1499996 2.642 -0.64399999
8.1350002 2.6659999 -0.64399999
8.1450005 2.698 -0.64499998
8.1490002 2.7290001 -0.64700001
8.1529999 2.7590001 -0.648
8.177 2.7969999 -0.65100002
8.1920004 2.832 -0.653
8.1829996 2.858 -0.653
8.2069998 2.8970001 -0.65600002
8.2030001 2.925 -0.65700001
8.2189999 2.9619999 -0.65899998
8.2279997 2.9949999 -0.66100001
8.2449999 3.0320001 -0.66299999
8.2390003 3.0599999 -0.66399997
8.2489996 3.095 -0.66600001
8.2700005 3.1340001 -0.66900003
8.2709999 3.1659999 -0.67000002
8.2819996 3.201 -0.67199999
8.2910004 3.2360001 -0.67400002
8.3050003 3.273 -0.676
8.3140001 3.309 -0.67799997
8.3269997 3.346 -0.68000001
8.3470001 3.3859999 -0.68300003
8.3529997 3.421 -0.68400002
8.3610001 3.457 -0.68599999
8.3629999 3.49 -0.68800002
8.3870001 3.533 -0.69099998
8.3889999 3.5669999 -0.69199997
8.4090004 3.609 -0.69499999
8.427 3.6500001 -0.69800001
8.4460001 3.6919999 -0.70099998
8.4829998 3.7420001 -0.70499998
8.4860001 3.777 -0.70599997
8.4770002 3.8080001 -0.70700002
8.4960003 3.8499999 -0.70999998
8.5019999 3.888 -0.71100003
8.4860001 3.915 -0.71100003
8.5109997 3.9619999 -0.71499997
8.5089998 3.9949999 -0.71600002
8.5279999 4.039 -0.71899998
8.5439997 4.0819998 -0.72100002
8.5489998 4.1199999 -0.72299999
8.5649996 4.164 -0.72600001
8.5749998 4.2049999 -0.72799999
8.6070004 4.256 -0.73199999
8.6140003 4.296 -0.73400003
8.6169996 4.3340001 -0.736
8.6149998 4.3699999 -0.73699999
8.625 4.4109998 -0.73900002
8.6099997 4.4400001 -0.73900002
8.618 4.4819999 -0.74199998
8.6269999 4.5229998 -0.74400002
8.6359997 4.5650001 -0.74599999
8.6499996 4.6100001 -0.74900001
8.6599998 4.6529999 -0.75099999
8.684 4.704 -0.755
8.6820002 4.7399998 -0.75599998
8.6890001 4.783 -0.75800002
8.6960001 4.8249998 -0.75999999
8.7130003 4.8730001 -0.76300001
8.7110004 4.9099998 -0.764
8.7290001 4.96 -0.76800001
8.7489996 5.0100002 -0.77100003
8.7480001 5.0489998 -0.77200001
8.7600002 5.0949998 -0.77499998
8.7670002 5.138 -0.77700001
8.7609997 5.1750002 -0.778
8.7779999 5.2249999 -0.78100002
8.7779999 5.2639999 -0.78299999
8.7840004 5.3080001 -0.78500003
8.7779999 5.3449998 -0.78600001
8.7740002 5.3829999 -0.787
8.7889996 5.4330001 -0.79000002
8.8050003 5.4840002 -0.79400003
8.7919998 5.5159998 -0.79400003
8.7729998 5.5450001 -0.79400003
8.8129997 5.612 -0.79900002
8.8280001 5.6620002 -0.80199999
8.8260002 5.7030001 -0.80400002
8.8369999 5.7519999 -0.80699998
8.8170004 5.7810001 -0.80699998
8.8290005 5.8299999 -0.80900002
8.8409996 5.881 -0.81199998
8.8100004 5.902 -0.81099999
8.8290005 5.9569998 -0.815
8.8319998 6.0019999 -0.81699997
8.8400002 6.0500002 -0.81900001
8.8369999 6.0910001 -0.82099998
8.8339996 6.131 -0.82200003
8.8260002 6.1680002 -0.82300001
8.8149996 6.204 -0.824
8.8009996 6.237 -0.82499999
8.7819996 6.2670002 -0.82499999
8.7770004 6.3060002 -0.82599998
8.7480001 6.329 -0.82499999
5.5139999 -3.6600001 -0.30599999
5.5380001 -3.6400001 -0.30700001
5.5510001 -3.6140001 -0.30700001
5.5869999 -3.6029999 -0.30899999
5.5770001 -3.5610001 -0.308
5.619 -3.553 -0.31
5.6339998 -3.529 -0.31
5.6430001 -3.5009999 -0.31
5.658 -3.4760001 -0.31099999
5.6719999 -3.451 -0.31099999
5.6880002 -3.427 -0.31200001
5.691 -3.3959999 -0.31200001
5.717 -3.3789999 -0.31299999
5.743 -3.3610001 -0.31400001
5.77 -3.3440001 -0.315
5.7969999 -3.3269999 -0.31600001
5.8099999 -3.302 -0.31600001
5.8049998 -3.2679999 -0.31600001
5.8379998 -3.2539999 -0.317
5.8410001 -3.224 -0.317
5.8639998 -3.2049999 -0.31799999
5.8899999 -3.188 -0.31900001
5.9029999 -3.164 -0.31999999
5.9159999 -3.1400001 -0.31999999
5.9419999 -3.1229999 -0.32100001
5.947 -3.095 -0.32100001
5.9780002 -3.0810001 -0.322
5.9910002 -3.0569999 -0.32300001
6.0100002 -3.036 -0.32300001
6.0149999 -3.0090001 -0.32300001
6.0339999 -2.9890001 -0.324
6.052 -2.9679999 -0.32499999
6.0640001 -2.944 -0.32499999
6.0689998 -2.9170001 -0.32499999
6.0970001 -2.901 -0.32600001
6.1100001 -2.8789999 -0.32699999
6.1220002 -2.855 -0.32699999
6.132 -2.8310001 -0.32699999
6.1430001 -2.8080001 -0.32800001
6.1599998 -2.7869999 -0.32800001
6.171 -2.7639999 -0.329
6.1950002 -2.7460001 -0.33000001
6.2020001 -2.721 -0.33000001
6.2280002 -2.7049999 -0.331
6.2579999 -2.6900001 -0.33199999
6.2680001 -2.6670001 -0.33199999
6.2859998 -2.6470001 -0.333
6.2979999 -2.625 -0.333
6.3239999 -2.608 -0.33399999
6.3429999 -2.589 -0.33500001
6.3629999 -2.5699999 -0.336
6.381 -2.55 -0.33700001
6.3930001 -2.5280001 -0.33700001
6.4099998 -2.5079999 -0.338
6.4380002 -2.493 -0.33899999
6.4419999 -2.467 -0.33899999
6.4530001 -2.4460001 -0.33899999
6.4790001 -2.4289999 -0.34
6.5009999 -2.411 -0.34099999
6.5019999 -2.3859999 -0.34099999
6.5320001 -2.3710001 -0.34200001
6.5580001 -2.355 -0.34299999
6.5679998 -2.332 -0.34400001
6.5830002 -2.312 -0.34400001
6.5960002 -2.2909999 -0.345
6.5970001 -2.267 -0.345
6.612 -2.2460001 -0.345
6.6269999 -2.227 -0.34599999
6.6409998 -2.2060001 -0.34599999
6.6560001 -2.187 -0.347
6.6630001 -2.164 -0.347
6.6900001 -2.1489999 -0.34799999
6.704 -2.128 -0.34900001
6.704 -2.1040001 -0.34799999
6.7379999 -2.0910001 -0.34999999
6.7319999 -2.0650001 -0.34900001
6.7509999 -2.0469999 -0.34999999
6.7659998 -2.027 -0.35100001
6.7729998 -2.006 -0.35100001
6.7820001 -1.985 -0.35100001
6.7989998 -1.966 -0.352
6.8109999 -1.946 -0.352
6.8239999 -1.926 -0.35299999
6.8579998 -1.913 -0.354
6.8790002 -1.896 -0.35499999
6.8839998 -1.874 -0.35499999
6.8899999 -1.852 -0.35499999
6.901 -1.8329999 -0.35600001
6.921 -1.8150001 -0.35600001
6.9390001 -1.7970001 -0.35699999
6.947 -1.777 -0.35699999
6.9580002 -1.757 -0.35800001
6.9850001 -1.742 -0.359
6.9959998 -1.722 -0.359
7.0009999 -1.701 -0.359
7.027 -1.686 -0.36000001
7.0469999 -1.668 -0.361
7.0510001 -1.648 -0.361
7.0640001 -1.6289999 -0.36199999
7.0869999 -1.613 -0.36300001
7.0939999 -1.592 -0.36300001
7.1110001 -1.575 -0.36399999
7.1149998 -1.554 -0.36399999
7.1339998 -1.5369999 -0.36399999
7.1620002 -1.522 -0.366
7.178 -1.5039999 -0.366
7.1880002 -1.485 -0.36700001
7.1999998 -1.467 -0.36700001
7.2249999 -1.451 -0.368
7.23 -1.431 -0.368
7.2470002 -1.414 -0.36899999
7.257 -1.396 -0.36899999
7.2550001 -1.375 -0.36899999
7.2940001 -1.362 -0.37099999
7.3189998 -1.346 -0.37200001
7.3010001 -1.323 -0.37099999
7.3109999 -1.304 -0.37099999
7.3299999 -1.288 -0.37200001
7.3470001 -1.271 -0.373
7.3600001 -1.253 -0.373
7.375 -1.2359999 -0.37400001
7.3829999 -1.2180001 -0.37400001
7.395 -1.2 -0.375
7.4190001 -1.1849999 -0.37599999
7.4369998 -1.168 -0.37599999
7.447 -1.15 -0.377
7.4549999 -1.133 -0.377
7.473 -1.1160001 -0.37799999
7.4840002 -1.099 -0.37799999
7.493 -1.081 -0.37900001
7.5100002 -1.0650001 -0.37900001
7.5180001 -1.0470001 -0.38
7.5359998 -1.031 -0.38
7.539 -1.013 -0.38
7.5640001 -0.99800003 -0.38100001
7.573 -0.98000002 -0.382
7.5809999 -0.963 -0.382
7.5900002 -0.94599998 -0.382
7.5999999 -0.92900002 -0.38299999
7.612 -0.91299999 -0.38299999
7.6110001 -0.89499998 -0.38299999
7.6420002 -0.88099998 -0.384
7.6360002 -0.86199999 -0.384
7.6529999 -0.847 -0.38499999
7.6690001 -0.83099997 -0.38499999
7.671 -0.81300002 -0.38499999
7.6789999 -0.79699999 -0.38600001
7.6890001 -0.78100002 -0.38600001
7.698 -0.76499999 -0.38600001
7.7129998 -0.74900001 -0.38699999
7.7220001 -0.73299998 -0.38699999
7.7519999 -0.71899998 -0.389
7.7690001 -0.704 -0.38999999
7.776 -0.68699998 -0.38999999
7.7880001 -0.67199999 -0.38999999
7.7940001 -0.65600002 -0.38999999
7.8049998 -0.63999999 -0.391
7.8330002 -0.62599999 -0.39199999
7.8470001 -0.611 -0.39300001
7.848 -0.59500003 -0.39300001
7.8790002 -0.58099997 -0.39399999
7.8730001 -0.565 -0.39399999
7.881 -0.54900002 -0.39399999
7.8969998 -0.53399998 -0.39500001
7.9109998 -0.51899999 -0.39500001
7.928 -0.505 -0.396
7.934 -0.49000001 -0.396
7.9640002 -0.47600001 -0.398
7.9720001 -0.461 -0.398
7.987 -0.447 -0.39899999
8.0179996 -0.433 -0.40000001
8.0039997 -0.417 -0.39899999
8.026 -0.403 -0.40099999
8.0410004 -0.389 -0.40099999
8.0600004 -0.375 -0.40200001
8.085 -0.361 -0.403
8.0530005 -0.345 -0.40200001
8.0860004 -0.33199999 -0.403
8.1079998 -0.31799999 -0.40400001
8.1420002 -0.30500001 -0.40599999
8.165 -0.29100001 -0.40700001
8.1669998 -0.27700001 -0.40700001
8.2030001 -0.264 -0.40900001
8.25 -0.25099999 -0.41100001
7.8899999 0.085000001 -0.54100001
7.9029999 0.1 -0.542
7.9369998 0.115 -0.54500002
7.8759999 0.12899999 -0.54100001
7.882 0.14399999 -0.54100001
7.848 0.15899999 -0.53899997
7.8140001 0.17299999 -0.537
7.7989998 0.18799999 -0.53600001
7.7989998 0.204 -0.53600001
7.7859998 0.219 -0.53500003
7.7859998 0.234 -0.53600001
7.777 0.25 -0.53500003
7.7680001 0.266 -0.53500003
7.77 0.28200001 -0.53500003
7.777 0.29899999 -0.53600001
7.756 0.31400001 -0.53500003
7.7610002 0.331 -0.53500003
7.7540002 0.34799999 -0.53500003
7.7659998 0.36500001 -0.53600001
7.7589998 0.382 -0.53600001
7.7649999 0.39899999 -0.537
7.737 0.41499999 -0.53500003
7.7389998 0.433 -0.53500003
7.7620001 0.45199999 -0.537
7.7459998 0.46900001 -0.53600001
7.7389998 0.486 -0.53600001
7.7379999 0.50400001 -0.53600001
7.7420001 0.52200001 -0.537
7.7290001 0.54000002 -0.53600001
7.7399998 0.55900002 -0.537
7.7319999 0.57700002 -0.537
7.7189999 0.59500003 -0.537
7.723 0.61400002 -0.537
7.7360001 0.634 -0.53799999
7.7259998 0.65200001 -0.53799999
7.7189999 0.67000002 -0.53799999
7.7309999 0.69099998 -0.53899997
7.7140002 0.70899999 -0.53799999
7.7270002 0.72899997 -0.54000002
7.7290001 0.74900001 -0.54000002
7.744 0.77100003 -0.542
7.737 0.79000002 -0.542
7.7589998 0.81199998 -0.54299998
7.8049998 0.83700001 -0.54699999
7.796 0.85699999 -0.54699999
7.7659998 0.87400001 -0.54500002
7.7709999 0.89499998 -0.546
7.7789998 0.917 -0.54699999
7.7930002 0.94 -0.54799998
7.7839999 0.95999998 -0.54799998
7.7820001 0.98100001 -0.54799998
7.7729998 1.001 -0.54799998
7.776 1.022 -0.54900002
7.7849998 1.045 -0.55000001
7.796 1.068 -0.551
7.8080001 1.092 -0.55299997
7.8000002 1.112 -0.55199999
7.8169999 1.137 -0.55400002
7.8379998 1.1619999 -0.55599999
7.842 1.1849999 -0.55699998
7.8579998 1.21 -0.55900002
7.8649998 1.233 -0.56
7.8670001 1.256 -0.56
7.881 1.2819999 -0.56199998
7.8850002 1.3049999 -0.56300002
7.9000001 1.331 -0.56400001
7.8959999 1.353 -0.56400001
7.9159999 1.38 -0.56599998
7.9229999 1.405 -0.56699997
7.9310002 1.4299999 -0.56900001
7.9349999 1.454 -0.56900001
7.934 1.478 -0.56999999
7.9590001 1.506 -0.57200003
7.954 1.53 -0.57300001
7.9629998 1.5549999 -0.574
7.9720001 1.581 -0.57499999
7.9650002 1.605 -0.57499999
8.0030003 1.637 -0.579
7.9959998 1.66 -0.579
8.0120001 1.688 -0.57999998
8.0209999 1.715 -0.58200002
8.0500002 1.7460001 -0.58499998
8.0550003 1.773 -0.58499998
8.0640001 1.8 -0.58700001
8.0719995 1.827 -0.588
8.0930004 1.857 -0.58999997
8.0959997 1.8839999 -0.59100002
8.1149998 1.914 -0.59299999
8.1169996 1.9400001 -0.59399998
8.1260004 1.969 -0.59500003
8.1490002 2 -0.59799999
8.1450005 2.026 -0.59799999
8.1429996 2.0510001 -0.59899998
8.1529999 2.0810001 -0.60000002
8.1719999 2.112 -0.602
8.1780005 2.1400001 -0.60399997
8.198 2.1719999 -0.60600001
8.191 2.197 -0.60600001
8.198 2.2260001 -0.60699999
8.2030001 2.2550001 -0.60799998
8.217 2.286 -0.61000001
8.2290001 2.3169999 -0.61199999
8.2480001 2.3499999 -0.61400002
8.2539997 2.3789999 -0.61500001
8.2580004 2.408 -0.616
8.2779999 2.441 -0.61900002
8.2819996 2.47 -0.62
8.2880001 2.5 -0.62099999
8.2749996 2.5239999 -0.62099999
8.3240004 2.5669999 -0.625
8.316 2.5929999 -0.62599999
8.3190002 2.6229999 -0.62699997
8.3450003 2.6589999 -0.63
8.3430004 2.687 -0.63
8.3610001 2.7219999 -0.63200003
8.3400002 2.744 -0.63200003
8.3649998 2.7809999 -0.63499999
8.3739996 2.813 -0.63599998
8.3830004 2.845 -0.63800001
8.4069996 2.882 -0.63999999
8.4119997 2.9130001 -0.64200002
8.4259996 2.947 -0.64399999
8.4309998 2.9790001 -0.64499998
8.4469995 3.0139999 -0.64700001
8.4569998 3.0469999 -0.64899999
8.4729996 3.0829999 -0.65100002
8.4829998 3.1159999 -0.653
8.4870005 3.148 -0.65399998
8.4879999 3.178 -0.65499997
8.4980001 3.2119999 -0.65700001
8.5200005 3.25 -0.65899998
8.5150003 3.279 -0.66000003
8.526 3.313 -0.662
8.5249996 3.3429999 -0.66299999
8.559 3.3870001 -0.66600001
8.5699997 3.4219999 -0.66799998
8.5790005 3.457 -0.67000002
8.5860004 3.49 -0.67199999
8.6000004 3.527 -0.67400002
8.6079998 3.5610001 -0.67500001
8.6219997 3.598 -0.67699999
8.6300001 3.6329999 -0.67900002
8.6309996 3.664 -0.68000001
8.6630001 3.7090001 -0.68400002
8.6689997 3.743 -0.685
8.6789999 3.7780001 -0.68699998
8.6969995 3.8180001 -0.69
8.6920004 3.8469999 -0.69099998
8.6990004 3.882 -0.69199997
8.7229996 3.924 -0.69499999
8.7510004 3.9690001 -0.699
8.7690001 4.0089998 -0.70099998
8.7690001 4.0409999 -0.70200002
8.7589998 4.0679998 -0.70300001
8.7679996 4.105 -0.70499998
8.7629995 4.1339998 -0.70499998
8.7749996 4.1719999 -0.70700002
8.7819996 4.2069998 -0.70899999
8.7930002 4.2449999 -0.71100003
8.7919998 4.277 -0.71200001
8.8280001 4.3260002 -0.71600002
8.8280001 4.3590002 -0.71799999
8.8400002 4.3969998 -0.72000003
8.8260002 4.4219999 -0.72000003
8.8319998 4.4580002 -0.722
8.8299999 4.4889998 -0.72299999
8.8540001 4.5339999 -0.72600001
8.8540001 4.566 -0.727
8.8760004 4.6100001 -0.73000002
8.875 4.6420002 -0.73100001
8.8920002 4.6830001 -0.73400003
8.8889999 4.7140002 -0.73500001
8.8950005 4.75 -0.73699999
8.9049997 4.7880001 -0.73900002
8.9230003 4.8299999 -0.74199998
8.9370003 4.8709998 -0.74400002
8.9399996 4.9050002 -0.74599999
8.9390001 4.9369998 -0.74699998
8.9490004 4.9749999 -0.74900001
8.9530001 5.0100002 -0.75099999
8.9700003 5.052 -0.75300002
8.993 5.098 -0.75700003
8.9759998 5.1209998 -0.75599998
8.9910002 5.1620002 -0.759
8.9890003 5.1939998 -0.75999999
8.993 5.2280002 -0.76200002
8.9840002 5.256 -0.76300001
8.9829998 5.2870002 -0.764
8.9919996 5.3249998 -0.76599997
8.9960003 5.3600001 -0.76800001
9.0220003 5.408 -0.77100003
9.0319996 5.4460001 -0.773
9.0229998 5.473 -0.77399999
9.0310001 5.5100002 -0.77600002
9.0369997 5.546 -0.778
9.0430002 5.5819998 -0.77999997
9.0459995 5.6160002 -0.78200001
9.0719995 5.664 -0.78500003
9.0509996 5.6830001 -0.78500003
9.0769997 5.7319999 -0.78899997
9.0869999 5.77 -0.79100001
9.1059999 5.8130002 -0.79400003
9.1029997 5.8429999 -0.79500002
9.1099997 5.8800001 -0.79699999
9.1269999 5.9219999 -0.80000001
9.1339998 5.9590001 -0.80199999
9.1420002 5.9949999 -0.80500001
9.1330004 6.0209999 -0.80500001
9.1409998 6.0570002 -0.80699998
9.1549997 6.098 -0.81
9.1730003 6.1409998 -0.81300002
9.158 6.1620002 -0.81300002
9.1529999 6.1890001 -0.81400001
9.1540003 6.2199998 -0.81599998
9.1800003 6.2690001 -0.81999999
9.1709995 6.2930002 -0.81999999
9.1850004 6.3330002 -0.82300001
9.1879997 6.3660002 -0.82499999
9.2279997 6.4239998 -0.82999998
9.2189999 6.447 -0.83099997
9.2329998 6.487 -0.83399999
9.2200003 6.5079999 -0.83399999
9.2510004 6.559 -0.838
9.2659998 6.599 -0.84100002
9.2279997 6.6009998 -0.83899999
5.8740001 -3.4230001 -0.30500001
5.875 -3.4070001 -0.30500001
5.8870001 -3.398 -0.30599999
5.895 -3.3859999 -0.30599999
5.9089999 -3.378 -0.30700001
5.921 -3.369 -0.30700001
5.9159999 -3.349 -0.30700001
5.9299998 -3.3410001 -0.30700001
5.9489999 -3.3340001 -0.308
5.9499998 -3.3180001 -0.308
5.9569998 -3.306 -0.308
5.9699998 -3.296 -0.30899999
5.9790001 -3.2839999 -0.30899999
5.9840002 -3.2709999 -0.30899999
5.9860001 -3.2550001 -0.30899999
5.993 -3.2420001 -0.31
6 -3.2290001 -0.31
5.9949999 -3.2090001 -0.30899999
6.013 -3.2019999 -0.31
6.0209999 -3.1889999 -0.31099999
6.0279999 -3.1760001 -0.31099999
6.0339999 -3.1619999 -0.31099999
6.0539999 -3.1559999 -0.31200001
6.0539999 -3.1389999 -0.31200001
6.0560002 -3.122 -0.31200001
6.0619998 -3.108 -0.31200001
6.0749998 -3.098 -0.31200001
6.0840001 -3.085 -0.31299999
6.0960002 -3.0739999 -0.31299999
6.1160002 -3.0669999 -0.31400001
6.1160002 -3.05 -0.31400001
6.1230001 -3.036 -0.31400001
6.1500001 -3.0320001 -0.315
6.1550002 -3.017 -0.31600001
6.1620002 -3.003 -0.31600001
6.1760001 -2.9920001 -0.31600001
6.184 -2.9790001 -0.317
6.1960001 -2.967 -0.317
6.2030001 -2.9530001 -0.317
6.204 -2.9349999 -0.317
6.217 -2.924 -0.31799999
6.224 -2.9089999 -0.31799999
6.23 -2.895 -0.31799999
6.237 -2.8800001 -0.31799999
6.2509999 -2.869 -0.31900001
6.2470002 -2.849 -0.31900001
6.27 -2.842 -0.31999999
6.2709999 -2.8239999 -0.31999999
6.283 -2.812 -0.31999999
6.3010001 -2.802 -0.32100001
6.309 -2.7869999 -0.32100001
6.3169999 -2.773 -0.32100001
6.329 -2.76 -0.322
6.349 -2.7509999 -0.32300001
6.3730001 -2.743 -0.324
6.369 -2.723 -0.32300001
6.3889999 -2.714 -0.324
6.3870001 -2.694 -0.324
6.402 -2.6830001 -0.32499999
6.4060001 -2.6659999 -0.32499999
6.4239998 -2.655 -0.32499999
6.4359999 -2.642 -0.32600001
6.441 -2.625 -0.32600001
6.454 -2.612 -0.32600001
6.4629998 -2.598 -0.32699999
6.4809999 -2.586 -0.32800001
6.4809999 -2.5680001 -0.32699999
6.5050001 -2.5580001 -0.32800001
6.513 -2.543 -0.329
6.526 -2.529 -0.329
6.539 -2.516 -0.33000001
6.5440001 -2.4990001 -0.33000001
6.5440001 -2.4809999 -0.33000001
6.5580001 -2.467 -0.33000001
6.5640001 -2.451 -0.33000001
6.5760002 -2.4360001 -0.331
6.5879998 -2.4219999 -0.331
6.5939999 -2.4059999 -0.331
6.5879998 -2.385 -0.331
6.6069999 -2.372 -0.33199999
6.6269999 -2.3610001 -0.333
6.6259999 -2.3410001 -0.33199999
6.638 -2.3269999 -0.333
6.652 -2.313 -0.333
6.6500001 -2.293 -0.333
6.6620002 -2.2780001 -0.33399999
6.6820002 -2.266 -0.33399999
6.6890001 -2.2490001 -0.33500001
6.6880002 -2.23 -0.33399999
6.6989999 -2.214 -0.33500001
6.7119999 -2.2 -0.33500001
6.71 -2.1800001 -0.33500001
6.7290001 -2.1670001 -0.336
6.7270002 -2.1470001 -0.336
6.7410002 -2.132 -0.336
6.7600002 -2.119 -0.33700001
6.7600002 -2.099 -0.33700001
6.7680001 -2.0829999 -0.33700001
6.776 -2.066 -0.33700001
6.7880001 -2.05 -0.338
6.8039999 -2.036 -0.338
6.8119998 -2.0190001 -0.33899999
6.8119998 -1.999 -0.338
6.8299999 -1.985 -0.33899999
6.829 -1.965 -0.33899999
6.8369999 -1.948 -0.33899999
6.8530002 -1.933 -0.34
6.8670001 -1.918 -0.34
6.8829999 -1.903 -0.34099999
6.9029999 -1.888 -0.34200001
6.9060001 -1.87 -0.34200001
6.9120002 -1.852 -0.34200001
6.9289999 -1.836 -0.34299999
6.9429998 -1.821 -0.34299999
6.9419999 -1.8 -0.34299999
6.967 -1.7869999 -0.34400001
6.9780002 -1.77 -0.34400001
6.9679999 -1.748 -0.34400001
7.0009999 -1.7359999 -0.345
7 -1.716 -0.345
7.0110002 -1.699 -0.345
7.0359998 -1.6849999 -0.34599999
7.0549998 -1.669 -0.347
7.066 -1.652 -0.347
7.085 -1.636 -0.34799999
7.0960002 -1.619 -0.34900001
7.1059999 -1.601 -0.34900001
7.125 -1.585 -0.34999999
7.1350002 -1.567 -0.34999999
7.1539998 -1.551 -0.35100001
7.158 -1.531 -0.35100001
7.1830001 -1.516 -0.352
7.1799998 -1.495 -0.352
7.2049999 -1.48 -0.35299999
7.2119999 -1.461 -0.35299999
7.2280002 -1.444 -0.35299999
7.2729998 -1.432 -0.35499999
7.2709999 -1.411 -0.35499999
7.2750001 -1.391 -0.35499999
7.2849998 -1.373 -0.35499999
7.3060002 -1.3559999 -0.35600001
7.3210001 -1.3380001 -0.35699999
7.3369999 -1.3200001 -0.35699999
7.355 -1.303 -0.35800001
7.3559999 -1.2819999 -0.35800001
7.3769999 -1.265 -0.359
7.3940001 -1.247 -0.36000001
7.4109998 -1.229 -0.36000001
7.4310002 -1.211 -0.361
7.4549999 -1.194 -0.36199999
7.4559999 -1.173 -0.36199999
7.474 -1.155 -0.36199999
7.5040002 -1.138 -0.36399999
7.5089998 -1.118 -0.36399999
7.5339999 -1.1 -0.36500001
7.539 -1.08 -0.36500001
7.5609999 -1.061 -0.366
7.5780001 -1.0420001 -0.366
7.6100001 -1.025 -0.368
7.6129999 -1.0039999 -0.368
7.6220002 -0.98400003 -0.368
7.6539998 -0.96600002 -0.36899999
7.6560001 -0.94499999 -0.36899999
7.6810002 -0.926 -0.37
7.704 -0.90799999 -0.37099999
7.7129998 -0.88700002 -0.37099999
7.7290001 -0.86699998 -0.37200001
7.7290001 -0.84500003 -0.37200001
7.7490001 -0.82499999 -0.373
7.7789998 -0.80699998 -0.37400001
7.8039999 -0.787 -0.375
7.8340001 -0.76800001 -0.37599999
7.8569999 -0.74800003 -0.377
7.8740001 -0.72799999 -0.37799999
7.8909998 -0.70700002 -0.37799999
7.927 -0.68800002 -0.38
7.928 -0.66600001 -0.38
7.9359999 -0.64399999 -0.38
7.9619999 -0.62400001 -0.38100001
8.0059996 -0.60500002 -0.38299999
8.0129995 -0.583 -0.38299999
8.0530005 -0.56300002 -0.38499999
8.0450001 -0.54000002 -0.384
8.0979996 -0.51999998 -0.38600001
8.1029997 -0.498 -0.38600001
8.1450005 -0.47799999 -0.38800001
8.1730003 -0.456 -0.389
8.1899996 -0.43399999 -0.38999999
8.2480001 -0.414 -0.39199999
8.2980003 -0.39300001 -0.39500001
8.3070002 -0.37 -0.39500001
8.3380003 -0.34799999 -0.396
8.4090004 -0.32699999 -0.39899999
8.0979996 0.214 -0.53200001
8.0799999 0.22499999 -0.53100002
8.04 0.236 -0.52899998
8.0179996 0.24699999 -0.528
8.0039997 0.259 -0.52700001
8.0100002 0.27200001 -0.52700001
7.9879999 0.28299999 -0.52600002
7.9819999 0.296 -0.52600002
7.9660001 0.308 -0.52499998
7.9749999 0.32100001 -0.52600002
7.9590001 0.33399999 -0.52499998
7.9460001 0.34599999 -0.52399999
7.9390001 0.36000001 -0.52399999
7.9439998 0.373 -0.52499998
7.9380002 0.38699999 -0.52399999
7.928 0.40000001 -0.52399999
7.934 0.41499999 -0.52499998
7.9359999 0.42899999 -0.52499998
7.941 0.44400001 -0.52499998
7.941 0.45899999 -0.52600002
7.9250002 0.47299999 -0.52499998
7.9320002 0.48800001 -0.52600002
7.9229999 0.50300002 -0.52499998
7.928 0.51800001 -0.52600002
7.9359999 0.53399998 -0.52700001
7.934 0.55000001 -0.52700001
7.9390001 0.56599998 -0.528
7.9390001 0.58200002 -0.528
7.9310002 0.597 -0.528
7.9359999 0.61400002 -0.528
7.9229999 0.62900001 -0.528
7.9250002 0.64600003 -0.528
7.9320002 0.66399997 -0.52899998
7.9130001 0.67900002 -0.528
7.9429998 0.699 -0.52999997
7.9400001 0.71499997 -0.53100002
7.9530001 0.73400003 -0.53200001
7.9590001 0.75199997 -0.53299999
7.9499998 0.76899999 -0.53200001
7.948 0.787 -0.53299999
7.9520001 0.80500001 -0.53299999
7.9559999 0.824 -0.53399998
7.9629998 0.84299999 -0.53500003
7.961 0.861 -0.53500003
7.9460001 0.87800002 -0.53399998
7.9530001 0.898 -0.53500003
7.954 0.917 -0.53600001
7.9650002 0.93699998 -0.537
7.9619999 0.95599997 -0.537
7.9619999 0.97600001 -0.53799999
7.9720001 0.99599999 -0.53899997
7.9629998 1.015 -0.53899997
7.967 1.035 -0.53899997
7.9640002 1.0549999 -0.54000002
7.9759998 1.077 -0.54100001
7.9860001 1.098 -0.542
7.9819999 1.118 -0.542
7.98 1.1390001 -0.54299998
7.9910002 1.161 -0.54400003
7.9879999 1.181 -0.54400003
7.9980001 1.204 -0.54500002
8.0150003 1.228 -0.54699999
8.0200005 1.25 -0.54799998
8.0299997 1.273 -0.54900002
8.026 1.294 -0.54900002
8.0369997 1.317 -0.551
8.052 1.342 -0.55199999
8.0690002 1.367 -0.55400002
8.0579996 1.388 -0.55400002
8.0749998 1.413 -0.55599999
8.0559998 1.432 -0.55500001
8.0790005 1.459 -0.55699998
8.0839996 1.483 -0.55800003
8.0950003 1.508 -0.55900002
8.0939999 1.531 -0.56
8.092 1.554 -0.56
8.125 1.584 -0.56300002
8.1210003 1.607 -0.56400001
8.1370001 1.6339999 -0.565
8.1389999 1.658 -0.56599998
8.1540003 1.686 -0.56800002
8.1409998 1.707 -0.56800002
8.1499996 1.734 -0.56900001
8.1739998 1.763 -0.57099998
8.1730003 1.788 -0.57200003
8.1879997 1.816 -0.574
8.1820002 1.84 -0.574
8.1969995 1.869 -0.57599998
8.198 1.8940001 -0.57599998
8.2119999 1.923 -0.57800001
8.2150002 1.949 -0.579
8.2349997 1.98 -0.58099997
8.2550001 2.0109999 -0.583
8.2460003 2.0350001 -0.58399999
8.2749996 2.0680001 -0.58600003
8.2629995 2.092 -0.58600003
8.2819996 2.1229999 -0.588
8.283 2.1500001 -0.58899999
8.2950001 2.181 -0.59100002
8.3030005 2.21 -0.59200001
8.3120003 2.2390001 -0.59399998
8.3149996 2.2679999 -0.59500003
8.3339996 2.3010001 -0.597
8.3389997 2.3299999 -0.59799999
8.3450003 2.359 -0.59899998
8.3590002 2.391 -0.60100001
8.3780003 2.425 -0.60299999
8.3879995 2.4560001 -0.60500002
8.3859997 2.484 -0.60600001
8.3920002 2.5150001 -0.60699999
8.4160004 2.5510001 -0.61000001
8.4069996 2.5769999 -0.61000001
8.4250002 2.612 -0.61199999
8.4300003 2.6429999 -0.61299998
8.4289999 2.6719999 -0.61400002
