# .PCD v0.7 - Point Cloud Data file format
VERSION 0.7
FIELDS x y z
SIZE 4 4 4
TYPE F F F
COUNT 1 1 1
WIDTH 1671
HEIGHT 1
VIEWPOINT 0 0 0 1 0 0 0
POINTS 1671
DATA ascii
8.2950001 1.903 -0.55699998
8.2980003 1.9299999 -0.55800003
8.3039999 1.9579999 -0.55900002
8.3100004 1.9859999 -0.56
8.335 2.0190001 -0.56300002
8.3319998 2.0450001 -0.56300002
8.3459997 2.075 -0.565
8.3660002 2.1070001 -0.56699997
8.3710003 2.135 -0.56800002
8.382 2.1659999 -0.56900001
8.3769999 2.1919999 -0.56999999
8.3929996 2.223 -0.57200003
8.3859997 2.2490001 -0.57200003
8.3839998 2.276 -0.57200003
8.4099998 2.3110001 -0.57499999
8.4329996 2.345 -0.57700002
8.4259996 2.3710001 -0.57700002
8.4560003 2.408 -0.57999998
8.4510002 2.4349999 -0.58099997
8.4560003 2.4649999 -0.58200002
8.4820004 2.5009999 -0.58399999
8.4659996 2.5239999 -0.58399999
8.4870005 2.559 -0.58600003
8.4790001 2.585 -0.58600003
8.4709997 2.612 -0.58700001
8.4860001 2.645 -0.58899999
8.5030003 2.6789999 -0.59100002
8.5080004 2.71 -0.59200001
8.5139999 2.7409999 -0.59299999
8.5209999 2.773 -0.59399998
8.5369997 2.8069999 -0.59600002
8.5389996 2.8380001 -0.597
8.5679998 2.8770001 -0.60000002
8.5740004 2.908 -0.60100001
8.573 2.938 -0.602
8.6079998 2.98 -0.60500002
8.6110001 3.0109999 -0.60699999
8.6289997 3.0469999 -0.60900003
8.6429996 3.0829999 -0.611
8.658 3.118 -0.61199999
8.6619997 3.1500001 -0.61400002
8.677 3.1860001 -0.616
8.6870003 3.221 -0.61699998
8.6999998 3.256 -0.61900002
8.7010002 3.2869999 -0.62
8.7130003 3.323 -0.62199998
8.7130003 3.3540001 -0.62300003
8.7229996 3.3889999 -0.625
8.7320004 3.4230001 -0.62599999
8.7510004 3.4619999 -0.62800002
8.7620001 3.4979999 -0.63
8.7819996 3.5369999 -0.63300002
8.79 3.572 -0.634
8.8039999 3.609 -0.63599998
8.8210001 3.648 -0.63800001
8.8260002 3.6819999 -0.63999999
8.8339996 3.717 -0.64099997
8.8439999 3.753 -0.64300001
8.8909998 3.8050001 -0.648
7.9809999 3.444 -0.58200002
7.8899999 3.434 -0.57599998
7.8520002 3.4460001 -0.57499999
7.8179998 3.4590001 -0.57300001
7.8759999 3.513 -0.57800001
8.9750004 4.0359998 -0.66000003
8.9759998 4.0689998 -0.66100001
8.9799995 4.1040001 -0.66299999
8.9949999 4.1430001 -0.66500002
8.9989996 4.178 -0.66600001
9 4.2119999 -0.667
9.0120001 4.25 -0.66900003
9.0249996 4.289 -0.671
9.0570002 4.3369999 -0.67500001
8.1040001 3.911 -0.60500002
7.948 3.8640001 -0.59399998
7.9039998 3.872 -0.59200001
7.9000001 3.8989999 -0.59299999
7.9450002 3.95 -0.597
9.1260004 4.5710001 -0.68699998
9.1230001 4.6030002 -0.68800002
9.1420002 4.6459999 -0.69099998
9.1549997 4.6859999 -0.69300002
9.1829996 4.7340002 -0.69599998
9.1800003 4.7659998 -0.69700003
9.2040005 4.8119998 -0.69999999
9.2119999 4.8499999 -0.70200002
9.224 4.8899999 -0.704
9.2449999 4.9349999 -0.70700002
9.2670002 4.9809999 -0.70999998
9.2670002 5.0149999 -0.71100003
9.2799997 5.0560002 -0.713
9.2919998 5.0960002 -0.71499997
9.3170004 5.1440001 -0.71899998
9.3500004 5.1960001 -0.722
9.368 5.2399998 -0.72500002
9.3710003 5.276 -0.727
9.3590002 5.303 -0.727
9.3730001 5.3460002 -0.72899997
9.3870001 5.388 -0.73199999
9.3990002 5.4289999 -0.73400003
9.4250002 5.4780002 -0.73699999
9.4350004 5.5170002 -0.74000001
9.4300003 5.5489998 -0.74000001
9.4689999 5.6059999 -0.745
9.4700003 5.6399999 -0.74599999
9.5030003 5.6939998 -0.75
9.5139999 5.7350001 -0.75300002
9.5120001 5.7680001 -0.75400001
9.5389996 5.8179998 -0.75700003
9.5450001 5.8559999 -0.759
9.5430002 5.888 -0.75999999
9.5609999 5.9330001 -0.76300001
9.5939999 5.9879999 -0.76700002
9.6070004 6.0300002 -0.76999998
9.6110001 6.066 -0.77100003
9.5939999 6.0890002 -0.77100003
9.6009998 6.1269999 -0.773
9.6309996 6.1799998 -0.77700001
9.625 6.21 -0.778
9.6260004 6.244 -0.77999997
9.6490002 6.2919998 -0.78299999
9.6520004 6.3270001 -0.78500003
9.6789999 6.3779998 -0.78799999
9.6899996 6.4190001 -0.79100001
9.6730003 6.441 -0.79100001
9.7379999 6.5170002 -0.79799998
9.7080002 6.5289998 -0.79699999
9.7200003 6.5700002 -0.79900002
9.7150002 6.599 -0.80000001
9.7410002 6.6490002 -0.80400002
9.7229996 6.6700001 -0.80400002
9.7250004 6.7030001 -0.80599999
9.7700005 6.7670002 -0.81099999
9.7819996 6.8070002 -0.81300002
9.7550001 6.8200002 -0.81300002
9.7989998 6.882 -0.81800002
9.8570004 6.9549999 -0.824
5.9850001 -3.4909999 -0.28099999
5.9990001 -3.4820001 -0.28200001
5.9990001 -3.4649999 -0.28099999
6.007 -3.4530001 -0.28200001
6.0180001 -3.4430001 -0.28200001
6.02 -3.428 -0.28200001
6.026 -3.414 -0.28200001
6.0359998 -3.4030001 -0.28299999
6.0430002 -3.3900001 -0.28299999
6.0500002 -3.3770001 -0.28299999
6.0489998 -3.3599999 -0.28299999
6.033 -3.3340001 -0.28200001
6.052 -3.3269999 -0.28299999
6.0749998 -3.323 -0.28400001
6.085 -3.3110001 -0.28400001
6.0970001 -3.3010001 -0.28400001
6.1020002 -3.286 -0.285
6.1069999 -3.2720001 -0.285
6.112 -3.257 -0.285
6.119 -3.244 -0.285
6.1339998 -3.234 -0.28600001
6.1479998 -3.224 -0.28600001
6.1479998 -3.207 -0.28600001
6.1490002 -3.1900001 -0.28600001
6.1620002 -3.1800001 -0.28600001
6.1700001 -3.1659999 -0.287
6.1820002 -3.155 -0.287
6.191 -3.142 -0.287
6.198 -3.128 -0.287
6.211 -3.1170001 -0.28799999
6.2249999 -3.1059999 -0.28799999
6.2220001 -3.0869999 -0.28799999
6.2379999 -3.0769999 -0.289
6.237 -3.059 -0.289
6.2540002 -3.05 -0.289
6.2600002 -3.0350001 -0.289
6.2649999 -3.0190001 -0.28999999
6.2849998 -3.0109999 -0.28999999
6.2880001 -2.9949999 -0.28999999
6.3000002 -2.983 -0.29100001
6.3070002 -2.9679999 -0.29100001
6.3179998 -2.9549999 -0.29100001
6.3280001 -2.9419999 -0.292
6.349 -2.934 -0.29300001
6.3470001 -2.914 -0.292
6.3540001 -2.9000001 -0.292
6.375 -2.891 -0.29300001
6.3740001 -2.872 -0.29300001
6.3850002 -2.859 -0.29300001
6.4029999 -2.849 -0.294
6.4130001 -2.835 -0.29499999
6.4190001 -2.8199999 -0.29499999
6.441 -2.8110001 -0.29499999
6.4330001 -2.789 -0.29499999
6.4400001 -2.7739999 -0.29499999
6.48 -2.7720001 -0.29699999
6.4650002 -2.747 -0.296
6.4809999 -2.7360001 -0.29699999
6.494 -2.723 -0.29699999
6.506 -2.7090001 -0.29699999
6.5190001 -2.6960001 -0.29800001
6.5279999 -2.681 -0.29800001
6.546 -2.6689999 -0.29899999
6.546 -2.651 -0.29899999
6.5700002 -2.642 -0.30000001
6.579 -2.6270001 -0.30000001
6.5770001 -2.6070001 -0.30000001
6.599 -2.5969999 -0.301
6.6059999 -2.5810001 -0.301
6.6040001 -2.5610001 -0.301
6.625 -2.55 -0.301
6.6220002 -2.53 -0.301
6.6430001 -2.5190001 -0.30199999
6.6690001 -2.51 -0.303
6.6589999 -2.487 -0.30199999
6.6620002 -2.4690001 -0.30199999
6.677 -2.4560001 -0.303
6.6880002 -2.441 -0.303
6.7030001 -2.427 -0.30399999
6.6950002 -2.405 -0.303
6.7119999 -2.392 -0.30399999
6.717 -2.375 -0.30399999
6.7259998 -2.359 -0.30399999
6.7459998 -2.346 -0.30500001
6.75 -2.3280001 -0.30500001
6.756 -2.3110001 -0.30500001
6.7729998 -2.2980001 -0.30599999
6.776 -2.279 -0.30599999
6.7930002 -2.266 -0.30599999
6.7870002 -2.244 -0.30599999
6.8000002 -2.2290001 -0.30599999
6.822 -2.217 -0.30700001
6.8309999 -2.2 -0.30700001
6.8400002 -2.184 -0.308
6.8499999 -2.1670001 -0.308
6.8559999 -2.1500001 -0.308
6.8590002 -2.131 -0.308
6.8870001 -2.1199999 -0.30899999
6.8779998 -2.098 -0.30899999
6.8899999 -2.082 -0.30899999
6.9219999 -2.072 -0.31
6.9120002 -2.049 -0.31
6.927 -2.0339999 -0.31
6.941 -2.0179999 -0.31099999
6.9520001 -2.0009999 -0.31099999
6.9569998 -1.983 -0.31099999
6.9770002 -1.969 -0.31200001
6.9809999 -1.95 -0.31200001
6.9899998 -1.933 -0.31200001
7.0120001 -1.919 -0.31299999
7.0180001 -1.9 -0.31299999
7.0310001 -1.8839999 -0.31299999
7.0409999 -1.867 -0.31400001
7.0500002 -1.849 -0.31400001
7.0510001 -1.829 -0.31400001
7.098 -1.821 -0.31600001
7.1040001 -1.803 -0.31600001
7.1059999 -1.783 -0.31600001
7.131 -1.7690001 -0.317
7.1430001 -1.751 -0.317
7.164 -1.7359999 -0.31799999
7.2010002 -1.725 -0.31900001
7.2140002 -1.707 -0.31999999
7.2049999 -1.6849999 -0.31900001
7.23 -1.67 -0.31999999
7.2420001 -1.652 -0.32100001
7.244 -1.632 -0.32100001
7.27 -1.617 -0.322
7.276 -1.598 -0.322
7.3010001 -1.5829999 -0.32300001
7.3119998 -1.564 -0.32300001
7.3280001 -1.5470001 -0.32300001
7.3260002 -1.526 -0.32300001
7.3590002 -1.512 -0.324
7.349 -1.489 -0.324
7.3670001 -1.472 -0.32499999
7.381 -1.454 -0.32499999
7.4039998 -1.437 -0.32600001
7.414 -1.418 -0.32600001
7.4250002 -1.399 -0.32600001
7.4429998 -1.381 -0.32699999
7.461 -1.364 -0.32800001
7.4860001 -1.347 -0.329
7.4990001 -1.3279999 -0.329
7.5139999 -1.3099999 -0.329
7.5180001 -1.289 -0.329
7.5440001 -1.272 -0.33000001
7.5679998 -1.255 -0.331
7.5749998 -1.234 -0.331
7.6020002 -1.217 -0.33199999
7.6139998 -1.198 -0.333
7.6209998 -1.177 -0.333
7.6420002 -1.159 -0.33399999
7.6479998 -1.138 -0.33399999
7.6680002 -1.119 -0.33399999
7.6859999 -1.1 -0.33500001
7.7270002 -1.084 -0.33700001
7.7270002 -1.063 -0.33700001
7.7220001 -1.04 -0.336
7.7540002 -1.022 -0.33700001
7.7789998 -1.0039999 -0.338
7.7870002 -0.98299998 -0.338
7.8049998 -0.963 -0.33899999
7.8299999 -0.94400001 -0.34
7.8309999 -0.92199999 -0.34
7.8629999 -0.90399998 -0.34099999
7.8660002 -0.88200003 -0.34099999
7.882 -0.861 -0.34099999
7.9029999 -0.84100002 -0.34200001
7.9369998 -0.82300001 -0.34299999
7.96 -0.80199999 -0.34400001
7.9819999 -0.78200001 -0.345
8.0059996 -0.76200002 -0.34599999
8.0109997 -0.74000001 -0.34599999
8.0389996 -0.72000003 -0.347
8.0690002 -0.69999999 -0.34799999
8.1440001 -0.68300003 -0.35100001
8.1020002 -0.65700001 -0.34900001
8.1149998 -0.63499999 -0.34999999
8.1569996 -0.61500001 -0.35100001
8.1700001 -0.59299999 -0.352
8.2159996 -0.57300001 -0.35299999
8.2089996 -0.55000001 -0.35299999
8.2290001 -0.528 -0.35299999
8.257 -0.50700003 -0.35499999
8.2860003 -0.48500001 -0.35600001
8.3070002 -0.463 -0.35600001
8.3319998 -0.44100001 -0.35699999
8.3599997 -0.419 -0.35800001
8.3769999 -0.396 -0.359
8.4289999 -0.375 -0.361
8.4510002 -0.352 -0.361
8.4659996 -0.329 -0.36199999
8.3669996 0.18799999 -0.50400001
8.2889996 0.198 -0.5
8.2740002 0.20900001 -0.49900001
8.2589998 0.22 -0.498
8.2580004 0.23199999 -0.498
8.2220001 0.243 -0.49599999
8.2290001 0.25600001 -0.49700001
8.2089996 0.26800001 -0.49599999
8.21 0.28 -0.49599999
8.1879997 0.292 -0.495
8.191 0.30500001 -0.495
8.1709995 0.31799999 -0.49399999
8.1929998 0.33199999 -0.49599999
8.165 0.34400001 -0.49399999
8.1789999 0.35800001 -0.495
8.1630001 0.37099999 -0.49399999
8.1750002 0.38600001 -0.495
8.1689997 0.40000001 -0.495
8.1879997 0.41499999 -0.49700001
8.1809998 0.42899999 -0.49599999
8.1719999 0.44400001 -0.49599999
8.184 0.45899999 -0.49700001
8.1920004 0.47499999 -0.498
8.1999998 0.49000001 -0.49900001
8.184 0.505 -0.498
8.177 0.51999998 -0.498
8.1820002 0.53600001 -0.498
8.1949997 0.55299997 -0.49900001
8.1949997 0.56900001 -0.5
8.1920004 0.58499998 -0.5
8.198 0.602 -0.5
8.1940002 0.61799997 -0.5
8.2019997 0.63599998 -0.50099999
8.1990004 0.65200001 -0.50099999
8.1990004 0.67000002 -0.50199997
8.217 0.68800002 -0.50300002
8.2159996 0.70599997 -0.50300002
8.2290001 0.72500002 -0.505
8.2279997 0.74199998 -0.505
8.2329998 0.76099998 -0.505
8.2309999 0.77899998 -0.50599998
8.2370005 0.79799998 -0.50599998
8.2279997 0.815 -0.50599998
8.2379999 0.83499998 -0.50700003
8.2440004 0.85399997 -0.50800002
8.2309999 0.87199998 -0.50800002
8.243 0.89200002 -0.509
8.2379999 0.91100001 -0.509
8.2530003 0.93199998 -0.50999999
8.2600002 0.95300001 -0.51099998
8.2399998 0.97000003 -0.50999999
8.2609997 0.99299997 -0.51200002
8.2600002 1.013 -0.51200002
8.2650003 1.034 -0.51300001
8.2690001 1.054 -0.514
8.2810001 1.077 -0.51499999
8.276 1.097 -0.51499999
8.2729998 1.117 -0.51499999
8.2849998 1.14 -0.51700002
8.2869997 1.161 -0.51700002
8.29 1.183 -0.51800001
8.3000002 1.206 -0.51899999
8.3059998 1.229 -0.51999998
8.3149996 1.252 -0.52100003
8.3050003 1.272 -0.52100003
8.3249998 1.298 -0.523
8.3280001 1.3200001 -0.523
8.335 1.344 -0.52399999
8.3269997 1.365 -0.52399999
8.3290005 1.388 -0.52499998
8.3219995 1.41 -0.52499998
8.3260002 1.434 -0.52600002
8.3430004 1.46 -0.52700001
8.3629999 1.487 -0.52899998
8.3500004 1.508 -0.52899998
8.3669996 1.535 -0.53100002
8.3540001 1.556 -0.52999997
8.3780003 1.585 -0.53299999
8.3739996 1.608 -0.53299999
8.3730001 1.632 -0.53299999
8.3769999 1.658 -0.53399998
8.3929996 1.6849999 -0.53600001
8.3870001 1.709 -0.53600001
8.3859997 1.734 -0.537
8.4099998 1.763 -0.53899997
8.4160004 1.79 -0.54000002
8.4289999 1.818 -0.54100001
8.4350004 1.845 -0.542
8.4440002 1.873 -0.54400003
8.4429998 1.898 -0.54400003
8.4460001 1.925 -0.54500002
8.4499998 1.952 -0.546
8.4519997 1.979 -0.54699999
8.4490004 2.0039999 -0.54699999
8.4610004 2.0339999 -0.54900002
8.4809999 2.066 -0.551
8.4969997 2.096 -0.55299997
8.4890003 2.1210001 -0.55299997
8.4940004 2.1500001 -0.55400002
8.5150003 2.1830001 -0.55599999
8.5089998 2.2090001 -0.55599999
8.5150003 2.2379999 -0.55800003
8.5410004 2.273 -0.56
8.559 2.3050001 -0.56199998
8.5649996 2.335 -0.56300002
8.5819998 2.368 -0.565
8.5740004 2.395 -0.565
8.5900002 2.428 -0.56699997
8.6140003 2.464 -0.56999999
8.5939999 2.487 -0.56900001
8.6059999 2.52 -0.57099998
8.6160002 2.552 -0.57200003
8.6219997 2.5829999 -0.57300001
8.6079998 2.608 -0.57300001
8.6120005 2.6389999 -0.574
8.6230001 2.6730001 -0.57599998
8.6420002 2.7090001 -0.57800001
8.6370001 2.737 -0.579
8.6339998 2.767 -0.579
8.6529999 2.803 -0.58200002
8.6750002 2.8410001 -0.58399999
8.6859999 2.8759999 -0.58600003
8.6969995 2.9100001 -0.58700001
8.7040005 2.944 -0.58899999
8.717 2.98 -0.58999997
8.7250004 3.0139999 -0.59200001
8.7539997 3.056 -0.59500003
8.7700005 3.0929999 -0.597
8.7709999 3.1259999 -0.59799999
8.7889996 3.164 -0.60000002
8.7880001 3.197 -0.60100001
8.8170004 3.24 -0.60399997
8.8199997 3.2739999 -0.60500002
8.8260002 3.309 -0.60699999
8.816 3.3380001 -0.60699999
8.8299999 3.3770001 -0.60900003
8.8470001 3.4170001 -0.611
8.8540001 3.4530001 -0.61299998
8.8739996 3.4949999 -0.61500001
8.8929996 3.5369999 -0.61699998
8.9189997 3.5810001 -0.62
8.927 3.619 -0.62199998
8.9399996 3.6589999 -0.62400001
8.9530001 3.6989999 -0.62599999
8.9589996 3.7360001 -0.62699997
8.9779997 3.779 -0.63
9.0010004 3.825 -0.63300002
9.04 3.8770001 -0.63599998
7.9619999 3.4460001 -0.56199998
7.881 3.4419999 -0.55699998
7.8119998 3.4430001 -0.55299997
7.822 3.4790001 -0.55500001
7.9050002 3.5480001 -0.56199998
9.1079998 4.125 -0.648
9.1379995 4.1750002 -0.65200001
9.1339998 4.211 -0.65200001
9.1350002 4.2490001 -0.65399998
9.1450005 4.29 -0.65600002
9.165 4.3379998 -0.65799999
9.177 4.381 -0.66000003
9.198 4.4289999 -0.66299999
8.0500002 3.9100001 -0.58099997
7.9229999 3.882 -0.57300001
7.8860002 3.8959999 -0.57200003
7.8909998 3.9319999 -0.57300001
7.9660001 4.0029998 -0.57999998
9.25 4.6880002 -0.67500001
9.2600002 4.7319999 -0.67699999
9.2889996 4.7870002 -0.68000001
9.3079996 4.836 -0.68300003
9.3030005 4.8730001 -0.68400002
9.3219995 4.9239998 -0.68699998
9.3360004 4.9710002 -0.68900001
9.342 5.0149999 -0.69099998
9.349 5.0599999 -0.69300002
9.3789997 5.1170001 -0.69599998
9.3649998 5.1500001 -0.69700003
9.3940001 5.2080002 -0.69999999
9.408 5.257 -0.70300001
9.4399996 5.3169999 -0.70700002
9.4449997 5.362 -0.708
9.4510002 5.4070001 -0.70999998
9.4510002 5.4499998 -0.71200001
9.4490004 5.4910002 -0.713
9.4580002 5.539 -0.71499997
9.4709997 5.5890002 -0.71799999
9.4820004 5.6389999 -0.72000003
9.4919996 5.6880002 -0.722
9.4899998 5.73 -0.72399998
9.5010004 5.7810001 -0.72600001
9.5129995 5.8309999 -0.72799999
9.5059996 5.8709998 -0.72899997
9.5469999 5.941 -0.73400003
9.5480003 5.9860001 -0.736
9.5229998 6.0139999 -0.736
9.5500002 6.0760002 -0.73900002
9.5430002 6.1160002 -0.74000001
9.5600004 6.1719999 -0.74299997
9.5600004 6.217 -0.745
9.5640001 6.2649999 -0.74699998
9.5640001 6.3099999 -0.74800003
9.5500002 6.3470001 -0.74900001
9.5579996 6.3979998 -0.75099999
9.5389996 6.4310002 -0.75099999
9.5489998 6.4829998 -0.75400001
9.5319996 6.5180001 -0.75400001
9.5279999 6.5609999 -0.75599998
9.5240002 6.6040001 -0.75700003
9.5170002 6.6459999 -0.75800002
9.5249996 6.698 -0.75999999
9.5150003 6.7379999 -0.76099998
9.5080004 6.7789998 -0.76300001
9.4860001 6.8099999 -0.76300001
9.441 6.8249998 -0.76099998
5.7150002 -3.7880001 -0.259
5.7420001 -3.77 -0.259
5.756 -3.743 -0.25999999
5.79 -3.7290001 -0.26100001
5.8070002 -3.704 -0.26100001
5.809 -3.6700001 -0.26100001
5.8130002 -3.6359999 -0.26100001
5.8179998 -3.605 -0.26100001
5.8569999 -3.5940001 -0.26199999
5.8730001 -3.569 -0.26300001
5.9050002 -3.5539999 -0.264
5.908 -3.5220001 -0.264
5.9359999 -3.5039999 -0.26499999
5.9429998 -3.474 -0.26499999
5.9829998 -3.464 -0.266
5.9980001 -3.4389999 -0.26699999
6.006 -3.411 -0.26699999
6.026 -3.388 -0.26699999
6.04 -3.3629999 -0.26800001
6.0549998 -3.339 -0.26800001
6.0809999 -3.3199999 -0.26899999
6.092 -3.2950001 -0.26899999
6.1079998 -3.2709999 -0.26899999
6.1269999 -3.2490001 -0.27000001
6.132 -3.22 -0.27000001
6.1529999 -3.1989999 -0.271
6.1630001 -3.1730001 -0.271
6.1890001 -3.155 -0.27200001
6.204 -3.131 -0.27200001
6.2199998 -3.108 -0.27200001
6.2360001 -3.086 -0.273
6.257 -3.066 -0.27399999
6.2709999 -3.0420001 -0.27399999
6.289 -3.02 -0.27399999
6.3060002 -2.9979999 -0.27500001
6.3200002 -2.9749999 -0.27500001
6.3390002 -2.954 -0.27599999
6.3449998 -2.927 -0.27599999
6.3740001 -2.911 -0.27700001
6.3899999 -2.8889999 -0.27700001
6.4089999 -2.868 -0.278
6.434 -2.8499999 -0.27900001
6.4439998 -2.825 -0.27900001
6.4520001 -2.8 -0.27900001
6.4780002 -2.783 -0.28
6.487 -2.7579999 -0.28
6.5100002 -2.7390001 -0.28099999
6.5229998 -2.7160001 -0.28099999
6.5359998 -2.694 -0.28099999
6.5619998 -2.6760001 -0.28200001
6.5840001 -2.6570001 -0.28299999
6.5949998 -2.6340001 -0.28299999
6.605 -2.6099999 -0.28299999
6.625 -2.5910001 -0.28400001
6.6350002 -2.5669999 -0.28400001
6.664 -2.5510001 -0.285
6.684 -2.5309999 -0.28600001
6.6789999 -2.503 -0.28600001
6.704 -2.4849999 -0.28600001
6.7160001 -2.4630001 -0.287
6.7280002 -2.4400001 -0.287
6.7379999 -2.418 -0.287
6.7659998 -2.401 -0.28799999
6.7719998 -2.3770001 -0.28799999
6.7740002 -2.352 -0.28799999
6.8099999 -2.3380001 -0.289
6.816 -2.3150001 -0.289
6.8260002 -2.2920001 -0.28999999
6.8400002 -2.2709999 -0.28999999
6.848 -2.2479999 -0.28999999
6.8610001 -2.227 -0.29100001
6.875 -2.207 -0.29100001
6.8909998 -2.187 -0.29100001
6.9169998 -2.1700001 -0.292
6.9219999 -2.1470001 -0.292
6.9310002 -2.125 -0.29300001
6.9419999 -2.1029999 -0.29300001
6.9629998 -2.085 -0.29300001
6.9780002 -2.0650001 -0.294
6.9840002 -2.043 -0.294
6.9970002 -2.0220001 -0.294
7.0089998 -2.0020001 -0.29499999
7.0349998 -1.985 -0.296
7.059 -1.9680001 -0.296
7.0700002 -1.947 -0.29699999
7.079 -1.926 -0.29699999
7.0939999 -1.9069999 -0.29699999
7.1090002 -1.887 -0.29800001
7.1090002 -1.864 -0.29800001
7.1490002 -1.851 -0.29899999
7.1700001 -1.8329999 -0.30000001
7.1900001 -1.8150001 -0.30000001
7.1939998 -1.794 -0.30000001
7.2199998 -1.777 -0.301
7.2259998 -1.756 -0.301
7.2519999 -1.739 -0.30199999
7.283 -1.724 -0.303
7.2820001 -1.701 -0.303
7.2950001 -1.682 -0.30399999
7.3150001 -1.664 -0.30399999
7.3249998 -1.6440001 -0.30500001
7.3410001 -1.626 -0.30500001
7.3559999 -1.607 -0.30599999
7.3660002 -1.587 -0.30599999
7.3790002 -1.568 -0.30599999
7.395 -1.55 -0.30700001
7.408 -1.531 -0.30700001
7.4190001 -1.512 -0.30700001
7.4510002 -1.497 -0.30899999
7.4619999 -1.478 -0.30899999
7.474 -1.459 -0.30899999
7.4689999 -1.437 -0.30899999
7.474 -1.4170001 -0.30899999
7.513 -1.403 -0.31
7.5430002 -1.388 -0.31099999
7.5409999 -1.367 -0.31099999
7.553 -1.348 -0.31200001
7.5710001 -1.331 -0.31200001
7.5809999 -1.312 -0.31200001
7.5999999 -1.295 -0.31299999
7.6090002 -1.276 -0.31299999
7.6259999 -1.258 -0.31400001
7.651 -1.242 -0.315
7.6599998 -1.224 -0.315
7.677 -1.207 -0.31600001
7.6810002 -1.187 -0.31600001
7.6830001 -1.168 -0.31600001
7.7150002 -1.153 -0.317
7.7249999 -1.135 -0.317
7.7420001 -1.118 -0.31799999
7.7659998 -1.102 -0.31900001
7.7740002 -1.084 -0.31900001
7.7849998 -1.066 -0.31900001
7.8010001 -1.049 -0.31999999
7.8179998 -1.0319999 -0.31999999
7.8150001 -1.013 -0.31999999
7.8260002 -0.995 -0.31999999
7.855 -0.98000002 -0.32100001
7.8569999 -0.96200001 -0.32100001
7.8740001 -0.94599998 -0.322
7.882 -0.92799997 -0.322
7.8909998 -0.91100001 -0.322
7.9219999 -0.89600003 -0.32300001
7.9089999 -0.87599999 -0.32300001
7.9299998 -0.86000001 -0.324
7.9549999 -0.84500003 -0.324
7.9699998 -0.829 -0.32499999
7.9889998 -0.81300002 -0.32600001
8.0050001 -0.79699999 -0.32600001
8.0190001 -0.77999997 -0.32699999
8.0299997 -0.764 -0.32699999
8.0500002 -0.74800003 -0.32800001
8.0550003 -0.73100001 -0.32800001
8.0609999 -0.71399999 -0.32800001
8.0839996 -0.699 -0.329
8.1009998 -0.68300003 -0.329
8.0869999 -0.66500002 -0.329
8.125 -0.65100002 -0.33000001
8.1610003 -0.63700002 -0.33199999
8.1590004 -0.62 -0.331
8.1780005 -0.60500002 -0.33199999
8.2049999 -0.58999997 -0.333
8.2110004 -0.574 -0.333
8.2399998 -0.55900002 -0.33399999
8.2340002 -0.54299998 -0.33399999
8.25 -0.52700001 -0.33500001
8.2700005 -0.51200002 -0.33500001
8.2939997 -0.498 -0.336
8.3190002 -0.48300001 -0.33700001
8.323 -0.46700001 -0.33700001
8.3260002 -0.45199999 -0.33700001
8.3509998 -0.43700001 -0.338
8.3850002 -0.42300001 -0.33899999
8.3950005 -0.40799999 -0.34
8.4200001 -0.39399999 -0.34099999
8.4499998 -0.38 -0.34200001
8.4820004 -0.36500001 -0.34299999
8.4809999 -0.34999999 -0.34299999
8.507 -0.336 -0.34400001
8.5299997 -0.322 -0.345
8.54 -0.30700001 -0.345
8.5970001 -0.294 -0.347
8.684 -0.28200001 -0.35100001
8.7279997 -0.26800001 -0.35299999
8.118 0.090000004 -0.46799999
8.1610003 0.106 -0.47099999
8.1599998 0.121 -0.47099999
8.1599998 0.13600001 -0.47099999
8.1599998 0.152 -0.47099999
8.1590004 0.167 -0.47099999
8.1479998 0.183 -0.47099999
8.1429996 0.198 -0.47
8.1440001 0.215 -0.47099999
8.1409998 0.23100001 -0.47099999
8.1300001 0.24699999 -0.47
8.1450005 0.264 -0.47099999
8.1269999 0.28 -0.47099999
8.1400003 0.29699999 -0.47099999
8.1370001 0.31400001 -0.47099999
8.1459999 0.33199999 -0.472
8.1560001 0.34999999 -0.47299999
8.1450005 0.36700001 -0.47299999
8.1529999 0.38499999 -0.47299999
8.1479998 0.403 -0.47299999
8.177 0.42199999 -0.47499999
8.1619997 0.43900001 -0.47499999
8.1689997 0.458 -0.47499999
8.1680002 0.477 -0.47600001
8.1730003 0.49599999 -0.47600001
8.1709995 0.514 -0.47600001
8.1820002 0.53399998 -0.477
8.1960001 0.55400002 -0.47799999
8.1829996 0.57300001 -0.47799999
8.191 0.59299999 -0.479
8.1990004 0.61299998 -0.479
8.1940002 0.63200003 -0.479
8.2159996 0.65399998 -0.48100001
8.2019997 0.67299998 -0.47999999
8.2340002 0.69599998 -0.48300001
8.2309999 0.71600002 -0.48300001
8.2180004 0.73500001 -0.48199999
8.2349997 0.75700003 -0.484
8.2360001 0.778 -0.484
8.2270002 0.79799998 -0.484
8.2480001 0.82099998 -0.486
8.2460003 0.84200001 -0.486
8.257 0.86500001 -0.48699999
8.2609997 0.88700002 -0.48800001
8.2510004 0.90799999 -0.48699999
8.2650003 0.93099999 -0.48899999
8.2819996 0.95499998 -0.49000001
8.2659998 0.97500002 -0.48899999
8.2770004 0.99800003 -0.49000001
8.2930002 1.023 -0.49200001
8.2840004 1.044 -0.49200001
8.3100004 1.0700001 -0.49399999
8.2980003 1.091 -0.493
8.3140001 1.1160001 -0.495
8.3219995 1.14 -0.49599999
8.3170004 1.163 -0.49599999
8.3509998 1.191 -0.498
8.3310003 1.212 -0.498
8.3439999 1.237 -0.49900001
8.3649998 1.2640001 -0.50099999
8.3739996 1.289 -0.50199997
8.3660002 1.312 -0.50199997
8.3859997 1.339 -0.50300002
8.3970003 1.365 -0.50400001
8.4139996 1.392 -0.50599998
8.3950005 1.414 -0.505
8.4180002 1.442 -0.50700003
8.4259996 1.469 -0.50800002
8.4300003 1.494 -0.509
8.4440002 1.522 -0.50999999
8.4530001 1.549 -0.51099998
8.4549999 1.574 -0.51200002
8.4650002 1.602 -0.51300001
8.4580002 1.626 -0.51300001
8.4729996 1.654 -0.51499999
8.4840002 1.682 -0.51599997
8.4940004 1.71 -0.51700002
8.4860001 1.735 -0.51700002
8.4989996 1.7640001 -0.51899999
8.5190001 1.794 -0.51999998
8.5229998 1.821 -0.52100003
8.5290003 1.849 -0.52200001
8.5410004 1.878 -0.52399999
8.5699997 1.9119999 -0.52600002
8.5559998 1.936 -0.52600002
8.5760002 1.967 -0.528
8.5939999 1.999 -0.52899998
8.5819998 2.023 -0.52899998
8.6049995 2.056 -0.53100002
8.6129999 2.085 -0.53200001
8.6359997 2.119 -0.53500003
8.6350002 2.1459999 -0.53500003
8.6370001 2.175 -0.53600001
8.6499996 2.2060001 -0.537
8.665 2.2379999 -0.53899997
8.677 2.27 -0.54000002
8.7019997 2.3050001 -0.54299998
8.7089996 2.335 -0.54400003
8.7279997 2.369 -0.546
8.7410002 2.401 -0.54699999
8.7370005 2.4289999 -0.54799998
8.7410002 2.4590001 -0.54900002
8.7629995 2.494 -0.551
8.7799997 2.529 -0.55299997
8.783 2.559 -0.55400002
8.8050003 2.595 -0.55599999
8.8199997 2.6289999 -0.55699998
8.8260002 2.661 -0.55900002
8.8400002 2.6949999 -0.56
8.8430004 2.7260001 -0.56099999
8.849 2.757 -0.56199998
8.8570004 2.79 -0.56400001
8.8570004 2.8199999 -0.56400001
8.8629999 2.8529999 -0.56599998
8.9169998 2.901 -0.56999999
8.8850002 2.921 -0.56900001
8.9049997 2.9579999 -0.57099998
8.9209995 2.994 -0.57200003
8.9259996 3.027 -0.574
8.9399996 3.063 -0.57499999
8.927 3.089 -0.57499999
8.9510002 3.1289999 -0.57800001
8.9490004 3.1589999 -0.579
8.9659996 3.197 -0.57999998
8.9809999 3.234 -0.58200002
8.9849997 3.267 -0.583
8.9910002 3.3 -0.58499998
9.0139999 3.3410001 -0.58700001
9.0240002 3.3759999 -0.58899999
9.0109997 3.4030001 -0.58899999
9.0299997 3.4430001 -0.59100002
9.0500002 3.4820001 -0.59299999
9.0679998 3.5209999 -0.59500003
9.0869999 3.5610001 -0.597
9.0909996 3.595 -0.59899998
9.0909996 3.628 -0.59899998
9.1199999 3.6719999 -0.602
9.1529999 3.7179999 -0.60500002
9.1590004 3.753 -0.60699999
9.1800003 3.7950001 -0.60900003
9.1859999 3.8299999 -0.611
9.1990004 3.869 -0.61199999
9.2399998 3.9189999 -0.616
9.2250004 3.9460001 -0.616
9.2650003 3.997 -0.62
9.2869997 4.04 -0.62199998
7.9770002 3.4990001 -0.53500003
7.8039999 3.4519999 -0.52499998
7.7750001 3.467 -0.523
7.7880001 3.5009999 -0.52499998
7.7969999 3.533 -0.52700001
7.8299999 3.5769999 -0.52999997
8.0459995 3.7049999 -0.54500002
9.3920002 4.3590002 -0.63800001
9.3850002 4.3899999 -0.63800001
9.4219999 4.4419999 -0.64200002
9.401 4.4660001 -0.64099997
9.4130001 4.506 -0.64300001
9.4420004 4.5549998 -0.64700001
9.46 4.598 -0.64899999
8.066 3.95 -0.55400002
7.9120002 3.9030001 -0.54400003
7.8590002 3.9059999 -0.542
7.8410001 3.9260001 -0.54100001
7.8600001 3.964 -0.54400003
7.9380002 4.0320001 -0.55000001
9.5480003 4.8850002 -0.66299999
9.5609999 4.927 -0.66500002
9.573 4.9679999 -0.667
9.5799999 5.007 -0.66900003
9.6029997 5.0539999 -0.671
9.6129999 5.0949998 -0.67299998
9.6269999 5.1370001 -0.67500001
9.6440001 5.1810002 -0.67799997
9.658 5.224 -0.68000001
9.6750002 5.2690001 -0.68199998
9.6829996 5.309 -0.68400002
9.7019997 5.355 -0.68699998
9.7119999 5.395 -0.68900001
9.7200003 5.4349999 -0.69099998
9.7539997 5.4899998 -0.69400001
9.7259998 5.5089998 -0.69300002
9.7399998 5.553 -0.69599998
9.7290001 5.5819998 -0.69599998
9.7379999 5.6220002 -0.69800001
9.7489996 5.664 -0.69999999
9.7799997 5.717 -0.704
9.7969999 5.763 -0.70599997
9.8100004 5.8060002 -0.708
9.8199997 5.8470001 -0.71100003
9.8330002 5.8899999 -0.713
9.8590002 5.941 -0.71600002
9.8479996 5.9689999 -0.71600002
9.8690004 6.0170002 -0.71899998
9.8570004 6.0450001 -0.72000003
9.8590002 6.0809999 -0.72100002
9.868 6.1220002 -0.72299999
9.8809996 6.165 -0.72600001
9.8990002 6.211 -0.72799999
9.901 6.2470002 -0.73000002
9.9020004 6.2820001 -0.73100001
9.9110003 6.323 -0.73299998
9.9219999 6.3639998 -0.73500001
9.934 6.4070001 -0.73799998
9.9379997 6.4439998 -0.73900002
9.967 6.4970002 -0.74299997
9.9639997 6.5300002 -0.74400002
9.9680004 6.5669999 -0.74599999
9.9779997 6.6069999 -0.74800003
10.012 6.664 -0.75199997
10.013 6.698 -0.75300002
10.04 6.7509999 -0.75700003
10.082 6.8119998 -0.76099998
10.068 6.8369999 -0.76200002
10.063 6.8670001 -0.76300001
10.037 6.8829999 -0.76200002
10.071 6.9390001 -0.76599997
10.078 6.9780002 -0.76800001
10.119 7.039 -0.773
10.103 7.0609999 -0.773
10.157 7.131 -0.77899998
6.0689998 -3.543 -0.255
6.0780001 -3.5309999 -0.255
6.0929999 -3.5220001 -0.255
6.0970001 -3.5079999 -0.255
6.1069999 -3.4960001 -0.25600001
6.1059999 -3.4790001 -0.25600001
6.1259999 -3.474 -0.25600001
6.1290002 -3.4579999 -0.25600001
6.1409998 -3.448 -0.257
6.1409998 -3.431 -0.257
6.151 -3.418 -0.257
6.151 -3.401 -0.257
6.158 -3.388 -0.257
6.165 -3.375 -0.257
6.1719999 -3.3610001 -0.257
6.171 -3.3429999 -0.257
6.1869998 -3.3340001 -0.25799999
6.1869998 -3.3169999 -0.25799999
6.1890001 -3.3 -0.25799999
6.2090001 -3.2939999 -0.25799999
6.2290001 -3.286 -0.259
6.2490001 -3.28 -0.25999999
6.2620001 -3.2690001 -0.25999999
6.2639999 -3.2520001 -0.25999999
6.2820001 -3.244 -0.26100001
6.2789998 -3.224 -0.25999999
6.2779999 -3.2060001 -0.25999999
6.2989998 -3.1989999 -0.26100001
6.2940001 -3.1789999 -0.26100001
6.3130002 -3.1700001 -0.26100001
6.3280001 -3.1589999 -0.26199999
6.3400002 -3.148 -0.26199999
6.3319998 -3.1259999 -0.26199999
6.3470001 -3.115 -0.26199999
6.362 -3.1040001 -0.26300001
6.3639998 -3.0869999 -0.26300001
6.3959999 -3.0840001 -0.264
6.3909998 -3.0639999 -0.264
6.3959999 -3.0480001 -0.264
6.4029999 -3.033 -0.264
6.4099998 -3.0179999 -0.264
6.4229999 -3.006 -0.264
6.4450002 -2.9979999 -0.26499999
6.4640002 -2.9879999 -0.266
6.4520001 -2.964 -0.26499999
6.4829998 -2.96 -0.266
6.5040002 -2.951 -0.26699999
6.5110002 -2.9360001 -0.26699999
6.513 -2.918 -0.26699999
6.513 -2.9000001 -0.26699999
6.526 -2.8870001 -0.26800001
6.539 -2.8740001 -0.26800001
6.5539999 -2.862 -0.26800001
6.566 -2.848 -0.26899999
6.573 -2.832 -0.26899999
6.579 -2.816 -0.26899999
6.5799999 -2.7980001 -0.26899999
6.6040001 -2.789 -0.27000001
6.6139998 -2.7739999 -0.27000001
6.6339998 -2.7639999 -0.271
6.6259999 -2.7420001 -0.27000001
6.6529999 -2.734 -0.271
6.6680002 -2.721 -0.27200001
6.6719999 -2.7030001 -0.27200001
6.6810002 -2.688 -0.27200001
6.6869998 -2.671 -0.27200001
6.6919999 -2.654 -0.27200001
6.71 -2.642 -0.273
6.7129998 -2.6240001 -0.273
6.7189999 -2.6070001 -0.273
6.7389998 -2.595 -0.273
6.7389998 -2.576 -0.273
6.7410002 -2.5580001 -0.273
6.7719998 -2.55 -0.27399999
6.7729998 -2.5309999 -0.27399999
6.796 -2.52 -0.27500001
6.8039999 -2.5039999 -0.27500001
6.8109999 -2.487 -0.27500001
6.823 -2.4719999 -0.27599999
6.835 -2.457 -0.27599999
6.8439999 -2.4400001 -0.27599999
6.849 -2.4219999 -0.27599999
6.8610001 -2.4070001 -0.27700001
6.8740001 -2.392 -0.27700001
6.8850002 -2.3759999 -0.27700001
6.888 -2.3570001 -0.27700001
6.9060001 -2.3440001 -0.278
6.8940001 -2.3199999 -0.27700001
6.9109998 -2.306 -0.278
6.921 -2.29 -0.278
6.9330001 -2.2739999 -0.27900001
6.9429998 -2.257 -0.27900001
6.9499998 -2.24 -0.27900001
6.961 -2.223 -0.27900001
6.973 -2.207 -0.28
6.9899998 -2.1930001 -0.28
6.9990001 -2.175 -0.28
7.0029998 -2.1570001 -0.28
7.0180001 -2.141 -0.28099999
7.0300002 -2.125 -0.28099999
7.0489998 -2.1099999 -0.28200001
7.0539999 -2.092 -0.28200001
7.066 -2.075 -0.28200001
7.0780001 -2.0580001 -0.28200001
7.0799999 -2.039 -0.28200001
7.1020002 -2.0250001 -0.28299999
7.1160002 -2.0090001 -0.28400001
7.125 -1.9910001 -0.28400001
7.1469998 -1.977 -0.28400001
7.1430001 -1.955 -0.28400001
7.1630001 -1.9400001 -0.285
7.177 -1.923 -0.285
7.1859999 -1.905 -0.285
7.1929998 -1.887 -0.28600001
7.1810002 -1.863 -0.285
7.2490001 -1.86 -0.28799999
7.2639999 -1.8430001 -0.28799999
7.2659998 -1.823 -0.28799999
7.2940001 -1.809 -0.289
7.2930002 -1.788 -0.289
7.3049998 -1.771 -0.289
7.323 -1.7539999 -0.28999999
7.3299999 -1.735 -0.28999999
7.3520002 -1.719 -0.28999999
7.3709998 -1.7029999 -0.29100001
7.3790002 -1.684 -0.29100001
7.3870001 -1.664 -0.29100001
7.3959999 -1.646 -0.29100001
7.4099998 -1.628 -0.292
7.4120002 -1.607 -0.292
7.4310002 -1.59 -0.292
7.4510002 -1.573 -0.29300001
7.46 -1.554 -0.29300001
7.487 -1.538 -0.294
7.4910002 -1.518 -0.294
7.5100002 -1.5 -0.29499999
7.5489998 -1.487 -0.296
7.5510001 -1.466 -0.296
7.5419998 -1.443 -0.296
7.54 -1.421 -0.29499999
7.5879998 -1.408 -0.29699999
7.5900002 -1.387 -0.29699999
7.619 -1.3710001 -0.29800001
7.6329999 -1.352 -0.29800001
7.6589999 -1.335 -0.29899999
7.6479998 -1.311 -0.29899999
7.6719999 -1.294 -0.29899999
7.698 -1.276 -0.30000001
7.7150002 -1.257 -0.301
7.724 -1.237 -0.301
7.7389998 -1.217 -0.301
7.7670002 -1.199 -0.30199999
7.7550001 -1.176 -0.30199999
7.8010001 -1.161 -0.303
7.803 -1.1390001 -0.303
7.8340001 -1.1210001 -0.30399999
7.8540001 -1.102 -0.30500001
7.8569999 -1.08 -0.30500001
7.881 -1.061 -0.30599999
7.8940001 -1.041 -0.30599999
7.9060001 -1.02 -0.30599999
7.9089999 -0.99800003 -0.30599999
7.9400001 -0.97899997 -0.30700001
7.9580002 -0.95899999 -0.308
7.9650002 -0.93699998 -0.308
8.0059996 -0.92000002 -0.30899999
8.0080004 -0.89700001 -0.30899999
8.0279999 -0.87699997 -0.31
8.0640001 -0.85799998 -0.31099999
8.0710001 -0.83600003 -0.31099999
8.0970001 -0.81599998 -0.31200001
8.1059999 -0.79400003 -0.31200001
8.1289997 -0.773 -0.31299999
8.1529999 -0.75199997 -0.31299999
8.1689997 -0.73100001 -0.31400001
8.1929998 -0.70999998 -0.315
8.2030001 -0.68699998 -0.315
8.2049999 -0.66399997 -0.315
8.2629995 -0.64600003 -0.317
8.283 -0.62400001 -0.317
8.3100004 -0.60299999 -0.31799999
8.3249998 -0.57999998 -0.31900001
8.3249998 -0.55699998 -0.31799999
8.3699999 -0.53600001 -0.31999999
8.3940001 -0.514 -0.32100001
8.4180002 -0.49200001 -0.32100001
8.4469995 -0.47 -0.322
8.4899998 -0.44800001 -0.324
8.5150003 -0.42500001 -0.32499999
8.5190001 -0.40200001 -0.32499999
8.5539999 -0.37900001 -0.32600001
8.6029997 -0.35699999 -0.32699999
8.6999998 -0.33700001 -0.331
8.7049999 -0.31200001 -0.331
8.4610004 0.138 -0.46399999
8.4549999 0.148 -0.46399999
8.3920002 0.15800001 -0.461
8.3769999 0.168 -0.46000001
8.3649998 0.17900001 -0.45899999
8.3500004 0.19 -0.45899999
8.3400002 0.20100001 -0.458
8.3330002 0.213 -0.458
8.3360004 0.22400001 -0.458
8.3330002 0.236 -0.458
8.3079996 0.248 -0.45699999
8.3059998 0.25999999 -0.45699999
8.3190002 0.273 -0.458
8.2989998 0.285 -0.45699999
8.3140001 0.29800001 -0.458
8.3190002 0.31200001 -0.458
8.3059998 0.324 -0.458
8.3050003 0.338 -0.458
8.3039999 0.35100001 -0.458
8.2930002 0.36500001 -0.458
8.3100004 0.38 -0.45899999
8.3059998 0.39399999 -0.45899999
8.2969999 0.40700001 -0.458
8.3070002 0.42300001 -0.45899999
8.3100004 0.43700001 -0.46000001
8.3120003 0.45300001 -0.46000001
8.309 0.46700001 -0.46000001
8.3109999 0.48300001 -0.46000001
8.3179998 0.49900001 -0.461
8.3170004 0.514 -0.461
8.3369999 0.53100002 -0.463
8.3360004 0.54699999 -0.463
8.3330002 0.56300002 -0.463
8.3459997 0.58099997 -0.46399999
8.3319998 0.59600002 -0.463
8.3710003 0.616 -0.46599999
8.3629999 0.63200003 -0.46599999
8.368 0.64999998 -0.46599999
8.3809996 0.66799998 -0.46700001
8.3920002 0.68599999 -0.46799999
8.3990002 0.70499998 -0.46900001
8.382 0.72100002 -0.46799999
8.3870001 0.73900002 -0.46900001
8.3920002 0.75800002 -0.46900001
8.3900003 0.77600002 -0.47
8.4090004 0.79699999 -0.47099999
8.3830004 0.81300002 -0.47
8.3929996 0.833 -0.47099999
8.4119997 0.85299999 -0.472
8.408 0.87199998 -0.472
8.4139996 0.89200002 -0.47299999
8.4300003 0.91299999 -0.47400001
8.4370003 0.93400002 -0.47499999
8.4530001 0.95599997 -0.477
8.4510002 0.97500002 -0.477
8.4580002 0.99699998 -0.47799999
8.4580002 1.017 -0.47799999
8.4619999 1.038 -0.479
8.4829998 1.061 -0.47999999
8.4610004 1.08 -0.479
8.4849997 1.104 -0.48100001
8.4949999 1.126 -0.48199999
8.4980001 1.148 -0.48300001
8.5240002 1.173 -0.48500001
8.4960003 1.191 -0.484
8.5240002 1.217 -0.486
8.5220003 1.239 -0.486
8.5249996 1.261 -0.48699999
8.533 1.285 -0.48800001
8.5349998 1.308 -0.48800001
8.5410004 1.332 -0.48899999
8.5279999 1.352 -0.48899999
8.5620003 1.381 -0.491
8.5629997 1.404 -0.49200001
8.559 1.427 -0.49200001
8.5679998 1.452 -0.493
8.5790005 1.478 -0.49399999
8.5950003 1.5039999 -0.49599999
8.5970001 1.529 -0.49700001
8.6020002 1.554 -0.49700001
8.6149998 1.581 -0.49900001
8.6309996 1.608 -0.5
8.6330004 1.633 -0.50099999
8.6420002 1.66 -0.50199997
8.6359997 1.683 -0.50199997
8.6450005 1.711 -0.50300002
8.6459999 1.7359999 -0.50400001
8.6529999 1.763 -0.505
8.651 1.788 -0.505
8.658 1.8150001 -0.50599998
8.6820002 1.846 -0.50800002
8.6759996 1.8710001 -0.509
8.684 1.899 -0.50999999
8.7049999 1.9299999 -0.51200002
8.7060003 1.957 -0.51200002
8.7200003 1.987 -0.514
8.724 2.0150001 -0.51499999
8.7259998 2.043 -0.51599997
8.7410002 2.073 -0.51700002
8.7489996 2.1029999 -0.51800001
8.7550001 2.132 -0.51899999
8.7819996 2.1659999 -0.52200001
8.7589998 2.1889999 -0.52100003
8.7810001 2.2219999 -0.523
8.7939997 2.2539999 -0.52399999
8.802 2.2839999 -0.52600002
8.7980003 2.312 -0.52600002
8.8170004 2.346 -0.528
8.8319998 2.3789999 -0.52999997
8.842 2.4100001 -0.53100002
8.8620005 2.4449999 -0.53299999
8.8649998 2.4749999 -0.53399998
8.8579998 2.503 -0.53399998
8.8789997 2.539 -0.53600001
8.8760004 2.5680001 -0.537
8.9029999 2.6059999 -0.53899997
8.9090004 2.638 -0.54100001
8.927 2.674 -0.542
8.9359999 2.707 -0.54400003
8.9499998 2.7420001 -0.54500002
8.9499998 2.773 -0.546
8.9639997 2.809 -0.54799998
8.9840002 2.846 -0.55000001
9.0080004 2.8859999 -0.55199999
9 2.915 -0.55299997
9.0220003 2.954 -0.55500001
9.0270004 2.987 -0.55599999
9.0419998 3.0250001 -0.55800003
9.0570002 3.062 -0.56
9.0679998 3.099 -0.56099999
9.0749998 3.1340001 -0.56300002
9.073 3.1659999 -0.56300002
9.0760002 3.2 -0.565
9.0889997 3.2379999 -0.56599998
9.0930004 3.273 -0.56699997
9.1129999 3.3139999 -0.56999999
9.1160002 3.349 -0.57099998
9.1409998 3.392 -0.57300001
9.1630001 3.434 -0.57599998
9.1630001 3.4690001 -0.57700002
9.1719999 3.507 -0.57800001
9.1829996 3.5450001 -0.57999998
9.2060003 3.589 -0.58200002
9.217 3.6289999 -0.58399999
9.2440004 3.675 -0.58700001
9.2650003 3.7190001 -0.58899999
9.2799997 3.7609999 -0.59100002
9.3030005 3.806 -0.59399998
9.3280001 3.852 -0.59600002
9.323 3.8870001 -0.597
9.3629999 3.9400001 -0.60100001
9.375 3.9820001 -0.602
9.3950005 4.027 -0.60500002
9.4099998 4.0710001 -0.60699999
7.8909998 3.4449999 -0.50999999
7.8150001 3.444 -0.50599998
7.809 3.4719999 -0.50599998
7.8280001 3.5120001 -0.50800002
7.8930001 3.573 -0.514
9.507 4.342 -0.62
9.5109997 4.3829999 -0.62099999
9.5319996 4.4310002 -0.62400001
9.5439997 4.4759998 -0.62599999
9.5640001 4.5250001 -0.62800002
9.5790005 4.5710001 -0.63
9.6140003 4.6279998 -0.634
7.9640002 3.8670001 -0.52600002
7.8979998 3.868 -0.523
7.8709998 3.888 -0.52200001
7.9029999 3.9360001 -0.52499998
8.0690002 4.053 -0.537
9.6829996 4.9050002 -0.64600003
9.7010002 4.9549999 -0.648
9.7069998 5 -0.64999998
9.7309999 5.0539999 -0.653
9.7349997 5.098 -0.65499997
9.7299995 5.1370001 -0.65600002
9.7580004 5.1939998 -0.65899998
9.7709999 5.244 -0.66100001
9.7860003 5.2940001 -0.66299999
9.8079996 5.349 -0.66600001
9.823 5.4000001 -0.66900003
9.823 5.4429998 -0.67000002
9.8179998 5.4840002 -0.671
9.8310003 5.5349998 -0.67299998
9.8299999 5.5780001 -0.67500001
9.835 5.625 -0.676
9.8369999 5.6700001 -0.67799997
9.8660002 5.7309999 -0.68099999
9.8839998 5.7859998 -0.68400002
9.8970003 5.8379998 -0.68599999
9.9029999 5.8870001 -0.68800002
9.9029999 5.9320002 -0.69
9.908 5.98 -0.69099998
9.9230003 6.0349998 -0.69400001
9.9259996 6.0819998 -0.69599998
9.9090004 6.118 -0.69599998
9.9209995 6.171 -0.69800001
9.9259996 6.2199998 -0.69999999
9.9130001 6.2579999 -0.70099998
9.9250002 6.3119998 -0.70300001
9.9280005 6.3610001 -0.70499998
9.9169998 6.4000001 -0.70599997
9.9309998 6.4559999 -0.708
9.9379997 6.5079999 -0.70999998
9.934 6.552 -0.71200001
9.9449997 6.6059999 -0.71399999
9.9469995 6.6550002 -0.71600002
9.948 6.704 -0.71700001
9.9359999 6.743 -0.71799999
9.9370003 6.7919998 -0.72000003
9.9350004 6.8379998 -0.72100002
9.9420004 6.8909998 -0.72399998
9.927 6.9299998 -0.72399998
9.9209995 6.974 -0.72500002
9.8889999 7 -0.72500002
9.868 7.033 -0.72500002
9.868 7.0809999 -0.72600001
9.823 7.098 -0.72500002
5.8169999 -3.8540001 -0.234
5.849 -3.8380001 -0.235
5.869 -3.8139999 -0.235
5.8860002 -3.7880001 -0.235
5.9159999 -3.7709999 -0.236
5.921 -3.7379999 -0.236
5.954 -3.723 -0.237
5.9580002 -3.6900001 -0.237
5.974 -3.664 -0.23800001
6.0019999 -3.645 -0.23800001
6 -3.609 -0.23800001
6.0279999 -3.5910001 -0.23899999
6.0479999 -3.5680001 -0.23899999
6.059 -3.54 -0.23999999
6.0580001 -3.506 -0.23899999
6.072 -3.48 -0.23899999
6.1389999 -3.484 -0.242
6.1589999 -3.4619999 -0.242
6.1750002 -3.437 -0.243
6.1880002 -3.4100001 -0.243
6.1869998 -3.3770001 -0.243
6.2199998 -3.362 -0.244
6.2360001 -3.3380001 -0.244
6.2600002 -3.3180001 -0.245
6.2740002 -3.293 -0.245
6.289 -3.2679999 -0.245
6.3080001 -3.2460001 -0.24600001
6.3210001 -3.221 -0.24600001
6.3429999 -3.2 -0.24699999
6.3530002 -3.1730001 -0.24699999
6.3699999 -3.1500001 -0.24699999
6.3959999 -3.132 -0.248
6.4089999 -3.1070001 -0.248
6.4200001 -3.0810001 -0.248
6.4400001 -3.0599999 -0.249
6.454 -3.0369999 -0.249
6.4819999 -3.0190001 -0.25
6.5 -2.997 -0.25099999
6.5250001 -2.9779999 -0.25099999
6.5370002 -2.954 -0.252
6.5469999 -2.928 -0.252
6.5580001 -2.9030001 -0.252
6.5830002 -2.885 -0.25299999
6.5939999 -2.8599999 -0.25299999
6.6100001 -2.8380001 -0.25299999
6.6370001 -2.8199999 -0.25400001
6.6440001 -2.7939999 -0.25400001
6.6609998 -2.773 -0.255
6.6729999 -2.7490001 -0.255
6.6929998 -2.7279999 -0.255
6.711 -2.707 -0.25600001
6.7199998 -2.6830001 -0.25600001
6.73 -2.658 -0.25600001
6.7480001 -2.6370001 -0.257
6.7690001 -2.618 -0.257
6.7779999 -2.5929999 -0.257
6.7930002 -2.572 -0.25799999
6.8099999 -2.5510001 -0.25799999
6.8249998 -2.529 -0.25799999
6.848 -2.51 -0.259
6.8670001 -2.49 -0.25999999
6.8870001 -2.47 -0.25999999
6.8940001 -2.4460001 -0.25999999
6.9180002 -2.428 -0.26100001
6.9099998 -2.398 -0.26100001
6.9320002 -2.3789999 -0.26100001
6.934 -2.3540001 -0.26100001
6.948 -2.332 -0.26100001
6.9710002 -2.3139999 -0.26199999
6.9780002 -2.2909999 -0.26199999
6.9970002 -2.2709999 -0.26300001
7.013 -2.2509999 -0.26300001
7.007 -2.223 -0.26300001
7.0279999 -2.204 -0.26300001
7.0409999 -2.1830001 -0.264
7.0599999 -2.164 -0.264
7.0770001 -2.1440001 -0.26499999
7.1040001 -2.1270001 -0.26499999
7.1090002 -2.1040001 -0.26499999
7.1170001 -2.0810001 -0.266
7.138 -2.063 -0.266
7.165 -2.046 -0.26699999
7.1719999 -2.0239999 -0.26699999
7.1989999 -2.007 -0.26800001
7.211 -1.9859999 -0.26800001
7.217 -1.964 -0.26800001
7.244 -1.947 -0.26899999
7.2579999 -1.927 -0.26899999
7.2729998 -1.9069999 -0.27000001
7.29 -1.888 -0.27000001
7.309 -1.869 -0.271
7.3150001 -1.847 -0.271
7.335 -1.829 -0.271
7.3470001 -1.808 -0.27200001
7.3730001 -1.791 -0.273
7.3829999 -1.771 -0.273
7.3979998 -1.751 -0.273
7.4089999 -1.7309999 -0.273
7.4219999 -1.711 -0.27399999
7.4390001 -1.692 -0.27399999
7.4400001 -1.67 -0.27399999
7.4640002 -1.653 -0.27500001
7.4819999 -1.635 -0.27500001
7.4899998 -1.614 -0.27500001
7.52 -1.598 -0.27599999
7.5349998 -1.579 -0.27700001
7.5570002 -1.562 -0.27700001
7.5749998 -1.544 -0.278
7.586 -1.524 -0.278
7.598 -1.505 -0.27900001
7.599 -1.483 -0.278
7.612 -1.464 -0.27900001
7.631 -1.446 -0.27900001
7.6290002 -1.425 -0.27900001
7.6739998 -1.4119999 -0.28099999
7.6719999 -1.391 -0.28
7.6960001 -1.374 -0.28099999
7.6999998 -1.354 -0.28099999
7.7160001 -1.335 -0.28200001
7.7329998 -1.318 -0.28200001
7.737 -1.298 -0.28200001
7.7550001 -1.28 -0.28299999
7.7649999 -1.261 -0.28299999
7.777 -1.243 -0.28299999
7.7919998 -1.225 -0.28400001
7.803 -1.206 -0.28400001
7.8130002 -1.188 -0.28400001
7.842 -1.1720001 -0.285
7.8439999 -1.153 -0.285
7.8720002 -1.137 -0.28600001
7.8930001 -1.12 -0.287
7.8979998 -1.101 -0.287
7.9120002 -1.084 -0.287
7.9330001 -1.067 -0.28799999
7.947 -1.05 -0.28799999
7.9650002 -1.033 -0.289
7.9679999 -1.0140001 -0.289
7.993 -0.99800003 -0.289
8.007 -0.98100001 -0.28999999
8.0170002 -0.963 -0.28999999
8.0249996 -0.94499999 -0.28999999
8.0139999 -0.92500001 -0.28999999
8.0459995 -0.91000003 -0.29100001
8.0430002 -0.89200002 -0.29100001
8.0690002 -0.87599999 -0.29100001
8.1000004 -0.861 -0.292
8.1099997 -0.84399998 -0.29300001
8.1219997 -0.82700002 -0.29300001
8.1440001 -0.81099999 -0.294
8.165 -0.79500002 -0.294
8.1680002 -0.778 -0.294
8.1890001 -0.76200002 -0.29499999
8.2110004 -0.74599999 -0.296
8.2119999 -0.72799999 -0.296
8.2370005 -0.713 -0.296
8.2519999 -0.69700003 -0.29699999
8.2469997 -0.67900002 -0.29699999
8.2749996 -0.66399997 -0.29800001
8.3009996 -0.64899999 -0.29800001
8.3079996 -0.63200003 -0.29899999
8.3210001 -0.616 -0.29899999
8.3389997 -0.60100001 -0.30000001
8.3529997 -0.58499998 -0.30000001
8.3719997 -0.56900001 -0.301
8.3710003 -0.55299997 -0.30000001
8.4139996 -0.53899997 -0.30199999
8.4239998 -0.523 -0.30199999
8.4359999 -0.50700003 -0.303
8.4519997 -0.49200001 -0.303
8.4689999 -0.477 -0.30399999
8.4989996 -0.46200001 -0.30500001
8.5059996 -0.44600001 -0.30500001
8.5299997 -0.43200001 -0.30599999
8.5559998 -0.417 -0.30599999
8.5679998 -0.40200001 -0.30700001
8.5959997 -0.38699999 -0.308
8.6470003 -0.37400001 -0.30899999
8.6459999 -0.35800001 -0.30899999
8.6619997 -0.34299999 -0.31
8.684 -0.329 -0.31099999
8.7040005 -0.31400001 -0.31099999
8.7349997 -0.30000001 -0.31200001
8.7919998 -0.28600001 -0.31400001
8.2690001 0.093000002 -0.43200001
8.2980003 0.109 -0.43399999
8.3030005 0.124 -0.43399999
8.3129997 0.14 -0.435
8.3190002 0.156 -0.435
8.3260002 0.17200001 -0.43599999
8.3240004 0.18799999 -0.43599999
8.3509998 0.205 -0.43700001
8.3249998 0.22 -0.43599999
8.3439999 0.23800001 -0.43700001
8.3509998 0.255 -0.43799999
8.3430004 0.271 -0.43799999
8.3360004 0.28799999 -0.43799999
8.3380003 0.30599999 -0.43799999
8.3470001 0.32300001 -0.43900001
8.3430004 0.34099999 -0.43900001
8.3529997 0.359 -0.43900001
8.3579998 0.377 -0.44
8.3699999 0.396 -0.44100001
8.3579998 0.414 -0.44
8.3710003 0.433 -0.44100001
8.368 0.45100001 -0.44100001
8.3690004 0.47 -0.442
8.3769999 0.49000001 -0.442
8.3579998 0.50800002 -0.442
8.3839998 0.528 -0.44299999
8.3830004 0.54799998 -0.44299999
8.3929996 0.56800002 -0.44400001
8.4040003 0.58899999 -0.44499999
8.3999996 0.60799998 -0.44499999
8.434 0.63099998 -0.447
8.4300003 0.65100002 -0.447
8.4239998 0.671 -0.447
8.4580002 0.69400001 -0.44999999
8.4589996 0.71499997 -0.44999999
8.4849997 0.73799998 -0.45199999
8.4899998 0.75999999 -0.45199999
8.4809999 0.77999997 -0.45199999
8.4989996 0.80400002 -0.45300001
8.5030003 0.82499999 -0.454
8.4989996 0.847 -0.454
8.5059996 0.86900002 -0.45500001
8.4980001 0.89099997 -0.45500001
8.5159998 0.91500002 -0.456
8.5129995 0.93699998 -0.456
8.5279999 0.96100003 -0.458
8.5410004 0.98500001 -0.45899999
8.5509996 1.0089999 -0.46000001
8.559 1.033 -0.46000001
8.5539999 1.0549999 -0.46000001
8.5740004 1.081 -0.46200001
8.5679998 1.103 -0.46200001
8.5719995 1.127 -0.463
8.5749998 1.151 -0.463
8.599 1.178 -0.465
8.592 1.201 -0.465
8.6129999 1.228 -0.46700001
8.6099997 1.252 -0.46700001
8.625 1.279 -0.46799999
8.6359997 1.3049999 -0.46900001
8.6339998 1.329 -0.47
8.6400003 1.355 -0.47
8.6420002 1.38 -0.47099999
8.6429996 1.405 -0.47099999
8.6569996 1.433 -0.47299999
8.665 1.459 -0.47400001
8.6750002 1.4859999 -0.47499999
8.6870003 1.5140001 -0.47600001
8.7049999 1.543 -0.477
8.7150002 1.5700001 -0.47799999
8.7229996 1.598 -0.479
8.7320004 1.626 -0.47999999
8.7259998 1.651 -0.48100001
8.7519999 1.682 -0.48300001
8.7589998 1.71 -0.48300001
8.7690001 1.739 -0.48500001
8.7670002 1.765 -0.48500001
8.7740002 1.793 -0.486
8.7650003 1.818 -0.486
8.7860003 1.85 -0.48800001
8.8000002 1.88 -0.48899999
8.8079996 1.909 -0.49000001
8.8070002 1.936 -0.491
8.8129997 1.966 -0.49200001
8.8369999 1.999 -0.493
8.8380003 2.027 -0.49399999
8.8699999 2.062 -0.49700001
8.8579998 2.0880001 -0.49599999
8.875 2.1199999 -0.498
8.8990002 2.154 -0.5
8.8999996 2.1830001 -0.50099999
8.8909998 2.2090001 -0.50099999
8.9040003 2.2409999 -0.50199997
8.9209995 2.2750001 -0.50400001
8.9370003 2.3080001 -0.505
8.9440002 2.339 -0.50599998
8.9420004 2.3670001 -0.50700003
8.948 2.398 -0.50800002
8.96 2.431 -0.509
8.9790001 2.4660001 -0.51099998
8.9849997 2.497 -0.51200002
8.9969997 2.53 -0.51300001
8.9989996 2.5610001 -0.514
9.007 2.5929999 -0.51499999
9.0179996 2.6270001 -0.51700002
9.0360003 2.6619999 -0.51800001
9.0469999 2.6960001 -0.51999998
9.0609999 2.7309999 -0.52100003
9.0710001 2.7639999 -0.523
9.0869999 2.8 -0.52399999
9.1049995 2.836 -0.52600002
9.1079998 2.868 -0.52700001
9.1149998 2.902 -0.528
9.1379995 2.9400001 -0.52999997
9.1459999 2.974 -0.53200001
9.1339998 3.0020001 -0.53200001
9.1920004 3.052 -0.53600001
9.191 3.0840001 -0.53600001
9.1940002 3.1170001 -0.537
9.1940002 3.1489999 -0.53799999
9.184 3.177 -0.53899997
9.1940002 3.2130001 -0.54000002
9.2010002 3.247 -0.54100001
9.2139997 3.2839999 -0.54299998
9.2200003 3.319 -0.54400003
9.2419996 3.359 -0.546
