# .PCD v0.7 - Point Cloud Data file format
VERSION 0.7
FIELDS x y z
SIZE 4 4 4
TYPE F F F
COUNT 1 1 1
WIDTH 1831
HEIGHT 1
VIEWPOINT 0 0 0 1 0 0 0
POINTS 1831
DATA ascii
11.251 1.271 -0.074000001
11.304 1.307 -0.075000003
11.31 1.3380001 -0.075000003
11.31 1.368 -0.075000003
11.332 1.401 -0.075999998
11.368 1.436 -0.075999998
11.385 1.469 -0.077
11.411 1.503 -0.077
11.432 1.5369999 -0.077
11.466 1.573 -0.078000002
11.484 1.608 -0.078000002
11.519 1.6440001 -0.079000004
11.535 1.679 -0.079000004
11.343 1.683 -0.078000002
11.186 1.691 -0.077
11.087 1.7079999 -0.077
11.044 1.732 -0.077
11.006 1.758 -0.077
11.028 1.793 -0.077
11.07 1.832 -0.078000002
11.141 1.876 -0.078000002
11.791 2.02 -0.082999997
11.845 2.0639999 -0.083999999
11.386 2.017 -0.081
11.162 2.01 -0.079999998
11.105 2.033 -0.079000004
11.097 2.0650001 -0.079999998
11.155 2.109 -0.079999998
12.076 2.319 -0.086999997
12.076 2.355 -0.088
12.129 2.4030001 -0.088
12.156 2.4449999 -0.089000002
12.189 2.4890001 -0.089000002
12.215 2.5309999 -0.090000004
12.254 2.5769999 -0.090000004
12.272 2.619 -0.090999998
12.282 2.6589999 -0.090999998
12.31 2.7030001 -0.092
12.334 2.747 -0.092
12.374 2.7950001 -0.093000002
12.375 2.8340001 -0.093000002
12.39 2.8759999 -0.093999997
12.401 2.918 -0.093999997
12.405 2.9579999 -0.093999997
12.42 3.0009999 -0.094999999
12.44 3.046 -0.094999999
12.454 3.089 -0.096000001
12.488 3.138 -0.096000001
12.51 3.184 -0.097000003
12.514 3.2249999 -0.097000003
12.557 3.277 -0.097999997
12.583 3.325 -0.097999997
12.618 3.3759999 -0.098999999
12.609 3.414 -0.098999999
12.633 3.4619999 -0.1
12.65 3.5090001 -0.1
12.671 3.5569999 -0.101
12.687 3.6029999 -0.101
12.717 3.654 -0.102
12.697 3.6900001 -0.102
12.679 3.7279999 -0.102
12.707 3.7780001 -0.103
12.739 3.8299999 -0.103
12.756 3.8789999 -0.104
12.804 3.937 -0.105
12.829 3.9879999 -0.105
12.83 4.0320001 -0.106
12.864 4.086 -0.106
12.862 4.1290002 -0.107
12.909 4.1890001 -0.107
12.948 4.2449999 -0.108
12.986 4.302 -0.109
13.017 4.3579998 -0.109
13.074 4.4219999 -0.11
13.1 4.4759998 -0.111
13.085 4.5159998 -0.111
13.123 4.5749998 -0.112
13.162 4.6339998 -0.113
13.224 4.7020001 -0.114
13.272 4.7659998 -0.114
13.324 4.8309999 -0.115
13.368 4.8940001 -0.116
13.382 4.9460001 -0.117
13.443 5.0159998 -0.117
13.465 5.0710001 -0.118
13.529 5.1430001 -0.119
13.573 5.2080002 -0.12
13.601 5.2670002 -0.121
13.643 5.3319998 -0.121
13.691 5.3990002 -0.122
13.742 5.4679999 -0.123
13.814 5.546 -0.124
13.805 5.592 -0.125
13.818 5.6459999 -0.125
13.875 5.7189999 -0.126
13.888 5.7750001 -0.127
13.927 5.8410001 -0.127
13.953 5.902 -0.12800001
13.905 5.9310002 -0.12800001
13.969 6.0089998 -0.12899999
13.989 6.0689998 -0.13
14.045 6.1430001 -0.131
14.095 6.2160001 -0.132
14.025 6.2360001 -0.132
13.882 6.223 -0.131
13.819 6.2449999 -0.131
12.245 6.158 -0.121
12.18 6.1700001 -0.121
12.245 6.2480001 -0.122
12.209 6.2740002 -0.122
12.113 6.2690001 -0.122
12.113 6.3130002 -0.122
12.102 6.3520002 -0.123
12.057 6.3720002 -0.123
12.04 6.4070001 -0.123
12.087 6.4759998 -0.124
12.099 6.527 -0.124
12.202 6.6269999 -0.126
12.235 6.7340002 -0.127
12.204 6.7610002 -0.127
10.64 6.165 -0.114
10.523 6.1350002 -0.113
10.419 6.112 -0.112
10.361 6.1149998 -0.112
10.309 6.1220002 -0.112
10.247 6.1209998 -0.111
10.201 6.131 -0.111
10.144 6.132 -0.111
10.105 6.145 -0.111
10.067 6.158 -0.111
10.022 6.1659999 -0.111
9.9860001 6.1789999 -0.111
9.9709997 6.2049999 -0.111
9.9899998 6.2519999 -0.112
10.101 6.3569999 -0.113
7.5040002 -4.415 0.048999999
7.5029998 -4.3940001 0.048999999
7.527 -4.3860002 0.048999999
7.5240002 -4.3629999 0.048999999
7.5469999 -4.355 0.048999999
7.5500002 -4.335 0.048999999
7.5510001 -4.3150001 0.048999999
7.579 -4.309 0.048999999
7.5890002 -4.2930002 0.050000001
7.6040001 -4.2800002 0.050000001
7.6209998 -4.2680001 0.050000001
7.6220002 -4.2470002 0.050000001
7.631 -4.23 0.050000001
7.638 -4.2119999 0.050000001
7.6500001 -4.1960001 0.050000001
7.6609998 -4.1810002 0.050000001
7.665 -4.1609998 0.050999999
7.6719999 -4.1430001 0.050999999
7.6859999 -4.1290002 0.050999999
7.6950002 -4.1110001 0.050999999
7.7049999 -4.0939999 0.050999999
7.7210002 -4.0809999 0.050999999
7.7309999 -4.0640001 0.050999999
7.7449999 -4.0489998 0.050999999
7.7800002 -4.0450001 0.052000001
7.7820001 -4.0240002 0.052000001
7.7680001 -3.994 0.052000001
7.77 -3.973 0.052000001
7.7909999 -3.961 0.052000001
7.8049998 -3.9460001 0.052000001
7.8109999 -3.9260001 0.052000001
7.8280001 -3.9119999 0.052000001
7.8530002 -3.902 0.052999999
7.8759999 -3.891 0.052999999
7.8709998 -3.8659999 0.052999999
7.8860002 -3.8510001 0.052999999
7.8979998 -3.8340001 0.052999999
7.8990002 -3.8110001 0.052999999
7.9320002 -3.8039999 0.054000001
7.927 -3.779 0.054000001
7.9499998 -3.767 0.054000001
7.9590001 -3.7479999 0.054000001
7.9679999 -3.7290001 0.054000001
8.0030003 -3.723 0.054000001
7.9980001 -3.697 0.054000001
8.0150003 -3.6819999 0.055
8.0270004 -3.664 0.055
8.0439997 -3.6489999 0.055
8.0579996 -3.632 0.055
8.0620003 -3.6099999 0.055
8.0909996 -3.5999999 0.055
8.0959997 -3.579 0.055
8.1140003 -3.563 0.056000002
8.1339998 -3.5480001 0.056000002
8.1409998 -3.5280001 0.056000002
8.1730003 -3.5179999 0.056000002
8.1789999 -3.497 0.056000002
8.1850004 -3.4760001 0.056000002
8.1990004 -3.4579999 0.056000002
8.2069998 -3.438 0.057
8.2299995 -3.4230001 0.057
8.2559996 -3.4100001 0.057
8.2659998 -3.391 0.057
8.2810001 -3.3729999 0.057
8.2889996 -3.352 0.057
8.3170004 -3.339 0.057999998
8.3330002 -3.322 0.057999998
8.3409996 -3.3010001 0.057999998
8.3579998 -3.283 0.057999998
8.3669996 -3.2620001 0.057999998
8.3719997 -3.24 0.057999998
8.4049997 -3.2290001 0.059
8.415 -3.2079999 0.059
8.4350004 -3.191 0.059
8.4630003 -3.178 0.059
8.4799995 -3.1589999 0.059
8.4809999 -3.135 0.059
8.4890003 -3.1140001 0.059999999
8.5080004 -3.096 0.059999999
8.5159998 -3.0739999 0.059999999
8.5389996 -3.0580001 0.059999999
8.5550003 -3.039 0.059999999
8.5600004 -3.016 0.059999999
8.6020002 -3.006 0.061000001
8.6090002 -2.983 0.061000001
8.6120005 -2.96 0.061000001
8.6450005 -2.9460001 0.061000001
8.6470003 -2.9219999 0.061000001
8.6680002 -2.904 0.061000001
8.6890001 -2.8859999 0.061999999
8.7110004 -2.868 0.061999999
8.724 -2.8469999 0.061999999
8.7399998 -2.8269999 0.061999999
8.7589998 -2.8080001 0.061999999
8.7919998 -2.793 0.063000001
8.809 -2.773 0.063000001
8.8219995 -2.7520001 0.063000001
8.8780003 -2.744 0.063000001
8.9200001 -2.7309999 0.064000003
8.8979998 -2.698 0.064000003
8.9130001 -2.677 0.064000003
8.9379997 -2.6589999 0.064000003
8.941 -2.6340001 0.064000003
8.9750004 -2.618 0.064000003
8.9820004 -2.595 0.064999998
9.0319996 -2.5829999 0.064999998
9.0450001 -2.5610001 0.064999998
9.0780001 -2.5439999 0.064999998
9.0970001 -2.523 0.066
9.1199999 -2.503 0.066
9.1210003 -2.477 0.066
9.1309996 -2.454 0.066
9.1520004 -2.4330001 0.066
9.1730003 -2.4119999 0.066
9.1929998 -2.391 0.067000002
9.2410002 -2.3770001 0.067000002
9.2480001 -2.352 0.067000002
9.2620001 -2.329 0.067000002
9.2950001 -2.3110001 0.068000004
9.3000002 -2.2850001 0.068000004
9.3629999 -2.2739999 0.068000004
9.375 -2.25 0.068000004
9.4119997 -2.2320001 0.068999998
9.4119997 -2.2049999 0.068999998
9.4219999 -2.1800001 0.068999998
9.4569998 -2.161 0.068999998
9.5120001 -2.1459999 0.07
9.5450001 -2.1270001 0.07
9.5649996 -2.1029999 0.07
9.5769997 -2.079 0.07
9.618 -2.0599999 0.071000002
9.6429996 -2.0380001 0.071000002
9.6929998 -2.0209999 0.071000002
9.7259998 -2 0.071999997
9.7279997 -1.972 0.071999997
9.7650003 -1.952 0.071999997
9.7910004 -1.929 0.071999997
9.8260002 -1.908 0.072999999
9.8520002 -1.885 0.072999999
9.8629999 -1.858 0.072999999
9.8970003 -1.837 0.072999999
9.9169998 -1.812 0.072999999
9.9280005 -1.786 0.074000001
9.9639997 -1.7640001 0.074000001
10.015 -1.744 0.074000001
10.041 -1.72 0.075000003
10.088 -1.699 0.075000003
10.136 -1.678 0.075000003
10.154 -1.652 0.075999998
10.196 -1.63 0.075999998
10.277 -1.614 0.077
10.3 -1.5880001 0.077
10.271 -1.554 0.077
10.306 -1.53 0.077
10.357 -1.508 0.077
10.391 -1.483 0.078000002
10.408 -1.456 0.078000002
10.456 -1.433 0.078000002
10.502 -1.409 0.079000004
10.559 -1.387 0.079000004
10.58 -1.36 0.079000004
10.647 -1.3380001 0.079999998
10.668 -1.3099999 0.079999998
10.711 -1.285 0.081
10.724 -1.256 0.081
10.762 -1.23 0.081
10.811 -1.205 0.082000002
10.841 -1.177 0.082000002
10.87 -1.149 0.082000002
10.903 -1.122 0.082000002
10.92 -1.092 0.082999997
10.945 -1.064 0.082999997
10.985 -1.036 0.082999997
11.036 -1.01 0.083999999
11.09 -0.98299998 0.083999999
11.105 -0.95300001 0.083999999
11.167 -0.926 0.085000001
11.241 -0.90100002 0.085000001
11.3 -0.87300003 0.086000003
11.295 -0.84100002 0.086000003
11.347 -0.81199998 0.086000003
11.451 -0.787 0.086999997
9.4020004 0.14300001 -0.033
9.335 0.153 -0.033
9.2930002 0.163 -0.033
9.2489996 0.17299999 -0.033
9.243 0.184 -0.033
9.2229996 0.19499999 -0.033
9.2200003 0.207 -0.033
9.2229996 0.21799999 -0.034000002
9.2110004 0.23 -0.034000002
9.2340002 0.243 -0.034000002
9.2700005 0.257 -0.034000002
9.342 0.271 -0.035
11.779 0.39300001 -0.044
11.74 0.40900001 -0.044
11.721 0.426 -0.044
11.669 0.44100001 -0.044
11.633 0.458 -0.044
11.641 0.477 -0.045000002
11.58 0.493 -0.045000002
11.604 0.51200002 -0.045000002
11.611 0.53200001 -0.045000002
11.56 0.54799998 -0.045000002
11.553 0.56699997 -0.045000002
11.528 0.58600003 -0.045000002
11.493 0.60399997 -0.045000002
11.497 0.62400001 -0.045000002
11.523 0.64600003 -0.046
11.528 0.667 -0.046
11.509 0.68599999 -0.046
11.52 0.708 -0.046
11.504 0.72799999 -0.046
11.537 0.75199997 -0.046999998
11.544 0.77399999 -0.046999998
11.542 0.796 -0.046999998
11.558 0.81999999 -0.046999998
11.536 0.84100002 -0.048
11.558 0.86500001 -0.048
11.566 0.889 -0.048
11.573 0.91299999 -0.048
11.585 0.93800002 -0.048999999
11.582 0.96100003 -0.048999999
11.594 0.986 -0.048999999
11.601 1.011 -0.048999999
11.611 1.0369999 -0.048999999
11.629 1.063 -0.050000001
11.633 1.0880001 -0.050000001
11.643 1.115 -0.050000001
11.675 1.1440001 -0.050999999
11.667 1.169 -0.050999999
11.704 1.198 -0.050999999
11.707 1.225 -0.050999999
11.705 1.252 -0.050999999
11.728 1.281 -0.052000001
11.755 1.311 -0.052000001
11.799 1.3430001 -0.052999999
11.796 1.3710001 -0.052999999
11.785 1.397 -0.052999999
11.786 1.426 -0.052999999
11.82 1.4579999 -0.054000001
11.83 1.488 -0.054000001
11.836 1.518 -0.054000001
11.873 1.552 -0.054000001
11.926 1.5880001 -0.055
11.95 1.6210001 -0.055
11.984 1.656 -0.056000002
11.995 1.688 -0.056000002
12.005 1.72 -0.056000002
12.057 1.758 -0.057
12.044 1.788 -0.057
12.078 1.824 -0.057
12.1 1.859 -0.057999998
11.16 1.744 -0.052999999
11.081 1.761 -0.052999999
11.051 1.786 -0.052999999
11.058 1.817 -0.052999999
11.08 1.85 -0.054000001
11.202 1.901 -0.055
12.268 2.1159999 -0.059999999
12.275 2.151 -0.059999999
12.295 2.1889999 -0.061000001
11.202 2.0250001 -0.056000002
11.128 2.043 -0.055
11.11 2.0710001 -0.056000002
11.113 2.1029999 -0.056000002
11.199 2.152 -0.056000002
12.431 2.424 -0.063000001
12.416 2.457 -0.063000001
12.474 2.5050001 -0.064000003
12.498 2.546 -0.064000003
12.516 2.5869999 -0.064999998
12.508 2.622 -0.064999998
12.542 2.6659999 -0.064999998
12.551 2.7060001 -0.066
12.553 2.744 -0.066
12.557 2.783 -0.066
12.577 2.826 -0.066
12.568 2.862 -0.067000002
12.573 2.902 -0.067000002
12.592 2.9449999 -0.067000002
12.596 2.9849999 -0.068000004
12.62 3.03 -0.068000004
12.644 3.075 -0.068999998
12.666 3.1210001 -0.068999998
12.679 3.164 -0.068999998
12.668 3.2019999 -0.07
12.724 3.256 -0.07
12.732 3.299 -0.071000002
12.757 3.3469999 -0.071000002
12.749 3.3859999 -0.071000002
12.798 3.441 -0.071999997
12.825 3.49 -0.071999997
12.822 3.5320001 -0.072999999
12.832 3.5769999 -0.072999999
12.879 3.6329999 -0.072999999
12.855 3.6689999 -0.074000001
12.914 3.7290001 -0.074000001
12.928 3.777 -0.075000003
12.91 3.8150001 -0.075000003
12.944 3.869 -0.075000003
12.958 3.918 -0.075999998
12.997 3.974 -0.075999998
13.058 4.0380001 -0.077
13.097 4.0949998 -0.078000002
13.116 4.1469998 -0.078000002
13.132 4.197 -0.078000002
13.172 4.257 -0.079000004
13.227 4.3210001 -0.079999998
13.27 4.382 -0.079999998
13.269 4.428 -0.081
13.311 4.4899998 -0.081
13.341 4.5479999 -0.082000002
13.387 4.612 -0.082000002
13.412 4.6690001 -0.082999997
13.484 4.743 -0.083999999
13.533 4.809 -0.083999999
13.56 4.869 -0.085000001
13.564 4.9200001 -0.085000001
13.651 5.0019999 -0.086000003
13.723 5.079 -0.086999997
13.772 5.1490002 -0.088
13.819 5.2179999 -0.088
13.807 5.2649999 -0.089000002
13.897 5.3520002 -0.090000004
13.93 5.4169998 -0.090000004
13.998 5.4959998 -0.090999998
14.038 5.566 -0.092
14.118 5.652 -0.093000002
14.138 5.7140002 -0.093000002
14.105 5.7550001 -0.093000002
14.169 5.836 -0.093999997
14.153 5.8850002 -0.093999997
14.209 5.9629998 -0.094999999
14.196 6.013 -0.096000001
14.276 6.1030002 -0.096000001
14.318 6.178 -0.097000003
14.367 6.256 -0.097999997
14.378 6.3179998 -0.097999997
12.271 6.0949998 -0.089000002
12.207 6.1149998 -0.089000002
12.217 6.171 -0.089000002
12.198 6.2129998 -0.090000004
12.102 6.2160001 -0.089000002
12.1 6.2659998 -0.090000004
12.09 6.3130002 -0.090000004
12.081 6.3600001 -0.090000004
12.097 6.421 -0.090999998
12.11 6.48 -0.090999998
12.219 6.5910001 -0.092
10.641 6.164 -0.083999999
10.52 6.1409998 -0.082999997
10.404 6.1199999 -0.082000002
10.337 6.1279998 -0.082000002
10.275 6.1370001 -0.082000002
10.221 6.151 -0.082000002
10.167 6.165 -0.082000002
10.115 6.1810002 -0.082000002
10.06 6.1929998 -0.082000002
10.015 6.2119999 -0.082000002
9.9890003 6.2420001 -0.082000002
9.9630003 6.2719998 -0.082000002
9.9989996 6.3410001 -0.082999997
10.198 6.5149999 -0.085000001
7.1890001 -4.7389998 0.064000003
7.2290001 -4.7199998 0.064999998
7.243 -4.684 0.064999998
7.263 -4.652 0.064999998
7.29 -4.6240001 0.064999998
7.3099999 -4.5929999 0.066
7.348 -4.573 0.066
7.3790002 -4.5479999 0.066
7.3940001 -4.5139999 0.066
7.4229999 -4.4879999 0.067000002
7.4369998 -4.4530001 0.067000002
7.461 -4.4250002 0.067000002
7.4860001 -4.3969998 0.067000002
7.5 -4.3629999 0.067000002
7.52 -4.3319998 0.068000004
7.5539999 -4.3099999 0.068000004
7.5700002 -4.2779999 0.068000004
7.5739999 -4.2379999 0.068000004
7.6069999 -4.2160001 0.068000004
7.6240001 -4.184 0.068999998
7.6420002 -4.1539998 0.068999998
7.6830001 -4.1350002 0.068999998
7.6999998 -4.1040001 0.068999998
7.7049999 -4.0669999 0.068999998
7.7319999 -4.0419998 0.07
7.75 -4.0120001 0.07
7.7639999 -3.9790001 0.07
7.7940001 -3.9549999 0.07
7.8169999 -3.928 0.07
7.8439999 -3.9030001 0.071000002
7.8670001 -3.8759999 0.071000002
7.8870001 -3.8469999 0.071000002
7.9109998 -3.8210001 0.071000002
7.9239998 -3.79 0.071000002
7.9580002 -3.7679999 0.071999997
7.9650002 -3.734 0.071999997
8.0059996 -3.7160001 0.071999997
8.0200005 -3.6849999 0.071999997
8.0349998 -3.655 0.072999999
8.0609999 -3.6300001 0.072999999
8.0889997 -3.6059999 0.072999999
8.1020002 -3.575 0.072999999
8.1289997 -3.5510001 0.074000001
8.1619997 -3.529 0.074000001
8.1780005 -3.5 0.074000001
8.2139997 -3.4790001 0.074000001
8.2370005 -3.454 0.075000003
8.2440004 -3.421 0.075000003
8.2639999 -3.3940001 0.075000003
8.3100004 -3.3770001 0.075000003
8.3290005 -3.3499999 0.075999998
8.3739996 -3.3329999 0.075999998
8.3710003 -3.2969999 0.075999998
8.3859997 -3.2679999 0.075999998
8.4200001 -3.247 0.075999998
8.448 -3.224 0.077
8.4709997 -3.198 0.077
8.4960003 -3.174 0.077
8.5209999 -3.1489999 0.077
8.552 -3.1270001 0.078000002
8.5900002 -3.1070001 0.078000002
8.6070004 -3.0799999 0.078000002
8.6309996 -3.0550001 0.079000004
8.6429996 -3.026 0.079000004
8.6809998 -3.006 0.079000004
8.7030001 -2.9809999 0.079000004
8.7259998 -2.9560001 0.079999998
8.7620001 -2.9349999 0.079999998
8.7950001 -2.9130001 0.079999998
8.802 -2.8829999 0.079999998
8.8470001 -2.8659999 0.081
8.8800001 -2.8440001 0.081
8.8780003 -2.8110001 0.081
8.9440002 -2.8 0.082000002
9.0120001 -2.789 0.082000002
9.0089998 -2.756 0.082000002
9.0299997 -2.7309999 0.082999997
9.052 -2.7060001 0.082999997
9.1040001 -2.6900001 0.082999997
9.1330004 -2.6670001 0.083999999
9.1280003 -2.6340001 0.083999999
9.1870003 -2.6199999 0.083999999
9.198 -2.592 0.083999999
9.2349997 -2.5710001 0.085000001
9.2690001 -2.55 0.085000001
9.2919998 -2.5250001 0.085000001
9.3059998 -2.4979999 0.086000003
9.3330002 -2.4749999 0.086000003
9.3780003 -2.4560001 0.086000003
9.4139996 -2.4349999 0.086999997
9.448 -2.414 0.086999997
9.4750004 -2.3900001 0.086999997
9.5240002 -2.372 0.088
9.5719995 -2.3540001 0.088
9.6079998 -2.3329999 0.089000002
9.6289997 -2.3080001 0.089000002
9.665 -2.2869999 0.089000002
9.7030001 -2.266 0.090000004
9.7390003 -2.2449999 0.090000004
9.783 -2.2249999 0.090000004
9.7869997 -2.197 0.090999998
9.8140001 -2.1730001 0.090999998
9.8400002 -2.1500001 0.090999998
9.882 -2.1300001 0.092
9.9090004 -2.1059999 0.092
9.9440002 -2.085 0.092
9.948 -2.0569999 0.092
9.9879999 -2.036 0.093000002
10.009 -2.0120001 0.093000002
10.035 -1.989 0.093000002
10.076 -1.9680001 0.093999997
10.096 -1.944 0.093999997
10.133 -1.923 0.093999997
10.15 -1.898 0.093999997
10.201 -1.8789999 0.094999999
10.236 -1.857 0.094999999
10.247 -1.832 0.094999999
10.273 -1.809 0.096000001
10.278 -1.7819999 0.096000001
10.309 -1.76 0.096000001
10.351 -1.739 0.097000003
10.388 -1.7180001 0.097000003
10.393 -1.692 0.097000003
10.469 -1.677 0.097999997
10.508 -1.656 0.097999997
10.492 -1.626 0.097999997
10.475 -1.597 0.097999997
10.513 -1.576 0.097999997
10.568 -1.558 0.098999999
10.592 -1.535 0.098999999
10.632 -1.5140001 0.1
10.648 -1.49 0.1
10.675 -1.4680001 0.1
10.693 -1.444 0.1
10.723 -1.4220001 0.101
10.757 -1.401 0.101
10.788 -1.3789999 0.101
10.82 -1.357 0.102
10.823 -1.332 0.102
10.851 -1.3099999 0.102
10.857 -1.286 0.102
10.916 -1.267 0.103
10.919 -1.243 0.103
10.979 -1.224 0.104
10.981 -1.199 0.104
10.984 -1.175 0.104
11.029 -1.155 0.104
11.031 -1.131 0.104
11.056 -1.109 0.105
11.08 -1.087 0.105
11.104 -1.0650001 0.105
11.112 -1.0420001 0.105
11.131 -1.02 0.106
11.167 -0.99900001 0.106
11.177 -0.97600001 0.106
11.228 -0.95700002 0.107
11.253 -0.93599999 0.107
11.306 -0.917 0.107
11.338 -0.89600003 0.108
11.414 -0.87800002 0.109
11.438 -0.85699999 0.109
11.433 -0.833 0.109
11.485 -0.81400001 0.109
11.53 -0.79400003 0.11
11.579 -0.77499998 0.11
11.661 -0.75700003 0.111
11.654 -0.73400003 0.111
9.1499996 0.117 -0.0070000002
9.1560001 0.133 -0.0070000002
9.1560001 0.15000001 -0.0080000004
9.1549997 0.167 -0.0080000004
9.1820002 0.185 -0.0080000004
9.1820002 0.20200001 -0.0080000004
9.2150002 0.22 -0.0080000004
9.276 0.23899999 -0.0080000004
9.4390001 0.26199999 -0.0089999996
11.682 0.347 -0.011
11.672 0.37 -0.011
11.657 0.39300001 -0.011
11.664 0.417 -0.012
11.682 0.442 -0.012
11.656 0.465 -0.012
11.653 0.48899999 -0.012
11.654 0.514 -0.012
11.678 0.53899997 -0.013
11.664 0.56400001 -0.013
11.655 0.58899999 -0.013
11.646 0.61400002 -0.013
11.651 0.63999999 -0.013
11.644 0.66500002 -0.014
11.684 0.69300002 -0.014
11.682 0.72000003 -0.014
11.661 0.745 -0.014
11.665 0.77200001 -0.014
11.678 0.80000001 -0.015
11.699 0.829 -0.015
11.707 0.85699999 -0.015
11.738 0.88700002 -0.015
11.721 0.91299999 -0.015
11.709 0.94099998 -0.016000001
11.746 0.972 -0.016000001
11.744 1 -0.016000001
11.788 1.033 -0.016000001
11.792 1.062 -0.017000001
11.784 1.091 -0.017000001
11.814 1.123 -0.017000001
11.84 1.156 -0.017000001
11.856 1.187 -0.017999999
11.874 1.219 -0.017999999
11.913 1.2539999 -0.017999999
11.915 1.285 -0.017999999
11.933 1.318 -0.018999999
11.94 1.35 -0.018999999
11.968 1.3839999 -0.018999999
12.037 1.424 -0.018999999
12.019 1.454 -0.02
12.022 1.487 -0.02
12.032 1.52 -0.02
12.057 1.556 -0.02
12.092 1.5930001 -0.021
12.094 1.627 -0.021
12.135 1.665 -0.021
12.151 1.701 -0.021
12.189 1.74 -0.022
12.204 1.777 -0.022
12.231 1.8150001 -0.022
12.25 1.852 -0.022
12.281 1.892 -0.023
12.306 1.9299999 -0.023
11.202 1.789 -0.021
11.061 1.799 -0.021
11.047 1.8279999 -0.021
11.065 1.863 -0.022
11.161 1.9119999 -0.022
12.473 2.1730001 -0.025
12.474 2.21 -0.025
11.33 2.0409999 -0.023
11.152 2.0420001 -0.023
11.105 2.066 -0.023
11.115 2.1010001 -0.023
11.193 2.1489999 -0.024
12.612 2.46 -0.027000001
12.616 2.4990001 -0.027000001
12.624 2.539 -0.027000001
12.671 2.5869999 -0.028000001
12.655 2.622 -0.028000001
12.68 2.6670001 -0.028000001
12.693 2.7079999 -0.028999999
12.705 2.75 -0.028999999
12.712 2.7909999 -0.028999999
12.721 2.8329999 -0.028999999
12.733 2.875 -0.029999999
12.768 2.9230001 -0.029999999
12.747 2.9590001 -0.029999999
12.794 3.01 -0.030999999
12.803 3.053 -0.030999999
12.831 3.0999999 -0.030999999
12.858 3.148 -0.032000002
12.868 3.1919999 -0.032000002
12.885 3.237 -0.032000002
12.921 3.2880001 -0.033
12.931 3.332 -0.033
12.947 3.3789999 -0.033
13.003 3.4360001 -0.034000002
13.011 3.48 -0.034000002
13.008 3.5220001 -0.034000002
13.093 3.5880001 -0.035
13.091 3.631 -0.035
13.099 3.6760001 -0.035
13.149 3.734 -0.035999998
13.183 3.7869999 -0.035999998
13.208 3.8380001 -0.037
13.281 3.904 -0.037
13.315 3.9590001 -0.037
13.37 4.02 -0.037999999
13.421 4.0799999 -0.037999999
13.431 4.1290002 -0.039000001
13.461 4.184 -0.039000001
13.499 4.2410002 -0.039999999
13.538 4.2989998 -0.039999999
13.544 4.3470001 -0.039999999
13.61 4.415 -0.041000001
13.586 4.454 -0.041000001
13.594 4.5029998 -0.041000001
13.634 4.5630002 -0.041999999
13.695 4.631 -0.041999999
13.738 4.6929998 -0.043000001
13.745 4.743 -0.043000001
13.808 4.8130002 -0.044
13.829 4.868 -0.044
13.891 4.9380002 -0.045000002
13.915 4.9949999 -0.045000002
14.023 5.0830002 -0.046
14.036 5.1370001 -0.046
14.059 5.1950002 -0.046
14.126 5.27 -0.046999998
14.17 5.336 -0.048
14.194 5.395 -0.048
14.261 5.4710002 -0.048999999
14.314 5.5419998 -0.048999999
14.344 5.605 -0.050000001
14.413 5.6830001 -0.050000001
14.485 5.763 -0.050999999
14.53 5.8330002 -0.050999999
14.557 5.895 -0.052000001
14.603 5.9660001 -0.052000001
14.624 6.027 -0.052999999
14.646 6.0890002 -0.052999999
14.614 6.1279998 -0.052999999
14.584 6.1680002 -0.054000001
14.559 6.21 -0.054000001
14.618 6.2880001 -0.054000001
12.305 6.0079999 -0.050999999
12.263 6.0320001 -0.050999999
12.185 6.0380001 -0.050999999
12.216 6.098 -0.050999999
12.19 6.1290002 -0.052000001
12.216 6.1869998 -0.052000001
12.107 6.2199998 -0.052000001
12.102 6.2620001 -0.052999999
12.121 6.316 -0.052999999
12.114 6.3569999 -0.052999999
12.046 6.3649998 -0.052999999
12.065 6.4190001 -0.054000001
12.119 6.4920001 -0.054000001
12.113 6.533 -0.055
12.165 6.6059999 -0.055
12.207 6.6729999 -0.056000002
10.777 6.243 -0.052000001
10.548 6.1479998 -0.050999999
10.45 6.1290002 -0.050999999
10.4 6.1370001 -0.050999999
10.357 6.1490002 -0.050999999
10.34 6.1760001 -0.050999999
10.331 6.2069998 -0.050999999
10.327 6.2420001 -0.052000001
10.383 6.3130002 -0.052000001
10.471 6.4039998 -0.052999999
9.927 6.5900002 -0.055
9.849 6.572 -0.055
9.823 6.5869999 -0.055
9.8699999 6.652 -0.055
7.691 -4.5289998 0.086000003
7.6950002 -4.5089998 0.086000003
7.698 -4.4889998 0.086000003
7.7150002 -4.4770002 0.086999997
7.7290001 -4.4629998 0.086999997
7.7389998 -4.447 0.086999997
7.737 -4.4239998 0.086999997
7.763 -4.4169998 0.086999997
7.7740002 -4.401 0.088
7.7789998 -4.382 0.088
7.7989998 -4.3709998 0.088
7.7979999 -4.348 0.088
7.8150001 -4.335 0.088
7.8280001 -4.3200002 0.088
7.8299999 -4.2979999 0.089000002
7.8439999 -4.2839999 0.089000002
7.8559999 -4.2680001 0.089000002
7.8709998 -4.2540002 0.089000002
7.875 -4.2329998 0.089000002
7.8850002 -4.2160001 0.089000002
7.901 -4.2020001 0.090000004
7.9029999 -4.1799998 0.090000004
7.9229999 -4.1680002 0.090000004
7.948 -4.158 0.090000004
7.9390001 -4.1300001 0.090000004
7.967 -4.1220002 0.090999998
7.9569998 -4.0939999 0.090999998
7.9770002 -4.0819998 0.090999998
8.0010004 -4.0710001 0.090999998
7.993 -4.0440001 0.090999998
8.0190001 -4.033 0.090999998
8.0310001 -4.0159998 0.092
8.0430002 -4 0.092
8.0600004 -3.984 0.092
8.0690002 -3.9660001 0.092
8.0839996 -3.95 0.092
8.1020002 -3.9349999 0.093000002
8.1219997 -3.921 0.093000002
8.1440001 -3.9089999 0.093000002
8.1400003 -3.8829999 0.093000002
8.1750002 -3.8759999 0.093999997
8.1789999 -3.8540001 0.093999997
8.1800003 -3.8310001 0.093999997
8.2110004 -3.822 0.093999997
8.224 -3.8039999 0.093999997
8.2399998 -3.7880001 0.094999999
8.2440004 -3.7650001 0.094999999
8.2530003 -3.7460001 0.094999999
8.2749996 -3.7320001 0.094999999
8.2840004 -3.7119999 0.094999999
8.3179998 -3.7030001 0.096000001
8.316 -3.678 0.096000001
8.3339996 -3.6619999 0.096000001
8.3450003 -3.6429999 0.096000001
8.3620005 -3.6259999 0.097000003
8.3760004 -3.608 0.097000003
8.3929996 -3.5910001 0.097000003
8.3909998 -3.5650001 0.097000003
8.4230003 -3.5539999 0.097000003
8.4300003 -3.533 0.097999997
8.4580002 -3.5209999 0.097999997
8.4750004 -3.503 0.097999997
8.4770002 -3.4790001 0.097999997
8.4989996 -3.464 0.098999999
8.5129995 -3.4449999 0.098999999
8.5150003 -3.421 0.098999999
8.5389996 -3.4059999 0.098999999
8.552 -3.3859999 0.098999999
8.5609999 -3.365 0.098999999
8.5749998 -3.346 0.1
8.5769997 -3.3210001 0.1
8.6000004 -3.306 0.1
8.6079998 -3.283 0.1
8.6499996 -3.2739999 0.101
8.665 -3.2550001 0.101
8.6800003 -3.2360001 0.101
8.7080002 -3.221 0.102
8.7200003 -3.2 0.102
8.7440004 -3.184 0.102
8.7519999 -3.161 0.102
8.7670002 -3.141 0.102
8.7749996 -3.119 0.103
8.8079996 -3.105 0.103
8.8190002 -3.0829999 0.103
8.8330002 -3.062 0.103
8.8459997 -3.0409999 0.104
8.8690004 -3.0239999 0.104
8.8970003 -3.0079999 0.104
8.9040003 -2.984 0.104
8.9180002 -2.9630001 0.105
8.9510002 -2.948 0.105
8.9820004 -2.9319999 0.105
9.0229998 -2.9200001 0.106
9.0450001 -2.901 0.106
9.0539999 -2.8770001 0.106
9.0869999 -2.862 0.107
9.0830002 -2.8340001 0.107
9.158 -2.8310001 0.108
9.1870003 -2.813 0.108
9.1730003 -2.783 0.108
9.2069998 -2.767 0.108
9.2220001 -2.744 0.109
9.2550001 -2.7279999 0.109
9.2629995 -2.7030001 0.109
9.2620001 -2.6760001 0.109
9.3260002 -2.668 0.11
9.3269997 -2.641 0.11
9.3540001 -2.622 0.11
9.382 -2.6029999 0.111
9.3879995 -2.5780001 0.111
9.427 -2.5610001 0.111
9.4440002 -2.5380001 0.112
9.4809999 -2.5209999 0.112
9.5200005 -2.5039999 0.113
9.5220003 -2.477 0.113
9.5810003 -2.4649999 0.113
9.5670004 -2.434 0.113
9.6020002 -2.415 0.114
9.6230001 -2.3929999 0.114
9.6300001 -2.3670001 0.114
9.6739998 -2.3499999 0.115
9.7320004 -2.336 0.116
9.7589998 -2.3139999 0.116
9.8000002 -2.296 0.116
9.8339996 -2.276 0.117
9.8479996 -2.2509999 0.117
9.882 -2.23 0.118
9.8870001 -2.2030001 0.118
9.9280005 -2.184 0.118
9.9469995 -2.1589999 0.118
9.9680004 -2.135 0.119
9.9729996 -2.108 0.119
10.014 -2.0880001 0.119
10.061 -2.069 0.12
10.075 -2.043 0.12
10.13 -2.0250001 0.121
10.128 -1.995 0.121
10.169 -1.974 0.121
10.204 -1.952 0.122
10.236 -1.929 0.122
10.263 -1.905 0.123
10.281 -1.8789999 0.123
10.322 -1.8559999 0.123
10.356 -1.8329999 0.124
10.396 -1.8099999 0.124
10.393 -1.78 0.124
10.428 -1.756 0.125
10.474 -1.734 0.126
10.514 -1.711 0.126
10.555 -1.687 0.127
10.601 -1.664 0.127
10.6 -1.6339999 0.127
10.612 -1.605 0.127
10.673 -1.584 0.12800001
10.738 -1.563 0.12899999
10.766 -1.536 0.12899999
10.771 -1.506 0.12899999
10.802 -1.48 0.13
10.836 -1.454 0.13
10.868 -1.427 0.131
10.89 -1.399 0.131
10.933 -1.373 0.132
10.964 -1.346 0.132
10.983 -1.317 0.132
11.058 -1.294 0.133
11.046 -1.261 0.133
11.13 -1.239 0.134
11.145 -1.209 0.134
11.164 -1.1799999 0.13500001
11.203 -1.152 0.13500001
11.249 -1.124 0.13600001
11.323 -1.1 0.13699999
11.355 -1.0700001 0.13699999
11.409 -1.043 0.138
11.524 -1.021 0.139
11.527 -0.98799998 0.139
11.659 -0.96600002 0.141
11.739 -0.94 0.142
11.798 -0.91100001 0.14300001
9.3439999 0.16599999 0.012
9.2779999 0.176 0.011
9.2779999 0.18700001 0.011
9.2290001 0.197 0.011
9.2229996 0.20900001 0.011
9.2080002 0.22 0.011
9.2110004 0.23199999 0.011
9.2019997 0.244 0.011
9.2069998 0.257 0.0099999998
9.243 0.27000001 0.0099999998
9.3290005 0.28600001 0.0099999998
12.256 0.41100001 0.013
12.228 0.428 0.013
12.174 0.44400001 0.013
12.2 0.46399999 0.013
12.158 0.48100001 0.013
12.168 0.5 0.012
12.173 0.51999998 0.012
12.123 0.537 0.012
12.176 0.55900002 0.012
12.181 0.57999998 0.012
12.165 0.59899998 0.011
12.176 0.62099999 0.011
12.193 0.64200002 0.011
12.19 0.66399997 0.011
12.196 0.685 0.011
12.209 0.708 0.011
12.2 0.72899997 0.0099999998
12.219 0.75300002 0.0099999998
12.208 0.77499998 0.0099999998
12.237 0.79900002 0.0099999998
12.236 0.82300001 0.0099999998
12.221 0.84500003 0.0089999996
12.221 0.86799997 0.0089999996
12.231 0.89300001 0.0089999996
12.266 0.92000002 0.0089999996
12.241 0.94199997 0.0089999996
12.264 0.96899998 0.0089999996
12.271 0.99400002 0.0080000004
12.261 1.0190001 0.0080000004
12.288 1.0470001 0.0080000004
12.298 1.073 0.0080000004
12.316 1.101 0.0080000004
12.336 1.1289999 0.0070000002
12.357 1.158 0.0070000002
12.369 1.186 0.0070000002
12.367 1.2130001 0.0070000002
12.375 1.2410001 0.0070000002
12.364 1.267 0.0070000002
12.358 1.294 0.0060000001
12.356 1.322 0.0060000001
12.394 1.355 0.0060000001
12.423 1.387 0.0060000001
12.429 1.416 0.0060000001
12.432 1.446 0.0049999999
12.437 1.476 0.0049999999
12.435 1.505 0.0049999999
12.454 1.5369999 0.0049999999
12.466 1.569 0.0049999999
12.473 1.6 0.0040000002
12.509 1.636 0.0040000002
12.52 1.668 0.0040000002
12.569 1.706 0.0040000002
12.582 1.739 0.0040000002
12.617 1.776 0.0040000002
12.6 1.806 0.003
12.62 1.841 0.003
12.618 1.873 0.003
12.639 1.909 0.003
12.661 1.946 0.0020000001
11.188 1.749 0.0020000001
11.082 1.762 0.0020000001
11.059 1.788 0.0020000001
11.067 1.819 0.001
11.109 1.8559999 0.001
11.312 1.92 0.001
12.777 2.204 0.001
12.784 2.24 0.001
11.243 2.0020001 -0
11.128 2.0120001 -0
11.104 2.039 -0
11.119 2.073 -0
11.169 2.1140001 -0
11.334 2.178 -0
12.865 2.5090001 -0
12.879 2.549 -0
12.877 2.586 -0
12.917 2.632 -0
12.918 2.6700001 -0.001
12.922 2.7090001 -0.001
12.942 2.7520001 -0.001
12.961 2.7939999 -0.001
12.978 2.8369999 -0.001
12.984 2.878 -0.0020000001
12.988 2.918 -0.0020000001
12.994 2.9590001 -0.0020000001
13.021 3.0050001 -0.0020000001
13.029 3.0469999 -0.003
13.046 3.092 -0.003
13.104 3.1459999 -0.003
13.135 3.1949999 -0.003
13.171 3.2449999 -0.003
13.149 3.2809999 -0.0040000002
13.145 3.322 -0.0040000002
13.214 3.381 -0.0040000002
13.243 3.4319999 -0.0040000002
13.286 3.4860001 -0.0049999999
13.308 3.5350001 -0.0049999999
13.329 3.5840001 -0.0049999999
13.378 3.6400001 -0.0049999999
13.42 3.6960001 -0.0060000001
13.407 3.737 -0.0060000001
13.428 3.7869999 -0.0060000001
13.489 3.849 -0.0060000001
13.536 3.908 -0.0070000002
13.614 3.977 -0.0070000002
13.648 4.033 -0.0070000002
13.681 4.0890002 -0.0080000004
13.694 4.1399999 -0.0080000004
13.713 4.1919999 -0.0080000004
13.722 4.2420001 -0.0080000004
13.786 4.3099999 -0.0089999996
13.787 4.3579998 -0.0089999996
13.862 4.4299998 -0.0089999996
13.862 4.4790001 -0.0089999996
13.888 4.5359998 -0.0099999998
13.922 4.5960002 -0.0099999998
13.959 4.658 -0.0099999998
13.995 4.7199998 -0.011
14.038 4.7849998 -0.011
14.088 4.8530002 -0.011
14.118 4.914 -0.011
14.141 4.973 -0.012
14.214 5.0510001 -0.012
14.28 5.1259999 -0.012
14.393 5.2199998 -0.013
14.393 5.2729998 -0.013
14.479 5.3579998 -0.013
14.575 5.448 -0.014
14.61 5.5149999 -0.014
14.641 5.5819998 -0.014
14.637 5.6360002 -0.015
14.669 5.7030001 -0.015
14.725 5.7810001 -0.015
14.739 5.8429999 -0.016000001
14.751 5.9039998 -0.016000001
14.805 5.9829998 -0.016000001
14.824 6.0469999 -0.017000001
14.868 6.1230001 -0.017000001
14.822 6.1609998 -0.017000001
14.743 6.1859999 -0.017000001
14.78 6.2600002 -0.017999999
12.332 5.9699998 -0.017999999
12.281 5.9959998 -0.018999999
12.163 5.9889998 -0.018999999
12.167 6.0419998 -0.018999999
12.195 6.1079998 -0.018999999
12.175 6.1490002 -0.02
12.202 6.2140002 -0.02
12.133 6.2309999 -0.02
12.173 6.303 -0.02
12.235 6.388 -0.021
12.087 6.362 -0.021
12.043 6.3909998 -0.021
12.092 6.4699998 -0.021
12.137 6.546 -0.022
12.136 6.599 -0.022
12.164 6.6669998 -0.022
10.666 6.2729998 -0.021
10.479 6.211 -0.021
10.417 6.2210002 -0.021
10.386 6.25 -0.022
10.386 6.2979999 -0.022
10.442 6.3790002 -0.022
10.553 6.4959998 -0.023
9.8459997 6.7579999 -0.024
9.7290001 6.7249999 -0.024
9.6850004 6.7410002 -0.025
9.6429996 6.7589998 -0.025
9.651 6.8119998 -0.025
9.6949997 6.8899999 -0.025
9.7379999 6.9679999 -0.026000001
9.75 7.0250001 -0.026000001
7.3520002 -4.8449998 0.101
7.3969998 -4.8270001 0.102
7.4180002 -4.7950001 0.102
7.4450002 -4.7670002 0.102
7.4590001 -4.73 0.103
7.4920001 -4.7049999 0.103
7.5300002 -4.684 0.104
7.5510001 -4.652 0.104
7.5650001 -4.6160002 0.104
7.5840001 -4.5840001 0.104
7.6100001 -4.5549998 0.105
7.6329999 -4.5250001 0.105
7.6550002 -4.494 0.105
7.6659999 -4.4580002 0.105
7.697 -4.4330001 0.106
7.7220001 -4.4039998 0.106
7.7449999 -4.375 0.106
7.7649999 -4.3439999 0.107
7.7789998 -4.309 0.107
7.7940001 -4.276 0.107
7.8319998 -4.256 0.107
7.8670001 -4.2329998 0.108
7.8390002 -4.177 0.107
7.8559999 -4.145 0.108
7.9109998 -4.1339998 0.108
7.921 -4.099 0.109
7.9559999 -4.0770001 0.109
7.9790001 -4.0479999 0.109
8.0019999 -4.02 0.11
8.0310001 -3.9949999 0.11
8.052 -3.9660001 0.11
8.0810003 -3.941 0.111
8.0959997 -3.9089999 0.111
8.1199999 -3.882 0.111
8.1459999 -3.8559999 0.112
8.1680002 -3.8280001 0.112
8.1999998 -3.8050001 0.112
8.2229996 -3.777 0.113
8.2440004 -3.7490001 0.113
8.2639999 -3.72 0.113
8.29 -3.694 0.113
8.3120003 -3.6670001 0.114
8.3380003 -3.641 0.114
8.3710003 -3.618 0.115
8.3909998 -3.5899999 0.115
8.3929996 -3.5539999 0.115
8.4139996 -3.527 0.115
8.4569998 -3.5079999 0.116
8.4820004 -3.4820001 0.116
8.5220003 -3.4630001 0.117
8.5469999 -3.437 0.117
8.5600004 -3.4059999 0.117
8.5979996 -3.3859999 0.118
8.6099997 -3.355 0.118
8.6359997 -3.3299999 0.118
8.6529999 -3.3010001 0.118
8.6750002 -3.2750001 0.119
8.7379999 -3.263 0.12
8.7550001 -3.2349999 0.12
8.7740002 -3.207 0.12
8.8050003 -3.184 0.121
8.8360004 -3.161 0.121
8.8470001 -3.131 0.121
8.8979998 -3.115 0.122
8.9230003 -3.089 0.122
8.9469995 -3.063 0.123
8.9910002 -3.0450001 0.123
9.0129995 -3.0179999 0.123
9.0719995 -3.0050001 0.124
9.1239996 -2.9879999 0.125
9.1230001 -2.9549999 0.125
9.1759996 -2.938 0.126
9.2200003 -2.9189999 0.126
9.3579998 -2.9289999 0.12800001
9.3979998 -2.908 0.12899999
9.3500004 -2.8599999 0.12800001
9.3800001 -2.836 0.12899999
9.4090004 -2.812 0.12899999
9.4549999 -2.793 0.13
9.4890003 -2.7709999 0.13
9.5249996 -2.7479999 0.131
9.5480003 -2.7219999 0.131
9.5769997 -2.698 0.131
9.6049995 -2.674 0.132
9.6499996 -2.654 0.132
9.6960001 -2.635 0.133
9.7270002 -2.6110001 0.134
9.7559996 -2.5869999 0.134
9.8050003 -2.5680001 0.13500001
9.8430004 -2.546 0.13500001
9.8699999 -2.5209999 0.13600001
9.9060001 -2.4990001 0.13600001
9.934 -2.474 0.13699999
9.927 -2.441 0.13600001
9.9829998 -2.424 0.13699999
10.018 -2.401 0.138
10.025 -2.372 0.138
10.051 -2.3469999 0.138
10.059 -2.3180001 0.138
10.094 -2.296 0.139
10.142 -2.276 0.14
10.156 -2.2490001 0.14
10.196 -2.2279999 0.14
10.234 -2.2060001 0.141
10.266 -2.1819999 0.141
10.287 -2.1570001 0.142
10.299 -2.1289999 0.142
10.347 -2.1099999 0.14300001
10.375 -2.086 0.14300001
10.408 -2.063 0.14399999
10.446 -2.0409999 0.14399999
10.448 -2.0120001 0.14399999
10.486 -1.99 0.145
10.497 -1.9630001 0.145
10.541 -1.942 0.146
10.552 -1.915 0.146
10.578 -1.891 0.146
10.591 -1.865 0.146
10.641 -1.845 0.147
10.663 -1.8200001 0.147
10.716 -1.801 0.148
10.723 -1.774 0.148
10.769 -1.753 0.149
10.801 -1.73 0.149
10.805 -1.7029999 0.149
10.83 -1.679 0.15000001
10.864 -1.6569999 0.15000001
10.876 -1.631 0.15099999
10.939 -1.613 0.15099999
10.962 -1.589 0.152
10.954 -1.5599999 0.152
10.996 -1.539 0.152
10.99 -1.511 0.152
11.008 -1.487 0.153
11.043 -1.465 0.153
11.054 -1.4400001 0.153
11.087 -1.418 0.154
11.115 -1.395 0.154
11.148 -1.373 0.155
11.166 -1.349 0.155
11.216 -1.329 0.156
11.252 -1.307 0.156
11.247 -1.28 0.156
11.291 -1.26 0.15700001
11.317 -1.237 0.15700001
11.362 -1.216 0.15800001
11.401 -1.1950001 0.15899999
11.415 -1.171 0.15899999
11.448 -1.149 0.15899999
11.479 -1.127 0.16
11.477 -1.102 0.16
11.533 -1.082 0.161
11.572 -1.061 0.161
11.616 -1.04 0.162
11.647 -1.018 0.162
11.691 -0.99699998 0.163
11.766 -0.97899997 0.164
11.875 -0.963 0.16599999
11.937 -0.94400001 0.167
9.1199999 0.118 0.037
9.1409998 0.13500001 0.037
9.1409998 0.15099999 0.037
9.1560001 0.168 0.037
9.1759996 0.186 0.035999998
9.2349997 0.204 0.037
9.3039999 0.223 0.037
12.233 0.294 0.048
12.115 0.31400001 0.048
12.108 0.338 0.048
12.089 0.361 0.046999998
12.079 0.38499999 0.046999998
12.112 0.41 0.046999998
12.106 0.43399999 0.046999998
12.099 0.45899999 0.046999998
12.104 0.484 0.046
12.117 0.50999999 0.046
12.131 0.53600001 0.046
12.138 0.56199998 0.046
12.144 0.588 0.046
12.182 0.616 0.046
12.15 0.64099997 0.045000002
12.205 0.671 0.045000002
12.192 0.69800001 0.045000002
12.179 0.72399998 0.045000002
12.206 0.75300002 0.045000002
12.21 0.78100002 0.045000002
12.237 0.81099999 0.045000002
12.257 0.84100002 0.044
12.245 0.86799997 0.044
12.245 0.89700001 0.044
12.259 0.92699999 0.044
12.266 0.95700002 0.044
12.299 0.98900002 0.044
12.329 1.021 0.044
12.324 1.051 0.043000001
12.358 1.084 0.043000001
12.364 1.115 0.043000001
12.379 1.147 0.043000001
12.396 1.1799999 0.043000001
12.408 1.212 0.043000001
12.432 1.2460001 0.043000001
12.436 1.278 0.041999999
12.43 1.309 0.041999999
12.449 1.3430001 0.041999999
12.472 1.378 0.041999999
12.472 1.411 0.041999999
12.481 1.444 0.041999999
12.477 1.477 0.041000001
12.487 1.511 0.041000001
12.483 1.544 0.041000001
12.489 1.5779999 0.041000001
12.508 1.615 0.041000001
12.563 1.656 0.041000001
12.627 1.699 0.041000001
12.675 1.74 0.041000001
12.727 1.7819999 0.041000001
12.722 1.817 0.039999999
12.735 1.854 0.039999999
12.73 1.8890001 0.039999999
12.74 1.927 0.039999999
12.77 1.967 0.039999999
11.242 1.7640001 0.035
11.087 1.771 0.034000002
11.049 1.7970001 0.034000002
11.064 1.831 0.034000002
11.112 1.8710001 0.034000002
11.437 1.959 0.034000002
11.338 2.0090001 0.034000002
11.158 2.01 0.033
11.097 2.0320001 0.033
11.106 2.066 0.032000002
11.152 2.108 0.032000002
11.281 2.1659999 0.033
13.075 2.55 0.037999999
13.088 2.592 0.037999999
13.107 2.6359999 0.037
13.116 2.678 0.037
13.143 2.724 0.037
13.189 2.7739999 0.037
13.206 2.8180001 0.037
13.199 2.8570001 0.037
13.242 2.908 0.035999998
13.254 2.951 0.035999998
13.259 2.994 0.035999998
13.295 3.0439999 0.035999998
13.353 3.099 0.035999998
13.382 3.148 0.035999998
13.414 3.198 0.035999998
13.443 3.2479999 0.035
13.467 3.2969999 0.035
13.465 3.3399999 0.035
13.519 3.3959999 0.035
13.555 3.4489999 0.035
13.616 3.5090001 0.035
13.66 3.5639999 0.035
13.675 3.6129999 0.034000002
13.702 3.665 0.034000002
13.75 3.723 0.034000002
13.76 3.77 0.034000002
13.785 3.823 0.034000002
13.863 3.8900001 0.034000002
13.913 3.95 0.034000002
13.92 3.9979999 0.033
13.967 4.0580001 0.033
14.003 4.1160002 0.033
13.976 4.1539998 0.033
14.014 4.2129998 0.033
14.035 4.2659998 0.033
14.088 4.3299999 0.032000002
14.175 4.4050002 0.032000002
14.215 4.4650002 0.032000002
14.273 4.5320001 0.032000002
14.246 4.572 0.032000002
14.308 4.6409998 0.032000002
14.34 4.6999998 0.032000002
14.39 4.7659998 0.030999999
14.434 4.8299999 0.030999999
14.443 4.8829999 0.030999999
14.44 4.9320002 0.030999999
14.557 5.0219998 0.030999999
14.713 5.1269999 0.030999999
14.749 5.191 0.030999999
14.713 5.23 0.029999999
14.813 5.3169999 0.029999999
14.831 5.375 0.029999999
14.825 5.4250002 0.029999999
14.865 5.4920001 0.029999999
15.029 5.605 0.029999999
15.219 5.73 0.029999999
15.199 5.776 0.029999999
15.318 5.875 0.029999999
15.173 5.8740001 0.028999999
15.243 5.9549999 0.028999999
15.288 6.027 0.028999999
15.289 6.0819998 0.028000001
15.365 6.1669998 0.028000001
15.37 6.223 0.028000001
15.37 6.2789998 0.028000001
15.421 6.355 0.028000001
15.508 6.4460001 0.027000001
12.155 5.9780002 0.017000001
12.057 5.973 0.016000001
11.977 5.9780002 0.016000001
11.942 6.0040002 0.016000001
12.005 6.079 0.016000001
12.211 6.2280002 0.016000001
12.218 6.276 0.015
12.164 6.2930002 0.015
12.241 6.3769999 0.015
12.101 6.3930001 0.014
12.042 6.4060001 0.014
12.156 6.5110002 0.014
7.8990002 -4.6550002 0.126
7.9109998 -4.6399999 0.126
7.9200001 -4.6230001 0.126
7.9260001 -4.6030002 0.126
7.9400001 -4.5890002 0.127
7.9499998 -4.572 0.127
7.9580002 -4.5539999 0.127
7.9689999 -4.5380001 0.127
7.9920001 -4.5279999 0.12800001
7.994 -4.506 0.12800001
8.0100002 -4.4920001 0.12800001
8.026 -4.4790001 0.12800001
8.0310001 -4.4580002 0.12899999
8.0459995 -4.4439998 0.12899999
8.0609999 -4.4289999 0.12899999
8.0579996 -4.4039998 0.12899999
8.0810003 -4.3940001 0.13
8.0909996 -4.3759999 0.13
8.1009998 -4.3579998 0.13
8.1120005 -4.3400002 0.13
8.1389999 -4.3309999 0.131
8.1459999 -4.3119998 0.131
8.165 -4.2979999 0.131
8.1730003 -4.2789998 0.131
8.1709995 -4.2540002 0.131
8.1820002 -4.2360001 0.131
8.2060003 -4.2249999 0.132
8.2399998 -4.2189999 0.133
8.2659998 -4.2080002 0.133
8.283 -4.1929998 0.133
8.2740002 -4.165 0.133
8.276 -4.1420002 0.133
8.2880001 -4.1240001 0.133
8.3149996 -4.1129999 0.134
8.3269997 -4.0949998 0.134
8.342 -4.0780001 0.134
8.3430004 -4.0549998 0.13500001
8.3730001 -4.0450001 0.13500001
8.3690004 -4.0190001 0.13500001
8.3900003 -4.0050001 0.13500001
8.4020004 -3.9860001 0.13600001
8.4169998 -3.9690001 0.13600001
8.4460001 -3.9579999 0.13600001
8.4610004 -3.941 0.13699999
8.4770002 -3.924 0.13699999
8.493 -3.9059999 0.13699999
8.5019999 -3.8859999 0.13699999
8.533 -3.875 0.138
8.5559998 -3.8610001 0.138
8.5629997 -3.839 0.139
8.5860004 -3.825 0.139
8.5760002 -3.7950001 0.139
8.6040001 -3.783 0.139
8.6140003 -3.7620001 0.14
8.6350002 -3.7460001 0.14
8.6379995 -3.723 0.14
8.6499996 -3.7030001 0.14
8.6750002 -3.688 0.141
8.684 -3.6670001 0.141
8.7159996 -3.655 0.141
8.7159996 -3.6300001 0.141
8.7370005 -3.6129999 0.142
8.7679996 -3.5999999 0.142
8.7679996 -3.575 0.142
8.7930002 -3.5599999 0.14300001
8.7989998 -3.5369999 0.14300001
8.8219995 -3.52 0.14300001
8.8319998 -3.4979999 0.14399999
8.8319998 -3.473 0.14399999
8.8620005 -3.4590001 0.14399999
8.8970003 -3.447 0.145
8.9049997 -3.424 0.145
8.941 -3.4119999 0.146
8.9440002 -3.3870001 0.146
8.9309998 -3.3570001 0.145
8.9779997 -3.348 0.146
9.0089998 -3.3340001 0.147
9.0120001 -3.309 0.147
9.0129995 -3.283 0.147
9.0270004 -3.2620001 0.147
9.0629997 -3.2479999 0.148
9.085 -3.23 0.148
9.1079998 -3.2119999 0.149
9.1020002 -3.1830001 0.148
9.1639996 -3.178 0.15000001
9.198 -3.164 0.15000001
9.1969995 -3.1370001 0.15000001
9.2290001 -3.1210001 0.15099999
9.243 -3.099 0.15099999
9.2720003 -3.082 0.15099999
9.3149996 -3.069 0.152
9.335 -3.049 0.153
9.3710003 -3.0339999 0.153
9.3959999 -3.0150001 0.154
9.4350004 -3 0.154
9.5310001 -3.003 0.156
9.6149998 -3.0009999 0.15700001
9.6440001 -2.983 0.15800001
9.5690002 -2.9319999 0.15700001
9.5950003 -2.9119999 0.15700001
9.6099997 -2.8889999 0.15700001
9.6389999 -2.8699999 0.15800001
9.6470003 -2.8440001 0.15800001
9.6759996 -2.825 0.15899999
9.7019997 -2.8039999 0.15899999
9.7360001 -2.786 0.16
9.7469997 -2.7609999 0.16
9.7670002 -2.7390001 0.16
9.8009996 -2.72 0.161
9.809 -2.694 0.161
9.8299999 -2.671 0.161
9.8640003 -2.652 0.162
9.8800001 -2.628 0.162
9.8979998 -2.6040001 0.162
9.9200001 -2.5810001 0.163
9.9490004 -2.5599999 0.163
9.9449997 -2.5309999 0.163
9.9980001 -2.5150001 0.164
10.022 -2.4920001 0.16500001
10.047 -2.47 0.16500001
10.051 -2.4419999 0.16500001
10.051 -2.4130001 0.16500001
10.108 -2.398 0.16599999
10.128 -2.3729999 0.167
10.134 -2.346 0.167
10.153 -2.3210001 0.167
10.188 -2.3 0.168
10.21 -2.2750001 0.168
10.242 -2.253 0.169
10.262 -2.2279999 0.169
10.268 -2.2 0.169
10.301 -2.177 0.17
10.351 -2.158 0.171
10.392 -2.1370001 0.171
10.416 -2.112 0.17200001
10.436 -2.086 0.17200001
10.451 -2.059 0.17200001
10.507 -2.04 0.17299999
10.554 -2.0190001 0.17399999
10.565 -1.9910001 0.17399999
10.591 -1.965 0.175
10.62 -1.9400001 0.175
10.64 -1.914 0.176
10.679 -1.89 0.176
10.698 -1.863 0.177
10.718 -1.835 0.177
10.78 -1.8150001 0.178
10.814 -1.79 0.17900001
10.826 -1.761 0.17900001
10.877 -1.738 0.18000001
10.905 -1.712 0.18000001
10.946 -1.687 0.18099999
10.972 -1.659 0.18099999
11.011 -1.6339999 0.182
11.029 -1.605 0.182
11.062 -1.5779999 0.183
11.096 -1.551 0.183
11.137 -1.525 0.184
11.168 -1.498 0.185
11.213 -1.472 0.185
11.251 -1.4450001 0.186
11.301 -1.419 0.18700001
11.35 -1.393 0.18799999
11.366 -1.362 0.18799999
11.426 -1.337 0.189
11.523 -1.3150001 0.191
11.577 -1.288 0.192
11.588 -1.257 0.192
11.63 -1.228 0.193
11.693 -1.201 0.19400001
11.731 -1.1720001 0.19400001
11.836 -1.149 0.19599999
11.947 -1.125 0.198
11.971 -1.0930001 0.198
12.016 -1.063 0.199
12.077 -1.034 0.2
12.15 -1.006 0.20100001
12.162 -0.972 0.20200001
12.199 -0.94099998 0.20200001
9.4020004 0.147 0.057999998
9.3179998 0.15700001 0.057
9.2659998 0.16599999 0.057
9.2299995 0.177 0.057
9.2089996 0.18700001 0.056000002
9.1969995 0.198 0.056000002
9.1789999 0.20900001 0.056000002
9.1879997 0.221 0.056000002
9.1929998 0.234 0.056000002
9.1949997 0.24600001 0.056000002
9.2200003 0.259 0.056000002
9.3149996 0.27399999 0.056000002
12.622 0.44400001 0.075000003
12.657 0.46399999 0.075000003
12.71 0.48500001 0.075999998
12.716 0.505 0.075000003
12.64 0.52200001 0.075000003
12.633 0.542 0.075000003
12.591 0.56 0.074000001
12.598 0.58099997 0.074000001
12.589 0.60100001 0.074000001
12.582 0.62199998 0.074000001
12.595 0.64399999 0.072999999
12.6 0.66600001 0.072999999
12.591 0.68699998 0.072999999
12.61 0.70999998 0.072999999
12.585 0.73100001 0.072999999
12.595 0.755 0.072999999
12.596 0.778 0.071999997
12.625 0.80299997 0.071999997
12.63 0.82700002 0.071999997
12.638 0.85100001 0.071999997
12.627 0.875 0.071999997
12.646 0.89999998 0.071999997
12.662 0.926 0.071999997
12.664 0.95099998 0.071999997
12.683 0.97799999 0.071999997
12.695 1.0039999 0.071000002
12.729 1.033 0.071000002
12.744 1.0599999 0.071000002
12.767 1.089 0.071000002
12.774 1.1160001 0.071000002
12.788 1.1440001 0.071000002
12.789 1.1720001 0.071000002
12.799 1.2 0.071000002
12.787 1.227 0.071000002
12.787 1.255 0.07
12.791 1.284 0.07
12.797 1.313 0.07
12.751 1.337 0.07
12.668 1.357 0.068999998
12.605 1.3789999 0.068999998
12.492 1.395 0.068000004
12.462 1.421 0.067000002
12.464 1.45 0.067000002
12.502 1.484 0.067000002
12.538 1.518 0.067000002
12.621 1.559 0.068000004
12.68 1.597 0.068000004
12.759 1.638 0.068000004
12.888 1.686 0.068999998
12.945 1.726 0.068999998
12.976 1.762 0.068999998
12.991 1.7970001 0.068999998
12.997 1.83 0.068000004
13.016 1.8660001 0.068000004
13.038 1.903 0.068000004
13.07 1.941 0.068000004
13.097 1.979 0.068000004
11.232 1.727 0.057999998
11.112 1.738 0.057999998
11.063 1.7589999 0.057
11.056 1.788 0.057
11.072 1.8200001 0.057
11.154 1.863 0.057
13.206 2.2420001 0.068000004
13.24 2.2839999 0.068000004
11.232 1.969 0.057
11.104 1.977 0.056000002
11.075 2.003 0.056000002
11.083 2.0350001 0.056000002
11.126 2.075 0.056000002
11.234 2.1270001 0.057
13.421 2.579 0.068000004
13.402 2.6140001 0.067000002
13.423 2.6570001 0.067000002
13.44 2.6989999 0.067000002
13.47 2.7449999 0.067000002
13.49 2.7880001 0.067000002
13.525 2.836 0.067000002
13.535 2.878 0.067000002
13.582 2.928 0.067000002
13.604 2.974 0.067000002
13.595 3.013 0.067000002
13.636 3.0639999 0.067000002
13.67 3.1129999 0.067000002
13.702 3.1619999 0.067000002
13.738 3.2130001 0.067000002
13.762 3.2609999 0.067000002
13.786 3.3099999 0.067000002
13.822 3.362 0.067000002
13.84 3.4100001 0.067000002
13.869 3.461 0.067000002
13.911 3.5150001 0.067000002
13.955 3.5710001 0.067000002
13.962 3.618 0.067000002
14.009 3.675 0.067000002
14.053 3.7320001 0.067000002
14.086 3.7869999 0.067000002
14.114 3.8410001 0.067000002
14.135 3.8929999 0.067000002
14.169 3.9489999 0.067000002
14.196 4.0040002 0.066
14.259 4.0689998 0.067000002
14.256 4.1160002 0.066
14.329 4.1849999 0.067000002
14.321 4.2309999 0.066
14.374 4.296 0.066
14.425 4.3600001 0.067000002
14.451 4.4180002 0.066
14.501 4.4829998 0.067000002
14.546 4.5469999 0.067000002
14.601 4.6149998 0.067000002
14.629 4.6750002 0.067000002
14.634 4.7270002 0.066
14.688 4.7969999 0.067000002
14.76 4.8720002 0.067000002
14.832 4.9489999 0.067000002
14.888 5.0209999 0.067000002
14.955 5.0970001 0.067000002
15.017 5.1719999 0.067000002
15.114 5.2600002 0.067000002
15.114 5.3150001 0.067000002
15.137 5.3779998 0.067000002
15.249 5.473 0.067000002
15.192 5.5089998 0.067000002
15.335 5.6170001 0.067000002
