# .PCD v0.7 - Point Cloud Data file format
VERSION 0.7
FIELDS x y z
SIZE 4 4 4
TYPE F F F
COUNT 1 1 1
WIDTH 1880
HEIGHT 1
VIEWPOINT 0 0 0 1 0 0 0
POINTS 1880
DATA ascii
12.68 0.54799998 0.65899998
12.675 0.574 0.65899998
12.686 0.602 0.65899998
12.702 0.62900001 0.66000003
12.727 0.65799999 0.66100001
12.786 0.68800002 0.66399997
12.872 0.72100002 0.66799998
12.888 0.75 0.66900003
12.884 0.77899998 0.66900003
12.858 0.80599999 0.66799998
12.822 0.833 0.66600001
12.796 0.86000001 0.66399997
12.744 0.88599998 0.662
12.712 0.91299999 0.66000003
12.696 0.94099998 0.65899998
12.692 0.97100002 0.65899998
12.691 1.001 0.65899998
12.712 1.033 0.66000003
12.736 1.0650001 0.66100001
12.749 1.097 0.662
12.766 1.1289999 0.66299999
12.797 1.164 0.66399997
12.841 1.199 0.667
12.913 1.238 0.671
12.956 1.274 0.67299998
12.962 1.308 0.67299998
12.991 1.3430001 0.67500001
20.628 2.1329999 1.072
12.967 1.374 0.67400002
20.598 2.1830001 1.0700001
12.982 1.409 0.67400002
20.569 2.233 1.069
13.056 1.451 0.67799997
20.625999 2.2920001 1.072
13.171 1.498 0.68400002
20.598 2.342 1.071
20.674999 2.405 1.075
20.669001 2.4590001 1.075
20.621 2.507 1.072
20.74 2.5769999 1.079
20.867001 2.648 1.086
20.834 2.7 1.084
20.832001 2.756 1.084
20.813999 2.8099999 1.084
20.844999 2.8710001 1.085
20.766001 2.9170001 1.082
20.899 2.994 1.089
21.079 3.0780001 1.098
21.112 3.142 1.1
20.927999 3.1730001 1.091
20.874001 3.224 1.089
20.919001 3.29 1.091
21.802999 3.8050001 1.14
21.812 3.8710001 1.141
21.882 3.947 1.145
21.867001 4.0089998 1.1440001
21.837 4.0679998 1.143
21.808001 4.1269999 1.142
21.926001 4.2150002 1.149
21.983 4.2919998 1.152
22.047001 4.3709998 1.156
22.106001 4.4499998 1.16
22.243999 4.5450001 1.1670001
22.333 4.631 1.173
22.344999 4.7020001 1.174
22.334 4.7680001 1.174
22.329 4.836 1.174
22.4 4.921 1.178
19.665001 5.131 1.0420001
19.612 5.1799998 1.04
19.617001 5.2449999 1.041
19.573 5.2969999 1.039
19.6 5.369 1.041
19.702 5.4619999 1.0470001
18.158001 5.1539998 0.96600002
17.962 5.1570001 0.95599997
17.815001 5.1739998 0.949
17.688999 5.1960001 0.94300002
17.601 5.2290001 0.93900001
17.605 5.29 0.94
8.3719997 3.507 0.46000001
8.2639999 3.4909999 0.454
8.1920004 3.49 0.45100001
8.158 3.5050001 0.449
8.1110001 3.5139999 0.447
8.0620003 3.5220001 0.44499999
8.0290003 3.5369999 0.44299999
8.0080004 3.556 0.44299999
8.0039997 3.5840001 0.44299999
8.0570002 3.6370001 0.44600001
8.0839996 3.678 0.44800001
8.1219997 3.7249999 0.45100001
8.1409998 3.763 0.45199999
8.2049999 3.823 0.456
8.2539997 3.8759999 0.46000001
8.427 3.987 0.47
11.103 -6.5650001 0.69400001
11.107 -6.5349998 0.69400001
11.056 -6.473 0.69099998
11.177 -6.5120001 0.69800001
11.194 -6.4889998 0.699
11.267 -6.4990001 0.704
11.229 -6.4450002 0.70099998
11.238 -6.4169998 0.70200002
11.247 -6.3889999 0.70200002
11.267 -6.335 0.70300001
11.236 -6.2849998 0.70099998
11.245 -6.2579999 0.70200002
11.236 -6.2189999 0.70099998
11.236 -6.1869998 0.70099998
11.278 -6.177 0.704
11.28 -6.145 0.704
11.341 -6.1459999 0.70700002
11.351 -6.118 0.708
11.456 -6.1409998 0.71399999
11.471 -6.0479999 0.71499997
11.455 -6.007 0.71399999
11.485 -5.9889998 0.71600002
11.467 -5.9460001 0.71499997
11.522 -5.941 0.71799999
11.488 -5.8889999 0.71600002
11.517 -5.8709998 0.71799999
11.529 -5.8429999 0.71799999
11.55 -5.8200002 0.71899998
11.577 -5.7989998 0.72100002
11.613 -5.783 0.72299999
11.601 -5.744 0.722
11.639 -5.7280002 0.72500002
11.644 -5.697 0.72500002
11.686 -5.6830001 0.727
11.702 -5.6560001 0.72799999
11.677 -5.6100001 0.727
11.709 -5.5910001 0.72799999
11.74 -5.5710001 0.73000002
11.756 -5.5440001 0.73100001
11.801 -5.5310001 0.73400003
11.809 -5.5 0.73400003
11.834 -5.4770002 0.736
11.873 -5.46 0.73799998
11.901 -5.4380002 0.74000001
11.941 -5.421 0.74199998
11.968 -5.3979998 0.74400002
11.991 -5.3730001 0.745
12.026 -5.3540001 0.74699998
12.095 -5.349 0.75099999
12.07 -5.302 0.75
12.109 -5.2839999 0.75199997
12.153 -5.2680001 0.755
12.168 -5.2379999 0.755
12.254 -5.2389998 0.76099998
12.269 -5.21 0.76099998
12.265 -5.1719999 0.76099998
12.331 -5.1630001 0.76499999
12.357 -5.138 0.76700002
12.371 -5.1069999 0.76700002
12.372 -5.072 0.76700002
12.448 -5.066 0.77200001
12.497 -5.0500002 0.77499998
12.54 -5.0300002 0.77700001
12.62 -5.0250001 0.78200001
12.604 -4.9819999 0.78100002
12.67 -4.9699998 0.78500003
12.849 -5.0029998 0.796
12.919 -4.954 0.80000001
12.944 -4.9260001 0.80199999
12.893 -4.869 0.79799998
12.97 -4.8600001 0.80299997
13.039 -4.848 0.80699998
12.981 -4.7880001 0.80299997
13.083 -4.7870002 0.81
13.096 -4.7540002 0.81
13.197 -4.7519999 0.81599998
13.325 -4.7589998 0.824
13.234 -4.6869998 0.81800002
13.484 -4.579 0.833
13.445 -4.526 0.83099997
13.525 -4.513 0.83499998
13.553 -4.4829998 0.83700001
13.561 -4.4460001 0.83700001
13.596 -4.4180002 0.83899999
13.665 -4.4000001 0.84299999
13.699 -4.3709998 0.84500003
13.713 -4.336 0.84600002
13.814 -4.1659999 0.852
13.785 -4.1170001 0.85000002
13.813 -4.085 0.85100001
13.888 -4.0669999 0.85600001
13.935 -4.04 0.85900003
14.041 -4.0300002 0.86500001
14.008 -3.98 0.86299998
14.098 -3.964 0.86799997
14.122 -3.9300001 0.86900002
10.572 -2.911 0.65100002
10.425 -2.8399999 0.64200002
10.415 -2.8069999 0.64099997
10.434 -2.7820001 0.64200002
10.475 -2.763 0.64399999
10.571 -2.757 0.64999998
10.66 -2.7490001 0.65499997
10.769 -2.7460001 0.662
12.965 -0.50400001 0.78500003
12.857 -0.463 0.778
12.77 -0.42300001 0.773
12.72 -0.38499999 0.76899999
12.698 -0.34799999 0.76800001
12.689 -0.31099999 0.76700002
12.681 -0.27500001 0.76599997
12.679 -0.23800001 0.76599997
12.675 -0.20200001 0.76599997
12.678 -0.16599999 0.76599997
12.715 -0.13 0.76800001
12.79 -0.093999997 0.77200001
12.719 0.126 0.69
12.721 0.138 0.69
12.716 0.149 0.68900001
12.719 0.161 0.68900001
12.713 0.17399999 0.68900001
12.72 0.186 0.68900001
12.72 0.2 0.68800002
12.718 0.213 0.68800002
12.718 0.226 0.68800002
12.724 0.241 0.68800002
12.738 0.255 0.68800002
12.729 0.27000001 0.68699998
12.726 0.285 0.68699998
12.739 0.30000001 0.68699998
12.739 0.31600001 0.68699998
12.739 0.33199999 0.68699998
12.735 0.34799999 0.68599999
12.738 0.36399999 0.68599999
12.737 0.38100001 0.68599999
12.735 0.398 0.68599999
12.749 0.41600001 0.68599999
12.767 0.435 0.68699998
12.771 0.45300001 0.68699998
12.771 0.47099999 0.68699998
12.765 0.49000001 0.68599999
12.775 0.509 0.68699998
12.777 0.52899998 0.68699998
12.803 0.54900002 0.68800002
12.793 0.56900001 0.68699998
12.801 0.58899999 0.68800002
12.81 0.61000001 0.68800002
12.821 0.63200003 0.68800002
12.849 0.65399998 0.69
12.884 0.67799997 0.69199997
12.898 0.69999999 0.69199997
12.921 0.72399998 0.69300002
12.911 0.745 0.69300002
12.907 0.76800001 0.69300002
12.891 0.79000002 0.69199997
12.88 0.81199998 0.69099998
12.851 0.83399999 0.68900001
12.815 0.85500002 0.68699998
12.758 0.875 0.68400002
12.724 0.89700001 0.68300003
12.705 0.92000002 0.68199998
12.693 0.94400001 0.68099999
12.716 0.97000003 0.68199998
12.729 0.99599999 0.68300003
12.739 1.022 0.68300003
12.757 1.049 0.68400002
12.77 1.076 0.685
12.803 1.105 0.68699998
12.835 1.135 0.68900001
12.88 1.166 0.69099998
12.889 1.194 0.69199997
20.844 1.931 1.119
12.914 1.224 0.69300002
20.841 1.975 1.119
12.947 1.255 0.69499999
20.905001 2.026 1.123
12.948 1.283 0.69499999
20.802 2.0610001 1.117
12.975 1.314 0.69700003
20.959 2.1229999 1.126
12.984 1.344 0.69700003
12.992 1.373 0.69800001
21.379 2.26 1.149
13.005 1.404 0.699
21.159 2.2850001 1.137
13.091 1.443 0.704
21.320999 2.3499999 1.146
13.206 1.4859999 0.70999998
21.084999 2.3729999 1.1339999
21.257999 2.441 1.143
21.503 2.5190001 1.1569999
21.597 2.5810001 1.1619999
21.742001 2.6500001 1.17
21.781 2.7060001 1.173
21.881001 2.7709999 1.178
21.885 2.825 1.179
21.849001 2.8729999 1.177
21.809 2.9219999 1.175
21.844999 2.9809999 1.178
21.827999 3.033 1.177
21.747 3.076 1.173
21.726999 3.128 1.173
22.186001 3.2509999 1.198
22.165001 3.3050001 1.197
22.200001 3.3670001 1.2
22.245001 3.4319999 1.202
22.268999 3.494 1.204
22.299 3.5569999 1.206
22.313 3.619 1.2079999
22.318001 3.6789999 1.2079999
22.257999 3.7290001 1.206
22.212999 3.7809999 1.204
22.156 3.832 1.201
22.114 3.885 1.2
22.171 3.9560001 1.2029999
22.188999 4.0209999 1.205
22.226 4.0900002 1.2079999
22.283001 4.1630001 1.211
22.332001 4.2350001 1.215
22.320999 4.2969999 1.215
22.264999 4.349 1.212
22.448999 4.4499998 1.223
22.483 4.5219998 1.226
22.511999 4.5929999 1.228
22.506001 4.6570001 1.228
22.478001 4.7179999 1.228
22.445999 4.777 1.227
19.635 5.2150002 1.086
19.610001 5.2719998 1.085
19.582001 5.3280001 1.085
19.656 5.4130001 1.09
18.309999 5.224 1.018
17.971001 5.1869998 1
17.848 5.2119999 0.99400002
17.737 5.2389998 0.98799998
17.688 5.2849998 0.98699999
17.832001 5.388 0.99599999
17.659 5.579 0.99000001
17.497999 5.5890002 0.98100001
17.337 5.598 0.97299999
17.358999 5.6659999 0.97600001
17.452999 5.7579999 0.98199999
17.301001 5.77 0.97399998
8.4540005 3.4779999 0.48699999
8.3369999 3.4619999 0.48100001
8.2530003 3.46 0.477
8.1899996 3.4649999 0.47299999
8.1669998 3.4879999 0.47299999
8.1059999 3.494 0.47
8.0629997 3.507 0.46799999
8.0190001 3.52 0.46599999
8.0100002 3.5469999 0.46599999
8.0310001 3.589 0.46799999
8.0780001 3.6429999 0.47099999
8.1140003 3.691 0.47400001
8.1379995 3.7360001 0.47600001
8.1949997 3.7950001 0.47999999
8.2620001 3.8599999 0.484
8.4689999 3.9909999 0.49700001
11.357 6.5209999 0.69099998
11.275 6.5250001 0.68699998
11.266 6.5710001 0.68699998
10.529 -6.914 0.69199997
10.563 -6.8709998 0.69300002
10.591 -6.8239999 0.69499999
10.656 -6.8000002 0.69800001
10.673 -6.7459998 0.699
10.74 -6.723 0.70300001
10.792 -6.691 0.70599997
10.814 -6.6409998 0.70599997
10.846 -6.5970001 0.708
10.888 -6.5599999 0.70999998
10.935 -6.5250001 0.713
10.928 -6.4590001 0.71200001
10.967 -6.4200001 0.71399999
11.005 -6.3800001 0.71600002
11.023 -6.3299999 0.71600002
11.067 -6.2940001 0.71899998
11.125 -6.2659998 0.722
11.156 -6.223 0.72299999
11.229 -6.2030001 0.72799999
11.265 -6.1630001 0.72899997
11.295 -6.1199999 0.73100001
11.295 -6.0609999 0.73000002
11.323 -6.0170002 0.73199999
11.366 -5.9809999 0.73400003
11.394 -5.9380002 0.73500001
11.421 -5.8940001 0.73699999
11.446 -5.8499999 0.73799998
11.521 -5.8299999 0.74199998
11.546 -5.7859998 0.74299997
11.582 -5.7470002 0.745
11.618 -5.7090001 0.74699998
11.612 -5.6500001 0.74599999
11.658 -5.6160002 0.74900001
11.705 -5.5830002 0.75099999
11.737 -5.5430002 0.75300002
11.791 -5.513 0.75599998
11.829 -5.4759998 0.75800002
11.899 -5.4530001 0.76200002
11.965 -5.4289999 0.76599997
11.959 -5.3720002 0.76499999
12.034 -5.3509998 0.76999998
12.065 -5.3109999 0.77100003
12.131 -5.2859998 0.77499998
12.2 -5.263 0.77899998
12.24 -5.2259998 0.78100002
12.262 -5.1820002 0.78200001
12.332 -5.1589999 0.78600001
12.391 -5.1300001 0.79000002
12.405 -5.0830002 0.79000002
12.47 -5.0580001 0.79400003
12.49 -5.013 0.79500002
12.576 -4.9949999 0.80000001
12.759 -5.0159998 0.81099999
12.897 -5.0170002 0.81999999
12.86 -4.9499998 0.81699997
12.932 -4.9250002 0.82099998
12.994 -4.8969998 0.82499999
13 -4.8470001 0.82499999
13.063 -4.8189998 0.82800001
13.275 -4.8449998 0.84200001
13.221 -4.7740002 0.838
13.401 -4.7870002 0.84899998
13.425 -4.744 0.85000002
13.525 -4.7280002 0.85600001
13.593 -4.6999998 0.86000001
13.615 -4.6560001 0.861
13.783 -4.6620002 0.87099999
13.639 -4.5619998 0.86199999
13.64 -4.5120001 0.86199999
13.703 -4.4819999 0.86500001
13.742 -4.4450002 0.86799997
13.779 -4.4070001 0.87
13.807 -4.3670001 0.87099999
13.873 -4.3379998 0.875
13.951 -4.3119998 0.88
13.944 -4.2119999 0.87900001
13.96 -4.1680002 0.87900001
14.047 -4.1459999 0.884
14.049 -4.098 0.884
10.47 -2.9130001 0.65799999
10.386 -2.855 0.653
10.403 -2.825 0.65399998
10.459 -2.806 0.65700001
10.61 -2.812 0.66600001
10.804 -2.8280001 0.67799997
12.961 -0.41999999 0.80599999
12.858 -0.39500001 0.80000001
12.747 -0.37 0.79299998
12.702 -0.347 0.79000002
12.664 -0.32499999 0.78799999
12.65 -0.303 0.787
12.647 -0.28299999 0.787
12.633 -0.26199999 0.78600001
12.642 -0.241 0.787
12.624 -0.221 0.78600001
12.628 -0.20100001 0.78600001
12.634 -0.18099999 0.787
12.646 -0.161 0.787
12.649 -0.142 0.78799999
12.677 -0.123 0.79000002
12.71 -0.104 0.792
12.812 -0.085000001 0.79799998
12.708 0.185 0.72299999
12.715 0.208 0.72299999
12.742 0.23100001 0.72399998
12.735 0.25400001 0.72399998
12.736 0.278 0.72399998
12.753 0.30199999 0.72399998
12.752 0.32499999 0.72399998
12.754 0.34999999 0.72399998
12.775 0.375 0.72500002
12.789 0.40000001 0.72600001
12.786 0.42500001 0.72600001
12.787 0.44999999 0.72500002
12.798 0.47600001 0.72600001
12.81 0.50300002 0.72600001
12.824 0.52899998 0.727
12.825 0.55599999 0.727
12.837 0.583 0.72799999
12.835 0.61000001 0.72799999
12.876 0.639 0.73000002
12.9 0.66799998 0.73100001
12.911 0.69700003 0.73199999
12.916 0.72500002 0.73199999
12.923 0.75400001 0.73199999
12.903 0.78100002 0.73100001
12.878 0.80900002 0.73000002
12.849 0.83600003 0.72799999
12.824 0.86299998 0.72600001
12.792 0.88999999 0.72500002
12.741 0.91600001 0.722
12.719 0.94400001 0.72100002
12.71 0.97299999 0.72000003
12.717 1.0039999 0.72000003
12.736 1.036 0.722
12.75 1.067 0.722
12.788 1.101 0.72500002
12.814 1.135 0.72600001
12.848 1.169 0.72799999
12.878 1.204 0.73000002
12.886 1.2359999 0.73000002
12.897 1.27 0.73100001
21.384001 2.105 1.212
12.934 1.306 0.73299998
21.377001 2.158 1.212
12.95 1.34 0.73400003
21.356001 2.21 1.211
12.966 1.375 0.73500001
12.966 1.408 0.73500001
21.427999 2.3269999 1.216
12.986 1.444 0.73699999
21.406 2.3800001 1.215
13.003 1.479 0.73799998
21.427 2.438 1.216
13.163 1.5319999 0.74699998
21.493 2.5020001 1.22
21.712999 2.5840001 1.233
21.606001 2.628 1.227
21.624001 2.688 1.228
21.785 2.766 1.238
21.886 2.8380001 1.244
21.879 2.8959999 1.243
21.868 2.954 1.243
21.833 3.0090001 1.2410001
21.856001 3.072 1.243
21.832001 3.1289999 1.242
21.844 3.191 1.243
22.087 3.2880001 1.257
22.125999 3.3559999 1.26
22.171 3.425 1.263
22.231001 3.497 1.267
22.316 3.5739999 1.272
22.368999 3.6459999 1.276
22.388 3.714 1.277
22.419001 3.7839999 1.279
22.291 3.826 1.272
22.261 3.8859999 1.271
22.245001 3.948 1.271
22.23 4.0110002 1.27
22.257999 4.0809999 1.273
22.360001 4.1659999 1.279
22.457001 4.2509999 1.285
22.535999 4.3330002 1.29
22.533001 4.4000001 1.29
22.542 4.4699998 1.2920001
22.573 4.5440001 1.294
22.618 4.6220002 1.2970001
22.679001 4.704 1.301
19.745001 5.152 1.1440001
19.643 5.1890001 1.138
19.655001 5.256 1.14
19.596001 5.3039999 1.137
18.075001 5.1900001 1.052
18.044001 5.2410002 1.051
17.635 5.4770002 1.0319999
17.431999 5.473 1.021
17.372 5.513 1.018
17.283001 5.5430002 1.0140001
17.323999 5.6160002 1.017
17.41 5.7030001 1.023
17.27 5.717 1.016
17.250999 5.7690001 1.015
17.268999 5.835 1.017
8.6110001 3.484 0.51599997
8.4280005 3.4400001 0.505
8.349 3.437 0.50099999
8.2840004 3.4400001 0.49700001
8.2340002 3.4489999 0.495
8.21 3.4690001 0.49399999
8.191 3.49 0.493
8.1639996 3.5079999 0.49200001
8.1090002 3.5139999 0.48899999
8.0679998 3.5250001 0.48699999
8.0270004 3.536 0.48500001
8.0030003 3.5539999 0.484
8.0030003 3.5829999 0.48500001
8.0279999 3.6240001 0.48699999
8.0690002 3.671 0.49000001
8.0839996 3.7079999 0.491
8.1309996 3.7590001 0.495
8.1709995 3.8069999 0.498
8.2469997 3.872 0.50300002
8.3760004 3.9630001 0.51099998
11.177 6.552 0.708
11.116 6.5560002 0.70499998
11.08 6.5749998 0.704
11.045 6.5929999 0.70200002
11.022 6.619 0.70200002
11.006 6.6490002 0.70200002
10.975 6.6690001 0.70099998
10.952 6.6950002 0.69999999
10.967 6.743 0.70200002
10.953 6.7729998 0.70200002
10.997 6.8390002 0.70599997
12.038 -6.3870001 0.80599999
12.09 -6.3790002 0.80900002
12.004 -6.2639999 0.80299997
11.989 -6.2210002 0.80199999
12.049 -6.217 0.80599999
12.02 -6.1659999 0.80400002
12.019 -6.131 0.80400002
12.087 -6.1300001 0.80800003
12.103 -6.1020002 0.80900002
12.145 -6.0879998 0.81199998
12.174 -6.0669999 0.81400001
12.181 -6.0349998 0.81400001
12.195 -6.006 0.815
12.217 -5.98 0.81599998
12.213 -5.9429998 0.81599998
12.199 -5.9000001 0.815
12.268 -5.8969998 0.81900001
12.305 -5.8790002 0.82200003
12.344 -5.8610001 0.824
12.386 -5.8449998 0.82700002
12.359 -5.796 0.82499999
12.385 -5.7719998 0.82700002
12.414 -5.7490001 0.82800001
12.433 -5.7210002 0.82999998
12.457 -5.6950002 0.83099997
12.481 -5.6690001 0.83200002
12.504 -5.6430001 0.83399999
12.579 -5.6399999 0.83899999
12.588 -5.6069999 0.83899999
12.595 -5.573 0.83999997
12.658 -5.5640001 0.84399998
12.713 -5.5500002 0.847
12.721 -5.5170002 0.84799999
12.733 -5.4840002 0.84799999
12.781 -5.467 0.85100001
12.775 -5.427 0.85100001
12.903 -5.4439998 0.85900003
12.888 -5.3990002 0.85799998
12.893 -5.3639998 0.85799998
13.001 -5.3319998 0.86500001
13.019 -5.3010001 0.866
12.974 -5.2449999 0.86299998
13.024 -5.2270002 0.866
13.647 -5.0760002 0.90600002
13.633 -5.0310001 0.90499997
13.662 -5.0019999 0.90700001
13.691 -4.9720001 0.90899998
13.682 -4.9289999 0.90799999
13.686 -4.8899999 0.90799999
13.674 -4.8449998 0.90700001
13.709 -4.8179998 0.90899998
13.74 -4.789 0.91100001
13.775 -4.7600002 0.91299999
13.816 -4.7340002 0.91600001
13.811 -4.6919999 0.91500002
13.844 -4.6620002 0.917
13.86 -4.6269999 0.91799998
13.997 -4.632 0.92699999
14.057 -4.6110001 0.93099999
14.063 -4.5310001 0.93099999
13.988 -4.4650002 0.926
13.994 -4.4260001 0.926
14.019 -4.3930001 0.92799997
14.013 -4.3509998 0.92699999
14.062 -4.3249998 0.93000001
14.246 -4.2150002 0.94199997
14.375 -4.211 0.94999999
14.452 -4.1490002 0.95499998
14.474 -4.1129999 0.95599997
10.831 -2.983 0.71499997
10.463 -2.8510001 0.69099998
10.41 -2.8069999 0.68699998
10.399 -2.7739999 0.68599999
10.409 -2.7460001 0.68699998
10.476 -2.733 0.69099998
10.675 -2.7539999 0.704
12.964 -0.54000002 0.84100002
12.822 -0.49700001 0.83200002
12.712 -0.456 0.824
12.672 -0.41800001 0.82200003
12.643 -0.38100001 0.81999999
12.638 -0.345 0.81900001
12.626 -0.308 0.81800002
12.622 -0.27200001 0.81800002
12.635 -0.236 0.81800002
12.649 -0.2 0.81900001
12.662 -0.164 0.81999999
12.702 -0.12800001 0.82200003
12.819 -0.092 0.829
13.037 0.132 0.76899999
13.022 0.14399999 0.76800001
13.003 0.155 0.76599997
13.016 0.168 0.76700002
12.995 0.18000001 0.76499999
13.016 0.193 0.76599997
13.015 0.207 0.76599997
12.996 0.22 0.764
12.993 0.234 0.764
12.965 0.248 0.76200002
12.967 0.26199999 0.76099998
12.944 0.27700001 0.75999999
12.961 0.292 0.76099998
12.953 0.308 0.75999999
12.952 0.32300001 0.759
12.957 0.34 0.759
12.938 0.35600001 0.75800002
12.945 0.373 0.75800002
12.922 0.389 0.75700003
12.959 0.40700001 0.759
12.949 0.42500001 0.75800002
12.96 0.44299999 0.75800002
12.982 0.46200001 0.759
13.005 0.48199999 0.76099998
12.986 0.5 0.759
12.989 0.51999998 0.759
12.982 0.53899997 0.759
12.971 0.55800003 0.75800002
12.985 0.579 0.759
13 0.60000002 0.759
13.02 0.62199998 0.75999999
13.01 0.64300001 0.75999999
13.014 0.66399997 0.75999999
12.989 0.685 0.75800002
12.983 0.70599997 0.75800002
12.97 0.72799999 0.75700003
12.947 0.74900001 0.75599998
12.948 0.77200001 0.75599998
12.947 0.79500002 0.75599998
12.937 0.81800002 0.755
12.913 0.83999997 0.75400001
12.892 0.86199999 0.75199997
12.872 0.88499999 0.75099999
12.853 0.90799999 0.75
12.862 0.93300003 0.75099999
12.881 0.95899999 0.75199997
12.877 0.98400003 0.75199997
12.877 1.0089999 0.75199997
12.881 1.035 0.75199997
12.883 1.061 0.75199997
12.884 1.087 0.75199997
12.895 1.115 0.75300002
12.927 1.1440001 0.755
12.932 1.1720001 0.755
12.892 1.1950001 0.75300002
12.926 1.226 0.755
12.95 1.256 0.75700003
22.382 2.171 1.308
12.989 1.288 0.759
22.222 2.204 1.299
12.993 1.317 0.759
22.025999 2.233 1.288
12.981 1.344 0.759
21.9 2.2679999 1.28
13.01 1.376 0.76099998
21.91 2.3180001 1.281
13.069 1.4119999 0.764
21.943001 2.3710001 1.284
13.123 1.448 0.76800001
22.028999 2.4300001 1.289
22.051001 2.483 1.29
22.066999 2.536 1.2920001
22.096001 2.5910001 1.294
22.15 2.6489999 1.2970001
22.198 2.707 1.3
22.191 2.7590001 1.3
22.197001 2.813 1.301
22.138 2.859 1.298
22.136999 2.9130001 1.298
22.063999 2.957 1.295
22.066 3.0120001 1.295
22.075001 3.0680001 1.296
22.145 3.1340001 1.301
22.228001 3.2019999 1.306
22.233 3.2590001 1.307
22.222 3.3139999 1.307
22.233 3.3729999 1.308
22.309999 3.4430001 1.313
22.372999 3.5109999 1.317
22.426001 3.579 1.321
22.601999 3.6670001 1.332
22.669001 3.7379999 1.337
22.711 3.806 1.34
22.667999 3.8599999 1.3380001
22.472 3.888 1.327
22.399 3.9360001 1.323
22.365 3.9920001 1.322
22.339001 4.0489998 1.321
22.368999 4.1170001 1.324
22.482 4.2010002 1.331
22.652 4.2969999 1.342
22.552999 4.342 1.337
22.558001 4.408 1.3380001
22.622 4.4850001 1.342
22.593 4.5450001 1.341
22.642 4.6199999 1.345
22.700001 4.698 1.35
17.488001 5.5250001 1.068
17.384001 5.553 1.063
17.353001 5.6040001 1.062
17.360001 5.6669998 1.064
17.527 5.783 1.075
17.347 5.7849998 1.0650001
17.197001 5.796 1.057
17.205 5.8600001 1.059
8.4399996 3.4070001 0.52899998
8.3509998 3.404 0.52399999
8.2910004 3.411 0.52100003
8.2539997 3.428 0.51899999
8.2340002 3.4519999 0.51899999
8.2510004 3.4909999 0.51999998
8.1949997 3.5 0.51800001
8.1149998 3.497 0.51300001
8.0559998 3.5039999 0.50999999
8.0170002 3.5190001 0.50800002
8.0109997 3.5480001 0.509
8.0290003 3.5880001 0.50999999
8.0740004 3.641 0.514
8.0970001 3.684 0.51599997
8.1549997 3.743 0.52100003
8.2220001 3.8080001 0.52499998
8.3319998 3.892 0.53299999
11.35 6.2659998 0.74800003
11.256 6.263 0.74299997
11.216 6.2909999 0.74199998
11.182 6.3210001 0.74000001
11.156 6.3569999 0.74000001
11.149 6.4029999 0.741
11.156 6.4569998 0.74199998
11.166 6.5120001 0.74400002
10.929 -7.1750002 0.76899999
10.997 -7.151 0.773
11.044 -7.1139998 0.77600002
11.087 -7.073 0.778
11.143 -7.0409999 0.78100002
11.152 -6.98 0.78100002
11.195 -6.9400001 0.78399998
11.265 -6.9169998 0.78799999
11.304 -6.875 0.79000002
11.315 -6.816 0.79000002
11.357 -6.776 0.79299998
11.384 -6.7270002 0.79400003
11.45 -6.7010002 0.79799998
11.49 -6.6599998 0.80000001
11.493 -6.598 0.80000001
11.575 -6.5809999 0.80500001
11.62 -6.5440001 0.80699998
11.696 -6.5229998 0.81199998
11.755 -6.493 0.81599998
11.778 -6.4429998 0.81699997
11.77 -6.3769999 0.81599998
11.803 -6.3330002 0.81699997
11.869 -6.3060002 0.82099998
11.864 -6.243 0.81999999
11.89 -6.1950002 0.82200003
11.953 -6.1680002 0.82599998
11.994 -6.1290002 0.82800001
12.021 -6.0819998 0.829
12.08 -6.053 0.833
12.087 -5.9970002 0.833
12.137 -5.9629998 0.83600003
12.185 -5.928 0.838
12.232 -5.8920002 0.84100002
12.231 -5.8330002 0.84100002
12.293 -5.8039999 0.84399998
12.358 -5.7779999 0.84799999
12.405 -5.7420001 0.85100001
12.396 -5.6810002 0.85000002
12.47 -5.658 0.85500002
12.506 -5.6170001 0.85699999
12.571 -5.5890002 0.861
12.57 -5.533 0.86000001
12.652 -5.513 0.86500001
12.704 -5.4790001 0.86799997
12.762 -5.448 0.87199998
12.842 -5.427 0.87699997
12.896 -5.3940001 0.88
13.034 -5.3959999 0.889
13.672 -5.098 0.92900002
13.701 -5.0539999 0.93000001
13.761 -5.0219998 0.93400002
13.739 -4.96 0.93199998
13.753 -4.9120002 0.93199998
13.772 -4.8660002 0.93300003
13.752 -4.8060002 0.93199998
13.794 -4.7690001 0.93400002
13.846 -4.7350001 0.93699998
13.891 -4.698 0.94
13.932 -4.6599998 0.94199997
14.15 -4.6799998 0.95700002
14.561 -4.348 0.98199999
14.542 -4.2919998 0.98000002
14.635 -4.2690001 0.986
14.665 -4.2280002 0.98799998
10.775 -3.033 0.72500002
10.471 -2.9130001 0.704
10.389 -2.855 0.699
10.378 -2.8180001 0.69800001
10.417 -2.7950001 0.69999999
10.616 -2.813 0.713
12.998 -0.421 0.86500001
12.969 -0.398 0.86299998
12.854 -0.373 0.85500002
12.771 -0.34900001 0.85000002
12.721 -0.32600001 0.847
12.7 -0.30500001 0.84500003
12.701 -0.28400001 0.84500003
12.671 -0.26199999 0.84399998
12.686 -0.242 0.84500003
12.686 -0.222 0.84500003
12.702 -0.20200001 0.84600002
12.73 -0.182 0.84799999
12.754 -0.163 0.84899998
12.801 -0.14399999 0.85299999
12.822 -0.124 0.85399997
12.903 -0.105 0.86000001
12.875 0.19 0.79299998
12.892 0.213 0.79400003
12.891 0.236 0.79400003
12.903 0.259 0.79400003
12.906 0.28299999 0.79400003
12.916 0.30700001 0.79500002
12.932 0.33199999 0.79500002
12.939 0.35699999 0.796
12.948 0.382 0.796
12.945 0.40700001 0.796
12.971 0.433 0.79699999
12.977 0.45899999 0.79699999
12.999 0.486 0.79900002
12.992 0.51099998 0.79799998
12.991 0.53799999 0.79799998
13.02 0.56599998 0.80000001
13.049 0.59399998 0.801
13.017 0.62 0.79900002
13.034 0.64899999 0.80000001
13.038 0.67699999 0.80000001
13.031 0.70499998 0.80000001
13.017 0.73199999 0.79900002
12.998 0.75999999 0.79799998
12.984 0.78799999 0.79699999
12.985 0.81699997 0.79699999
12.984 0.84600002 0.79699999
12.956 0.87300003 0.79500002
12.937 0.90200001 0.79400003
12.908 0.92900002 0.792
12.886 0.958 0.79100001
12.921 0.991 0.79299998
12.962 1.024 0.796
12.931 1.053 0.79400003
12.937 1.084 0.79400003
12.93 1.115 0.79400003
12.945 1.148 0.79500002
12.976 1.182 0.79699999
12.964 1.2130001 0.796
12.949 1.243 0.79500002
12.963 1.277 0.796
22.257 2.1930001 1.368
13.038 1.317 0.801
22.215 2.2449999 1.365
13.074 1.354 0.80299997
22.174999 2.2969999 1.363
13.049 1.385 0.80199999
22.084 2.3440001 1.358
13.082 1.4220001 0.80400002
22.047001 2.3959999 1.3559999
22.02 2.45 1.354
22.056 2.5109999 1.357
22.132 2.5780001 1.362
22.114 2.6329999 1.3609999
22.357 2.721 1.376
22.379999 2.7839999 1.378
22.326 2.836 1.375
22.274 2.8900001 1.372
22.240999 2.9449999 1.37
22.208 3.0009999 1.369
22.163 3.056 1.3660001
22.152 3.115 1.3660001
22.179001 3.1800001 1.368
22.212999 3.2460001 1.37
22.247999 3.313 1.373
22.282 3.381 1.376
22.329 3.451 1.3789999
22.358999 3.5190001 1.381
22.423 3.592 1.386
22.649 3.6930001 1.4
22.781 3.78 1.409
22.791 3.8469999 1.41
22.778 3.911 1.41
22.584999 3.944 1.399
22.447001 3.9849999 1.391
22.416 4.0450001 1.3890001
22.424999 4.1129999 1.39
22.476999 4.1890001 1.3940001
22.653 4.289 1.406
22.591 4.3449998 1.403
22.622 4.4190001 1.405
22.642 4.4910002 1.4069999
22.700001 4.5710001 1.411
22.771999 4.6539998 1.4170001
19.556999 4.665 1.224
19.646 4.7480001 1.23
17.297001 5.7849998 1.105
17.233 5.823 1.102
17.406 5.941 1.114
8.5170002 3.4159999 0.55400002
8.3900003 3.3940001 0.546
8.3299999 3.4000001 0.542
8.2989998 3.4170001 0.54100001
8.2840004 3.4400001 0.54000002
8.3369999 3.4920001 0.54500002
8.3719997 3.5369999 0.54699999
8.316 3.543 0.54400003
8.1969995 3.5220001 0.537
8.1199999 3.5179999 0.53299999
8.0410004 3.513 0.528
7.9920001 3.5209999 0.52499998
7.9759998 3.543 0.52499998
7.9850001 3.575 0.52600002
8.0039997 3.6129999 0.528
8.0469999 3.6619999 0.53100002
8.0939999 3.7119999 0.53500003
8.1370001 3.7609999 0.53799999
8.1929998 3.8169999 0.54299998
8.2810001 3.8889999 0.54900002
12.425 -6.6339998 0.889
12.358 -6.5619998 0.884
12.416 -6.5570002 0.88800001
12.439 -6.5320001 0.889
12.64 -6.415 0.903
12.596 -6.3559999 0.89999998
12.706 -6.336 0.90700001
12.729 -6.3099999 0.90899998
12.773 -6.2950001 0.912
12.788 -6.2639999 0.91299999
12.796 -6.23 0.91299999
12.851 -6.2199998 0.917
13.862 -5.6479998 0.98500001
13.87 -5.6100001 0.98500001
13.859 -5.5240002 0.98400003
13.912 -5.5040002 0.98799998
13.804 -5.421 0.98000002
13.825 -5.3889999 0.98100001
13.884 -5.3709998 0.98500001
13.852 -5.3179998 0.98299998
13.849 -5.276 0.98299998
13.908 -5.257 0.98699999
13.88 -5.2059999 0.98400003
13.861 -5.158 0.98299998
13.861 -5.118 0.98299998
13.865 -5.0780001 0.98299998
13.887 -5.046 0.98400003
13.92 -5.0170002 0.986
13.921 -4.9759998 0.986
13.945 -4.9439998 0.98799998
13.95 -4.9050002 0.98799998
13.959 -4.8670001 0.98900002
13.961 -4.8270001 0.98799998
14.09 -4.8299999 0.99699998
14.082 -4.7859998 0.99699998
14.217 -4.79 1.006
14.366 -4.7979999 1.016
10.66 -2.9679999 0.75099999
10.565 -2.911 0.745
10.455 -2.8499999 0.73699999
10.401 -2.8050001 0.73299998
10.391 -2.7720001 0.73199999
10.416 -2.7479999 0.73299998
10.451 -2.727 0.736
10.723 -2.767 0.755
13.015 -0.54000002 0.90100002
12.96 -0.50099999 0.89700001
12.866 -0.46000001 0.88999999
12.781 -0.41999999 0.884
12.746 -0.382 0.88099998
12.753 -0.34599999 0.88200003
12.776 -0.31 0.88300002
12.785 -0.27399999 0.88300002
12.826 -0.23800001 0.88599998
12.951 -0.20299999 0.89499998
12.985 -0.16599999 0.89700001
13.25 0.88800001 0.83600003
13.233 0.91100001 0.83399999
13.192 0.93300003 0.83200002
13.197 0.958 0.83200002
13.181 0.98299998 0.83099997
22.436001 2.0829999 1.4170001
22.33 2.1199999 1.41
22.35 2.1700001 1.4119999
22.344 2.2179999 1.4119999
22.336 2.266 1.411
22.353001 2.3169999 1.413
22.382999 2.3699999 1.415
22.450001 2.428 1.42
23.058001 2.546 1.4579999
22.955 2.5869999 1.452
22.778 2.619 1.441
22.735001 2.6670001 1.439
22.684 2.7149999 1.436
22.667 2.766 1.436
22.631001 2.8150001 1.434
22.488001 2.8510001 1.425
22.417 2.8970001 1.421
22.337 2.941 1.4170001
22.297001 2.99 1.415
22.292 3.0450001 1.415
22.268 3.0969999 1.414
22.325001 3.161 1.418
22.362 3.2219999 1.421
22.388 3.283 1.423
22.462999 3.352 1.428
22.558001 3.424 1.4349999
22.540001 3.48 1.4349999
22.822001 3.5829999 1.4529999
23.073 3.6830001 1.47
23.072001 3.744 1.471
23.16 3.8199999 1.477
22.740999 3.9979999 1.4529999
22.683001 4.0500002 1.45
22.648001 4.1059999 1.449
22.788 4.1950002 1.4579999
22.834999 4.2680001 1.462
22.797001 4.3249998 1.461
22.756001 4.382 1.459
22.761 4.448 1.46
22.881001 4.5370002 1.469
19.478001 4.619 1.262
19.400999 4.6609998 1.257
19.497 4.7449999 1.265
8.4829998 3.392 0.57499999
8.3800001 3.3829999 0.56900001
8.3290005 3.395 0.56599998
8.3120003 3.4200001 0.56599998
8.3780003 3.48 0.57099998
8.3360004 3.527 0.56999999
8.2060003 3.5039999 0.56199998
8.1099997 3.4949999 0.55599999
8.026 3.4909999 0.551
7.9770002 3.5009999 0.54799998
7.9780002 3.533 0.54900002
7.9910002 3.5710001 0.55000001
8.0279999 3.6199999 0.55400002
8.0780001 3.675 0.55800003
8.1339998 3.734 0.56300002
8.2010002 3.7980001 0.56800002
8.2860003 3.8710001 0.57499999
11.399 -7.4829998 0.85500002
11.444 -7.441 0.85799998
11.501 -7.4070001 0.861
11.552 -7.369 0.86400002
11.599 -7.3280001 0.86699998
11.629 -7.277 0.86900002
11.694 -7.2490001 0.87300003
11.763 -7.2220001 0.87699997
11.807 -7.1789999 0.88
11.838 -7.1300001 0.88099998
11.885 -7.0900002 0.884
11.886 -7.0229998 0.884
11.932 -6.9819999 0.88599998
11.982 -6.9439998 0.889
12.047 -6.915 0.89399999
12.085 -6.8699999 0.89600003
12.111 -6.8189998 0.89700001
12.21 -6.809 0.90399998
12.23 -6.7540002 0.90499997
12.221 -6.684 0.903
12.279 -6.651 0.90700001
12.269 -6.5819998 0.90600002
12.292 -6.5300002 0.90700001
12.369 -6.5079999 0.912
12.445 -6.4840002 0.917
12.458 -6.428 0.917
12.512 -6.3920002 0.921
12.573 -6.3610001 0.92400002
12.597 -6.3109999 0.926
12.646 -6.2740002 0.92900002
12.679 -6.2280002 0.93000001
12.723 -6.1890001 0.93300003
12.829 -6.178 0.94
12.949 -6.1750002 0.949
13.094 -6.1820002 0.95899999
13.203 -6.1719999 0.96600002
13.962 -5.4879999 1.013
13.929 -5.4169998 1.01
13.967 -5.375 1.012
13.969 -5.3189998 1.012
14.019 -5.2820001 1.015
14.031 -5.2309999 1.016
14.026 -5.1739998 1.015
14.047 -5.1259999 1.016
14.082 -5.0840001 1.018
14.06 -5.0219998 1.016
14.255 -4.9819999 1.029
14.217 -4.915 1.026
10.65 -3.0339999 0.764
10.545 -2.9690001 0.75599998
10.47 -2.9119999 0.75099999
10.372 -2.8510001 0.74299997
10.371 -2.816 0.74299997
10.412 -2.793 0.74599999
10.531 -2.7909999 0.75400001
13.008 -0.35499999 0.92199999
12.973 -0.333 0.92000002
12.95 -0.31099999 0.91799998
12.942 -0.289 0.917
12.9 -0.26699999 0.91500002
12.913 -0.24699999 0.91600001
12.95 -0.226 0.91799998
13.127 -0.20900001 0.93099999
13.103 -0.18799999 0.92900002
13.027 -0.16599999 0.92400002
13.211 0.89200002 0.87300003
13.223 0.92299998 0.87400001
13.26 0.95599997 0.87599999
13.198 0.98199999 0.87199998
13.232 1.0470001 0.875
13.179 1.074 0.87099999
13.231 1.11 0.875
22.466 2.1040001 1.4859999
22.344 2.148 1.479
22.344999 2.204 1.479
22.384001 2.2639999 1.482
22.370001 2.319 1.4809999
22.423 2.382 1.485
22.434999 2.4400001 1.4859999
23.059999 2.5669999 1.528
23.089001 2.631 1.53
23.040001 2.6849999 1.527
22.822001 2.7190001 1.513
22.781 2.7750001 1.511
22.747999 2.8310001 1.5089999
22.754999 2.892 1.51
22.542999 2.9260001 1.4960001
22.408001 2.9690001 1.487
22.358 3.023 1.484
22.322001 3.079 1.483
22.306 3.138 1.482
22.339001 3.204 1.485
22.407 3.276 1.49
22.431 3.342 1.492
22.580999 3.427 1.502
22.693001 3.5079999 1.51
23.006001 4.3569999 1.539
22.937 4.4130001 1.535
23.381001 4.7090001 1.567
23.285 4.7600002 1.561
23.377001 4.8499999 1.568
19.492001 4.5879998 1.314
19.379 4.6230001 1.308
19.431999 4.697 1.312
8.6359997 3.494 0.60600001
8.4910002 3.4660001 0.597
8.4130001 3.464 0.59200001
8.4280005 3.5 0.59399998
8.3050003 3.539 0.58700001
8.2030001 3.5250001 0.57999998
8.1610003 3.536 0.57800001
8.0530005 3.5179999 0.57099998
7.9949999 3.5220001 0.56699997
7.9699998 3.54 0.56599998
7.9590001 3.5639999 0.56599998
7.9759998 3.5999999 0.56800002
7.993 3.6370001 0.56999999
8.0410004 3.688 0.574
8.0769997 3.734 0.57700002
8.1520004 3.7980001 0.583
8.2279997 3.8640001 0.58899999
8.4460001 3.997 0.60500002
13.377 -6.4390001 1.015
13.365 -6.3940001 1.0140001
13.366 -6.355 1.0140001
13.389 -6.3260002 1.016
13.489 -6.3340001 1.023
13.55 -6.322 1.027
13.595 -6.303 1.031
13.73 -6.3249998 1.041
14.148 -6.0170002 1.0700001
14.11 -5.96 1.067
14.136 -5.8460002 1.069
14.217 -5.8369999 1.075
14.272 -5.8179998 1.079
14.235 -5.7610002 1.076
14.235 -5.7189999 1.075
14.256 -5.6849999 1.077
14.28 -5.6529999 1.079
14.393 -5.6550002 1.087
14.362 -5.6009998 1.084
14.383 -5.566 1.086
10.609 -3.017 0.79500002
10.539 -2.9660001 0.79000002
10.511 -2.927 0.78799999
10.464 -2.8840001 0.78399998
10.383 -2.8310001 0.778
10.356 -2.7939999 0.77600002
10.378 -2.7690001 0.77700001
10.389 -2.7420001 0.778
10.463 -2.7309999 0.78299999
13.082 -0.391 0.96100003
13.098 -0.354 0.96200001
13.057 -0.315 0.95899999
13.292 0.81900001 0.90100002
13.276 0.84200001 0.89999998
13.266 0.866 0.89899999
13.215 0.88700002 0.89499998
13.2 0.91000003 0.89399999
13.162 0.93199998 0.89200002
13.213 0.96100003 0.89499998
13.192 0.98500001 0.89399999
13.124 1.005 0.889
13.082 1.028 0.88700002
13.111 1.056 0.889
13.142 1.085 0.89099997
13.19 1.1160001 0.89399999
13.229 1.146 0.89700001
13.21 1.312 0.89700001
13.157 1.336 0.89300001
23.263 3.4719999 1.59
23.235001 3.5280001 1.589
23.171 3.579 1.586
23.191 3.642 1.5880001
23.194 3.704 1.589
23.177 3.763 1.5880001
23.183001 3.825 1.59
23.176001 3.8859999 1.59
23.163 3.947 1.59
23.158001 4.0089998 1.59
23.145 4.0700002 1.59
23.138 4.1329999 1.591
23.128 4.1950002 1.591
23.164 4.2659998 1.594
23.329 4.6269999 1.6109999
23.351999 4.6989999 1.613
23.254999 4.7470002 1.608
23.212999 4.8060002 1.6059999
23.235001 4.8790002 1.608
19.448 4.6729999 1.3559999
19.476999 4.7410002 1.359
8.3109999 3.517 0.61199999
8.2089996 3.506 0.60500002
8.1479998 3.5120001 0.60100001
8.059 3.5050001 0.59500003
7.993 3.5090001 0.59100002
7.9759998 3.533 0.59100002
7.9889998 3.5710001 0.59299999
8.007 3.6110001 0.59500003
8.0430002 3.6589999 0.59799999
8.099 3.7179999 0.60299999
8.1739998 3.7850001 0.61000001
8.2720003 3.865 0.61799997
11.896 -7.8070002 0.94800001
11.923 -7.7509999 0.949
11.987 -7.7179999 0.95300001
12.069 -7.698 0.95899999
12.098 -7.6420002 0.95999998
12.189 -7.6259999 0.96700001
12.191 -7.5549998 0.96600002
12.205 -7.4920001 0.96700001
12.206 -7.421 0.96600002
12.201 -7.3470001 0.96499997
12.246 -7.3039999 0.96799999
12.271 -7.2490001 0.96899998
12.288 -7.1890001 0.96899998
12.287 -7.1199999 0.96899998
12.319 -7.0700002 0.97000003
12.341 -7.0149999 0.97100002
12.353 -6.954 0.972
12.41 -6.9190001 0.97500002
12.45 -6.875 0.97799999
12.472 -6.8210001 0.97899997
12.55 -6.7969999 0.98400003
13.149 -6.8499999 1.029
13.107 -6.7620001 1.025
13.23 -6.7589998 1.034
13.27 -6.7129998 1.036
13.244 -6.6350002 1.033
13.29 -6.592 1.036
13.321 -6.5430002 1.038
13.376 -6.5050001 1.0420001
13.284 -6.3969998 1.034
13.287 -6.335 1.034
13.365 -6.3099999 1.039
13.408 -6.2670002 1.0420001
13.514 -6.2540002 1.049
13.603 -6.2319999 1.056
13.729 -6.2270002 1.0650001
13.887 -6.2360001 1.077
13.942 -6.198 1.08
14.069 -6.191 1.089
14.116 -6.1500001 1.0930001
14.114 -6.086 1.092
14.128 -6.0310001 1.092
14.2 -6 1.097
14.139 -5.9130001 1.092
14.146 -5.8559999 1.092
14.236 -5.8319998 1.098
14.296 -5.7969999 1.103
14.403 -5.7800002 1.11
14.265 -5.665 1.099
14.465 -5.6849999 1.114
14.433 -5.5539999 1.11
14.458 -5.5050001 1.112
14.502 -5.4640002 1.115
14.543 -5.4219999 1.118
14.604 -5.3870001 1.122
14.626 -5.3369999 1.123
14.847 -5.1880002 1.138
14.768 -5.105 1.131
14.848 -5.0770001 1.137
10.566 -3.046 0.80500001
10.5 -2.9909999 0.79900002
10.472 -2.948 0.79699999
10.402 -2.8940001 0.792
10.349 -2.8440001 0.787
10.365 -2.8139999 0.78799999
10.386 -2.786 0.79000002
10.505 -2.7839999 0.79799998
13.026 0.19599999 0.92500001
13.049 0.219 0.926
13.03 0.242 0.92500001
13.051 0.266 0.926
13.044 0.28999999 0.92500001
13.092 0.315 0.92799997
13.083 0.33899999 0.92799997
13.091 0.36399999 0.92799997
13.073 0.389 0.92699999
13.044 0.41299999 0.92400002
13.074 0.44 0.926
13.09 0.46599999 0.92699999
13.069 0.491 0.926
13.079 0.51800001 0.926
13.172 0.54900002 0.93300003
13.12 0.574 0.92900002
13.094 0.60000002 0.92699999
13.147 0.63 0.93099999
13.172 0.65899998 0.93300003
13.112 0.68400002 0.92799997
13.131 0.713 0.93000001
13.18 0.74400002 0.93300003
13.115 0.76899999 0.92900002
13.167 0.801 0.93199998
13.134 0.829 0.93000001
13.147 0.85900003 0.93099999
13.127 0.88800001 0.92900002
13.119 0.917 0.92900002
13.08 0.94400001 0.926
13.063 0.97399998 0.92500001
13.066 1.0039999 0.92500001
13.035 1.033 0.92299998
12.996 1.0599999 0.921
13.005 1.092 0.921
13.059 1.128 0.92500001
13.074 1.161 0.926
13.095 1.1950001 0.92799997
13.183 1.2359999 0.93400002
13.191 1.2690001 0.935
13.152 1.298 0.93199998
13.142 1.33 0.93199998
13.131 1.362 0.93099999
13.086 1.391 0.92799997
13.231 1.4400001 0.93900001
23.224001 3.016 1.652
23.231001 3.0799999 1.653
23.202 3.1389999 1.651
23.174 3.198 1.65
23.153 3.2590001 1.649
23.125999 3.3180001 1.647
23.212 3.395 1.654
23.118 3.51 1.648
23.098 3.572 1.648
23.072001 3.6329999 1.646
23.086 3.701 1.648
23.080999 3.766 1.648
23.082001 3.8329999 1.649
23.073 3.8970001 1.649
23.082001 3.9660001 1.651
23.066999 4.0300002 1.65
23.08 4.0999999 1.652
23.073999 4.1659999 1.652
23.096001 4.2379999 1.655
23.167999 4.3200002 1.66
23.334 4.6300001 1.676
23.356001 4.7049999 1.678
23.250999 4.7540002 1.6720001
23.239 4.822 1.6720001
8.2349997 3.5090001 0.625
8.1689997 3.5109999 0.62
8.1339998 3.5250001 0.61799997
8.0469999 3.516 0.61199999
7.9959998 3.523 0.60900003
7.9679999 3.539 0.60799998
7.9790001 3.573 0.60900003
7.98 3.602 0.61000001
8.0010004 3.641 0.61199999
8.0389996 3.687 0.616
8.0950003 3.743 0.62099999
8.1660004 3.8050001 0.62699997
8.2629995 3.8800001 0.63499999
14.242 -6.5229998 1.1440001
14.173 -6.4499998 1.138
14.199 -6.4200001 1.14
14.258 -6.4039998 1.145
14.299 -6.381 1.148
14.356 -6.3639998 1.152
14.459 -6.1529999 1.159
14.482 -6.1199999 1.161
14.485 -6.079 1.161
14.513 -6.0479999 1.163
14.543 -6.0170002 1.165
14.529 -5.9689999 1.164
14.588 -5.9499998 1.168
14.634 -5.9250002 1.1720001
14.706 -5.868 1.177
14.645 -5.8000002 1.1720001
14.699 -5.7779999 1.176
14.738 -5.75 1.179
14.75 -5.7119999 1.1799999
14.831 -5.6560001 1.186
14.84 -5.6149998 1.186
14.893 -5.5910001 1.1900001
10.619 -3.0829999 0.84399998
10.498 -3.017 0.83399999
10.479 -2.9809999 0.83200002
10.47 -2.947 0.83099997
10.447 -2.9100001 0.829
10.39 -2.8640001 0.82499999
10.346 -2.822 0.82099998
10.345 -2.7909999 0.82099998
10.364 -2.766 0.82200003
10.409 -2.7479999 0.82599998
10.558 -2.757 0.83700001
13.156 0.33500001 0.95700002
13.117 0.35100001 0.95300001
13.138 0.456 0.954
13.139 0.47400001 0.95300001
13.177 0.514 0.95599997
13.143 0.53200001 0.95300001
13.164 0.55199999 0.95499998
13.186 0.57300001 0.95599997
13.153 0.61299998 0.95300001
13.172 0.63499999 0.95499998
13.133 0.65399998 0.95200002
13.116 0.67500001 0.94999999
13.147 0.69800001 0.95300001
13.085 0.71700001 0.94800001
13.062 0.73799998 0.94599998
13.061 0.76099998 0.94599998
13.047 0.78299999 0.94499999
13.051 0.80599999 0.94599998
13.053 0.82999998 0.94599998
13.042 0.85299999 0.94499999
13.003 0.87400001 0.94199997
12.975 0.89600003 0.94
12.957 0.91900003 0.93900001
12.938 0.94300002 0.93800002
12.921 0.96600002 0.93599999
12.891 0.98900002 0.93400002
12.892 1.0140001 0.93400002
12.89 1.04 0.93400002
12.891 1.066 0.935
12.904 1.0930001 0.93599999
12.923 1.1210001 0.93699998
12.94 1.149 0.93900001
12.957 1.178 0.94
23.143999 2.1040001 1.679
12.982 1.207 0.94199997
23.120001 2.151 1.678
13.095 1.2460001 0.94999999
23.18 2.2049999 1.683
13.003 1.265 0.94400001
23.115999 2.2490001 1.678
13.003 1.293 0.94400001
23.139 2.3010001 1.6799999
13.033 1.325 0.94599998
13.037 1.354 0.94700003
13.094 1.3890001 0.95099998
13.15 1.424 0.95599997
13.197 1.459 0.95899999
23.040001 2.5480001 1.675
22.995001 2.595 1.6720001
22.976999 2.6459999 1.6720001
13.177 1.548 0.95899999
22.995001 2.701 1.673
13.123 1.572 0.95499998
23.009001 2.757 1.675
13.016 1.59 0.94800001
23.014999 2.812 1.676
13.019 1.6210001 0.94800001
23.030001 2.868 1.678
13.097 1.6619999 0.954
23.028 2.9230001 1.678
23.01 2.977 1.677
23.014999 3.033 1.678
23.004 3.0880001 1.678
23.011 3.1459999 1.679
23.016001 3.204 1.6799999
23.004 3.26 1.6799999
23.034 3.322 1.683
23.115999 3.3929999 1.6900001
23.047001 3.4419999 1.686
23.011999 3.4960001 1.684
23.017 3.556 1.6849999
23.011 3.6159999 1.686
23.014999 3.677 1.687
23.014 3.737 1.687
23.01 3.7980001 1.688
23.024 3.862 1.6900001
23.031 3.9260001 1.691
23.034 3.9890001 1.693
23.049999 4.0549998 1.6950001
23.052 4.118 1.696
23.046 4.1810002 1.696
23.049999 4.2459998 1.698
23.112 4.322 1.7029999
23.407 4.6440001 1.729
23.32 4.6939998 1.724
23.384001 4.7750001 1.73
23.312 4.8280001 1.726
19.586 4.7680001 1.4630001
19.775 4.8759999 1.478
8.2559996 3.494 0.65100002
8.1700001 3.4890001 0.64499998
8.132 3.5050001 0.64300001
8.0319996 3.494 0.63599998
7.9980001 3.5109999 0.634
7.9840002 3.5369999 0.634
7.9850001 3.569 0.63499999
8.0039997 3.6099999 0.63700002
8.0480003 3.6619999 0.64200002
8.1129999 3.724 0.648
8.2130003 3.8039999 0.65700001
8.3769999 3.914 0.671
12.618 -8.2799997 1.064
12.717 -8.2659998 1.071
12.772 -8.2229996 1.075
12.813 -8.1700001 1.077
12.85 -8.1160002 1.08
12.918 -8.0819998 1.085
12.993 -8.0509996 1.09
13.061 -8.0159998 1.095
13.056 -7.9369998 1.0930001
13.198 -7.9460001 1.104
13.231 -7.8899999 1.1059999
13.246 -7.823 1.107
13.304 -7.783 1.1109999
13.589 -7.3590002 1.128
13.58 -7.283 1.126
13.757 -7.3070002 1.14
13.691 -7.2010002 1.1339999
13.826 -7.2020001 1.1440001
13.814 -7.125 1.143
13.895 -7.098 1.149
14.248 -6.4619999 1.169
14.209 -6.3800001 1.165
14.251 -6.335 1.168
14.352 -6.316 1.176
14.389 -6.2680001 1.178
14.429 -6.2220001 1.181
14.519 -6.197 1.188
14.667 -6.197 1.199
14.601 -6.1059999 1.193
14.561 -6.027 1.189
14.57 -5.9689999 1.189
14.586 -5.914 1.1900001
14.631 -5.8709998 1.193
14.697 -5.836 1.198
14.75 -5.796 1.202
14.826 -5.7659998 1.207
14.803 -5.697 1.205
14.816 -5.6409998 1.206
14.966 -5.6389999 1.217
14.93 -5.566 1.214
10.588 -3.0880001 0.85299999
10.489 -3.023 0.84500003
10.452 -2.977 0.84200001
10.444 -2.9400001 0.84100002
10.37 -2.885 0.83499998
10.333 -2.8399999 0.83099997
10.331 -2.8050001 0.83099997
10.389 -2.7869999 0.83499998
10.516 -2.786 0.84500003
17.120001 -3.5409999 1.37
17.115 -3.4909999 1.369
12.921 0.19599999 0.97799999
12.922 0.219 0.97799999
12.932 0.242 0.97799999
12.96 0.266 0.98000002
12.956 0.28999999 0.98000002
12.965 0.31400001 0.98000002
12.976 0.338 0.98100001
12.988 0.36300001 0.98199999
12.997 0.38800001 0.98199999
13.007 0.414 0.98299998
13.018 0.43900001 0.98400003
13.015 0.465 0.98299998
13.031 0.49200001 0.98400003
13.039 0.51800001 0.98500001
13.047 0.54500002 0.98500001
13.064 0.57300001 0.98699999
13.055 0.59899998 0.986
13.032 0.62599999 0.98400003
13.067 0.65499997 0.98699999
13.029 0.68099999 0.98400003
13.028 0.70899999 0.98400003
13.02 0.73699999 0.98299998
13.021 0.76499999 0.98299998
13.005 0.79299998 0.98199999
13.012 0.82200003 0.98199999
12.993 0.85000002 0.98100001
12.966 0.87800002 0.97899997
12.944 0.90600002 0.977
12.928 0.935 0.97600001
12.909 0.963 0.97500002
12.877 0.991 0.97299999
12.859 1.02 0.97100002
12.859 1.05 0.97100002
12.869 1.082 0.972
12.873 1.113 0.97299999
12.884 1.146 0.97399998
12.931 1.181 0.977
12.925 1.2130001 0.977
23.065001 2.164 1.744
12.963 1.248 0.98000002
23.051001 2.22 1.743
13.019 1.286 0.98500001
23.101 2.2820001 1.747
12.966 1.313 0.98100001
23.063 2.336 1.745
13.013 1.351 0.98500001
13.001 1.383 0.98400003
13.047 1.421 0.98799998
13.106 1.461 0.99199998
23.131001 2.579 1.752
13.166 1.502 0.99699998
22.982 2.622 1.7410001
22.944 2.677 1.738
13.175 1.572 0.99800003
22.948999 2.7379999 1.739
13.056 1.592 0.98900002
22.969 2.8010001 1.7410001
12.991 1.618 0.98500001
22.976999 2.8629999 1.742
12.97 1.65 0.98299998
22.99 2.9260001 1.744
13.072 1.698 0.99199998
22.986 2.987 1.744
22.98 3.0480001 1.744
22.975 3.1099999 1.744
22.975 3.1719999 1.745
22.966999 3.234 1.745
22.973 3.2980001 1.7460001
22.988001 3.3640001 1.748
23.038 3.4349999 1.752
22.986 3.4920001 1.749
22.974001 3.5550001 1.749
22.993 3.622 1.751
22.983999 3.6860001 1.751
22.993 3.753 1.752
22.989 3.8180001 1.753
22.996 3.8859999 1.7539999
23.006001 3.954 1.755
23.011999 4.0219998 1.757
23.013 4.0890002 1.758
23.011999 4.1560001 1.758
23.025 4.2259998 1.76
23.054001 4.3000002 1.763
23.216999 4.3990002 1.777
23.410999 4.717 1.795
23.386999 4.783 1.794
19.773001 4.6560001 1.526
19.582001 4.6729999 1.512
19.417999 4.6950002 1.501
19.455 4.7659998 1.505
8.3830004 3.573 0.68000001
8.2060003 3.527 0.66600001
8.1389999 3.527 0.66100001
8.0690002 3.526 0.65600002
8.0159998 3.5320001 0.653
7.993 3.5510001 0.65100002
7.9819999 3.575 0.65100002
7.9809999 3.6029999 0.65200001
7.9959998 3.6389999 0.65399998
8.026 3.6819999 0.65700001
8.092 3.7420001 0.66299999
8.1800003 3.812 0.671
8.2790003 3.888 0.68000001
14.584 -6.9000001 1.239
14.665 -6.895 1.245
14.617 -6.829 1.2410001
14.672 -6.8109999 1.245
14.728 -6.619 1.249
14.73 -6.5770001 1.249
14.755 -6.5440001 1.251
14.843 -6.539 1.258
14.813 -6.3509998 1.255
14.88 -6.336 1.26
14.924 -6.3099999 1.2640001
14.945 -6.2750001 1.265
10.514 -3.053 0.88200003
10.453 -3.0050001 0.87699997
10.447 -2.973 0.87599999
10.449 -2.9419999 0.87599999
10.422 -2.904 0.87400001
10.348 -2.8529999 0.86699998
10.334 -2.819 0.866
10.321 -2.786 0.86500001
10.374 -2.77 0.86900002
10.417 -2.7509999 0.87300003
10.619 -2.773 0.889
17.106001 -3.471 1.426
17.094 -3.4189999 1.425
13.07 0.21799999 1.0140001
13.168 0.233 1.022
13.1 0.24600001 1.016
13.118 0.25999999 1.017
13.171 0.29100001 1.02
13.111 0.30500001 1.015
13.125 0.32100001 1.016
13.172 0.338 1.0190001
13.068 0.35100001 1.011
13.123 0.421 1.0140001
13.148 0.44 1.016
13.129 0.45699999 1.0140001
13.184 0.47799999 1.018
13.216 0.498 1.021
13.119 0.51300001 1.013
13.207 0.53600001 1.02
13.099 0.551 1.011
13.093 0.57099998 1.011
13.13 0.59299999 1.013
13.102 0.61199999 1.011
13.081 0.63200003 1.0089999
13.115 0.65499997 1.012
13.087 0.67500001 1.01
13.098 0.69700003 1.01
13.058 0.71700001 1.007
13.042 0.73900002 1.006
13.017 0.75999999 1.0039999
13.025 0.78299999 1.005
13.045 0.80699998 1.006
13.008 0.82800001 1.003
13.003 0.852 1.003
12.963 0.87300003 1
12.93 0.89499998 0.99800003
12.901 0.917 0.995
12.866 0.93900001 0.99299997
12.829 0.96100003 0.99000001
12.8 0.98299998 0.98799998
12.783 1.007 0.98699999
12.79 1.033 0.98699999
12.794 1.059 0.98799998
12.812 1.086 0.98900002
12.828 1.114 0.991
12.873 1.145 0.99400002
23.034 2.0480001 1.78
12.955 1.179 1.001
22.987 2.092 1.776
12.914 1.202 0.99800003
22.986 2.1400001 1.776
13.017 1.239 1.006
23.073999 2.198 1.784
12.986 1.2640001 1.0039999
13.031 1.2970001 1.008
13.023 1.325 1.007
13.062 1.357 1.01
13.095 1.39 1.013
13.165 1.427 1.0190001
23.018999 2.4949999 1.7819999
22.931 2.5380001 1.776
22.921 2.589 1.776
13.314 1.534 1.031
22.916 2.641 1.776
13.111 1.541 1.016
22.915001 2.694 1.776
13.035 1.563 1.01
22.938999 2.75 1.779
13.009 1.59 1.0089999
22.938999 2.8039999 1.779
13.096 1.632 1.016
22.941 2.859 1.78
22.951 2.915 1.781
22.947001 2.97 1.7819999
22.952999 3.027 1.783
22.954 3.0829999 1.784
22.964001 3.141 1.785
22.959999 3.198 1.786
22.962999 3.256 1.7869999
23.023001 3.322 1.7920001
23.027 3.381 1.793
22.993999 3.4349999 1.7920001
22.976999 3.4920001 1.791
