# .PCD v0.7 - Point Cloud Data file format
VERSION 0.7
FIELDS x y z
SIZE 4 4 4
TYPE F F F
COUNT 1 1 1
WIDTH 1816
HEIGHT 1
VIEWPOINT 0 0 0 1 0 0 0
POINTS 1816
DATA ascii
12.105 4.71 -0.27900001
12.161 4.7779999 -0.28099999
12.173 4.829 -0.28200001
12.177 4.8779998 -0.28299999
12.211 4.9380002 -0.28400001
12.21 4.9850001 -0.285
12.225 5.0380001 -0.28600001
12.236 5.0900002 -0.287
12.254 5.1459999 -0.28799999
12.273 5.2020001 -0.289
12.303 5.263 -0.28999999
12.312 5.316 -0.29100001
12.332 5.3730001 -0.292
12.345 5.428 -0.29300001
12.359 5.4840002 -0.294
12.377 5.5409999 -0.29499999
12.391 5.5970001 -0.296
12.408 5.6550002 -0.29699999
12.407 5.7049999 -0.29800001
12.4 5.7519999 -0.29899999
12.43 5.8169999 -0.30000001
12.449 5.8769999 -0.301
12.483 5.9450002 -0.303
12.521 6.0149999 -0.30399999
12.539 6.0749998 -0.30599999
12.548 6.132 -0.30700001
12.593 6.2059999 -0.308
12.625 6.2750001 -0.31
12.532 6.2810001 -0.308
12.246 6.1900001 -0.30199999
12.216 6.2259998 -0.30199999
12.313 6.381 -0.30599999
12.141 6.3439999 -0.30199999
12.149 6.4000001 -0.303
12.269 6.5159998 -0.30700001
13.029 7.2049999 -0.33000001
13.005 7.2480001 -0.331
13.056 7.3340001 -0.333
13.058 7.3930001 -0.33399999
13.131 7.493 -0.336
10.563 6.2649999 -0.27399999
10.456 6.25 -0.27200001
10.359 6.2389998 -0.27000001
10.316 6.2600002 -0.27000001
10.203 6.2379999 -0.26699999
10.162 6.2600002 -0.26699999
10.104 6.2709999 -0.266
10.044 6.2800002 -0.26499999
9.9899998 6.2930002 -0.264
10.007 6.3499999 -0.266
10.112 6.4640002 -0.26899999
10.234 6.5900002 -0.273
9.5930004 6.822 -0.266
9.5139999 6.8130002 -0.264
9.4230003 6.7950001 -0.26300001
6.7090001 -4.4289999 -0.035999998
6.7290001 -4.3990002 -0.035999998
6.7610002 -4.3779998 -0.035999998
6.783 -4.3499999 -0.037
6.8070002 -4.3239999 -0.037
6.8330002 -4.2989998 -0.037
6.8460002 -4.2659998 -0.037
6.8590002 -4.2329998 -0.037
6.8979998 -4.2160001 -0.037
6.9000001 -4.177 -0.037
6.9190001 -4.1479998 -0.037
6.9419999 -4.1220002 -0.037
6.9660001 -4.0960002 -0.037
6.9829998 -4.0669999 -0.037
7.0209999 -4.0500002 -0.037
7.0250001 -4.013 -0.037
7.052 -3.9890001 -0.037
7.0819998 -3.9679999 -0.037
7.0960002 -3.937 -0.037
7.0770001 -3.8889999 -0.035999998
7.1059999 -3.8670001 -0.037
7.1409998 -3.848 -0.037
7.1680002 -3.825 -0.037
7.1950002 -3.802 -0.037
7.2129998 -3.7739999 -0.037
7.2399998 -3.7509999 -0.037
7.2600002 -3.7249999 -0.037
7.2750001 -3.6960001 -0.037
7.2919998 -3.668 -0.037
7.3140001 -3.6429999 -0.037
7.3319998 -3.6159999 -0.037
7.3379998 -3.5829999 -0.037
7.3740001 -3.5650001 -0.037
7.3920002 -3.539 -0.037
7.3969998 -3.506 -0.037
7.427 -3.4849999 -0.037
7.4320002 -3.4530001 -0.037
7.46 -3.431 -0.037
7.4910002 -3.411 -0.037
7.5079999 -3.3840001 -0.037
7.5180001 -3.3540001 -0.037
7.5430002 -3.3310001 -0.037
7.5700002 -3.309 -0.037
7.5869999 -3.283 -0.037
7.5999999 -3.2550001 -0.037
7.625 -3.233 -0.037
7.6490002 -3.21 -0.037
7.6690001 -3.1849999 -0.037
7.7030001 -3.1659999 -0.037
7.723 -3.141 -0.037
7.744 -3.1170001 -0.037
7.7449999 -3.085 -0.037
7.7670002 -3.0610001 -0.037
7.789 -3.0380001 -0.037
7.8260002 -3.02 -0.037
7.8330002 -2.9909999 -0.037
7.868 -2.973 -0.037
7.8850002 -2.948 -0.037
7.901 -2.9219999 -0.037
7.9229999 -2.8989999 -0.037
7.9499998 -2.8770001 -0.037
7.973 -2.8540001 -0.037
7.9829998 -2.8269999 -0.037
8.0089998 -2.806 -0.037
8.0410004 -2.786 -0.037
8.059 -2.7620001 -0.037
8.0860004 -2.7409999 -0.037
8.1120005 -2.7190001 -0.037
8.1350002 -2.6960001 -0.037
8.1680002 -2.677 -0.037
8.1789999 -2.651 -0.037
8.1929998 -2.625 -0.037
8.2309999 -2.608 -0.037
8.2629995 -2.5880001 -0.037
8.2799997 -2.5639999 -0.037
8.3109999 -2.5439999 -0.037999999
8.3500004 -2.526 -0.037999999
8.3610001 -2.5 -0.037999999
8.3719997 -2.4749999 -0.037999999
8.3979998 -2.4530001 -0.037999999
8.434 -2.4349999 -0.037999999
8.4309998 -2.405 -0.037999999
8.4490004 -2.382 -0.037999999
8.4949999 -2.3659999 -0.037999999
8.5100002 -2.342 -0.037999999
8.5530005 -2.325 -0.037999999
8.5719995 -2.302 -0.037999999
8.5869999 -2.2780001 -0.037999999
8.6280003 -2.26 -0.037999999
8.6359997 -2.234 -0.037999999
8.6630001 -2.214 -0.037999999
8.6689997 -2.187 -0.037999999
8.691 -2.165 -0.037999999
8.7089996 -2.142 -0.037999999
8.7639999 -2.128 -0.037999999
8.7930002 -2.108 -0.037999999
8.7969999 -2.082 -0.037999999
8.8409996 -2.0650001 -0.037999999
8.8520002 -2.04 -0.037999999
8.8730001 -2.0179999 -0.037999999
8.9490004 -2.0090001 -0.037999999
8.993 -1.992 -0.037999999
8.9890003 -1.964 -0.037999999
8.9639997 -1.932 -0.037999999
8.9709997 -1.9069999 -0.037999999
9.0120001 -1.8890001 -0.037999999
9.0209999 -1.865 -0.037999999
9.0509996 -1.845 -0.037999999
9.0629997 -1.822 -0.037999999
9.0790005 -1.799 -0.037999999
9.1129999 -1.78 -0.037999999
9.125 -1.756 -0.037999999
9.1370001 -1.733 -0.037999999
9.1630001 -1.7130001 -0.037999999
9.2139997 -1.697 -0.037999999
9.184 -1.666 -0.037999999
9.224 -1.648 -0.037999999
9.2449999 -1.627 -0.037999999
9.2600002 -1.605 -0.037999999
9.29 -1.585 -0.037999999
9.3190002 -1.5650001 -0.037999999
9.3439999 -1.545 -0.037999999
9.3620005 -1.523 -0.037999999
9.4130001 -1.507 -0.039000001
9.3839998 -1.478 -0.037999999
9.4029999 -1.457 -0.037999999
9.448 -1.4400001 -0.039000001
9.4809999 -1.42 -0.039000001
9.4899998 -1.398 -0.039000001
9.5209999 -1.3789999 -0.039000001
9.5450001 -1.358 -0.039000001
9.5830002 -1.34 -0.039000001
9.5830002 -1.316 -0.039000001
9.5979996 -1.295 -0.039000001
9.632 -1.276 -0.039000001
9.6470003 -1.255 -0.039000001
9.6789999 -1.2359999 -0.039000001
9.6999998 -1.215 -0.039000001
9.6990004 -1.192 -0.039000001
9.7180004 -1.1720001 -0.039000001
9.7460003 -1.153 -0.039000001
9.7709999 -1.133 -0.039000001
9.8179998 -1.1160001 -0.039000001
9.8269997 -1.094 -0.039000001
9.8669996 -1.076 -0.039000001
9.8730001 -1.0549999 -0.039000001
9.8780003 -1.033 -0.039000001
9.901 -1.013 -0.039000001
9.9219999 -0.99299997 -0.039000001
9.9619999 -0.97600001 -0.039000001
9.9709997 -0.95499998 -0.039000001
9.9879999 -0.935 -0.039000001
10.034 -0.917 -0.039000001
10.065 -0.89899999 -0.039000001
10.065 -0.87699997 -0.039000001
10.088 -0.85799998 -0.039000001
10.093 -0.83700001 -0.039000001
10.113 -0.81800002 -0.039000001
10.184 -0.80199999 -0.039000001
10.173 -0.78100002 -0.039000001
10.216 -0.76300001 -0.039000001
10.26 -0.74599999 -0.039000001
10.277 -0.72600001 -0.039000001
10.317 -0.70899999 -0.039999999
10.366 -0.69099998 -0.039999999
10.382 -0.67199999 -0.039999999
10.44 -0.65499997 -0.039999999
10.556 -0.64200002 -0.039999999
10.623 -0.60500002 -0.039999999
10.658 -0.58700001 -0.039999999
9.9530001 0.123 -0.15700001
9.9630003 0.141 -0.15800001
10.005 0.16 -0.15899999
9.9989996 0.178 -0.15899999
10.01 0.197 -0.15899999
10.027 0.21600001 -0.15899999
10.009 0.235 -0.15899999
10.015 0.255 -0.16
10.019 0.27399999 -0.16
10.023 0.294 -0.16
10.022 0.31400001 -0.16
10.052 0.33500001 -0.161
10.059 0.35600001 -0.161
10.082 0.37799999 -0.162
10.076 0.398 -0.162
10.081 0.41999999 -0.162
10.072 0.44 -0.162
10.08 0.46200001 -0.163
10.087 0.484 -0.163
10.08 0.50599998 -0.163
10.082 0.528 -0.163
10.08 0.55000001 -0.163
10.086 0.57300001 -0.164
10.107 0.597 -0.164
10.104 0.62 -0.164
10.124 0.64399999 -0.16500001
10.147 0.66900003 -0.16599999
10.165 0.69400001 -0.16599999
10.194 0.71899998 -0.167
10.19 0.74299997 -0.167
10.217 0.76899999 -0.168
10.221 0.79400003 -0.168
10.237 0.81999999 -0.168
10.266 0.847 -0.169
10.276 0.87300003 -0.169
10.288 0.89899999 -0.17
10.299 0.926 -0.17
10.314 0.95300001 -0.171
10.33 0.98000002 -0.171
10.339 1.007 -0.17200001
10.357 1.035 -0.17200001
10.367 1.063 -0.17299999
10.399 1.0930001 -0.17399999
10.411 1.1210001 -0.17399999
10.427 1.15 -0.175
10.453 1.1799999 -0.175
10.483 1.211 -0.176
10.497 1.2410001 -0.177
10.517 1.271 -0.177
10.518 1.299 -0.177
10.55 1.332 -0.178
10.566 1.362 -0.17900001
10.584 1.3940001 -0.17900001
10.608 1.426 -0.18000001
10.62 1.457 -0.18099999
10.647 1.49 -0.18099999
10.64 1.518 -0.182
10.674 1.553 -0.182
10.675 1.5829999 -0.183
10.717 1.62 -0.184
10.747 1.655 -0.185
10.767 1.689 -0.185
10.768 1.72 -0.186
10.799 1.756 -0.186
10.824 1.791 -0.18700001
10.842 1.825 -0.18799999
10.87 1.862 -0.189
10.885 1.896 -0.189
10.902 1.931 -0.19
10.941 1.97 -0.191
10.976 2.0090001 -0.192
11.019 2.05 -0.193
11.044 2.0880001 -0.19400001
11.051 2.122 -0.19400001
11.098 2.165 -0.19499999
11.134 2.2060001 -0.19599999
11.179 2.2490001 -0.198
11.172 2.2809999 -0.198
11.221 2.326 -0.199
11.238 2.3640001 -0.2
11.274 2.4059999 -0.20100001
11.304 2.448 -0.20200001
11.336 2.49 -0.20299999
11.342 2.526 -0.20299999
11.374 2.569 -0.204
11.396 2.6099999 -0.205
11.415 2.6500001 -0.206
11.444 2.6930001 -0.207
11.482 2.7390001 -0.208
11.507 2.7820001 -0.208
11.559 2.8310001 -0.20999999
11.576 2.872 -0.211
11.6 2.9159999 -0.211
11.614 2.957 -0.212
11.625 2.997 -0.213
11.654 3.0420001 -0.214
11.689 3.0899999 -0.215
11.706 3.132 -0.21600001
11.724 3.1760001 -0.21600001
11.737 3.2179999 -0.21699999
11.757 3.2620001 -0.21799999
11.785 3.309 -0.219
11.873 3.3729999 -0.221
11.94 3.4319999 -0.223
8.9359999 2.598 -0.167
12.037 3.5 -0.22499999
8.79 2.585 -0.164
12.327 3.625 -0.23100001
8.7349997 2.598 -0.164
8.7069998 2.619 -0.164
8.7080002 2.6489999 -0.164
8.71 2.6789999 -0.164
8.717 2.711 -0.16500001
8.743 2.7479999 -0.16599999
12.143 3.8169999 -0.23
8.7910004 2.793 -0.167
12.121 3.8510001 -0.23
8.7629995 2.8139999 -0.167
12.18 3.9119999 -0.23199999
8.5749998 2.783 -0.163
8.4940004 2.786 -0.162
8.4790001 2.8099999 -0.162
8.474 2.8380001 -0.163
8.493 2.8729999 -0.163
8.5979996 2.9389999 -0.16599999
12.318 4.211 -0.23800001
12.301 4.2470002 -0.23800001
12.296 4.2880001 -0.23800001
12.316 4.3379998 -0.23899999
12.339 4.3889999 -0.23999999
12.342 4.4330001 -0.241
12.386 4.4920001 -0.242
12.365 4.5279999 -0.242
12.382 4.5780001 -0.243
12.397 4.6269999 -0.244
12.393 4.6690001 -0.244
12.443 4.7319999 -0.24600001
12.464 4.7849998 -0.24699999
12.494 4.8400002 -0.248
12.493 4.8839998 -0.249
12.51 4.9349999 -0.249
12.539 4.9920001 -0.25099999
12.56 5.0450001 -0.252
12.577 5.0960002 -0.25299999
12.591 5.1469998 -0.25299999
12.602 5.197 -0.25400001
12.633 5.2550001 -0.255
12.622 5.296 -0.25600001
12.672 5.362 -0.257
12.675 5.4089999 -0.25799999
12.702 5.467 -0.259
12.716 5.5190001 -0.25999999
12.725 5.5679998 -0.26100001
12.737 5.6199999 -0.26199999
12.783 5.6859999 -0.26300001
12.769 5.7259998 -0.264
12.757 5.7670002 -0.264
12.794 5.8299999 -0.26499999
12.828 5.8930001 -0.26699999
12.86 5.954 -0.26800001
12.877 6.0089998 -0.26899999
12.908 6.0700002 -0.27000001
12.93 6.1279998 -0.271
12.932 6.1760001 -0.27200001
12.986 6.2490001 -0.27399999
13.006 6.3060002 -0.27500001
13.031 6.3660002 -0.27599999
13.06 6.428 -0.27700001
13.068 6.48 -0.278
13.079 6.533 -0.27900001
12.276 6.1760001 -0.26300001
12.176 6.171 -0.26100001
12.224 6.2399998 -0.26300001
12.219 6.3260002 -0.264
12.142 6.3309999 -0.26300001
12.067 6.336 -0.26199999
12.068 6.3800001 -0.26300001
12.247 6.52 -0.26699999
12.26 6.6160002 -0.26899999
12.163 6.6079998 -0.26699999
12.204 6.6750002 -0.26899999
13.604 7.5890002 -0.30199999
13.624 7.6500001 -0.303
13.635 7.7059999 -0.30399999
10.617 6.1919999 -0.23999999
10.505 6.165 -0.23800001
10.438 6.1630001 -0.237
10.371 6.1609998 -0.236
10.28 6.1440001 -0.234
10.21 6.138 -0.233
10.137 6.1300001 -0.23199999
10.093 6.1399999 -0.23199999
10.043 6.145 -0.23100001
9.9790001 6.1409998 -0.23
9.9370003 6.151 -0.23
9.9139996 6.1719999 -0.23
9.9309998 6.217 -0.23100001
10.035 6.3179998 -0.234
9.6719999 6.6820002 -0.236
9.6140003 6.6739998 -0.235
9.5570002 6.6659999 -0.234
9.4729996 6.638 -0.233
9.4189997 6.6300001 -0.23199999
9.382 6.6339998 -0.23199999
9.3570004 6.6459999 -0.23199999
9.3319998 6.658 -0.23199999
9.3140001 6.6750002 -0.23199999
9.309 6.6999998 -0.23199999
9.3030005 6.7249999 -0.233
9.3100004 6.7579999 -0.233
9.3120003 6.7880001 -0.234
7.178 -4.2160001 -0.021
7.1810002 -4.198 -0.021
7.191 -4.184 -0.021
7.1939998 -4.165 -0.021
7.2270002 -4.164 -0.021
7.2270002 -4.1430001 -0.021
7.2309999 -4.125 -0.021
7.2470002 -4.1139998 -0.021
7.2610002 -4.1009998 -0.021
7.2649999 -4.0830002 -0.021
7.276 -4.0679998 -0.021
7.2880001 -4.0549998 -0.021
7.2839999 -4.0310001 -0.02
7.2930002 -4.0159998 -0.02
7.309 -4.0029998 -0.02
7.3200002 -3.9890001 -0.02
7.3210001 -3.9679999 -0.02
7.3410001 -3.9579999 -0.02
7.349 -3.9419999 -0.02
7.3639998 -3.9289999 -0.02
7.3579998 -3.905 -0.02
7.3439999 -3.8759999 -0.02
7.3070002 -3.836 -0.02
7.29 -3.806 -0.02
7.3130002 -3.7969999 -0.02
7.3829999 -3.812 -0.02
7.4330001 -3.8169999 -0.02
7.4320002 -3.7950001 -0.02
7.4580002 -3.7869999 -0.02
7.4510002 -3.7620001 -0.02
7.4650002 -3.747 -0.02
7.4619999 -3.7249999 -0.02
7.487 -3.7149999 -0.02
7.5009999 -3.701 -0.02
7.5009999 -3.6800001 -0.02
7.5180001 -3.6659999 -0.02
7.5240002 -3.6470001 -0.018999999
7.5380001 -3.632 -0.018999999
7.559 -3.6210001 -0.018999999
7.5619998 -3.5999999 -0.018999999
7.5760002 -3.585 -0.018999999
7.5869999 -3.569 -0.018999999
7.5869999 -3.5469999 -0.018999999
7.6009998 -3.5309999 -0.018999999
7.618 -3.517 -0.018999999
7.6370001 -3.5039999 -0.018999999
7.6409998 -3.484 -0.018999999
7.6560001 -3.4690001 -0.018999999
7.6760001 -3.4560001 -0.018999999
7.6789999 -3.4349999 -0.018999999
7.6960001 -3.4200001 -0.018999999
7.7090001 -3.404 -0.018999999
7.7150002 -3.3840001 -0.018999999
7.7420001 -3.3740001 -0.018999999
7.7519999 -3.3559999 -0.018999999
7.7659998 -3.339 -0.018999999
7.789 -3.326 -0.018999999
7.7750001 -3.2980001 -0.018999999
7.8080001 -3.289 -0.018999999
7.8070002 -3.267 -0.018999999
7.829 -3.253 -0.017999999
7.842 -3.2360001 -0.017999999
7.855 -3.2190001 -0.017999999
7.8660002 -3.201 -0.017999999
7.8670001 -3.178 -0.017999999
7.8899999 -3.165 -0.017999999
7.902 -3.1470001 -0.017999999
7.928 -3.1340001 -0.017999999
7.947 -3.119 -0.017999999
7.9520001 -3.098 -0.017999999
7.9530001 -3.075 -0.017999999
7.98 -3.062 -0.017999999
8.007 -3.05 -0.017999999
8.0290003 -3.0350001 -0.017999999
8.0369997 -3.0150001 -0.017999999
8.0570002 -2.9990001 -0.017999999
8.066 -2.9790001 -0.017999999
8.0860004 -2.9630001 -0.017999999
8.1000004 -2.9449999 -0.017999999
8.1009998 -2.9219999 -0.017999999
8.1289997 -2.908 -0.017999999
8.1370001 -2.888 -0.017999999
8.1639996 -2.8740001 -0.017999999
8.1870003 -2.858 -0.017999999
8.1929998 -2.8369999 -0.017999999
8.198 -2.8150001 -0.017999999
8.2340002 -2.8039999 -0.017999999
8.2209997 -2.776 -0.017000001
8.2530003 -2.763 -0.017000001
8.283 -2.7490001 -0.017000001
8.2819996 -2.724 -0.017000001
8.29 -2.7030001 -0.017000001
8.3170004 -2.688 -0.017000001
8.3380003 -2.671 -0.017000001
8.3450003 -2.6489999 -0.017000001
8.3599997 -2.6300001 -0.017000001
8.401 -2.618 -0.017000001
8.4060001 -2.596 -0.017000001
8.4259996 -2.5780001 -0.017000001
8.427 -2.5539999 -0.017000001
8.4569998 -2.539 -0.017000001
8.4960003 -2.526 -0.017000001
8.4940004 -2.5009999 -0.017000001
8.5089998 -2.4809999 -0.017000001
8.5159998 -2.4579999 -0.017000001
8.5340004 -2.4389999 -0.017000001
8.5489998 -2.4189999 -0.017000001
8.5719995 -2.401 -0.017000001
8.5810003 -2.3789999 -0.017000001
8.6079998 -2.3610001 -0.017000001
8.6429996 -2.346 -0.017000001
8.658 -2.325 -0.017000001
8.6680002 -2.303 -0.016000001
8.6879997 -2.2839999 -0.016000001
8.7030001 -2.263 -0.016000001
8.743 -2.2479999 -0.016000001
8.7639999 -2.2279999 -0.016000001
8.7819996 -2.2079999 -0.016000001
8.7930002 -2.1849999 -0.016000001
8.8100004 -2.164 -0.016000001
8.809 -2.138 -0.016000001
8.8570004 -2.125 -0.016000001
8.8669996 -2.102 -0.016000001
8.901 -2.0840001 -0.016000001
8.915 -2.062 -0.016000001
8.9390001 -2.0420001 -0.016000001
8.974 -2.0239999 -0.016000001
8.9790001 -2 -0.016000001
9.0129995 -1.982 -0.016000001
9.0749998 -1.969 -0.016000001
9.1000004 -1.949 -0.016000001
9.073 -1.9170001 -0.016000001
9.0679998 -1.89 -0.016000001
9.0930004 -1.869 -0.016000001
9.1300001 -1.851 -0.016000001
9.1499996 -1.829 -0.016000001
9.1750002 -1.807 -0.016000001
9.184 -1.783 -0.015
9.2209997 -1.7640001 -0.015
9.2390003 -1.7410001 -0.015
9.2729998 -1.721 -0.015
9.2969999 -1.699 -0.015
9.3109999 -1.675 -0.015
9.3310003 -1.652 -0.015
9.3669996 -1.632 -0.015
9.3990002 -1.61 -0.015
9.4040003 -1.584 -0.015
9.4219999 -1.5599999 -0.015
9.4530001 -1.539 -0.015
9.467 -1.5140001 -0.015
9.4910002 -1.4910001 -0.015
9.5459995 -1.472 -0.015
9.5769997 -1.45 -0.015
9.599 -1.426 -0.015
9.6230001 -1.402 -0.015
9.6590004 -1.38 -0.015
9.7089996 -1.359 -0.015
9.71 -1.332 -0.015
9.7629995 -1.311 -0.015
9.7819996 -1.286 -0.015
9.8129997 -1.262 -0.015
9.8540001 -1.239 -0.015
9.8789997 -1.214 -0.015
9.9169998 -1.191 -0.015
9.9709997 -1.169 -0.015
9.9799995 -1.142 -0.014
10.011 -1.117 -0.014
10.05 -1.092 -0.014
10.089 -1.068 -0.014
10.12 -1.043 -0.014
10.15 -1.017 -0.014
10.205 -0.99299997 -0.014
10.214 -0.96499997 -0.014
10.25 -0.94 -0.014
10.306 -0.91500002 -0.014
10.35 -0.88999999 -0.014
10.433 -0.86699998 -0.014
10.481 -0.84200001 -0.014
10.499 -0.81300002 -0.014
10.632 -0.79299998 -0.014
10.562 0.23199999 -0.14399999
10.596 0.24600001 -0.14399999
10.544 0.259 -0.14399999
10.499 0.27200001 -0.14300001
10.448 0.285 -0.14300001
10.479 0.30000001 -0.14300001
10.449 0.31400001 -0.14300001
10.481 0.33000001 -0.14300001
10.436 0.34400001 -0.14300001
10.43 0.359 -0.14300001
10.402 0.37400001 -0.14300001
10.432 0.391 -0.14300001
10.41 0.40599999 -0.14300001
10.368 0.421 -0.14300001
10.4 0.43900001 -0.14300001
10.384 0.45500001 -0.14300001
10.398 0.472 -0.14399999
10.406 0.49000001 -0.14399999
10.402 0.50700003 -0.14399999
10.411 0.52600002 -0.145
10.409 0.54299998 -0.145
10.421 0.56199998 -0.145
10.429 0.58099997 -0.145
10.439 0.60100001 -0.146
10.454 0.62 -0.146
10.47 0.64099997 -0.146
10.472 0.66000003 -0.147
10.476 0.68000001 -0.147
10.478 0.69999999 -0.147
10.481 0.72000003 -0.147
10.485 0.741 -0.148
10.514 0.764 -0.148
10.518 0.78500003 -0.149
10.529 0.80699998 -0.149
10.562 0.83099997 -0.15000001
10.569 0.85299999 -0.15000001
10.57 0.875 -0.15000001
10.575 0.89700001 -0.15000001
10.584 0.92000002 -0.15099999
10.6 0.94400001 -0.15099999
10.613 0.96799999 -0.152
10.623 0.99199998 -0.152
10.639 1.017 -0.153
10.668 1.043 -0.153
10.677 1.067 -0.154
10.686 1.092 -0.154
10.705 1.118 -0.154
10.716 1.1440001 -0.155
10.741 1.171 -0.155
10.753 1.197 -0.156
10.762 1.224 -0.156
10.778 1.251 -0.15700001
10.784 1.277 -0.15700001
10.793 1.304 -0.15800001
10.812 1.332 -0.15800001
10.829 1.3609999 -0.15899999
10.846 1.3890001 -0.15899999
10.861 1.418 -0.16
10.871 1.446 -0.16
10.896 1.477 -0.161
10.904 1.505 -0.161
10.93 1.5369999 -0.162
10.938 1.566 -0.162
10.974 1.599 -0.163
10.992 1.63 -0.164
10.997 1.66 -0.164
11.016 1.692 -0.164
11.04 1.724 -0.16500001
11.054 1.756 -0.16599999
11.056 1.786 -0.16599999
11.101 1.823 -0.167
11.107 1.854 -0.167
11.147 1.891 -0.168
11.172 1.926 -0.169
11.2 1.962 -0.17
11.241 2 -0.171
11.274 2.0380001 -0.17200001
11.283 2.0710001 -0.17200001
11.304 2.1070001 -0.17299999
11.328 2.1440001 -0.17299999
11.354 2.181 -0.17399999
11.381 2.2190001 -0.175
11.401 2.256 -0.175
11.434 2.296 -0.176
11.469 2.336 -0.177
11.493 2.375 -0.178
11.52 2.415 -0.17900001
11.538 2.4530001 -0.17900001
11.56 2.4920001 -0.18000001
11.581 2.5320001 -0.18099999
11.605 2.572 -0.182
11.651 2.618 -0.183
11.666 2.6570001 -0.183
11.69 2.698 -0.184
11.723 2.7420001 -0.185
11.749 2.7850001 -0.186
11.78 2.829 -0.18700001
11.782 2.8659999 -0.18700001
11.813 2.911 -0.18799999
11.826 2.9519999 -0.189
11.847 2.9949999 -0.189
11.885 3.0420001 -0.19
11.903 3.085 -0.191
11.951 3.1359999 -0.192
11.971 3.1800001 -0.193
11.963 3.217 -0.193
12.009 3.2690001 -0.19400001
12.024 3.313 -0.19499999
12.054 3.3610001 -0.19599999
12.084 3.4089999 -0.197
12.092 3.4519999 -0.197
12.126 3.5020001 -0.198
12.132 3.5450001 -0.199
12.19 3.6029999 -0.2
8.8260002 2.6389999 -0.145
12.351 3.6930001 -0.204
8.7410002 2.6429999 -0.14399999
8.7180004 2.6659999 -0.14399999
8.684 2.6860001 -0.14399999
8.6789999 2.714 -0.14399999
8.6789999 2.744 -0.145
8.6999998 2.7820001 -0.145
12.472 3.9879999 -0.208
8.7259998 2.8199999 -0.146
12.341 3.9890001 -0.207
8.5719995 2.8010001 -0.14399999
12.523 4.092 -0.20999999
8.4910002 2.8050001 -0.14300001
8.4720001 2.8280001 -0.14300001
8.4639997 2.8559999 -0.14300001
8.4989996 2.898 -0.14399999
8.6479998 2.98 -0.147
12.423 4.2810001 -0.211
12.42 4.3249998 -0.211
12.433 4.375 -0.212
12.451 4.427 -0.213
12.49 4.4860001 -0.214
12.501 4.5359998 -0.215
12.528 4.592 -0.21600001
12.539 4.6430001 -0.21699999
12.571 4.7010002 -0.21799999
12.605 4.7610002 -0.219
12.64 4.822 -0.22
12.675 4.8829999 -0.221
12.698 4.9400001 -0.222
12.71 4.993 -0.223
12.749 5.0570002 -0.22400001
12.758 5.1090002 -0.22499999
12.763 5.1599998 -0.22499999
12.763 5.21 -0.226
12.798 5.2729998 -0.227
12.819 5.3319998 -0.228
12.838 5.3899999 -0.229
12.877 5.4569998 -0.23
12.878 5.5079999 -0.23100001
12.915 5.5749998 -0.23199999
12.927 5.631 -0.233
12.958 5.6960001 -0.234
13.004 5.7690001 -0.236
13.001 5.8189998 -0.236
13.014 5.8769999 -0.237
13.033 5.9390001 -0.23800001
13.04 5.9949999 -0.23899999
13.095 6.0739999 -0.23999999
13.095 6.1269999 -0.241
13.121 6.1929998 -0.242
13.137 6.2550001 -0.243
13.146 6.3130002 -0.244
13.157 6.3730001 -0.245
13.173 6.4359999 -0.24600001
13.216 6.5120001 -0.24699999
12.383 6.1529999 -0.23199999
12.221 6.1240001 -0.23
12.257 6.1939998 -0.23100001
12.251 6.2950001 -0.23199999
12.18 6.3099999 -0.23100001
12.076 6.3080001 -0.23
12.092 6.369 -0.23100001
12.332 6.6020002 -0.237
12.157 6.5609999 -0.234
12.194 6.6339998 -0.235
10.822 6.2709999 -0.214
10.593 6.1859999 -0.20999999
10.486 6.171 -0.208
10.411 6.1739998 -0.207
10.316 6.164 -0.206
10.241 6.1669998 -0.205
10.168 6.1690001 -0.204
10.101 6.1739998 -0.20299999
10.037 6.1810002 -0.20299999
9.9849997 6.1960001 -0.20200001
9.9160004 6.1989999 -0.20100001
9.8730001 6.2179999 -0.20100001
9.8699999 6.2620001 -0.20100001
9.9060001 6.3309999 -0.20299999
10.117 6.5139999 -0.208
9.7469997 6.7880001 -0.206
9.677 6.7859998 -0.206
9.5970001 6.777 -0.204
9.54 6.783 -0.204
9.4879999 6.7930002 -0.20299999
9.4049997 6.7800002 -0.20200001
6.8639998 -4.5289998 -0.0040000002
6.8979998 -4.5079999 -0.0040000002
6.928 -4.4840002 -0.0040000002
6.9530001 -4.4569998 -0.0040000002
6.98 -4.4320002 -0.0040000002
6.9990001 -4.401 -0.0040000002
7.02 -4.3720002 -0.0040000002
7.0409999 -4.3429999 -0.003
7.0700002 -4.3189998 -0.003
7.099 -4.2950001 -0.003
7.1090002 -4.2600002 -0.003
7.1279998 -4.2309999 -0.003
7.1409998 -4.198 -0.003
7.171 -4.1739998 -0.003
7.1810002 -4.1399999 -0.003
7.2119999 -4.118 -0.003
7.2360001 -4.092 -0.003
7.2509999 -4.0609999 -0.003
7.2379999 -4.0139999 -0.003
7.21 -3.96 -0.003
7.2049999 -3.9189999 -0.003
7.2550001 -3.908 -0.003
7.322 -3.905 -0.003
7.3740001 -3.895 -0.0020000001
7.3899999 -3.8659999 -0.0020000001
7.4099998 -3.8380001 -0.0020000001
7.428 -3.8099999 -0.0020000001
7.434 -3.7750001 -0.0020000001
7.4499998 -3.747 -0.0020000001
7.4790001 -3.724 -0.0020000001
7.4990001 -3.697 -0.0020000001
7.5139999 -3.668 -0.0020000001
7.5409999 -3.645 -0.0020000001
7.5599999 -3.618 -0.0020000001
7.5890002 -3.595 -0.0020000001
7.5939999 -3.562 -0.0020000001
7.6160002 -3.5369999 -0.0020000001
7.6350002 -3.51 -0.0020000001
7.6570001 -3.4849999 -0.0020000001
7.6890001 -3.464 -0.001
7.7020001 -3.4349999 -0.001
7.7199998 -3.4089999 -0.001
7.7459998 -3.385 -0.001
7.77 -3.3610001 -0.001
7.7930002 -3.3369999 -0.001
7.809 -3.3099999 -0.001
7.8369999 -3.2869999 -0.001
7.8530002 -3.26 -0.001
7.8639998 -3.2309999 -0.001
7.9060001 -3.2149999 -0.001
7.9089999 -3.1830001 -0.001
7.9349999 -3.1600001 -0.001
7.9580002 -3.1359999 -0.001
7.9860001 -3.1140001 -0.001
8.0159998 -3.0929999 -0.001
8.0240002 -3.0639999 -0
8.0710001 -3.049 -0
8.0930004 -3.0239999 -0
8.1169996 -3.0009999 -0
8.1490002 -2.9809999 -0
8.1639996 -2.954 -0
8.1899996 -2.931 -0
8.21 -2.9070001 -0
8.217 -2.878 -0
8.2659998 -2.8640001 -0
8.2709999 -2.8340001 -0
8.3059998 -2.8150001 -0
8.3380003 -2.7939999 -0
8.3380003 -2.763 -0
8.3620005 -2.74 -0
8.3850002 -2.717 -0
8.4200001 -2.697 -0
8.4429998 -2.674 -0
8.4799995 -2.6559999 -0
8.4949999 -2.6300001 -0
8.5150003 -2.6059999 -0
8.566 -2.5910001 -0
8.5799999 -2.5650001 -0
8.5769997 -2.5350001 -0
8.5959997 -2.5109999 -0
8.6300001 -2.4909999 -0
8.6619997 -2.471 -0
8.684 -2.447 -0
8.7119999 -2.4260001 -0
8.7329998 -2.4030001 -0
8.7519999 -2.3789999 0.001
8.7819996 -2.358 0.001
8.7959995 -2.3329999 0.001
8.8240004 -2.3110001 0.001
8.8649998 -2.293 0.001
8.8859997 -2.27 0.001
8.9069996 -2.247 0.001
8.9200001 -2.2219999 0.001
8.9549999 -2.2030001 0.001
8.974 -2.1789999 0.001
8.9969997 -2.1570001 0.001
9.0509996 -2.142 0.001
9.0629997 -2.1170001 0.001
9.092 -2.096 0.001
9.1099997 -2.072 0.001
9.1300001 -2.049 0.0020000001
9.1450005 -2.0250001 0.0020000001
9.1689997 -2.003 0.0020000001
9.1820002 -1.979 0.0020000001
9.2209997 -1.96 0.0020000001
9.2299995 -1.9349999 0.0020000001
9.2559996 -1.914 0.0020000001
9.2799997 -1.892 0.0020000001
9.3290005 -1.875 0.0020000001
9.3369999 -1.85 0.0020000001
9.3529997 -1.827 0.0020000001
9.3870001 -1.807 0.0020000001
9.4209995 -1.7869999 0.0020000001
9.4379997 -1.7640001 0.0020000001
9.4969997 -1.749 0.003
9.4890003 -1.722 0.003
9.5089998 -1.699 0.003
9.5419998 -1.679 0.003
9.5609999 -1.6569999 0.003
9.5719995 -1.633 0.003
9.6120005 -1.615 0.003
9.6280003 -1.592 0.003
9.6750002 -1.574 0.003
9.7930002 -1.568 0.003
9.7749996 -1.54 0.003
9.7200003 -1.506 0.003
9.7539997 -1.4859999 0.003
9.783 -1.466 0.003
9.8050003 -1.4450001 0.0040000002
9.842 -1.425 0.0040000002
9.8570004 -1.403 0.0040000002
9.8920002 -1.3839999 0.0040000002
9.9440002 -1.3660001 0.0040000002
9.9549999 -1.344 0.0040000002
9.9770002 -1.322 0.0040000002
10.004 -1.302 0.0040000002
10.043 -1.283 0.0040000002
10.067 -1.262 0.0040000002
10.077 -1.239 0.0040000002
10.091 -1.217 0.0040000002
10.132 -1.199 0.0040000002
10.135 -1.176 0.0040000002
10.171 -1.156 0.0049999999
10.184 -1.135 0.0049999999
10.238 -1.117 0.0049999999
10.288 -1.099 0.0049999999
10.318 -1.08 0.0049999999
10.338 -1.059 0.0049999999
10.332 -1.035 0.0049999999
10.397 -1.0190001 0.0049999999
10.444 -1.001 0.0049999999
10.488 -0.98199999 0.0049999999
10.519 -0.96200001 0.0049999999
10.528 -0.94099998 0.0049999999
10.568 -0.92199999 0.0060000001
10.654 -0.90700001 0.0060000001
10.59 -0.87900001 0.0060000001
10.612 -0.85900003 0.0060000001
10.644 -0.83999997 0.0060000001
10.678 -0.81999999 0.0060000001
10.739 -0.80299997 0.0060000001
10.804 -0.78600001 0.0060000001
10.87 -0.76899999 0.0060000001
10.895 -0.74900001 0.0060000001
10.96 -0.73199999 0.0060000001
10.925 -0.708 0.0060000001
10.972 -0.69 0.0070000002
11.081 -0.67500001 0.0070000002
11.045 -0.65200001 0.0070000002
10.348 0.12899999 -0.112
10.361 0.148 -0.112
10.355 0.167 -0.112
10.386 0.18700001 -0.113
10.393 0.206 -0.113
10.406 0.226 -0.113
10.419 0.24600001 -0.113
10.42 0.266 -0.114
10.426 0.287 -0.114
10.431 0.30700001 -0.114
10.411 0.32800001 -0.114
10.43 0.34900001 -0.114
10.424 0.37 -0.115
10.444 0.39199999 -0.115
10.432 0.41299999 -0.115
10.451 0.43599999 -0.115
10.456 0.458 -0.116
10.468 0.48100001 -0.116
10.461 0.50300002 -0.116
10.468 0.52600002 -0.116
10.496 0.551 -0.117
10.523 0.57599998 -0.117
10.51 0.59799999 -0.117
10.553 0.62400001 -0.118
10.552 0.648 -0.118
10.57 0.67299998 -0.119
10.578 0.69800001 -0.119
10.576 0.72299999 -0.119
10.59 0.74800003 -0.12
10.612 0.77499998 -0.12
10.634 0.80199999 -0.121
10.635 0.82700002 -0.121
10.664 0.85500002 -0.121
10.658 0.88 -0.121
10.686 0.90899998 -0.122
10.696 0.93599999 -0.122
10.706 0.963 -0.123
10.72 0.991 -0.123
10.727 1.0190001 -0.123
10.76 1.049 -0.124
10.792 1.079 -0.125
10.797 1.108 -0.125
10.821 1.138 -0.125
10.845 1.168 -0.126
10.851 1.197 -0.126
10.852 1.226 -0.127
10.892 1.2589999 -0.127
10.908 1.29 -0.12800001
10.915 1.3200001 -0.12800001
10.918 1.349 -0.12800001
10.936 1.381 -0.12899999
10.973 1.415 -0.13
10.984 1.447 -0.13
11.02 1.4809999 -0.131
11.038 1.5140001 -0.131
11.058 1.548 -0.132
11.066 1.58 -0.132
11.104 1.6160001 -0.133
11.113 1.648 -0.133
11.145 1.6849999 -0.134
11.164 1.719 -0.134
11.186 1.7539999 -0.13500001
11.202 1.789 -0.13500001
11.225 1.825 -0.13600001
11.238 1.859 -0.13600001
11.298 1.902 -0.13699999
11.335 1.941 -0.138
11.37 1.9809999 -0.139
11.389 2.0179999 -0.139
11.4 2.053 -0.14
11.445 2.095 -0.141
11.485 2.1370001 -0.142
11.501 2.174 -0.142
11.539 2.2160001 -0.14300001
11.59 2.2609999 -0.14399999
11.596 2.2969999 -0.14399999
11.636 2.3399999 -0.145
11.67 2.3829999 -0.146
11.713 2.427 -0.147
11.729 2.467 -0.147
11.745 2.506 -0.148
11.791 2.553 -0.149
11.824 2.5969999 -0.15000001
11.849 2.6389999 -0.15000001
11.882 2.684 -0.15099999
11.899 2.7249999 -0.152
11.944 2.773 -0.152
11.966 2.816 -0.153
11.969 2.855 -0.154
12.007 2.902 -0.154
12.043 2.9489999 -0.155
12.021 2.9820001 -0.155
12.076 3.0350001 -0.156
12.108 3.082 -0.15700001
12.14 3.1289999 -0.15800001
12.147 3.171 -0.15800001
12.161 3.214 -0.15899999
12.167 3.2550001 -0.15899999
12.199 3.3039999 -0.16
12.208 3.346 -0.161
12.238 3.395 -0.162
12.239 3.4360001 -0.162
12.249 3.4790001 -0.163
12.277 3.5280001 -0.163
12.326 3.5829999 -0.164
12.318 3.622 -0.16500001
12.396 3.6860001 -0.16599999
8.8400002 2.6589999 -0.119
12.5 3.7590001 -0.168
8.7629995 2.665 -0.118
12.747 3.8770001 -0.17200001
8.7209997 2.6819999 -0.118
8.6890001 2.701 -0.118
8.6689997 2.724 -0.118
8.6739998 2.756 -0.118
8.6639996 2.7820001 -0.118
8.6639996 2.8110001 -0.118
8.5459995 2.802 -0.117
8.4899998 2.813 -0.117
8.4770002 2.8380001 -0.117
8.46 2.862 -0.117
8.4790001 2.898 -0.117
8.5819998 2.9619999 -0.119
12.588 4.3449998 -0.175
12.585 4.388 -0.175
12.581 4.4299998 -0.176
12.61 4.4840002 -0.177
12.626 4.5339999 -0.177
12.643 4.585 -0.178
12.68 4.6430001 -0.17900001
12.711 4.6989999 -0.18000001
12.748 4.757 -0.18099999
12.777 4.8130002 -0.182
12.798 4.8660002 -0.183
12.862 4.9359999 -0.184
12.897 4.9949999 -0.185
12.943 5.059 -0.186
12.981 5.1199999 -0.18700001
12.989 5.1700001 -0.18799999
12.984 5.2140002 -0.18799999
12.985 5.2610002 -0.189
12.991 5.3099999 -0.189
13.033 5.3730001 -0.19
13.045 5.4250002 -0.191
13.047 5.473 -0.192
13.063 5.527 -0.192
13.121 5.598 -0.19400001
13.14 5.6539998 -0.19499999
13.186 5.7210002 -0.19599999
13.221 5.7839999 -0.197
13.283 5.8590002 -0.198
13.287 5.9089999 -0.199
13.283 5.9559999 -0.199
13.323 6.0219998 -0.20100001
13.341 6.0780001 -0.20100001
13.379 6.1440001 -0.20200001
13.376 6.1919999 -0.20299999
13.38 6.2420001 -0.204
13.392 6.296 -0.204
13.44 6.368 -0.206
13.44 6.4169998 -0.206
13.475 6.4829998 -0.207
13.483 6.5359998 -0.208
13.549 6.618 -0.20999999
12.422 6.2030001 -0.19400001
12.204 6.1389999 -0.191
12.227 6.1950002 -0.192
12.221 6.2810001 -0.193
12.262 6.3470001 -0.19400001
12.251 6.3860002 -0.19400001
12.073 6.3369999 -0.192
12.046 6.3670001 -0.192
12.088 6.434 -0.193
12.146 6.5089998 -0.19499999
12.124 6.5409999 -0.19499999
12.205 6.6300001 -0.197
12.179 6.6599998 -0.197
10.668 6.1440001 -0.176
10.5 6.085 -0.17399999
10.424 6.0780001 -0.17299999
10.376 6.0879998 -0.17299999
10.313 6.0879998 -0.17200001
10.263 6.0949998 -0.17200001
10.21 6.0999999 -0.17200001
10.141 6.0960002 -0.171
10.085 6.098 -0.17
10.048 6.1110001 -0.17
9.9960003 6.1149998 -0.17
9.9549999 6.125 -0.17
9.9169998 6.1370001 -0.17
9.9259996 6.178 -0.17
9.9809999 6.2470002 -0.17200001
10.228 6.4380002 -0.176
9.7299995 6.7849998 -0.177
9.651 6.7610002 -0.177
9.5799999 6.7420001 -0.176
9.5489998 6.7509999 -0.176
9.5200005 6.7610002 -0.176
9.5010004 6.7779999 -0.176
9.4899998 6.7989998 -0.176
9.4989996 6.836 -0.177
9.4870005 6.8569999 -0.177
9.4879999 6.8870001 -0.177
9.4910002 6.9180002 -0.178
7.3390002 -4.3150001 0.013
7.349 -4.3000002 0.013
7.3449998 -4.277 0.013
7.3720002 -4.2719998 0.013
7.3730001 -4.2509999 0.013
7.3889999 -4.2399998 0.013
7.4070001 -4.2290001 0.013
7.4060001 -4.2069998 0.013
7.4229999 -4.1960001 0.013
7.4310002 -4.1789999 0.013
7.441 -4.164 0.013
7.447 -4.1459999 0.013
7.4530001 -4.1279998 0.014
7.4619999 -4.112 0.014
7.4629998 -4.0910001 0.014
7.4720001 -4.0749998 0.014
7.5019999 -4.0689998 0.014
7.5079999 -4.0510001 0.014
7.507 -4.0300002 0.014
7.5289998 -4.0190001 0.014
7.5440001 -4.006 0.014
7.5409999 -3.983 0.014
7.5469999 -3.9649999 0.014
7.546 -3.9419999 0.014
7.5370002 -3.9159999 0.014
7.5749998 -3.914 0.015
7.5960002 -3.9030001 0.015
7.6059999 -3.8859999 0.015
7.6220002 -3.8729999 0.015
7.6279998 -3.8540001 0.015
7.632 -3.8340001 0.015
7.652 -3.822 0.015
7.6490002 -3.7980001 0.015
7.6659999 -3.7850001 0.015
7.684 -3.7709999 0.015
7.7020001 -3.7579999 0.015
7.6999998 -3.7349999 0.016000001
7.7179999 -3.721 0.016000001
7.7280002 -3.704 0.016000001
7.7480001 -3.691 0.016000001
7.7589998 -3.674 0.016000001
7.7649999 -3.655 0.016000001
7.7670002 -3.6329999 0.016000001
7.7909999 -3.622 0.016000001
7.7919998 -3.5999999 0.016000001
7.8140001 -3.5880001 0.016000001
7.836 -3.575 0.016000001
7.836 -3.552 0.017000001
7.8590002 -3.54 0.017000001
7.8660002 -3.5209999 0.017000001
7.8829999 -3.5050001 0.017000001
7.8759999 -3.4790001 0.017000001
7.8920002 -3.464 0.017000001
7.9200001 -3.4530001 0.017000001
7.9400001 -3.4389999 0.017000001
7.9580002 -3.424 0.017000001
7.9650002 -3.4030001 0.017000001
7.9780002 -3.3859999 0.017000001
8.0010004 -3.3729999 0.017999999
8.0030003 -3.3510001 0.017999999
8.0109997 -3.3310001 0.017999999
8.04 -3.3199999 0.017999999
8.0480003 -3.3 0.017999999
8.0699997 -3.2850001 0.017999999
8.0769997 -3.2650001 0.017999999
8.0799999 -3.243 0.017999999
8.1059999 -3.2290001 0.017999999
8.1160002 -3.21 0.017999999
8.1429996 -3.197 0.018999999
8.158 -3.1789999 0.018999999
8.1590004 -3.1559999 0.018999999
8.1960001 -3.1470001 0.018999999
8.217 -3.131 0.018999999
8.2440004 -3.118 0.018999999
8.2589998 -3.0999999 0.018999999
8.2720003 -3.0810001 0.018999999
8.2650003 -3.0539999 0.018999999
8.2880001 -3.039 0.018999999
8.2959995 -3.017 0.02
8.3059998 -2.997 0.02
8.3179998 -2.9779999 0.02
8.3459997 -2.9630001 0.02
8.3529997 -2.9419999 0.02
8.3789997 -2.927 0.02
8.3859997 -2.905 0.02
8.4020004 -2.8859999 0.02
8.4379997 -2.8740001 0.02
8.4309998 -2.848 0.02
8.4560003 -2.832 0.021
8.4799995 -2.8150001 0.021
8.4870005 -2.793 0.021
8.5139999 -2.777 0.021
8.5220003 -2.7550001 0.021
8.5459995 -2.7390001 0.021
8.5509996 -2.7149999 0.021
8.5780001 -2.6989999 0.021
8.5760002 -2.674 0.021
8.6190004 -2.6630001 0.022
8.658 -2.6500001 0.022
8.6789999 -2.631 0.022
8.6750002 -2.605 0.022
8.6940002 -2.586 0.022
8.6949997 -2.5610001 0.022
8.7279997 -2.5450001 0.022
8.7449999 -2.5250001 0.022
8.7629995 -2.5050001 0.022
8.776 -2.484 0.023
8.8260002 -2.4719999 0.023
8.8529997 -2.4549999 0.023
8.8559999 -2.4300001 0.023
8.8719997 -2.4089999 0.023
8.8990002 -2.391 0.023
8.9049997 -2.3670001 0.023
8.9259996 -2.3469999 0.023
8.9370003 -2.3239999 0.024
8.9790001 -2.309 0.024
9.0059996 -2.29 0.024
9.0050001 -2.2639999 0.024
9.04 -2.247 0.024
9.052 -2.224 0.024
9.0799999 -2.2049999 0.024
9.1000004 -2.184 0.024
9.0909996 -2.155 0.024
9.1230001 -2.1370001 0.025
9.1429996 -2.115 0.025
9.165 -2.0940001 0.025
9.2060003 -2.0769999 0.025
9.2229996 -2.0550001 0.025
9.257 -2.036 0.025
9.2840004 -2.0150001 0.025
9.2919998 -1.99 0.026000001
9.309 -1.967 0.026000001
9.342 -1.947 0.026000001
9.3669996 -1.926 0.026000001
9.3789997 -1.901 0.026000001
9.4219999 -1.883 0.026000001
9.4569998 -1.863 0.026000001
9.4820004 -1.841 0.027000001
9.5200005 -1.821 0.027000001
9.5450001 -1.799 0.027000001
9.5670004 -1.775 0.027000001
9.5979996 -1.7539999 0.027000001
9.6400003 -1.734 0.027000001
9.658 -1.71 0.027000001
9.6870003 -1.687 0.028000001
9.6969995 -1.661 0.028000001
9.7229996 -1.638 0.028000001
9.7620001 -1.617 0.028000001
9.8149996 -1.597 0.028000001
9.8549995 -1.576 0.028000001
9.9180002 -1.557 0.028999999
9.882 -1.524 0.028999999
9.8889999 -1.497 0.028999999
9.9490004 -1.477 0.028999999
9.9820004 -1.454 0.028999999
10.023 -1.431 0.028999999
10.081 -1.411 0.029999999
10.111 -1.386 0.029999999
10.139 -1.3609999 0.029999999
10.149 -1.334 0.029999999
10.185 -1.309 0.029999999
10.21 -1.283 0.029999999
10.275 -1.262 0.030999999
10.312 -1.238 0.030999999
10.339 -1.211 0.030999999
10.4 -1.189 0.030999999
10.444 -1.164 0.030999999
10.457 -1.136 0.032000002
10.502 -1.1109999 0.032000002
10.596 -1.091 0.032000002
10.659 -1.067 0.032000002
10.681 -1.039 0.033
10.749 -1.015 0.033
10.725 -0.98199999 0.033
10.742 -0.95300001 0.033
10.809 -0.92799997 0.033
10.859 -0.90200001 0.033
10.955 -0.87900001 0.034000002
10.97 -0.84899998 0.034000002
10.996 -0.81999999 0.034000002
11.042 -0.792 0.034000002
11.086 -0.76300001 0.034000002
11.094 -0.73199999 0.035
11.204 -0.708 0.035
11.127 0.30599999 -0.096000001
11.101 0.31999999 -0.096000001
11.126 0.33700001 -0.097000003
11.057 0.34999999 -0.096000001
11.038 0.366 -0.096000001
11.075 0.384 -0.097000003
11.079 0.40000001 -0.097000003
11.009 0.414 -0.096000001
10.987 0.43099999 -0.096000001
10.999 0.44800001 -0.097000003
10.964 0.46399999 -0.097000003
10.951 0.48199999 -0.097000003
10.958 0.5 -0.097000003
10.968 0.51800001 -0.097000003
10.962 0.537 -0.097000003
10.967 0.55500001 -0.097000003
10.981 0.57499999 -0.097999997
10.952 0.59299999 -0.097999997
10.937 0.611 -0.097999997
10.951 0.63200003 -0.097999997
10.962 0.65200001 -0.097999997
10.983 0.67400002 -0.098999999
10.973 0.69300002 -0.098999999
10.979 0.71399999 -0.098999999
10.95 0.73299998 -0.098999999
10.976 0.75599998 -0.098999999
10.984 0.778 -0.1
10.979 0.79900002 -0.1
11.019 0.824 -0.1
11.045 0.84799999 -0.101
11.042 0.87 -0.101
11.044 0.89200002 -0.101
11.047 0.91500002 -0.102
11.043 0.93800002 -0.102
11.049 0.96200001 -0.102
11.063 0.986 -0.102
11.094 1.013 -0.103
11.094 1.0369999 -0.103
11.125 1.064 -0.104
11.132 1.089 -0.104
11.117 1.112 -0.104
11.171 1.143 -0.105
11.169 1.168 -0.105
11.189 1.1950001 -0.105
11.179 1.22 -0.105
11.225 1.251 -0.106
11.237 1.279 -0.106
11.232 1.304 -0.107
11.247 1.3329999 -0.107
11.253 1.36 -0.107
11.261 1.388 -0.108
11.276 1.418 -0.108
11.291 1.447 -0.108
11.326 1.479 -0.109
11.336 1.5089999 -0.109
11.347 1.539 -0.11
11.374 1.571 -0.11
11.402 1.604 -0.111
11.421 1.636 -0.111
11.433 1.6670001 -0.112
11.45 1.699 -0.112
11.488 1.734 -0.113
11.515 1.7690001 -0.113
11.522 1.8 -0.114
11.566 1.8380001 -0.114
11.581 1.8710001 -0.115
11.639 1.9119999 -0.116
11.654 1.946 -0.116
11.66 1.979 -0.116
11.705 2.0179999 -0.117
11.697 2.049 -0.117
11.727 2.0869999 -0.118
11.748 2.1240001 -0.118
11.766 2.1600001 -0.119
11.806 2.201 -0.12
11.828 2.2379999 -0.12
11.857 2.2780001 -0.121
11.883 2.3169999 -0.121
11.917 2.358 -0.122
11.942 2.398 -0.122
11.972 2.4389999 -0.123
11.99 2.4779999 -0.124
12.016 2.5190001 -0.124
12.025 2.5569999 -0.125
12.059 2.5999999 -0.125
12.085 2.642 -0.126
12.099 2.681 -0.126
12.129 2.7249999 -0.127
12.162 2.77 -0.12800001
12.174 2.8099999 -0.12800001
12.201 2.8540001 -0.12899999
12.212 2.8940001 -0.12899999
12.228 2.9360001 -0.13
12.256 2.9809999 -0.13
12.254 3.0190001 -0.131
12.283 3.0650001 -0.131
12.3 3.109 -0.132
12.324 3.154 -0.132
12.309 3.1900001 -0.133
12.309 3.23 -0.133
12.313 3.2709999 -0.133
12.358 3.323 -0.134
12.366 3.3659999 -0.13500001
12.401 3.4159999 -0.13500001
12.402 3.457 -0.13600001
12.42 3.5039999 -0.13600001
12.447 3.553 -0.13699999
12.488 3.6070001 -0.138
12.492 3.6500001 -0.138
12.509 3.697 -0.139
12.506 3.7390001 -0.139
9.052 2.737 -0.101
12.561 3.7980001 -0.14
8.8199997 2.697 -0.098999999
12.703 3.885 -0.142
8.7220001 2.697 -0.097999997
8.698 2.72 -0.097999997
8.6700001 2.7409999 -0.097999997
8.6639996 2.77 -0.097999997
8.665 2.8 -0.097999997
8.6269999 2.8180001 -0.097999997
8.5179996 2.813 -0.097000003
8.4770002 2.8299999 -0.097000003
8.4580002 2.8529999 -0.097000003
8.4729996 2.8889999 -0.097000003
8.5290003 2.9389999 -0.097999997
12.868 4.434 -0.149
12.767 4.4450002 -0.148
12.792 4.5 -0.149
12.789 4.546 -0.149
12.807 4.599 -0.15000001
12.834 4.6560001 -0.15000001
12.913 4.7319999 -0.152
12.968 4.8010001 -0.153
13.005 4.8629999 -0.154
13.027 4.9190001 -0.154
13.091 4.993 -0.156
13.122 5.0539999 -0.15700001
13.162 5.119 -0.15700001
13.215 5.1900001 -0.15899999
13.228 5.2459998 -0.15899999
13.257 5.3080001 -0.16
13.266 5.362 -0.161
13.281 5.4200001 -0.161
13.298 5.4780002 -0.162
13.333 5.5440001 -0.163
13.359 5.6079998 -0.164
13.408 5.6799998 -0.16500001
13.427 5.7420001 -0.16599999
13.447 5.803 -0.16599999
13.501 5.8800001 -0.167
13.541 5.9510002 -0.168
13.602 6.0320001 -0.17
13.631 6.0999999 -0.171
13.61 6.145 -0.171
13.652 6.2199998 -0.17200001
13.639 6.2690001 -0.17200001
13.645 6.3270001 -0.17299999
13.632 6.3769999 -0.17299999
13.629 6.4310002 -0.17399999
13.67 6.507 -0.175
13.708 6.5819998 -0.176
13.746 6.6570001 -0.177
12.25 6.1370001 -0.15899999
12.224 6.1760001 -0.16
12.206 6.27 -0.16
12.238 6.3390002 -0.161
12.239 6.3920002 -0.162
12.057 6.349 -0.16
12.028 6.3850002 -0.16
12.087 6.4689999 -0.161
12.111 6.5349998 -0.162
12.207 6.6399999 -0.164
12.185 6.6810002 -0.164
12.153 6.717 -0.164
10.743 6.224 -0.148
10.543 6.1560001 -0.146
10.428 6.1360002 -0.145
10.36 6.1420002 -0.14399999
10.294 6.1500001 -0.14399999
10.232 6.1599998 -0.14300001
10.169 6.1680002 -0.14300001
10.114 6.1810002 -0.142
10.053 6.1900001 -0.142
9.9969997 6.2020001 -0.142
9.9499998 6.2189999 -0.141
9.8870001 6.2249999 -0.141
9.8500004 6.2480001 -0.141
9.849 6.2940001 -0.141
9.9069996 6.3769999 -0.14300001
10.124 6.5650001 -0.146
9.7119999 6.9050002 -0.146
9.5900002 6.8649998 -0.145
9.5170002 6.8590002 -0.14399999
7.0289998 -4.6360002 0.028999999
7.0570002 -4.6100001 0.028999999
7.0830002 -4.5819998 0.028999999
7.118 -4.5609999 0.029999999
7.1370001 -4.5289998 0.029999999
7.165 -4.5029998 0.029999999
7.1900001 -4.4759998 0.029999999
7.2160001 -4.4489999 0.029999999
7.2410002 -4.4219999 0.029999999
7.2610002 -4.3920002 0.029999999
7.277 -4.3590002 0.030999999
7.3049998 -4.3340001 0.030999999
7.3270001 -4.3049998 0.030999999
7.3319998 -4.2670002 0.030999999
7.3660002 -4.2449999 0.030999999
7.3940001 -4.2199998 0.030999999
7.4029999 -4.1849999 0.030999999
7.428 -4.1589999 0.030999999
7.4569998 -4.1339998 0.032000002
7.46 -4.0960002 0.032000002
7.4660001 -4.059 0.032000002
7.461 -4.0180001 0.032000002
7.5120001 -4.006 0.032000002
7.5419998 -3.9820001 0.032000002
7.5599999 -3.9530001 0.032000002
7.5840001 -3.927 0.032000002
7.598 -3.895 0.033
7.6160002 -3.8670001 0.033
7.6370001 -3.839 0.033
7.6539998 -3.8099999 0.033
7.6739998 -3.7820001 0.033
7.6950002 -3.7550001 0.033
7.717 -3.7290001 0.033
7.7309999 -3.698 0.033
7.763 -3.677 0.034000002
7.7849998 -3.6500001 0.034000002
7.803 -3.6229999 0.034000002
7.8260002 -3.5969999 0.034000002
7.829 -3.562 0.034000002
7.8629999 -3.5420001 0.034000002
7.8860002 -3.516 0.034000002
7.9050002 -3.4890001 0.035
7.9310002 -3.4649999 0.035
7.9499998 -3.438 0.035
7.9850001 -3.418 0.035
8.0030003 -3.391 0.035
8.033 -3.369 0.035
8.0480003 -3.3399999 0.035999998
8.0629997 -3.312 0.035999998
8.1020002 -3.2939999 0.035999998
8.1309996 -3.2709999 0.035999998
8.1669998 -3.2509999 0.035999998
8.1730003 -3.22 0.035999998
8.1800003 -3.1889999 0.035999998
8.2010002 -3.164 0.037
8.2329998 -3.142 0.037
8.2690001 -3.1229999 0.037
8.316 -3.1070001 0.037
8.3050003 -3.0699999 0.037
8.3400002 -3.05 0.037
8.3620005 -3.0250001 0.037999999
8.3760004 -2.9979999 0.037999999
8.4020004 -2.974 0.037999999
8.4110003 -2.9449999 0.037999999
8.4490004 -2.9260001 0.037999999
8.4729996 -2.902 0.037999999
8.5019999 -2.8800001 0.037999999
8.526 -2.8570001 0.039000001
8.5579996 -2.835 0.039000001
8.5769997 -2.8099999 0.039000001
8.5959997 -2.7850001 0.039000001
8.6110001 -2.7579999 0.039000001
8.6350002 -2.7349999 0.039000001
8.6820002 -2.7179999 0.039999999
8.7329998 -2.7030001 0.039999999
8.7700005 -2.6830001 0.039999999
8.7580004 -2.6489999 0.039999999
8.7810001 -2.625 0.039999999
8.7989998 -2.5999999 0.039999999
8.8290005 -2.5780001 0.041000001
8.875 -2.5610001 0.041000001
8.9289999 -2.5469999 0.041000001
8.9659996 -2.527 0.041000001
8.9879999 -2.503 0.041999999
8.9969997 -2.4749999 0.041999999
9.0100002 -2.4489999 0.041999999
9.0179996 -2.421 0.041999999
9.0600004 -2.4030001 0.041999999
9.0699997 -2.3759999 0.041999999
9.099 -2.3540001 0.041999999
9.1569996 -2.3399999 0.043000001
9.1759996 -2.3150001 0.043000001
9.2060003 -2.293 0.043000001
9.2220001 -2.2679999 0.043000001
9.2320004 -2.2420001 0.043000001
9.2390003 -2.2149999 0.043000001
9.2709999 -2.194 0.044
9.3009996 -2.1719999 0.044
9.3439999 -2.154 0.044
9.3769999 -2.1329999 0.044
9.4119997 -2.1129999 0.044
9.4420004 -2.0910001 0.045000002
9.4650002 -2.0680001 0.045000002
9.4910002 -2.046 0.045000002
9.5179996 -2.023 0.045000002
9.559 -2.0039999 0.045000002
9.5679998 -1.978 0.045000002
9.6049995 -1.9579999 0.046
9.6350002 -1.937 0.046
9.6689997 -1.916 0.046
9.7060003 -1.896 0.046
9.717 -1.8710001 0.046
9.743 -1.849 0.046999998
9.7600002 -1.825 0.046999998
9.823 -1.809 0.046999998
9.8219995 -1.7819999 0.046999998
9.8559999 -1.762 0.046999998
9.8789997 -1.739 0.048
9.8979998 -1.716 0.048
9.9420004 -1.697 0.048
9.9720001 -1.675 0.048
9.9989996 -1.653 0.048
10.029 -1.632 0.048999999
10.096 -1.617 0.048999999
10.198 -1.607 0.048999999
10.183 -1.5779999 0.048999999
10.119 -1.543 0.048999999
10.147 -1.521 0.048999999
10.177 -1.5 0.050000001
10.202 -1.478 0.050000001
10.262 -1.461 0.050000001
10.289 -1.4400001 0.050000001
10.315 -1.418 0.050999999
10.323 -1.3940001 0.050999999
10.368 -1.375 0.050999999
10.371 -1.35 0.050999999
10.406 -1.33 0.050999999
10.451 -1.311 0.050999999
10.508 -1.293 0.052000001
10.543 -1.272 0.052000001
10.565 -1.25 0.052000001
10.579 -1.228 0.052000001
10.594 -1.205 0.052000001
10.63 -1.1849999 0.052999999
10.668 -1.165 0.052999999
10.703 -1.1440001 0.052999999
10.711 -1.1210001 0.052999999
10.728 -1.099 0.052999999
10.778 -1.08 0.054000001
10.781 -1.057 0.054000001
10.791 -1.035 0.054000001
10.843 -1.016 0.054000001
10.867 -0.995 0.054000001
10.845 -0.97000003 0.054000001
10.852 -0.94700003 0.054000001
10.851 -0.92400002 0.054000001
10.875 -0.90399998 0.055
10.871 -0.88099998 0.055
10.88 -0.85900003 0.055
10.888 -0.83700001 0.055
10.909 -0.81699997 0.055
10.982 -0.80000001 0.055
11.037 -0.78200001 0.056000002
11.021 -0.759 0.056000002
11.095 -0.74199998 0.056000002
11.096 -0.72000003 0.056000002
11.112 -0.699 0.056000002
11.129 -0.67900002 0.057
11.129 -0.65700001 0.057
11.143 -0.63700002 0.057
11.123 -0.61500001 0.057
11.162 -0.59600002 0.057
11.135 -0.57300001 0.057
11.15 -0.55299997 0.057
11.209 -0.53600001 0.057
10.859 0.13699999 -0.063000001
10.886 0.15700001 -0.063000001
10.872 0.177 -0.063000001
10.884 0.197 -0.063000001
10.897 0.21799999 -0.064000003
10.898 0.23800001 -0.064000003
10.926 0.25999999 -0.064000003
10.903 0.28 -0.064000003
10.919 0.30199999 -0.064999998
10.923 0.32300001 -0.064999998
10.934 0.345 -0.064999998
10.93 0.36700001 -0.064999998
10.899 0.38800001 -0.064999998
10.92 0.41100001 -0.064999998
10.906 0.43399999 -0.066
10.932 0.45699999 -0.066
10.919 0.47999999 -0.066
10.933 0.50400001 -0.066
10.935 0.52700001 -0.066
10.936 0.551 -0.067000002
10.948 0.57599998 -0.067000002
10.968 0.60100001 -0.067000002
10.957 0.625 -0.067000002
10.973 0.64999998 -0.068000004
10.979 0.67500001 -0.068000004
10.98 0.69999999 -0.068000004
10.993 0.727 -0.068000004
11.001 0.75300002 -0.068999998
10.998 0.778 -0.068999998
11.02 0.80500001 -0.068999998
11.043 0.833 -0.07
11.04 0.85900003 -0.07
11.069 0.88800001 -0.07
11.083 0.91600001 -0.07
11.091 0.94400001 -0.071000002
11.091 0.97100002 -0.071000002
11.103 1 -0.071000002
11.114 1.028 -0.071999997
11.129 1.058 -0.071999997
11.141 1.087 -0.071999997
11.171 1.118 -0.072999999
11.191 1.149 -0.072999999
11.206 1.179 -0.072999999
11.224 1.21 -0.074000001
11.24 1.2410001 -0.074000001
11.257 1.272 -0.074000001
11.29 1.3049999 -0.075000003
11.319 1.339 -0.075000003
11.316 1.369 -0.075000003
11.333 1.401 -0.075999998
11.352 1.434 -0.075999998
11.381 1.4680001 -0.077
11.401 1.502 -0.077
11.432 1.5369999 -0.077
11.466 1.573 -0.078000002
11.484 1.608 -0.078000002
11.507 1.643 -0.079000004
11.544 1.6799999 -0.079000004
11.577 1.7180001 -0.079999998
11.632 1.758 -0.079999998
11.655 1.795 -0.081
11.667 1.83 -0.081
11.671 1.864 -0.081
11.727 1.9069999 -0.082000002
11.784 1.95 -0.082999997
11.814 1.989 -0.082999997
11.827 2.026 -0.083999999
11.856 2.0650001 -0.083999999
11.88 2.105 -0.083999999
11.918 2.1470001 -0.085000001
11.95 2.188 -0.086000003
11.997 2.2320001 -0.086000003
