# .PCD v0.7 - Point Cloud Data file format
VERSION 0.7
FIELDS x y z
SIZE 4 4 4
TYPE F F F
COUNT 1 1 1
WIDTH 1798
HEIGHT 1
VIEWPOINT 0 0 0 1 0 0 0
POINTS 1798
DATA ascii
9.6999998 -5.493 0.42699999
9.6789999 -5.454 0.426
9.6859999 -5.4299998 0.426
9.7110004 -5.4159999 0.42699999
9.7080002 -5.3860002 0.42699999
9.7360001 -5.3730001 0.428
9.7419996 -5.348 0.428
9.7600002 -5.3299999 0.42899999
9.7950001 -5.3210001 0.43099999
9.7720003 -5.2800002 0.43000001
9.7939997 -5.263 0.43099999
9.8039999 -5.2399998 0.43099999
9.8310003 -5.2259998 0.43200001
9.868 -5.217 0.43399999
9.8710003 -5.1900001 0.43399999
9.8909998 -5.1719999 0.435
9.8900003 -5.1420002 0.435
9.9219999 -5.1300001 0.43599999
9.9200001 -5.1009998 0.43599999
9.9289999 -5.0760002 0.43599999
9.9569998 -5.0609999 0.43799999
9.9779997 -5.0430002 0.43799999
9.9989996 -5.0250001 0.43900001
10.006 -4.9990001 0.44
10.02 -4.9770002 0.44
10.048 -4.961 0.44100001
10.068 -4.9419999 0.442
10.09 -4.9229999 0.44299999
10.094 -4.8959999 0.44299999
10.121 -4.8790002 0.44499999
10.117 -4.848 0.44400001
10.136 -4.8270001 0.44499999
10.154 -4.8060002 0.44600001
10.187 -4.7919998 0.447
10.205 -4.7709999 0.44800001
10.22 -4.7480001 0.449
10.237 -4.7259998 0.449
10.261 -4.7069998 0.44999999
10.26 -4.6760001 0.44999999
10.328 -4.677 0.45300001
10.348 -4.6560001 0.454
10.343 -4.6240001 0.454
10.357 -4.5999999 0.454
10.392 -4.585 0.456
10.393 -4.5549998 0.456
10.411 -4.533 0.45699999
10.44 -4.5139999 0.458
10.472 -4.4980001 0.45899999
10.542 -4.4970002 0.46200001
9.7089996 -4.1129999 0.426
9.6479998 -4.059 0.42300001
9.6190004 -4.0190001 0.42199999
9.6289997 -3.9949999 0.42199999
9.6440001 -3.973 0.42300001
9.7019997 -3.9690001 0.42500001
9.7969999 -3.9790001 0.42899999
10.742 -4.3309999 0.47099999
10.776 -4.3140001 0.472
9.8360004 -3.9089999 0.43099999
9.7840004 -3.859 0.42899999
9.7799997 -3.829 0.428
9.7810001 -3.8010001 0.428
9.8219995 -3.7880001 0.43000001
9.9160004 -3.7950001 0.43399999
10.932 -4.1529999 0.479
10.932 -4.1199999 0.479
10.935 -4.0900002 0.479
10.942 -4.0609999 0.479
10.981 -4.0430002 0.48100001
11.019 -4.0250001 0.48199999
11.024 -3.994 0.48300001
11.048 -3.971 0.484
11.09 -3.9530001 0.48500001
11.13 -3.9349999 0.48699999
11.132 -3.9030001 0.48699999
11.17 -3.8840001 0.48899999
11.192 -3.8599999 0.49000001
11.211 -3.8329999 0.49000001
11.271 -3.8210001 0.493
11.293 -3.796 0.49399999
11.3 -3.7650001 0.49399999
11.321 -3.7390001 0.495
11.353 -3.717 0.49599999
11.372 -3.6900001 0.49700001
11.404 -3.6670001 0.498
11.52 -3.671 0.50300002
11.619 -3.635 0.50800002
11.591 -3.592 0.50599998
11.556 -3.5480001 0.505
11.588 -3.5239999 0.50599998
11.62 -3.5 0.50700003
11.628 -3.4690001 0.50800002
11.656 -3.4430001 0.509
11.677 -3.415 0.50999999
11.723 -3.395 0.51200002
11.772 -3.375 0.514
11.804 -3.3499999 0.51499999
11.793 -3.312 0.51499999
11.811 -3.283 0.51499999
11.844 -3.2579999 0.51700002
11.864 -3.2290001 0.51700002
11.924 -3.211 0.51999998
11.936 -3.1800001 0.51999998
11.996 -3.161 0.523
12.011 -3.1300001 0.52399999
12.088 -3.115 0.52700001
12.098 -3.0829999 0.52700001
12.158 -3.063 0.52999997
12.177 -3.0320001 0.53100002
12.226 -3.0090001 0.53299999
12.259 -2.9820001 0.53399998
12.255 -2.9449999 0.53399998
12.303 -2.921 0.53600001
12.381 -2.904 0.53899997
12.434 -2.881 0.54100001
12.509 -2.862 0.54500002
12.54 -2.8329999 0.546
12.586 -2.8069999 0.54799998
12.778 -2.813 0.55599999
13.566 -2.517 0.58899999
13.577 -2.48 0.58999997
13.616 -2.448 0.59100002
13.729 -2.4289999 0.59600002
13.746 -2.3529999 0.597
13.731 -2.3110001 0.59600002
13.82 -2.286 0.60000002
13.928 -2.224 0.60399997
14.047 -2.2019999 0.60900003
13.978 -2.1110001 0.60600001
14.07 -2.085 0.61000001
14.147 -2.056 0.61299998
14.219 -2.0250001 0.616
14.131 -1.972 0.61199999
14.12 -1.9299999 0.61199999
14.184 -1.898 0.61500001
14.278 -1.87 0.61900002
14.278 -1.829 0.61799997
14.275 -1.788 0.61799997
14.34 -1.755 0.62099999
14.368 -1.717 0.62199998
13.001 0.118 0.45899999
12.985 0.12899999 0.458
12.998 0.141 0.458
12.984 0.154 0.45699999
12.993 0.167 0.45699999
12.987 0.18000001 0.45699999
12.996 0.193 0.45699999
13.011 0.207 0.45699999
13.014 0.221 0.45699999
13.011 0.236 0.45699999
13.013 0.25 0.45699999
12.982 0.26499999 0.45500001
12.981 0.28 0.45500001
12.967 0.296 0.454
12.969 0.31200001 0.454
12.953 0.32800001 0.45300001
12.96 0.345 0.45300001
12.953 0.361 0.45300001
12.956 0.37900001 0.45300001
12.928 0.39500001 0.45199999
12.933 0.41299999 0.45199999
12.917 0.43099999 0.45100001
12.92 0.44999999 0.45100001
12.913 0.46799999 0.44999999
12.906 0.48699999 0.44999999
12.907 0.50599998 0.44999999
12.905 0.52600002 0.449
12.892 0.54500002 0.449
12.912 0.56599998 0.449
12.909 0.58700001 0.449
12.916 0.60799998 0.449
12.942 0.63 0.44999999
12.968 0.653 0.45100001
12.995 0.676 0.45199999
13.019 0.699 0.45199999
13.1 0.72600001 0.45500001
16.944 1.527 0.58700001
16.844 1.554 0.58399999
16.790001 1.585 0.58200002
16.789 1.6210001 0.58200002
16.830999 1.661 0.583
16.857 1.701 0.58399999
16.854 1.738 0.58399999
16.882999 1.779 0.58499998
16.910999 1.8200001 0.58600003
16.966 1.865 0.588
16.987 1.906 0.58899999
17.006001 1.947 0.58899999
17.031 1.99 0.58999997
17.094 2.0380001 0.59200001
17.125999 2.082 0.59399998
17.159 2.1270001 0.59500003
17.179001 2.171 0.59600002
17.237 2.22 0.59799999
17.305 2.2709999 0.60000002
17.348 2.319 0.602
17.422001 2.372 0.60399997
17.497 2.4260001 0.60699999
17.493 2.47 0.60699999
17.558001 2.523 0.60900003
17.554001 2.5680001 0.60900003
17.589001 2.618 0.611
17.636 2.671 0.61199999
17.697001 2.7260001 0.61500001
17.729 2.777 0.616
17.768999 2.8310001 0.61799997
17.794001 2.882 0.61900002
17.851999 2.9389999 0.62099999
17.913 2.997 0.62300003
17.947001 3.052 0.62400001
18.093 3.1259999 0.63
18.181 3.191 0.63300002
18.216999 3.2479999 0.634
18.334 3.3199999 0.639
18.372999 3.378 0.63999999
18.488001 3.451 0.64499998
18.469999 3.5 0.64399999
18.573 3.572 0.648
18.628 3.6359999 0.64999998
18.625 3.6889999 0.64999998
18.613001 3.7409999 0.64999998
18.653999 3.803 0.65200001
18.648001 3.8570001 0.65200001
18.742001 3.931 0.65600002
18.749001 3.9879999 0.65600002
18.771 4.0489998 0.65700001
18.799 4.1110001 0.65799999
18.844999 4.178 0.66000003
18.912001 4.25 0.66299999
18.964001 4.3200002 0.66500002
18.981001 4.382 0.66600001
19.105 4.4689999 0.671
19.16 4.5409999 0.67299998
19.295 4.6329999 0.67799997
19.507999 4.7449999 0.68599999
9.6110001 2.5829999 0.33899999
9.5349998 2.5940001 0.33700001
9.4919996 2.6129999 0.336
9.4790001 2.641 0.33500001
9.4779997 2.6719999 0.336
9.4899998 2.707 0.336
9.552 2.757 0.33899999
9.7399998 2.8440001 0.34599999
15.577 5.362 0.55900002
15.357 5.3410001 0.55199999
15.232 5.3530002 0.54799998
15.117 5.368 0.54400003
15.027 5.3909998 0.54100001
15.069 5.461 0.54299998
12.537 5.7550001 0.46399999
12.397 5.7410002 0.45899999
12.375 5.7820001 0.45899999
12.373 5.8319998 0.45899999
12.37 5.881 0.46000001
12.375 5.934 0.46000001
12.396 5.9959998 0.46200001
12.199 6.8959999 0.465
12.097 6.8920002 0.46200001
9.1120005 -5.9899998 0.428
9.1549997 -5.961 0.43000001
9.1879997 -5.9250002 0.43099999
9.2110004 -5.8839998 0.43200001
9.2530003 -5.8540001 0.433
9.2819996 -5.816 0.43399999
9.3260002 -5.7880001 0.43599999
9.3529997 -5.7490001 0.43700001
9.3870001 -5.7160001 0.43799999
9.4110003 -5.6750002 0.43900001
9.448 -5.6430001 0.44100001
9.4770002 -5.6059999 0.442
9.5129995 -5.573 0.44299999
9.5410004 -5.5370002 0.44400001
9.5780001 -5.5050001 0.44499999
9.5950003 -5.461 0.44600001
9.6359997 -5.4320002 0.44800001
9.6409998 -5.382 0.447
9.6759996 -5.3499999 0.449
9.6859999 -5.3039999 0.449
9.71 -5.2659998 0.44999999
9.7690001 -5.2459998 0.45199999
9.7959995 -5.21 0.45300001
9.809 -5.1659999 0.454
9.8450003 -5.1339998 0.45500001
9.8730001 -5.099 0.456
9.9169998 -5.072 0.458
9.9510002 -5.039 0.45899999
9.9680004 -4.9990001 0.46000001
9.9870005 -4.9590001 0.46000001
10.044 -4.9390001 0.463
10.08 -4.9070001 0.46399999
10.094 -4.8660002 0.46399999
10.101 -4.8210001 0.465
10.156 -4.7989998 0.46700001
10.17 -4.7579999 0.46700001
10.218 -4.7329998 0.46900001
10.266 -4.7080002 0.47099999
10.276 -4.665 0.47099999
10.319 -4.638 0.47299999
10.36 -4.6100001 0.47499999
10.396 -4.579 0.47600001
10.417 -4.5419998 0.477
10.448 -4.5089998 0.47799999
10.486 -4.48 0.47999999
10.533 -4.454 0.48199999
10.573 -4.4260001 0.48300001
10.666 -4.4190001 0.48699999
9.6949997 -3.9749999 0.44299999
9.6590004 -3.9189999 0.44100001
9.677 -3.8859999 0.44100001
9.7659998 -3.881 0.44499999
10.836 -4.2620001 0.49399999
10.943 -4.2589998 0.49900001
9.8310003 -3.786 0.44800001
9.8140001 -3.7390001 0.447
9.8529997 -3.7149999 0.44800001
9.9639997 -3.717 0.45300001
11.058 -4.0809999 0.50300002
11.086 -4.0479999 0.50400001
11.122 -4.0180001 0.50599998
11.182 -3.9960001 0.50800002
11.207 -3.9619999 0.509
11.284 -3.9460001 0.51200002
11.318 -3.915 0.514
11.334 -3.8770001 0.514
11.352 -3.8410001 0.51499999
11.382 -3.8080001 0.51599997
11.424 -3.78 0.51800001
11.482 -3.757 0.51999998
11.533 -3.7320001 0.523
11.557 -3.698 0.523
11.724 -3.7090001 0.53100002
11.751 -3.675 0.53200001
11.713 -3.622 0.52999997
11.722 -3.5829999 0.52999997
11.743 -3.5480001 0.53100002
11.797 -3.523 0.53299999
11.842 -3.4960001 0.53500003
11.877 -3.4649999 0.537
11.933 -3.441 0.53899997
11.968 -3.4100001 0.54100001
12.039 -3.3900001 0.54400003
12.034 -3.348 0.54299998
12.072 -3.319 0.54500002
12.148 -3.299 0.54799998
12.196 -3.2720001 0.55000001
12.264 -3.25 0.55299997
12.284 -3.2160001 0.55400002
12.336 -3.1900001 0.55599999
12.385 -3.1630001 0.55800003
12.462 -3.1429999 0.56199998
12.553 -3.1259999 0.56599998
13.575 -2.9260001 0.61000001
13.586 -2.8889999 0.611
13.627 -2.858 0.61299998
13.762 -2.846 0.61799997
13.681 -2.79 0.61500001
13.676 -2.75 0.61400002
13.81 -2.6600001 0.62
13.786 -2.6170001 0.61900002
13.81 -2.5840001 0.62
13.918 -2.527 0.625
13.904 -2.487 0.62400001
13.88 -2.4449999 0.62300003
13.955 -2.421 0.62599999
14.032 -2.3970001 0.63
14.206 -2.3150001 0.63700002
14.168 -2.2720001 0.63499999
14.242 -2.247 0.639
14.211 -2.2060001 0.63700002
14.222 -2.171 0.63800001
14.331 -2.152 0.64200002
14.281 -2.108 0.63999999
14.424 -2.0929999 0.64700001
14.437 -2.059 0.64700001
14.409 -2.02 0.64600003
14.4 -1.983 0.64499998
14.398 -1.948 0.64499998
14.423 -1.916 0.64600003
14.447 -1.885 0.64700001
14.515 -1.859 0.64999998
13.219 0.15700001 0.59500003
13.075 0.17200001 0.58899999
13.06 0.189 0.588
13.066 0.207 0.588
13.038 0.223 0.58700001
13.017 0.23999999 0.58700001
13.015 0.25600001 0.58700001
13.044 0.273 0.588
13.022 0.289 0.58700001
13.056 0.30599999 0.58899999
13.018 0.32100001 0.58700001
13.003 0.336 0.58700001
13.029 0.35299999 0.588
13.056 0.36899999 0.58899999
13.088 0.38499999 0.59100002
13.103 0.40099999 0.59200001
13.117 0.41600001 0.59200001
13.138 0.43200001 0.59299999
12.826 0.17900001 0.486
12.844 0.20299999 0.48699999
12.838 0.226 0.48699999
12.862 0.249 0.48699999
12.855 0.273 0.48699999
12.872 0.29699999 0.48699999
12.862 0.32100001 0.48699999
12.857 0.34599999 0.486
12.856 0.37 0.486
12.849 0.39500001 0.486
12.847 0.41999999 0.48500001
12.856 0.44600001 0.486
12.838 0.47099999 0.48500001
12.849 0.498 0.48500001
12.854 0.52499998 0.48500001
12.859 0.551 0.48500001
12.865 0.579 0.48500001
12.874 0.60600001 0.48500001
12.897 0.63499999 0.486
12.919 0.66299999 0.48699999
12.941 0.69300002 0.48800001
12.98 0.72299999 0.48899999
13.02 0.75400001 0.49000001
13.046 0.78500003 0.491
13.049 0.81400001 0.491
13.077 0.84500003 0.49200001
13.148 0.88 0.495
13.137 0.90899998 0.49399999
13.134 0.93900001 0.49399999
13.107 0.96799999 0.493
13.117 1 0.493
13.128 1.0319999 0.49399999
13.104 1.061 0.493
13.099 1.092 0.493
13.122 1.126 0.493
13.137 1.159 0.49399999
13.231 1.2 0.49700001
17.066 1.59 0.64200002
16.933001 1.62 0.63700002
16.941 1.663 0.63700002
17.003 1.712 0.639
17.007 1.755 0.639
17.049999 1.803 0.64099997
17.108 1.853 0.64300001
17.16 1.903 0.64499998
17.225 1.955 0.648
17.263 2.0050001 0.64899999
17.309 2.0550001 0.65100002
17.382 2.1099999 0.65399998
17.410999 2.1600001 0.65499997
17.476 2.2149999 0.65700001
17.542999 2.27 0.66000003
17.577999 2.323 0.66100001
17.584 2.3710001 0.66100001
17.58 2.4189999 0.66100001
17.615 2.4719999 0.66299999
17.662001 2.527 0.66500002
17.767 2.592 0.66900003
17.811001 2.648 0.67000002
17.952 2.7190001 0.676
18.037001 2.783 0.67900002
18.011 2.8299999 0.67799997
18.077 2.892 0.68099999
18.143999 2.954 0.68400002
18.229 3.0209999 0.68699998
18.235001 3.0739999 0.68699998
18.375 3.151 0.69300002
18.676001 3.257 0.704
18.641001 3.306 0.70300001
18.664 3.365 0.704
18.716 3.4289999 0.70599997
18.750999 3.4909999 0.708
18.784 3.553 0.70899999
18.818001 3.6159999 0.71100003
18.855 3.6800001 0.71200001
18.966999 3.7590001 0.71700001
18.957001 3.8139999 0.71600002
19.039 3.888 0.72000003
19.121 3.9630001 0.72299999
19.198999 4.0380001 0.72600001
19.176001 4.0929999 0.72600001
19.191999 4.1550002 0.727
19.319 4.2420001 0.73199999
19.253 4.2880001 0.72899997
19.457001 4.3940001 0.73699999
19.527 4.4710002 0.74000001
19.635 4.5570002 0.745
19.775 4.777 0.75099999
19.763 4.8379998 0.75099999
9.7729998 2.5810001 0.37200001
9.585 2.563 0.36500001
9.526 2.5780001 0.36300001
9.4910002 2.5999999 0.36199999
9.4750004 2.6259999 0.361
9.4870005 2.661 0.36199999
9.5109997 2.6989999 0.36300001
9.5539999 2.743 0.36500001
9.6009998 2.7880001 0.36700001
9.6370001 2.8310001 0.368
9.7600002 2.9000001 0.373
15.511 5.348 0.59899998
15.359 5.349 0.59299999
15.246 5.362 0.58899999
15.164 5.3860002 0.58600003
15.114 5.421 0.58499998
15.226 5.5139999 0.58999997
14.709 5.8460002 0.574
14.582 5.848 0.56900001
10.763 7.4660001 0.456
10.77 7.506 0.45699999
10.702 7.494 0.45500001
10.653 7.494 0.45300001
10.623 7.507 0.45199999
10.59 7.5180001 0.45199999
10.573 7.539 0.45100001
10.551 7.5570002 0.45100001
10.534 7.5780001 0.45100001
10.505 7.5900002 0.44999999
10.496 7.6160002 0.44999999
10.478 7.6350002 0.44999999
9.9370003 -5.8889999 0.48300001
9.9469995 -5.8670001 0.484
9.9379997 -5.8330002 0.48300001
9.9530001 -5.8130002 0.484
9.9639997 -5.7909999 0.48500001
9.9960003 -5.7810001 0.486
10.017 -5.7639999 0.48699999
10.012 -5.7319999 0.48699999
10.007 -5.7010002 0.486
10.027 -5.6830001 0.48699999
10.059 -5.6719999 0.48899999
10.037 -5.6300001 0.48800001
10.062 -5.6149998 0.48899999
10.069 -5.5900002 0.48899999
10.097 -5.5770001 0.491
10.094 -5.546 0.491
10.116 -5.5279999 0.49200001
10.143 -5.5139999 0.493
10.17 -5.4990001 0.49399999
10.201 -5.4860001 0.49599999
10.238 -5.4759998 0.49700001
10.229 -5.4419999 0.49700001
10.259 -5.428 0.498
10.287 -5.4130001 0.5
10.292 -5.3850002 0.5
10.281 -5.3499999 0.49900001
10.295 -5.3270001 0.5
10.329 -5.3150001 0.50199997
10.336 -5.2880001 0.50199997
10.37 -5.2750001 0.50300002
10.366 -5.243 0.50300002
10.37 -5.2150002 0.50300002
10.389 -5.1939998 0.50400001
10.404 -5.171 0.505
10.412 -5.1440001 0.505
10.424 -5.1199999 0.50599998
10.457 -5.1059999 0.50700003
10.471 -5.0819998 0.50800002
10.483 -5.0570002 0.509
10.526 -5.0469999 0.51099998
10.523 -5.0149999 0.50999999
10.558 -5 0.51200002
10.58 -4.98 0.51300001
10.6 -4.9580002 0.514
10.625 -4.9390001 0.51499999
10.637 -4.914 0.51599997
10.641 -4.8850002 0.51599997
10.707 -4.8829999 0.51899999
10.705 -4.8509998 0.51899999
10.75 -4.8400002 0.52100003
10.751 -4.809 0.52100003
10.759 -4.7810001 0.52100003
10.793 -4.7649999 0.523
10.803 -4.737 0.523
10.861 -4.7309999 0.52600002
10.863 -4.6999998 0.52600002
10.897 -4.6830001 0.528
10.94 -4.6690001 0.52999997
10.932 -4.6339998 0.52899998
9.7449999 -4.1020002 0.472
9.6479998 -4.033 0.46700001
9.6190004 -3.993 0.46599999
9.6289997 -3.9690001 0.46599999
9.6520004 -3.95 0.46700001
9.7259998 -3.9519999 0.47099999
11.171 -4.507 0.54100001
11.127 -4.4559999 0.53799999
11.187 -4.447 0.54100001
9.868 -3.8940001 0.477
9.8299999 -3.8510001 0.47499999
9.8149996 -3.816 0.47499999
9.8190002 -3.789 0.47499999
9.8039999 -3.7539999 0.47400001
9.9110003 -3.766 0.479
11.325 -4.27 0.54699999
11.31 -4.2319999 0.54699999
11.347 -4.2129998 0.54799998
11.368 -4.1869998 0.54900002
11.408 -4.1690001 0.551
11.419 -4.1389999 0.55199999
11.457 -4.119 0.55299997
11.467 -4.0900002 0.55400002
11.476 -4.059 0.55400002
11.517 -4.04 0.55599999
11.55 -4.0180001 0.55800003
11.561 -3.9879999 0.55800003
11.587 -3.964 0.55900002
11.598 -3.9330001 0.56
11.615 -3.905 0.56
11.657 -3.885 0.56199998
11.664 -3.8540001 0.56300002
11.713 -3.836 0.565
11.766 -3.819 0.56699997
11.783 -3.79 0.56800002
11.84 -3.7739999 0.57099998
11.903 -3.7590001 0.574
11.944 -3.7379999 0.57599998
11.936 -3.7 0.57499999
11.966 -3.675 0.57700002
12.007 -3.652 0.579
11.994 -3.6140001 0.57800001
12.015 -3.585 0.579
12.042 -3.5580001 0.57999998
12.115 -3.5450001 0.583
12.152 -3.52 0.58499998
12.176 -3.4920001 0.58600003
12.241 -3.4749999 0.58899999
12.334 -3.4649999 0.59399998
12.346 -3.4330001 0.59399998
12.396 -3.411 0.59600002
12.436 -3.3859999 0.59799999
12.474 -3.3599999 0.60000002
12.661 -3.3729999 0.60900003
13.463 -3.119 0.64600003
13.486 -3.086 0.64700001
13.477 -3.0450001 0.64700001
13.462 -3.003 0.64600003
13.5 -2.9719999 0.648
13.557 -2.9449999 0.64999998
13.625 -2.921 0.65399998
13.615 -2.8789999 0.653
13.696 -2.8570001 0.65700001
13.672 -2.812 0.65600002
13.738 -2.7869999 0.65899998
13.804 -2.76 0.662
13.826 -2.7249999 0.66299999
13.851 -2.6900001 0.66399997
13.96 -2.6700001 0.66900003
13.958 -2.6300001 0.66900003
14.059 -2.608 0.67299998
14.036 -2.523 0.67199999
14.042 -2.484 0.67199999
14.076 -2.4489999 0.67400002
14.189 -2.428 0.67900002
14.244 -2.3970001 0.68199998
14.401 -2.3399999 0.68900001
14.289 -2.2809999 0.68300003
14.32 -2.2449999 0.685
14.335 -2.2060001 0.685
14.382 -2.1719999 0.68699998
14.459 -2.142 0.69099998
14.48 -2.1029999 0.69199997
14.528 -2.069 0.69400001
14.543 -2.029 0.69499999
14.542 -1.987 0.69499999
14.58 -1.95 0.69599998
14.681 -1.9220001 0.70099998
12.961 0.23100001 0.61199999
12.901 0.26699999 0.61000001
12.891 0.30399999 0.60900003
12.885 0.34099999 0.60799998
12.89 0.37799999 0.60900003
12.875 0.414 0.60799998
12.884 0.45100001 0.60799998
12.88 0.48800001 0.60799998
12.893 0.52499998 0.60799998
12.898 0.56199998 0.60799998
12.902 0.59899998 0.60799998
12.894 0.63599998 0.60799998
12.899 0.67299998 0.60799998
12.906 0.70999998 0.60799998
12.918 0.74800003 0.60900003
12.915 0.78500003 0.60799998
12.913 0.82200003 0.60799998
12.92 0.85900003 0.60799998
12.899 0.89499998 0.60699999
12.788 0.119 0.51200002
12.791 0.13 0.51200002
12.783 0.142 0.51099998
12.793 0.154 0.51200002
12.78 0.167 0.51099998
12.784 0.17900001 0.51099998
12.78 0.193 0.50999999
12.768 0.206 0.509
12.776 0.22 0.509
12.756 0.234 0.50800002
12.753 0.248 0.50800002
12.755 0.26300001 0.50800002
12.746 0.278 0.50700003
12.751 0.29300001 0.50700003
12.748 0.30899999 0.50700003
12.747 0.32499999 0.50700003
12.739 0.34099999 0.50599998
12.747 0.35800001 0.50599998
12.743 0.375 0.50599998
12.739 0.39199999 0.505
12.745 0.41 0.505
12.726 0.42699999 0.505
12.723 0.44499999 0.50400001
12.729 0.46399999 0.50400001
12.727 0.48199999 0.50400001
12.722 0.50099999 0.50400001
12.72 0.51999998 0.50300002
12.71 0.53899997 0.50300002
12.712 0.55900002 0.50300002
12.711 0.57999998 0.50300002
12.716 0.60000002 0.50300002
12.715 0.62099999 0.50300002
12.721 0.64200002 0.50300002
12.729 0.66399997 0.50300002
12.76 0.68699998 0.50400001
12.826 0.713 0.50599998
12.892 0.73900002 0.509
12.915 0.76300001 0.50999999
12.947 0.78799999 0.51099998
12.957 0.81199998 0.51099998
12.952 0.83600003 0.51099998
12.96 0.86000001 0.51099998
12.953 0.884 0.51099998
12.949 0.90799999 0.51099998
12.922 0.93099999 0.50999999
12.917 0.95599997 0.509
12.91 0.98000002 0.509
12.902 1.005 0.509
12.915 1.0319999 0.509
12.925 1.059 0.509
12.92 1.085 0.509
12.948 1.114 0.50999999
12.952 1.141 0.51099998
12.985 1.171 0.51200002
13.016 1.202 0.51300001
17.964001 1.659 0.708
13.036 1.2309999 0.514
17.778999 1.6799999 0.70099998
13.047 1.261 0.514
17.823 1.722 0.70300001
13.068 1.291 0.51499999
17.849001 1.7640001 0.704
13.091 1.322 0.51599997
17.851 1.803 0.704
13.144 1.357 0.51800001
17.860001 1.844 0.704
13.181 1.39 0.51999998
17.891001 1.887 0.70599997
17.969 1.9349999 0.70899999
18.009001 1.9809999 0.70999998
18.084 2.03 0.713
18.160999 2.0810001 0.71700001
18.365999 2.1470001 0.72500002
18.224001 2.174 0.71899998
18.479 2.2479999 0.72899997
18.465 2.29 0.72899997
18.452999 2.3329999 0.72899997
18.599001 2.3970001 0.73500001
18.589001 2.441 0.73400003
18.593 2.487 0.73500001
18.620001 2.5369999 0.736
18.778 2.605 0.74199998
18.844999 2.6619999 0.745
18.834999 2.7079999 0.745
18.813 2.753 0.74400002
18.884001 2.812 0.74699998
18.903999 2.8640001 0.74800003
18.893999 2.911 0.74800003
18.9 2.9619999 0.74800003
18.92 3.0150001 0.74900001
18.992001 3.0769999 0.75300002
19.024 3.1329999 0.75400001
18.990999 3.1789999 0.75300002
19.023001 3.2360001 0.755
19.083 3.2980001 0.75700003
19.181999 3.368 0.76099998
19.191999 3.4219999 0.76200002
19.143999 3.467 0.76099998
19.23 3.536 0.764
19.288 3.6010001 0.76700002
19.302 3.658 0.76800001
19.452999 3.7420001 0.77399999
19.518999 3.8110001 0.77700001
19.649 3.8929999 0.78299999
9.6669998 2.5669999 0.38999999
9.5530005 2.5680001 0.38499999
9.507 2.586 0.384
9.4870005 2.612 0.38299999
9.4709997 2.6389999 0.38299999
9.474 2.671 0.38299999
9.4940004 2.7079999 0.384
9.507 2.744 0.38499999
9.5159998 2.7780001 0.38600001
9.552 2.8210001 0.38800001
9.6719999 2.8889999 0.39300001
15.746 5.4200001 0.64700001
15.459 5.3769999 0.63599998
15.354 5.3959999 0.63200003
15.31 5.4359999 0.63099998
14.839 5.7649999 0.61699998
14.795 5.8039999 0.61500001
14.627 5.7930002 0.60900003
14.556 5.8210001 0.60699999
11.021 7.0349998 0.49399999
10.934 7.0310001 0.491
10.898 7.059 0.49000001
10.848 7.0780001 0.48899999
10.81 7.105 0.48800001
10.789 7.1420002 0.48800001
10.756 7.171 0.48699999
10.734 7.2080002 0.48699999
10.691 7.23 0.486
10.656 7.2579999 0.48500001
10.633 7.2940001 0.48500001
10.601 7.3239999 0.484
10.587 7.3649998 0.484
10.543 7.3860002 0.48300001
10.519 7.421 0.48300001
10.499 7.4580002 0.48300001
10.456 7.4790001 0.48100001
10.427 7.5089998 0.48100001
9.4510002 -6.211 0.48800001
9.4980001 -6.1820002 0.49000001
9.5419998 -6.152 0.49200001
9.5570002 -6.1030002 0.493
9.6049995 -6.0749998 0.495
9.632 -6.0339999 0.49599999
9.6759996 -6.0040002 0.498
9.7150002 -5.9699998 0.49900001
9.7370005 -5.927 0.5
9.7749996 -5.8930001 0.50199997
9.8030005 -5.8530002 0.50300002
9.8380003 -5.8179998 0.50400001
9.8769999 -5.7849998 0.50599998
9.8959999 -5.7410002 0.50599998
9.9429998 -5.7129998 0.50800002
9.9589996 -5.6669998 0.509
10 -5.6360002 0.51099998
10.032 -5.599 0.51200002
10.062 -5.5619998 0.51300001
10.096 -5.527 0.51499999
10.144 -5.5 0.51700002
10.161 -5.4549999 0.51700002
10.175 -5.4099998 0.51800001
10.216 -5.3790002 0.51899999
10.246 -5.3429999 0.52100003
10.297 -5.3169999 0.523
10.302 -5.2680001 0.523
10.344 -5.2379999 0.52499998
10.378 -5.2030001 0.52600002
10.416 -5.171 0.528
10.426 -5.125 0.528
10.46 -5.0910001 0.52899998
10.53 -5.0749998 0.53299999
10.55 -5.0339999 0.53299999
10.569 -4.994 0.53399998
10.615 -4.9660001 0.53600001
10.628 -4.9219999 0.53600001
10.663 -4.8889999 0.53799999
10.705 -4.8590002 0.54000002
10.753 -4.8319998 0.542
10.803 -4.8060002 0.54400003
10.808 -4.7600002 0.54400003
10.852 -4.7309999 0.546
10.9 -4.704 0.54799998
10.929 -4.6690001 0.54900002
10.968 -4.6370001 0.551
11.019 -4.6110001 0.55299997
9.8730001 -4.0900002 0.49599999
9.6689997 -3.964 0.48500001
9.6470003 -3.914 0.484
9.6719999 -3.8829999 0.48500001
9.7969999 -3.8929999 0.491
11.25 -4.4239998 0.56400001
11.324 -4.4060001 0.56699997
9.8380003 -3.7880001 0.49200001
9.8260002 -3.744 0.49200001
9.8190002 -3.7019999 0.491
9.8979998 -3.6919999 0.495
11.445 -4.223 0.57200003
11.475 -4.1890001 0.57300001
11.51 -4.1570001 0.57499999
11.532 -4.1199999 0.57599998
11.565 -4.0879998 0.57700002
11.618 -4.0619998 0.57999998
11.639 -4.0250001 0.58099997
11.699 -4.0019999 0.583
11.721 -3.9649999 0.58399999
11.782 -3.9419999 0.58700001
11.784 -3.8989999 0.58700001
11.837 -3.8729999 0.58899999
11.898 -3.8499999 0.59200001
11.925 -3.8150001 0.59299999
12.043 -3.809 0.59899998
12.224 -3.779 0.60799998
12.188 -3.7249999 0.60600001
12.24 -3.698 0.60799998
12.295 -3.6719999 0.611
12.337 -3.642 0.61299998
12.548 -3.661 0.62300003
12.557 -3.6210001 0.62300003
13.413 -3.4679999 0.66399997
13.421 -3.427 0.66399997
13.42 -3.3840001 0.66399997
13.458 -3.3510001 0.66600001
13.506 -3.3210001 0.66799998
13.563 -3.2509999 0.671
13.55 -3.2060001 0.67000002
13.608 -3.178 0.67299998
13.633 -3.142 0.67400002
13.708 -3.118 0.67699999
13.702 -3.075 0.67699999
13.732 -3.0409999 0.67799997
13.808 -3.017 0.68199998
13.814 -2.9779999 0.68199998
13.856 -2.9460001 0.68400002
13.912 -2.918 0.68699998
13.932 -2.881 0.68800002
14.028 -2.8610001 0.69199997
13.983 -2.812 0.69
14.165 -2.8080001 0.699
14.103 -2.756 0.69599998
14.149 -2.7260001 0.69800001
14.213 -2.698 0.70099998
14.285 -2.6719999 0.704
14.325 -2.6010001 0.70599997
14.347 -2.566 0.70700002
14.395 -2.536 0.70899999
14.411 -2.5009999 0.70999998
14.446 -2.4679999 0.71200001
14.536 -2.3310001 0.71600002
14.497 -2.2869999 0.71399999
14.576 -2.263 0.71799999
14.613 -2.2309999 0.71899998
14.633 -2.197 0.72000003
14.736 -2.1760001 0.72500002
14.687 -2.132 0.72299999
14.713 -2.099 0.72399998
14.851 -2.046 0.73100001
14.841 -2.0079999 0.73000002
12.952 0.082000002 0.639
12.877 0.1 0.63499999
12.829 0.117 0.63300002
12.832 0.134 0.63300002
12.823 0.152 0.63300002
12.83 0.169 0.634
12.821 0.186 0.63300002
12.826 0.20299999 0.634
12.843 0.22 0.63499999
12.843 0.236 0.63499999
12.857 0.25299999 0.63499999
12.864 0.26899999 0.63599998
12.869 0.285 0.63599998
12.868 0.301 0.63599998
12.877 0.317 0.63700002
12.889 0.333 0.63800001
12.906 0.34900001 0.639
12.925 0.36500001 0.63999999
12.951 0.38100001 0.64099997
12.979 0.39700001 0.64300001
12.999 0.41299999 0.64399999
13.022 0.428 0.64499998
12.707 0.18000001 0.542
12.715 0.20200001 0.54299998
12.719 0.22499999 0.54299998
12.723 0.248 0.54299998
12.723 0.27200001 0.542
12.732 0.296 0.54299998
12.719 0.31900001 0.542
12.721 0.34400001 0.542
12.718 0.368 0.54100001
12.715 0.39300001 0.54100001
12.716 0.41800001 0.54100001
12.715 0.44299999 0.54100001
12.708 0.46799999 0.54000002
12.714 0.49399999 0.54000002
12.695 0.51999998 0.54000002
12.708 0.546 0.54000002
12.711 0.57300001 0.54000002
12.707 0.60000002 0.54000002
12.721 0.62699997 0.54000002
12.737 0.65499997 0.54100001
12.802 0.68699998 0.54299998
12.88 0.71899998 0.54699999
12.881 0.74699998 0.54699999
12.901 0.77700001 0.54699999
12.917 0.80699998 0.54799998
12.909 0.83600003 0.54799998
12.898 0.86400002 0.54699999
12.89 0.89300001 0.54699999
12.871 0.92199999 0.546
12.863 0.95099998 0.54500002
12.848 0.98000002 0.54500002
12.861 1.012 0.54500002
12.87 1.043 0.546
12.882 1.075 0.546
12.892 1.107 0.546
12.898 1.1390001 0.54699999
12.916 1.1720001 0.54699999
12.929 1.205 0.54799998
12.956 1.24 0.54900002
17.913 1.715 0.759
12.973 1.274 0.55000001
17.944 1.763 0.76099998
12.995 1.309 0.551
17.978001 1.811 0.76200002
13.022 1.345 0.55199999
18.030001 1.862 0.764
13.038 1.38 0.55299997
17.983999 1.903 0.76300001
13.088 1.419 0.55500001
18.188 1.971 0.77100003
13.187 1.4630001 0.55900002
18.32 2.033 0.77700001
18.41 2.0910001 0.78100002
18.437 2.142 0.78200001
13.083 1.554 0.55500001
18.447001 2.1919999 0.78200001
13.024 1.582 0.55199999
18.513 2.2490001 0.78500003
13.234 1.642 0.56099999
18.568001 2.3050001 0.78799999
18.580999 2.3559999 0.78799999
18.676001 2.418 0.79299998
18.759001 2.48 0.796
18.754999 2.53 0.796
18.886999 2.5999999 0.80199999
18.92 2.6559999 0.80299997
18.978001 2.717 0.80599999
19.011 2.7739999 0.80800003
18.987 2.8239999 0.80699998
19.052 2.8870001 0.81
19.083 2.9449999 0.81099999
19.101999 3.0020001 0.81199998
19.200001 3.072 0.81599998
19.283001 3.141 0.81999999
19.222 3.1860001 0.81800002
19.330999 3.26 0.82300001
19.319 3.3139999 0.82200003
19.403 3.385 0.82599998
19.489 3.457 0.82999998
19.528 3.5209999 0.83200002
19.615999 3.595 0.83600003
19.618 3.6530001 0.83600003
19.662001 3.72 0.838
19.701 3.786 0.83999997
21.162001 4.6479998 0.90600002
21.079 4.6950002 0.90200001
21.128 4.7719998 0.90499997
9.6630001 2.552 0.41600001
9.552 2.5539999 0.41100001
9.4980001 2.5699999 0.40900001
9.4820004 2.5969999 0.40900001
9.4639997 2.6229999 0.40799999
9.4729996 2.6570001 0.40900001
9.4820004 2.691 0.41
9.4890003 2.724 0.41
9.5 2.7590001 0.41100001
9.5299997 2.799 0.412
9.6079998 2.8540001 0.41600001
9.8839998 2.97 0.428
14.879 5.7550001 0.65600002
14.679 5.73 0.648
14.649 5.77 0.64700001
14.645 5.8210001 0.648
14.524 5.8239999 0.64300001
14.591 5.9029999 0.64600003
10.84 7.1939998 0.51800001
10.741 7.164 0.514
10.702 7.1739998 0.51300001
10.69 7.2030001 0.51300001
10.671 7.2259998 0.51200002
10.642 7.2420001 0.51200002
10.634 7.2719998 0.51200002
10.616 7.2950001 0.51200002
10.597 7.3169999 0.51099998
10.589 7.3460002 0.51200002
10.567 7.3649998 0.51099998
10.534 7.3769999 0.50999999
10.52 7.401 0.50999999
10.494 7.4159999 0.50999999
10.486 7.4450002 0.50999999
10.48 7.473 0.50999999
10.465 7.4959998 0.50999999
10.463 7.527 0.51099998
10.446 7.5479999 0.50999999
10.437 7.573 0.51099998
10.415 7.5900002 0.50999999
10.309 -6.1149998 0.54900002
10.333 -6.099 0.55000001
10.36 -6.086 0.55199999
10.429 -6.0960002 0.55500001
10.4 -6.0489998 0.55400002
10.405 -6.0219998 0.55400002
10.415 -5.9980001 0.55400002
10.464 -5.9959998 0.55699998
10.462 -5.9640002 0.55699998
10.509 -5.961 0.55900002
10.454 -5.8990002 0.55599999
10.488 -5.888 0.55800003
10.47 -5.848 0.55699998
10.483 -5.8239999 0.55800003
10.504 -5.8060002 0.55900002
10.505 -5.776 0.55900002
10.536 -5.7620001 0.56099999
10.545 -5.7360001 0.56099999
10.547 -5.7069998 0.56099999
10.538 -5.671 0.56
10.557 -5.651 0.56099999
10.588 -5.6370001 0.56300002
10.624 -5.625 0.565
10.696 -5.632 0.56900001
10.734 -5.6209998 0.57099998
10.665 -5.553 0.56699997
10.689 -5.5349998 0.56800002
10.685 -5.5009999 0.56800002
10.706 -5.4809999 0.56900001
10.722 -5.4580002 0.56999999
10.731 -5.4310002 0.56999999
10.759 -5.414 0.57200003
10.775 -5.3899999 0.57200003
10.811 -5.3769999 0.574
10.811 -5.3449998 0.574
10.836 -5.3260002 0.57599998
10.861 -5.3060002 0.57700002
10.851 -5.27 0.57599998
10.86 -5.2420001 0.57700002
10.917 -5.2379999 0.57999998
10.939 -5.217 0.58099997
10.958 -5.1929998 0.58200002
10.975 -5.1690001 0.58200002
10.98 -5.1389999 0.583
11.005 -5.119 0.58399999
11.021 -5.0939999 0.58499998
11.035 -5.0679998 0.58499998
11.056 -5.046 0.58600003
11.071 -5.02 0.58700001
11.112 -5.006 0.58899999
11.13 -4.9819999 0.58999997
11.134 -4.9510002 0.58999997
11.141 -4.921 0.59100002
11.181 -4.9060001 0.59299999
11.211 -4.8860002 0.59399998
11.215 -4.855 0.59399998
11.287 -4.8530002 0.59799999
11.287 -4.8200002 0.59799999
11.324 -4.803 0.60000002
9.677 -4.0760002 0.51200002
9.6199999 -4.0240002 0.509
9.6029997 -3.9879999 0.50800002
9.6199999 -3.967 0.509
9.6529999 -3.9530001 0.51099998
9.7320004 -3.957 0.51499999
11.523 -4.651 0.61000001
11.492 -4.605 0.60799998
11.546 -4.5929999 0.611
9.8459997 -3.8870001 0.52100003
9.7889996 -3.836 0.51800001
9.757 -3.7950001 0.51599997
9.7609997 -3.7679999 0.51599997
9.7700005 -3.743 0.51700002
9.8369999 -3.74 0.51999998
11.764 -4.4380002 0.62199998
11.71 -4.3839998 0.61900002
11.733 -4.3579998 0.62
11.789 -4.3439999 0.62300003
11.782 -4.3070002 0.62300003
11.805 -4.2810001 0.62400001
11.817 -4.2509999 0.62400001
11.852 -4.2290001 0.62599999
11.875 -4.2020001 0.62699997
11.933 -4.1880002 0.63
11.942 -4.1560001 0.63099998
11.956 -4.1259999 0.63099998
11.991 -4.1030002 0.63300002
12.025 -4.0799999 0.63499999
12.064 -4.0580001 0.63700002
12.136 -4.0469999 0.63999999
12.155 -4.0180001 0.64099997
12.22 -4.0040002 0.64499998
12.336 -4.006 0.65100002
12.363 -3.9779999 0.65200001
13.397 -3.687 0.70499998
13.399 -3.6489999 0.70499998
13.403 -3.6110001 0.70499998
13.401 -3.572 0.70499998
13.419 -3.5369999 0.70499998
13.521 -3.5250001 0.71100003
13.528 -3.448 0.71100003
13.522 -3.408 0.70999998
13.572 -3.381 0.713
13.695 -3.372 0.71899998
13.78 -3.3529999 0.72399998
13.711 -3.2969999 0.72000003
13.725 -3.26 0.72100002
13.761 -3.2290001 0.722
13.793 -3.197 0.72399998
13.802 -3.1589999 0.72399998
13.869 -3.1340001 0.72799999
13.883 -3.0969999 0.72799999
13.91 -3.063 0.73000002
13.949 -3.0309999 0.73100001
13.967 -2.994 0.73199999
13.978 -2.9560001 0.73299998
14.016 -2.924 0.73500001
14.036 -2.8870001 0.73500001
14.184 -2.8770001 0.74299997
14.192 -2.8380001 0.74299997
14.212 -2.8010001 0.74400002
14.282 -2.773 0.74800003
14.369 -2.7490001 0.75199997
14.344 -2.7030001 0.75099999
14.41 -2.6730001 0.75400001
14.477 -2.6440001 0.75800002
14.475 -2.602 0.75700003
14.494 -2.5639999 0.75800002
14.555 -2.533 0.76099998
14.561 -2.4920001 0.76099998
14.738 -2.3099999 0.76999998
14.719 -2.2650001 0.76899999
12.881 0.23199999 0.66500002
12.823 0.26800001 0.66100001
12.801 0.30399999 0.66000003
12.8 0.34099999 0.66000003
12.805 0.377 0.66000003
12.802 0.414 0.66000003
12.806 0.45100001 0.66000003
12.82 0.48800001 0.66000003
12.822 0.52499998 0.66000003
12.82 0.56099999 0.66000003
12.815 0.59799999 0.66000003
12.822 0.63499999 0.66000003
12.833 0.67199999 0.66000003
12.83 0.70899999 0.66000003
12.841 0.74599999 0.66000003
12.848 0.78299999 0.66000003
12.856 0.82099998 0.66100001
12.887 0.86000001 0.662
12.852 0.89399999 0.66000003
12.653 0.12 0.56699997
12.655 0.132 0.56699997
12.656 0.14300001 0.56599998
12.644 0.155 0.56599998
12.652 0.168 0.56599998
12.646 0.18000001 0.565
12.648 0.193 0.565
12.654 0.207 0.565
12.64 0.22 0.56400001
12.648 0.234 0.56400001
12.638 0.248 0.56300002
12.65 0.26300001 0.56400001
12.648 0.278 0.56300002
12.645 0.29300001 0.56300002
12.641 0.30899999 0.56199998
12.644 0.32499999 0.56199998
12.648 0.34099999 0.56199998
12.652 0.35699999 0.56199998
12.656 0.37400001 0.56199998
12.656 0.39199999 0.56199998
12.653 0.40900001 0.56199998
12.662 0.42699999 0.56199998
12.658 0.44499999 0.56199998
12.661 0.463 0.56199998
12.653 0.48100001 0.56099999
12.658 0.50099999 0.56099999
12.67 0.51999998 0.56099999
12.67 0.54000002 0.56099999
12.669 0.55900002 0.56099999
12.664 0.579 0.56099999
12.667 0.60000002 0.56099999
12.666 0.62 0.56099999
12.686 0.64200002 0.56099999
12.702 0.66399997 0.56199998
12.763 0.68900001 0.565
12.852 0.71600002 0.56800002
12.891 0.741 0.56999999
12.889 0.76300001 0.56999999
12.888 0.78600001 0.56999999
12.885 0.80900002 0.56999999
12.879 0.833 0.56900001
12.857 0.85500002 0.56800002
12.824 0.87699997 0.56699997
12.814 0.89999998 0.56599998
12.812 0.92500001 0.56599998
12.804 0.949 0.56599998
12.8 0.97399998 0.565
12.803 0.99900001 0.56599998
12.801 1.024 0.565
12.812 1.051 0.56599998
12.821 1.0779999 0.56599998
12.842 1.1059999 0.56699997
12.868 1.135 0.56800002
12.9 1.165 0.56999999
12.898 1.192 0.56999999
12.95 1.225 0.57200003
12.938 1.251 0.57200003
12.966 1.2819999 0.57300001
12.976 1.312 0.57300001
12.99 1.342 0.574
19.365999 2.0009999 0.85600001
13.043 1.377 0.57700002
19.282 2.0350001 0.85299999
13.098 1.4119999 0.579
19.354 2.086 0.85600001
13.165 1.449 0.58200002
19.374001 2.1329999 0.85699999
13.144 1.477 0.58099997
19.427999 2.1830001 0.85900003
13.097 1.502 0.579
19.465 2.2320001 0.861
13 1.521 0.57499999
19.412001 2.2709999 0.85900003
13 1.551 0.57499999
19.490999 2.326 0.86299998
13.089 1.5930001 0.579
19.452 2.368 0.861
19.410999 2.4089999 0.85900003
19.414 2.4560001 0.86000001
19.438 2.506 0.861
19.488001 2.5599999 0.86299998
19.417 2.599 0.861
19.496 2.6570001 0.86400002
19.499001 2.7060001 0.86500001
19.635 2.7750001 0.87099999
13.025 1.873 0.57800001
19.975 2.8729999 0.88599998
13.139 1.923 0.583
19.648001 2.8759999 0.87199998
19.688 2.9330001 0.87400001
19.754 2.994 0.87699997
19.820999 3.0550001 0.88
19.841999 3.1110001 0.88200003
19.829 3.161 0.88099998
19.841 3.2160001 0.88200003
19.868 3.273 0.884
19.934 3.3380001 0.88700002
20.215 3.4389999 0.89999998
20.497 3.543 0.91299999
20.562 3.6110001 0.91600001
20.704 3.6930001 0.92299998
21.896 4.79 0.98299998
21.82 4.8390002 0.98000002
21.653999 4.8670001 0.97299999
21.673 4.9380002 0.97500002
9.8380003 2.612 0.44600001
9.5760002 2.5739999 0.43399999
9.5170002 2.589 0.43200001
9.4799995 2.6099999 0.43099999
9.4709997 2.6389999 0.43000001
9.4540005 2.6659999 0.43000001
9.4630003 2.7 0.43099999
9.4700003 2.733 0.43099999
9.4820004 2.7679999 0.43200001
9.5129995 2.809 0.43399999
9.5559998 2.855 0.43599999
9.6669998 2.921 0.442
14.947 5.75 0.699
14.726 5.7210002 0.68900001
14.672 5.7550001 0.68699998
14.684 5.816 0.68900001
14.599 5.8379998 0.685
11.031 6.9899998 0.55800003
10.881 6.9460001 0.551
10.826 6.961 0.54900002
10.797 6.994 0.54900002
10.763 7.0229998 0.54799998
10.735 7.0549998 0.54699999
10.711 7.0910001 0.54699999
10.691 7.1279998 0.54699999
10.667 7.164 0.54699999
10.638 7.1950002 0.546
10.602 7.2220001 0.54500002
10.579 7.257 0.54500002
10.559 7.2950001 0.54500002
10.531 7.3260002 0.54400003
10.507 7.3610001 0.54400003
10.493 7.402 0.54400003
10.46 7.4310002 0.54299998
10.433 7.4629998 0.54299998
10.4 7.4910002 0.542
9.8059998 -6.4429998 0.55299997
9.8789997 -6.4289999 0.55599999
9.9309998 -6.401 0.55900002
9.9589996 -6.3579998 0.56
9.9860001 -6.3140001 0.56099999
10.03 -6.2820001 0.56300002
10.083 -6.2550001 0.56599998
10.115 -6.2150002 0.56699997
10.141 -6.1719999 0.56800002
10.18 -6.1360002 0.56999999
10.198 -6.0879998 0.56999999
10.239 -6.0539999 0.57200003
10.261 -6.0089998 0.57300001
10.293 -5.9699998 0.574
10.332 -5.9349999 0.57599998
10.357 -5.8920002 0.57700002
10.369 -5.842 0.57700002
10.408 -5.8080001 0.579
10.476 -5.79 0.583
10.548 -5.7729998 0.58600003
10.568 -5.7280002 0.58700001
10.548 -5.6620002 0.58499998
10.569 -5.619 0.58600003
10.607 -5.5840001 0.588
10.642 -5.5479999 0.58999997
10.673 -5.5100002 0.59100002
10.724 -5.4829998 0.59299999
10.751 -5.4429998 0.59500003
10.785 -5.4070001 0.59600002
10.813 -5.3670001 0.597
10.841 -5.3280001 0.59799999
10.88 -5.2950001 0.60000002
10.925 -5.2649999 0.602
10.933 -5.2160001 0.602
10.984 -5.1890001 0.60500002
11.032 -5.1599998 0.60699999
11.033 -5.1090002 0.60699999
11.058 -5.0689998 0.60799998
11.108 -5.0419998 0.611
11.138 -5.0050001 0.61199999
11.174 -4.9699998 0.61400002
11.206 -4.934 0.61500001
11.228 -4.8940001 0.616
11.265 -4.8600001 0.61799997
11.339 -4.8429999 0.62099999
11.379 -4.8099999 0.62300003
11.401 -4.77 0.62400001
9.6350002 -3.99 0.52700001
9.6199999 -3.9430001 0.52600002
9.6359997 -3.9089999 0.52700001
9.6870003 -3.8889999 0.52899998
11.644 -4.6259999 0.63599998
11.604 -4.5630002 0.634
9.9029999 -3.8529999 0.54000002
9.7749996 -3.763 0.53299999
9.7609997 -3.7179999 0.53200001
9.776 -3.6849999 0.53299999
9.927 -3.7019999 0.54100001
11.868 -4.3790002 0.64600003
11.902 -4.3449998 0.648
11.925 -4.3070002 0.64899999
11.96 -4.2729998 0.65100002
12.002 -4.2420001 0.653
12.063 -4.217 0.65600002
12.153 -4.2020001 0.66100001
12.193 -4.1700001 0.662
12.261 -4.1469998 0.66600001
12.389 -4.145 0.67299998
12.633 -4.1799998 0.68599999
12.626 -4.131 0.685
13.476 -3.931 0.72899997
13.381 -3.858 0.72399998
13.445 -3.8310001 0.727
13.42 -3.7780001 0.72500002
13.434 -3.7379999 0.72600001
13.483 -3.7060001 0.72799999
13.526 -3.6730001 0.73000002
13.634 -3.658 0.736
13.693 -3.6289999 0.73900002
13.789 -3.6099999 0.74400002
13.703 -3.543 0.73900002
13.729 -3.506 0.74000001
13.797 -3.4790001 0.74400002
13.825 -3.4430001 0.745
13.931 -3.425 0.75099999
13.932 -3.382 0.75099999
14.019 -3.3599999 0.755
13.976 -3.306 0.75300002
14.011 -3.2720001 0.75400001
13.991 -3.2249999 0.75300002
14.019 -3.1889999 0.75400001
14.073 -3.1589999 0.75700003
14.227 -3.151 0.76499999
14.183 -3.099 0.76300001
14.218 -3.0650001 0.76499999
14.283 -3.0369999 0.76800001
14.343 -3.0079999 0.77100003
14.314 -2.961 0.76899999
14.363 -2.9289999 0.77200001
14.45 -2.9059999 0.77600002
14.493 -2.8729999 0.77899998
14.587 -2.8510001 0.78299999
14.511 -2.7950001 0.77899998
14.601 -2.7720001 0.78399998
14.549 -2.7219999 0.78100002
14.643 -2.6989999 0.78600001
14.652 -2.661 0.78600001
14.718 -2.6329999 0.79000002
14.701 -2.5899999 0.78899997
14.756 -2.5610001 0.792
15.013 -2.369 0.80500001
15.11 -2.346 0.81
12.906 0.082000002 0.69300002
12.852 0.098999999 0.69
12.827 0.117 0.68900001
12.826 0.134 0.68900001
12.826 0.152 0.68900001
12.833 0.169 0.69
12.848 0.186 0.69
12.85 0.20299999 0.69099998
12.876 0.22 0.69199997
12.882 0.237 0.69300002
12.882 0.25299999 0.69300002
12.891 0.27000001 0.69300002
12.896 0.28600001 0.69400001
12.917 0.30199999 0.69499999
12.928 0.31799999 0.69599998
12.952 0.33500001 0.69700003
12.985 0.35100001 0.699
13.015 0.368 0.70099998
13.063 0.384 0.704
13.077 0.40000001 0.704
13.128 0.417 0.70700002
13.145 0.43200001 0.708
12.623 0.18000001 0.59899998
12.633 0.20299999 0.59899998
12.646 0.226 0.59899998
12.647 0.249 0.59899998
12.657 0.27200001 0.60000002
12.655 0.296 0.59899998
12.65 0.31900001 0.59899998
12.654 0.34400001 0.59899998
12.659 0.368 0.59899998
12.658 0.39300001 0.59899998
12.666 0.41800001 0.59899998
12.665 0.44299999 0.59899998
12.658 0.46799999 0.59799999
12.661 0.49399999 0.59799999
12.668 0.51999998 0.59899998
12.674 0.546 0.59899998
12.659 0.57200003 0.59799999
12.67 0.59899998 0.59799999
12.67 0.62599999 0.59799999
12.674 0.65399998 0.59799999
12.708 0.68300003 0.60000002
12.757 0.713 0.602
12.875 0.74800003 0.60799998
12.884 0.77700001 0.60799998
12.872 0.80599999 0.60699999
12.864 0.83399999 0.60699999
12.868 0.86400002 0.60699999
12.839 0.89099997 0.60600001
12.807 0.91900003 0.60399997
12.791 0.94700003 0.60299999
12.779 0.97600001 0.60299999
12.76 1.005 0.602
12.766 1.036 0.602
12.782 1.068 0.60299999
12.787 1.099 0.60299999
12.806 1.132 0.60399997
12.815 1.164 0.60399997
12.854 1.199 0.60600001
12.893 1.235 0.60799998
12.89 1.267 0.60799998
19.364 1.904 0.91399997
12.941 1.3049999 0.61000001
19.409 1.957 0.91600001
12.94 1.337 0.61000001
19.382 2.003 0.91500002
12.958 1.372 0.611
19.451 2.0599999 0.91799998
12.973 1.4069999 0.61199999
19.479 2.1129999 0.91900003
13.019 1.446 0.61400002
19.415001 2.1559999 0.91600001
13.078 1.4859999 0.61699998
19.525 2.2190001 0.92199999
13.145 1.528 0.62
19.551001 2.273 0.92299998
13.1 1.557 0.61799997
19.507 2.319 0.921
13.06 1.587 0.61699998
19.679001 2.391 0.92900002
13.035 1.619 0.61500001
19.631001 2.438 0.92699999
13.085 1.66 0.61799997
19.562 2.4820001 0.92400002
19.643 2.5450001 0.92799997
19.771 2.615 0.93400002
19.688 2.6570001 0.93000001
19.778999 2.723 0.935
19.83 2.7850001 0.93800002
19.93 2.8540001 0.94199997
13.128 1.916 0.62099999
19.978001 2.9159999 0.94499999
13.026 1.938 0.616
19.944 2.967 0.94400001
20.030001 3.036 0.94800001
20.007 3.089 0.94700003
20.073999 3.1559999 0.94999999
20.049 3.2090001 0.94999999
20.312 3.309 0.96200001
20.448999 3.3900001 0.96899998
20.431999 3.4460001 0.96899998
20.431999 3.506 0.96899998
20.451 3.5680001 0.97000003
20.579 3.651 0.97600001
21.677999 4.1669998 1.03
21.672001 4.2309999 1.031
21.688 4.2989998 1.0319999
21.771 4.381 1.036
21.903999 4.6760001 1.044
21.753 4.711 1.0369999
21.719999 4.7709999 1.036
21.674999 4.8280001 1.035
21.732 4.9089999 1.038
19.784 5.0970001 0.94999999
9.8999996 2.5829999 0.47499999
19.83 5.1729999 0.95200002
9.6409998 2.546 0.463
9.5389996 2.55 0.458
9.5010004 2.5710001 0.45699999
9.4770002 2.596 0.456
9.4790001 2.628 0.456
9.4770002 2.658 0.456
9.4729996 2.688 0.45699999
9.4870005 2.724 0.458
9.5080004 2.7609999 0.45899999
9.5539999 2.806 0.461
9.6280003 2.8599999 0.465
9.7930002 2.9419999 0.47400001
15.054 5.7690001 0.74199998
14.871 5.7519999 0.73299998
14.803 5.7779999 0.73000002
14.88 5.8610001 0.73500001
10.9 7.1960001 0.58399999
10.795 7.164 0.579
10.746 7.1680002 0.57700002
10.706 7.178 0.57499999
10.694 7.2059999 0.57499999
10.682 7.2340002 0.57599998
10.663 7.257 0.57499999
10.657 7.2880001 0.57599998
10.644 7.3140001 0.57599998
10.621 7.3340001 0.57499999
10.6 7.3540001 0.57499999
10.575 7.3709998 0.574
10.554 7.3909998 0.574
10.552 7.4239998 0.574
10.529 7.4419999 0.574
10.523 7.4710002 0.574
10.524 7.506 0.57499999
10.513 7.5310001 0.57499999
10.503 7.5560002 0.57499999
10.486 7.5770001 0.57499999
10.467 7.5960002 0.57499999
10.459 7.6220002 0.57499999
10.651 -6.323 0.616
10.701 -6.322 0.61900002
10.727 -6.3070002 0.62099999
10.705 -6.2620001 0.61900002
10.722 -6.2420001 0.62
10.762 -6.2329998 0.62300003
10.77 -6.2069998 0.62300003
10.789 -6.1869998 0.62400001
10.854 -6.1929998 0.62800002
10.845 -6.1560001 0.62699997
10.866 -6.1370001 0.62800002
10.83 -6.085 0.62599999
10.846 -6.0619998 0.62699997
10.833 -6.0240002 0.62599999
10.869 -6.0120001 0.62800002
10.896 -5.9949999 0.63
10.884 -5.9569998 0.62900001
10.907 -5.9380002 0.63
10.905 -5.9050002 0.63
10.966 -5.9060001 0.634
10.966 -5.8740001 0.634
10.981 -5.8499999 0.634
11.055 -5.8569999 0.639
11.083 -5.7750001 0.63999999
11.042 -5.7210002 0.63800001
11.034 -5.6849999 0.63700002
11.073 -5.6729999 0.639
11.095 -5.652 0.63999999
11.126 -5.6350002 0.64200002
11.132 -5.605 0.64200002
11.137 -5.5749998 0.64300001
11.176 -5.5619998 0.64499998
11.201 -5.5419998 0.64600003
11.224 -5.52 0.64700001
11.226 -5.4879999 0.64700001
11.229 -5.4569998 0.648
11.279 -5.448 0.64999998
11.259 -5.4050002 0.64899999
11.294 -5.3889999 0.65100002
11.305 -5.3610001 0.65200001
11.317 -5.3340001 0.65200001
11.352 -5.3169999 0.65399998
11.364 -5.289 0.65499997
11.383 -5.2649999 0.65600002
11.387 -5.2329998 0.65600002
11.421 -5.2150002 0.65799999
11.448 -5.1939998 0.65899998
11.45 -5.1609998 0.65899998
11.486 -5.1440001 0.66100001
11.518 -5.125 0.66299999
11.555 -5.1069999 0.66500002
11.573 -5.0809999 0.66600001
11.605 -5.0609999 0.66799998
11.633 -5.039 0.66900003
11.649 -5.0120001 0.67000002
11.705 -5.0009999 0.67299998
9.6409998 -4.0910001 0.55400002
9.5839996 -4.039 0.551
9.5699997 -4.0050001 0.55000001
9.5909996 -3.9849999 0.551
9.5950003 -3.9590001 0.55199999
9.6809998 -3.9660001 0.55599999
11.965 -4.8670001 0.68800002
11.881 -4.7979999 0.68300003
11.973 -4.8000002 0.68800002
9.7740002 -3.8610001 0.56099999
9.7250004 -3.813 0.55900002
9.7019997 -3.776 0.55699998
9.7410002 -3.7620001 0.55900002
9.7729998 -3.7460001 0.56099999
9.8640003 -3.7520001 0.56599998
12.524 -4.7270002 0.71899998
12.286 -4.6020002 0.70499998
12.256 -4.5539999 0.70300001
12.301 -4.5349998 0.70599997
12.365 -4.5229998 0.70899999
12.434 -4.5110002 0.713
12.541 -4.513 0.71899998
12.632 -4.5089998 0.72399998
12.643 -4.4759998 0.72500002
12.64 -4.4380002 0.72500002
12.655 -4.4060001 0.72500002
13.512 -4.0739999 0.773
13.438 -4.0120001 0.76800001
13.506 -3.993 0.77200001
13.491 -3.95 0.77100003
13.536 -3.9230001 0.773
13.558 -3.8900001 0.77399999
13.533 -3.8440001 0.773
13.573 -3.816 0.77499998
13.635 -3.793 0.77899998
13.725 -3.779 0.78399998
13.721 -3.7379999 0.78299999
13.751 -3.7060001 0.78500003
13.822 -3.6849999 0.78899997
13.922 -3.671 0.79400003
13.939 -3.5539999 0.79500002
13.932 -3.5120001 0.79400003
13.995 -3.487 0.79799998
14.075 -3.4660001 0.80199999
14.15 -3.444 0.80599999
14.096 -3.3900001 0.80299997
14.21 -3.3759999 0.80900002
14.193 -3.3310001 0.80800003
14.166 -3.283 0.80699998
14.199 -3.25 0.80800003
14.261 -3.223 0.81199998
14.36 -3.1619999 0.81699997
14.375 -3.1240001 0.81800002
14.427 -3.0929999 0.82099998
14.471 -3.0610001 0.82300001
14.594 -2.918 0.829
14.65 -2.8870001 0.83200002
14.678 -2.8499999 0.83399999
14.754 -2.822 0.838
14.745 -2.7780001 0.83700001
14.846 -2.7539999 0.84299999
14.938 -2.7279999 0.84799999
13.031 -0.20999999 0.73100001
13.039 -0.17200001 0.73100001
12.967 0.236 0.72500002
12.851 0.271 0.71799999
12.819 0.30700001 0.71600002
12.822 0.34299999 0.71600002
12.82 0.38 0.71600002
12.84 0.41800001 0.71700001
12.836 0.454 0.71700001
12.853 0.49200001 0.71700001
12.863 0.52899998 0.71799999
12.856 0.565 0.71700001
12.854 0.602 0.71700001
12.858 0.639 0.71700001
12.877 0.67699999 0.71799999
12.879 0.71399999 0.71799999
12.913 0.75300002 0.71899998
12.918 0.79000002 0.72000003
12.929 0.82800001 0.72000003
12.944 0.866 0.72100002
12.923 0.90200001 0.71899998
12.634 0.123 0.62599999
12.649 0.134 0.62599999
12.635 0.146 0.625
12.638 0.15800001 0.625
12.643 0.17 0.625
12.643 0.183 0.625
12.65 0.19599999 0.625
12.64 0.20900001 0.62400001
