# .PCD v0.7 - Point Cloud Data file format
VERSION 0.7
FIELDS x y z
SIZE 4 4 4
TYPE F F F
COUNT 1 1 1
WIDTH 1970
HEIGHT 1
VIEWPOINT 0 0 0 1 0 0 0
POINTS 1970
DATA ascii
12.876 -6.2690001 0.91900003
13.836 -5.474 0.98299998
13.842 -5.4359999 0.98299998
13.842 -5.395 0.98299998
13.877 -5.3270001 0.98500001
13.836 -5.2709999 0.98199999
13.883 -5.2480001 0.98500001
13.884 -5.2080002 0.98500001
13.853 -5.1550002 0.98199999
13.864 -5.119 0.98299998
13.886 -5.086 0.98400003
13.887 -5.046 0.98400003
13.94 -5.0240002 0.98799998
13.915 -4.974 0.986
13.942 -4.9429998 0.98799998
13.99 -4.9190001 0.991
13.968 -4.8699999 0.98900002
13.955 -4.8239999 0.98799998
14.021 -4.8060002 0.99299997
14.091 -4.789 0.99699998
14.245 -4.7989998 1.008
14.341 -4.79 1.015
14.407 -4.77 1.0190001
10.715 -2.2049999 0.75099999
10.556 -2.141 0.74000001
10.515 -2.1029999 0.73699999
10.492 -2.0680001 0.73500001
10.401 -2.02 0.72899997
10.336 -1.977 0.72399998
10.32 -1.944 0.72299999
10.341 -1.918 0.72399998
10.381 -1.896 0.727
10.53 -1.892 0.73699999
12.873 -1.237 0.89499998
12.619 -1.176 0.87699997
12.531 -1.132 0.87099999
12.397 -1.084 0.86199999
12.374 -1.0470001 0.86000001
12.365 -1.01 0.85900003
12.4 -0.97799999 0.861
13.024 -0.54000002 0.90200001
12.934 -0.5 0.89499998
12.849 -0.45899999 0.889
12.782 -0.41999999 0.884
12.753 -0.38299999 0.88200003
12.757 -0.34599999 0.88200003
12.772 -0.31 0.88300002
12.788 -0.27399999 0.884
12.837 -0.23800001 0.88700002
12.954 -0.20299999 0.89499998
13.004 -0.16599999 0.898
13.256 0.88800001 0.83600003
13.203 0.90899998 0.833
13.157 0.93099999 0.82999998
13.189 0.958 0.83200002
13.225 0.986 0.83399999
13.322 1.045 0.83999997
13.254 1.066 0.83600003
22.533001 2.0439999 1.423
22.403999 2.0799999 1.415
22.346001 2.122 1.411
22.343 2.1700001 1.411
22.356001 2.2190001 1.4119999
22.409 2.2739999 1.416
11.258 1.1670001 0.71100003
11.143 1.1799999 0.704
11.06 1.196 0.699
10.994 1.214 0.69499999
10.947 1.233 0.69199997
10.908 1.2539999 0.69
10.881 1.276 0.68900001
10.869 1.3 0.68800002
10.849 1.324 0.68699998
10.845 1.349 0.68699998
10.845 1.375 0.68699998
10.857 1.403 0.68800002
10.871 1.431 0.68900001
10.88 1.459 0.69
10.911 1.49 0.69199997
11.003 1.53 0.69800001
11.178 1.582 0.70999998
22.459 3.1800001 1.426
11.456 1.651 0.72799999
22.414 3.23 1.424
22.409 3.286 1.424
22.518999 3.3599999 1.432
22.534 3.4200001 1.434
22.556 3.4820001 1.436
22.671 3.559 1.444
22.726999 3.9949999 1.452
22.65 4.0440001 1.448
22.625 4.1020002 1.447
22.702 4.1799998 1.4529999
22.780001 4.322 1.46
22.739 4.3790002 1.4579999
22.740999 4.4439998 1.459
22.855 4.5320001 1.467
19.521999 4.6300001 1.2640001
19.405001 4.6620002 1.258
19.476999 4.7399998 1.263
7.6999998 2.0450001 0.50199997
7.4710002 2.0090001 0.48699999
7.3720002 2.006 0.48100001
7.3140001 2.0139999 0.47799999
7.2750001 2.027 0.47600001
7.237 2.0409999 0.47400001
7.2090001 2.0569999 0.472
7.1880002 2.075 0.472
7.152 2.0880001 0.47
7.118 2.102 0.46799999
7.1160002 2.1259999 0.46799999
7.158 2.1630001 0.47099999
7.2210002 2.207 0.47600001
7.256 2.2420001 0.479
7.3920002 2.3099999 0.48800001
7.474 2.3610001 0.49399999
7.5749998 2.4200001 0.50099999
11.37 -7.4640002 0.85299999
11.442 -7.4390001 0.85799998
11.501 -7.4070001 0.861
11.533 -7.3569999 0.86299998
11.601 -7.3299999 0.86699998
11.635 -7.2810001 0.86900002
11.693 -7.2470002 0.87300003
11.752 -7.2150002 0.87599999
11.809 -7.1810002 0.88
11.835 -7.1279998 0.88099998
11.865 -7.0770001 0.88300002
11.907 -7.0349998 0.88499999
11.95 -6.993 0.88800001
11.986 -6.947 0.88999999
12.031 -6.9060001 0.89200002
12.077 -6.8660002 0.89499998
12.138 -6.8340001 0.89899999
12.227 -6.8179998 0.90499997
12.219 -6.7480001 0.90399998
12.234 -6.691 0.90399998
12.274 -6.6479998 0.90700001
12.295 -6.5960002 0.90799999
12.321 -6.546 0.90899998
12.372 -6.5089998 0.912
12.398 -6.4590001 0.91299999
12.46 -6.428 0.917
12.555 -6.415 0.92400002
12.538 -6.3429999 0.92199999
12.573 -6.2989998 0.92400002
12.619 -6.2600002 0.92699999
12.691 -6.2340002 0.93099999
12.766 -6.2090001 0.93599999
12.828 -6.178 0.94
12.979 -6.1890001 0.95099998
13.087 -6.1789999 0.958
13.247 -6.1929998 0.96899998
13.914 -5.4120002 1.0089999
14.012 -5.3930001 1.016
14.022 -5.283 1.015
14.025 -5.2290001 1.015
14.058 -5.1849999 1.017
14.044 -5.125 1.016
14.087 -5.086 1.018
14.077 -5.0279999 1.017
14.187 -5.0120001 1.025
14.164 -4.9499998 1.023
14.355 -4.9619999 1.036
10.6 -2.2539999 0.75599998
10.524 -2.207 0.75
10.494 -2.1700001 0.74800003
10.466 -2.135 0.74599999
10.362 -2.0840001 0.73799998
10.336 -2.049 0.736
10.312 -2.0150001 0.73400003
10.324 -1.989 0.73500001
10.364 -1.9680001 0.73799998
10.466 -1.9579999 0.745
12.684 -1.087 0.89899999
12.584 -1.052 0.89200002
12.473 -1.017 0.884
12.404 -0.986 0.87900001
12.365 -0.95700002 0.87599999
12.362 -0.93199998 0.87599999
12.392 -0.90899998 0.87800002
12.399 -0.88499999 0.87800002
12.442 -0.86299998 0.88099998
12.984 -0.35499999 0.92000002
12.948 -0.33199999 0.91799998
12.953 -0.31099999 0.91799998
12.942 -0.289 0.917
12.916 -0.26800001 0.91600001
12.923 -0.24699999 0.91600001
12.958 -0.227 0.91900003
13.142 -0.20900001 0.93199998
13.033 -0.16599999 0.92400002
13.086 -0.147 0.92799997
13.316 0.89899999 0.88
13.241 0.92400002 0.875
13.233 0.954 0.875
13.231 0.98500001 0.875
13.173 1.074 0.87099999
13.248 1.1109999 0.87599999
22.476999 2.105 1.487
22.354 2.1489999 1.479
22.334999 2.2030001 1.478
22.386 2.2639999 1.482
22.431999 2.325 1.485
11.241 1.194 0.74400002
11.122 1.209 0.736
11.035 1.228 0.73100001
10.974 1.25 0.727
10.916 1.272 0.72299999
10.883 1.2970001 0.72100002
10.863 1.323 0.72000003
10.853 1.35 0.72000003
10.851 1.3789999 0.72000003
10.849 1.408 0.72000003
10.853 1.438 0.72000003
10.858 1.4680001 0.72100002
10.89 1.502 0.72299999
10.937 1.538 0.72600001
11.071 1.5880001 0.736
11.265 1.647 0.74900001
22.545 3.296 1.499
22.466 3.3469999 1.494
22.669001 3.441 1.508
22.636 3.4990001 1.506
23.386999 4.71 1.567
23.285 4.7600002 1.561
23.382999 4.8509998 1.569
19.489 4.5869999 1.314
19.375999 4.6220002 1.307
19.438999 4.6989999 1.312
7.6620002 2.0239999 0.51899999
7.4710002 1.998 0.50700003
7.3610001 1.993 0.5
7.3070002 2.0020001 0.49599999
7.2519999 2.01 0.493
7.217 2.0250001 0.491
7.2069998 2.046 0.491
7.1719999 2.059 0.48899999
7.1539998 2.0780001 0.48800001
7.1199999 2.092 0.486
7.1269999 2.118 0.48699999
7.1659999 2.1530001 0.49000001
7.217 2.1930001 0.49399999
7.2480001 2.227 0.49599999
7.3400002 2.28 0.50300002
7.4819999 2.349 0.51300001
7.6389999 2.424 0.52399999
13.385 -6.4429998 1.016
13.36 -6.3909998 1.0140001
13.348 -6.3460002 1.013
13.392 -6.3280001 1.016
13.48 -6.3299999 1.022
13.579 -6.336 1.03
13.625 -6.3179998 1.033
13.84 -6.3759999 1.049
14.109 -6.0009999 1.067
14.108 -5.9590001 1.067
14.165 -5.941 1.071
14.259 -5.8540001 1.0779999
14.184 -5.7820001 1.072
14.28 -5.6950002 1.079
14.267 -5.6479998 1.0779999
14.346 -5.6370001 1.0829999
14.273 -5.566 1.0779999
10.603 -2.1819999 0.79000002
10.527 -2.1359999 0.78500003
10.491 -2.098 0.78200001
10.438 -2.0569999 0.778
10.336 -2.007 0.76999998
10.312 -1.973 0.76800001
10.318 -1.944 0.76800001
10.35 -1.92 0.76999998
10.476 -1.913 0.77999997
12.613 -1.175 0.93199998
12.429 -1.122 0.91799998
12.361 -1.08 0.91299999
12.358 -1.044 0.912
12.379 -1.01 0.91399997
12.494 -0.98400003 0.92199999
13.124 -0.39199999 0.96399999
13.056 -0.35299999 0.95899999
13.065 -0.315 0.95999998
13.234 0.88800001 0.89700001
13.218 0.91100001 0.89600003
13.177 0.93300003 0.89300001
13.193 0.95999998 0.89399999
13.23 0.98799998 0.89700001
13.129 1.006 0.88999999
13.091 1.029 0.88700002
13.101 1.0549999 0.88800001
13.139 1.085 0.89099997
13.184 1.115 0.89399999
13.224 1.146 0.89700001
11.284 1.146 0.76599997
11.094 1.151 0.75300002
11.014 1.1670001 0.74800003
10.97 1.187 0.745
10.955 1.21 0.74400002
10.925 1.232 0.74299997
10.894 1.253 0.741
10.894 1.279 0.741
10.867 1.301 0.73900002
10.872 1.327 0.74000001
10.857 1.351 0.73900002
10.865 1.378 0.74000001
10.85 1.403 0.73900002
10.874 1.432 0.741
10.88 1.46 0.74199998
10.908 1.49 0.74400002
10.999 1.53 0.75
11.108 1.573 0.75800002
11.212 1.6160001 0.76599997
11.364 1.6670001 0.77600002
23.301001 3.4779999 1.5930001
23.247 3.53 1.59
23.23 3.5880001 1.59
23.188 3.642 1.587
23.202 3.7049999 1.589
23.166 3.7609999 1.5880001
23.179001 3.825 1.589
23.166 3.885 1.589
23.145 3.944 1.589
23.16 4.0089998 1.59
23.132 4.0679998 1.589
23.131001 4.131 1.59
23.134001 4.1960001 1.591
23.150999 4.263 1.5930001
23.371 4.6350002 1.613
23.368999 4.7030001 1.614
23.301001 4.757 1.6109999
23.216 4.8070002 1.6059999
23.25 4.882 1.609
19.455999 4.6750002 1.357
19.483 4.7420001 1.36
7.7690001 2.0639999 0.54500002
7.5310001 2.0250001 0.52899998
7.4089999 2.016 0.52100003
7.3189998 2.016 0.51499999
7.2800002 2.029 0.51200002
7.2329998 2.04 0.50999999
7.217 2.059 0.509
7.1760001 2.072 0.50700003
7.1500001 2.0880001 0.505
7.1300001 2.1059999 0.50400001
7.1220002 2.128 0.50400001
7.1589999 2.164 0.50700003
7.2259998 2.2079999 0.51300001
7.2280002 2.234 0.51300001
7.309 2.2839999 0.51999998
7.5159998 2.375 0.53500003
11.863 -7.7859998 0.94499999
11.928 -7.7540002 0.949
11.989 -7.7199998 0.95300001
12.025 -7.6690001 0.95599997
12.077 -7.6290002 0.95899999
12.163 -7.6100001 0.96499997
12.165 -7.539 0.96399999
12.206 -7.4920001 0.96700001
12.189 -7.4099998 0.96499997
12.258 -7.381 0.96899998
12.251 -7.3070002 0.96799999
12.266 -7.2459998 0.96799999
12.263 -7.1750002 0.96700001
12.292 -7.1230001 0.96899998
12.319 -7.0700002 0.97000003
12.329 -7.0079999 0.97000003
12.35 -6.9530001 0.97100002
12.401 -6.914 0.97500002
12.439 -6.869 0.977
12.461 -6.8150001 0.97799999
12.549 -6.7969999 0.98400003
13.122 -6.836 1.026
13.077 -6.7459998 1.022
13.147 -6.7160001 1.027
13.213 -6.684 1.0319999
13.325 -6.6750002 1.04
13.372 -6.6329999 1.043
13.299 -6.5320001 1.036
13.327 -6.4819999 1.038
13.298 -6.4029999 1.035
13.322 -6.3520002 1.036
13.363 -6.3080001 1.039
13.409 -6.2680001 1.0420001
13.512 -6.2529998 1.049
13.594 -6.2280002 1.0549999
13.706 -6.217 1.063
13.847 -6.2179999 1.073
13.916 -6.1859999 1.0779999
14.065 -6.1900001 1.089
14.078 -6.1329999 1.09
14.168 -6.1100001 1.096
14.136 -6.0339999 1.0930001
14.147 -5.9770002 1.0930001
14.229 -5.9510002 1.099
14.251 -5.8990002 1.1
14.275 -5.848 1.101
14.221 -5.7659998 1.097
14.309 -5.7420001 1.103
14.273 -5.6680002 1.1
14.408 -5.6620002 1.11
14.478 -5.631 1.114
14.408 -5.5450001 1.109
14.466 -5.5089998 1.113
14.571 -5.4320002 1.12
14.529 -5.3590002 1.1160001
14.531 -5.303 1.1160001
14.765 -5.1599998 1.132
14.738 -5.0939999 1.1289999
10.744 -2.2850001 0.81300002
10.539 -2.21 0.79699999
10.5 -2.1719999 0.79400003
10.459 -2.1329999 0.79100001
10.357 -2.0829999 0.78299999
10.325 -2.0469999 0.77999997
10.303 -2.0139999 0.77899998
10.312 -1.987 0.77899998
10.355 -1.966 0.78200001
10.454 -1.956 0.79000002
12.548 -1.049 0.94300002
12.434 -1.0140001 0.935
12.383 -0.98400003 0.93099999
12.358 -0.95700002 0.92900002
12.365 -0.93199998 0.92900002
12.384 -0.90799999 0.93099999
12.426 -0.88700002 0.93400002
12.606 -0.87400001 0.94700003
13.05 0.19599999 0.92699999
13.061 0.219 0.92699999
13.042 0.242 0.926
13.043 0.266 0.92500001
13.069 0.28999999 0.92699999
13.059 0.31400001 0.926
13.056 0.33899999 0.926
13.067 0.36399999 0.926
13.112 0.38999999 0.92900002
13.086 0.414 0.92699999
13.089 0.44 0.92699999
13.138 0.46799999 0.93099999
13.089 0.49200001 0.92699999
13.115 0.51999998 0.92900002
13.12 0.54699999 0.92900002
13.086 0.57200003 0.92699999
13.124 0.60100001 0.92900002
13.09 0.62699997 0.92699999
13.137 0.65700001 0.93000001
13.103 0.68300003 0.92799997
13.136 0.713 0.93000001
13.172 0.74400002 0.93300003
13.116 0.76899999 0.92900002
13.153 0.801 0.93099999
13.13 0.82800001 0.93000001
13.122 0.85699999 0.92900002
13.126 0.88800001 0.92900002
13.109 0.91600001 0.92799997
13.065 0.94300002 0.92500001
13.054 0.97299999 0.92400002
13.063 1.0039999 0.92500001
13.029 1.0319999 0.92299998
13.009 1.061 0.921
13.009 1.0930001 0.92199999
13.074 1.13 0.926
13.09 1.163 0.92799997
13.092 1.1950001 0.92799997
13.173 1.235 0.93400002
13.174 1.267 0.93400002
13.161 1.299 0.93300003
13.166 1.332 0.93400002
13.109 1.36 0.93000001
11.217 1.192 0.796
11.03 1.2 0.78299999
10.987 1.224 0.77999997
10.943 1.247 0.77700001
10.912 1.272 0.77499998
10.903 1.3 0.77399999
10.87 1.324 0.77200001
10.876 1.354 0.773
10.858 1.381 0.77200001
10.862 1.41 0.77200001
10.856 1.439 0.77200001
10.854 1.4680001 0.77200001
10.877 1.501 0.77399999
10.92 1.5369999 0.77700001
11.026 1.582 0.78500003
11.134 1.628 0.79299998
11.248 1.676 0.80199999
23.134001 3.513 1.65
23.098 3.572 1.648
23.087999 3.6359999 1.648
23.084 3.701 1.648
23.079 3.766 1.648
23.08 3.832 1.649
23.08 3.8989999 1.65
23.077999 3.9649999 1.65
23.083 4.033 1.651
23.077 4.099 1.652
23.082001 4.1680002 1.653
23.099001 4.2389998 1.655
23.167 4.3200002 1.66
23.355 4.6339998 1.677
23.365 4.7069998 1.679
23.264999 4.757 1.673
23.247999 4.8239999 1.6720001
7.6729999 2.027 0.55800003
7.4699998 1.998 0.54400003
7.3709998 1.9960001 0.537
7.2989998 2 0.53200001
7.2610002 2.013 0.52899998
7.2199998 2.026 0.52700001
7.2020001 2.0450001 0.52600002
7.1700001 2.059 0.52399999
7.1440001 2.075 0.52200001
7.131 2.095 0.52200001
7.1500001 2.125 0.52399999
7.2090001 2.1670001 0.52899998
7.2280002 2.1960001 0.52999997
7.2480001 2.227 0.53200001
7.3260002 2.276 0.53799999
7.566 2.3759999 0.55699998
14.208 -6.5079999 1.141
14.165 -6.4460001 1.138
14.172 -6.4070001 1.138
14.272 -6.4109998 1.146
14.296 -6.3790002 1.148
14.353 -6.362 1.152
14.423 -6.3509998 1.1569999
14.419 -6.3060002 1.1569999
14.471 -6.158 1.16
14.492 -6.1240001 1.1619999
14.501 -6.086 1.1619999
14.516 -6.0489998 1.163
14.504 -6.0009999 1.1619999
14.56 -5.9819999 1.166
14.572 -5.9429998 1.1670001
14.61 -5.8730001 1.17
14.67 -5.8530002 1.174
14.638 -5.7969999 1.171
14.744 -5.796 1.1799999
14.779 -5.7659998 1.182
14.731 -5.704 1.178
14.791 -5.684 1.183
14.814 -5.6490002 1.1849999
14.854 -5.6209998 1.188
14.917 -5.5120001 1.192
15.007 -5.5019999 1.199
10.624 -2.1860001 0.83899999
10.524 -2.135 0.83099997
10.476 -2.095 0.82700002
10.362 -2.0420001 0.81800002
10.309 -2.0020001 0.81300002
10.296 -1.969 0.81199998
10.311 -1.942 0.81300002
10.369 -1.923 0.81800002
10.566 -1.929 0.833
12.711 -1.183 0.995
12.43 -1.1210001 0.972
12.357 -1.079 0.96600002
12.342 -1.0420001 0.96499997
12.371 -1.0089999 0.96700001
12.555 -0.98699999 0.98100001
13.174 0.336 0.958
13.149 0.35100001 0.95599997
13.126 0.36700001 0.954
13.106 0.384 0.95200002
13.145 0.43799999 0.954
13.153 0.456 0.95499998
13.095 0.47299999 0.94999999
13.129 0.51200002 0.95200002
13.18 0.53299999 0.95599997
13.128 0.551 0.95200002
13.089 0.56900001 0.949
13.136 0.59200001 0.95200002
13.179 0.61400002 0.95499998
13.163 0.634 0.954
13.105 0.653 0.94999999
13.161 0.67699999 0.954
13.116 0.69700003 0.94999999
13.091 0.71700001 0.949
13.058 0.73799998 0.94599998
13.033 0.759 0.94400001
13.045 0.78299999 0.94499999
13.051 0.80599999 0.94599998
13.044 0.829 0.94499999
13.028 0.852 0.94400001
13.002 0.87400001 0.94199997
12.971 0.89600003 0.94
12.949 0.91900003 0.93800002
12.928 0.94199997 0.93699998
12.914 0.96600002 0.93599999
12.892 0.98900002 0.93400002
12.895 1.015 0.935
12.896 1.04 0.935
12.898 1.066 0.935
12.892 1.092 0.935
12.923 1.1210001 0.93699998
12.948 1.15 0.93900001
12.948 1.177 0.93900001
23.150999 2.105 1.6799999
13 1.209 0.94300002
23.110001 2.1500001 1.677
13.063 1.243 0.94800001
23.148001 2.2019999 1.6799999
12.998 1.2640001 0.94300002
23.143 2.2520001 1.6799999
13.015 1.294 0.94499999
13.034 1.325 0.94700003
11.149 1.158 0.81
11.023 1.169 0.801
10.981 1.189 0.79799998
10.951 1.211 0.796
10.93 1.233 0.79500002
10.92 1.257 0.79400003
10.893 1.279 0.792
10.886 1.304 0.792
10.881 1.329 0.792
10.893 1.3559999 0.79299998
10.883 1.381 0.79299998
10.871 1.406 0.792
10.885 1.434 0.79400003
10.879 1.46 0.79299998
10.905 1.4910001 0.796
10.981 1.528 0.80199999
11.06 1.567 0.80800003
11.162 1.61 0.815
11.302 1.659 0.82599998
23.237 3.411 1.699
23.024 3.438 1.684
23.02 3.497 1.6849999
23.014 3.556 1.6849999
23.032 3.619 1.687
23.021999 3.678 1.687
23.028999 3.74 1.688
23.016001 3.799 1.688
23.032 3.8629999 1.6900001
23.031 3.9260001 1.691
23.044001 3.99 1.693
23.044001 4.053 1.694
23.039 4.1160002 1.6950001
23.044001 4.1810002 1.696
23.063999 4.2490001 1.699
23.117001 4.323 1.704
23.336 4.6300001 1.724
23.35 4.6999998 1.726
23.337 4.7649999 1.727
23.334999 4.8330002 1.727
23.389 4.9130001 1.733
19.735001 4.743 1.473
19.573 4.7649999 1.462
19.695999 4.8559999 1.472
7.9499998 2.112 0.597
7.5570002 2.0320001 0.56800002
7.4439998 2.026 0.56
7.323 2.017 0.551
7.2789998 2.029 0.54900002
7.23 2.039 0.54500002
7.204 2.056 0.54400003
7.1719999 2.0710001 0.542
7.1329999 2.0829999 0.54000002
7.1230001 2.1040001 0.53899997
7.1399999 2.1329999 0.54100001
7.1900001 2.1730001 0.546
7.2119999 2.204 0.54799998
7.2350001 2.2360001 0.55000001
7.2849998 2.277 0.55400002
7.4819999 2.3640001 0.56999999
12.614 -8.2779999 1.064
12.692 -8.25 1.069
12.724 -8.1920004 1.071
12.818 -8.1739998 1.0779999
12.874 -8.1309996 1.082
12.944 -8.0979996 1.087
12.992 -8.0500002 1.09
13.051 -8.0100002 1.094
13.087 -7.9549999 1.096
13.174 -7.9320002 1.102
13.202 -7.8730001 1.104
13.319 -7.8670001 1.113
13.315 -7.789 1.112
13.582 -7.355 1.127
13.601 -7.2940001 1.128
13.75 -7.303 1.14
13.866 -7.0830002 1.146
13.937 -7.0500002 1.151
13.895 -6.96 1.147
13.973 -6.9299998 1.153
14.263 -6.4689999 1.171
14.204 -6.3779998 1.165
14.247 -6.3330002 1.168
14.321 -6.302 1.173
14.397 -6.2719998 1.179
14.461 -6.2350001 1.184
14.529 -6.2010002 1.188
14.557 -6.1500001 1.1900001
14.538 -6.079 1.188
14.549 -6.0219998 1.188
14.579 -5.9720001 1.1900001
14.616 -5.9260001 1.193
14.713 -5.9039998 1.2
14.673 -5.8260002 1.196
14.747 -5.7950001 1.202
14.819 -5.763 1.207
14.807 -5.698 1.205
14.849 -5.6539998 1.2079999
15.048 -5.6700001 1.224
10.595 -2.2219999 0.84799999
10.503 -2.1719999 0.83999997
10.43 -2.1270001 0.83399999
10.33 -2.0780001 0.82599998
10.295 -2.0409999 0.82300001
10.299 -2.013 0.82300001
10.297 -1.984 0.82300001
10.34 -1.9630001 0.82599998
10.43 -1.952 0.833
12.547 -1.049 0.99800003
12.417 -1.012 0.98699999
12.372 -0.98299998 0.98299998
12.342 -0.95499998 0.98100001
12.361 -0.93199998 0.98299998
12.387 -0.90899998 0.98500001
12.433 -0.88700002 0.98799998
12.925 0.19599999 0.97799999
12.931 0.219 0.97799999
12.929 0.242 0.97799999
12.941 0.266 0.97899997
12.947 0.289 0.97899997
12.962 0.31400001 0.98000002
12.992 0.33899999 0.98199999
12.988 0.36300001 0.98199999
13.002 0.38800001 0.98299998
12.999 0.41299999 0.98199999
12.991 0.43900001 0.98100001
13.03 0.46599999 0.98400003
13.02 0.491 0.98299998
13.03 0.51800001 0.98400003
13.044 0.54500002 0.98500001
13.049 0.57200003 0.98500001
13.034 0.59799999 0.98400003
13.058 0.62699997 0.986
13.052 0.65399998 0.98500001
13.048 0.68199998 0.98500001
13.027 0.70899999 0.98400003
13.018 0.73699999 0.98299998
13.016 0.76499999 0.98299998
13.011 0.79299998 0.98199999
13.015 0.82300001 0.98299998
12.998 0.85100001 0.98100001
12.979 0.87900001 0.98000002
12.955 0.90700001 0.97799999
12.928 0.935 0.97600001
12.894 0.96200001 0.97399998
12.876 0.991 0.97299999
12.864 1.02 0.972
12.863 1.051 0.972
12.861 1.081 0.972
12.869 1.113 0.972
12.882 1.145 0.97399998
12.927 1.181 0.977
12.93 1.2130001 0.977
23.073999 2.165 1.745
12.948 1.247 0.97899997
23.054001 2.22 1.744
13.023 1.286 0.98500001
23.101999 2.2820001 1.747
12.959 1.313 0.98000002
23.091 2.339 1.747
13.013 1.351 0.98500001
11.174 1.188 0.84500003
11.032 1.201 0.83499998
10.981 1.224 0.83099997
10.944 1.248 0.829
10.912 1.273 0.82599998
10.893 1.299 0.82499999
10.887 1.327 0.82499999
10.884 1.3559999 0.82499999
10.88 1.3839999 0.82499999
10.877 1.413 0.82499999
10.861 1.4400001 0.824
10.86 1.47 0.824
10.879 1.502 0.82599998
10.921 1.5369999 0.829
11.011 1.581 0.83700001
11.122 1.627 0.84500003
11.304 1.6849999 0.85900003
23.223 3.4630001 1.766
22.992001 3.493 1.749
22.982 3.556 1.749
22.981001 3.6199999 1.75
22.997999 3.688 1.752
23.003 3.7550001 1.753
22.978001 3.8169999 1.752
23.004 3.8870001 1.755
23.018 3.9560001 1.756
23.01 4.0209999 1.757
23.021 4.0900002 1.758
23.021 4.158 1.7589999
23.030001 4.2280002 1.761
23.059 4.3010001 1.7640001
23.319 4.4190001 1.785
19.753 4.651 1.525
19.552999 4.6659999 1.51
19.403999 4.6919999 1.5
19.476999 4.7709999 1.506
7.7020001 2.0350001 0.59799999
7.5190001 2.0109999 0.58399999
7.395 2.0020001 0.57499999
7.316 2.0050001 0.56900001
7.2690001 2.016 0.56599998
7.2319999 2.029 0.56300002
7.2129998 2.0480001 0.56199998
7.1750002 2.0610001 0.56
7.1430001 2.075 0.55800003
7.1259999 2.0940001 0.55699998
7.1420002 2.122 0.55900002
7.1880002 2.1600001 0.56300002
7.2259998 2.1960001 0.56599998
7.2389998 2.224 0.56800002
7.2670002 2.2579999 0.56999999
7.414 2.3280001 0.58200002
14.627 -6.7470002 1.242
14.707 -6.7410002 1.248
14.669 -6.5929999 1.244
14.69 -6.559 1.2460001
14.725 -6.5310001 1.248
14.821 -6.3540001 1.255
14.832 -6.3150001 1.256
14.897 -6.2989998 1.262
14.917 -6.2639999 1.263
14.937 -6.2280002 1.2640001
15.009 -6.2140002 1.27
10.713 -2.2049999 0.89300001
10.535 -2.1370001 0.87800002
10.441 -2.0880001 0.87
10.324 -2.0350001 0.86000001
10.284 -1.997 0.85699999
10.273 -1.965 0.85600001
10.311 -1.942 0.85900003
10.343 -1.918 0.861
10.486 -1.915 0.87300003
12.414 -1.118 1.025
12.352 -1.077 1.02
12.332 -1.04 1.018
12.367 -1.007 1.021
12.501 -0.98199999 1.031
13.126 0.21799999 1.0190001
13.19 0.233 1.023
13.139 0.24600001 1.0190001
13.088 0.25999999 1.015
13.101 0.27399999 1.015
13.114 0.28999999 1.016
13.101 0.30500001 1.015
13.227 0.442 1.022
13.105 0.456 1.013
13.111 0.47499999 1.013
13.164 0.49599999 1.017
13.115 0.51300001 1.013
13.143 0.53399998 1.015
13.097 0.551 1.011
13.119 0.57200003 1.013
13.106 0.59200001 1.012
13.091 0.61199999 1.01
13.075 0.63200003 1.0089999
13.124 0.65600002 1.013
13.115 0.67699999 1.012
13.093 0.69700003 1.01
13.089 0.71899998 1.01
13.04 0.73900002 1.006
13.032 0.76099998 1.005
13.028 0.78299999 1.005
13.035 0.80699998 1.005
13.005 0.82800001 1.003
12.997 0.85100001 1.003
12.974 0.87400001 1.001
12.937 0.89499998 0.99800003
12.904 0.917 0.99599999
12.869 0.93900001 0.99299997
12.834 0.96100003 0.99000001
12.8 0.98299998 0.98799998
12.784 1.007 0.98699999
12.785 1.033 0.98699999
12.801 1.0599999 0.98799998
12.81 1.086 0.98900002
12.82 1.113 0.99000001
12.862 1.143 0.99299997
23.048 2.049 1.781
12.959 1.179 1.001
22.99 2.092 1.776
12.915 1.202 0.99800003
22.978001 2.1400001 1.776
12.998 1.238 1.005
23.056999 2.1960001 1.7819999
12.998 1.266 1.005
13.013 1.295 1.006
13.021 1.324 1.007
11.133 1.1569999 0.861
11.031 1.171 0.85299999
10.977 1.1900001 0.85000002
10.948 1.211 0.84799999
10.918 1.233 0.84500003
10.907 1.257 0.84500003
10.901 1.281 0.84500003
10.894 1.306 0.84399998
10.873 1.329 0.84299999
10.874 1.355 0.84299999
10.888 1.383 0.84500003
10.861 1.406 0.84299999
10.869 1.433 0.84399998
10.883 1.462 0.84500003
10.91 1.492 0.84799999
10.975 1.528 0.85299999
11.024 1.563 0.85799998
11.126 1.605 0.866
23.087 3.3900001 1.798
22.988001 3.434 1.791
22.975 3.4920001 1.791
22.986 3.553 1.793
22.997 3.615 1.794
22.993999 3.675 1.795
23.002001 3.737 1.7970001
22.992001 3.796 1.7970001
23.004 3.8599999 1.799
22.996 3.921 1.799
23.002001 3.984 1.801
22.999001 4.0469999 1.801
23.003 4.1110001 1.803
23.011999 4.1760001 1.8049999
23.041 4.2449999 1.808
23.054001 4.3119998 1.8099999
23.216999 4.4089999 1.824
19.808001 4.638 1.573
19.669001 4.6669998 1.563
19.465 4.6789999 1.548
19.361 4.7140002 1.541
19.386 4.7810001 1.545
7.7470002 2.0580001 0.62
7.5409999 2.0280001 0.60399997
7.428 2.0220001 0.59600002
7.3299999 2.0190001 0.588
7.2680001 2.026 0.58399999
7.2340002 2.04 0.58200002
7.2010002 2.0550001 0.57999998
7.1739998 2.0710001 0.57800001
7.1329999 2.0840001 0.57499999
7.1300001 2.1070001 0.57599998
7.1350002 2.132 0.57700002
7.1630001 2.165 0.579
7.1950002 2.1989999 0.583
7.2280002 2.234 0.58600003
7.2589998 2.2690001 0.58899999
7.3649998 2.3280001 0.59799999
13.245 -8.6899996 1.178
13.331 -8.6639996 1.1849999
13.4 -8.6260004 1.1900001
13.46 -8.5819998 1.194
13.496 -8.5229998 1.196
13.573 -8.4899998 1.202
13.605 -8.4289999 1.204
13.66 -8.3830004 1.2079999
13.716 -8.3369999 1.212
13.744 -8.2740002 1.2130001
13.761 -8.2049999 1.214
13.805 -8.1529999 1.217
13.966 -8.1689997 1.23
14.054 -7.9099998 1.234
14.081 -7.849 1.2359999
14.121 -7.796 1.238
14.116 -7.7179999 1.237
14.203 -7.691 1.244
14.26 -7.6469998 1.248
14.234 -7.5599999 1.245
14.295 -7.5180001 1.249
14.353 -7.4749999 1.253
14.332 -7.3920002 1.251
14.332 -7.3200002 1.25
14.359 -7.2620001 1.251
14.397 -7.21 1.2539999
14.444 -7.1630001 1.257
14.469 -7.105 1.2589999
14.488 -7.0450001 1.2589999
14.496 -6.98 1.2589999
12.002 -5.7210002 1.0420001
12.01 -5.6690001 1.0420001
12.188 -5.6960001 1.057
14.676 -6.79 1.272
14.644 -6.7080002 1.2690001
14.69 -6.6620002 1.272
14.719 -6.6079998 1.274
14.712 -6.539 1.272
14.8 -6.5120001 1.279
14.895 -6.4879999 1.2869999
14.853 -6.4039998 1.2819999
14.965 -6.3870001 1.291
15.055 -6.2309999 1.2970001
15.142 -6.2030001 1.304
10.641 -2.2320001 0.898
10.494 -2.1700001 0.88499999
10.377 -2.1159999 0.875
10.3 -2.072 0.86900002
10.277 -2.0380001 0.866
10.282 -2.01 0.86699998
10.295 -1.983 0.86799997
10.328 -1.961 0.87
10.404 -1.947 0.87599999
12.456 -1.041 1.044
12.404 -1.011 1.04
12.365 -0.98199999 1.036
12.339 -0.95499998 1.034
12.36 -0.93099999 1.036
12.383 -0.90799999 1.038
12.413 -0.88499999 1.04
12.524 -0.86799997 1.05
12.886 0.198 1.036
12.917 0.221 1.038
12.913 0.244 1.0369999
12.951 0.26800001 1.04
12.97 0.292 1.0420001
12.961 0.315 1.041
12.983 0.34 1.0420001
13.004 0.36500001 1.044
13.018 0.391 1.045
13.048 0.417 1.0470001
13.02 0.44100001 1.045
13.022 0.46700001 1.045
13.002 0.49200001 1.043
13.017 0.51899999 1.044
13.021 0.546 1.044
13.05 0.574 1.0470001
13.052 0.60100001 1.0470001
13.034 0.62699997 1.045
13.067 0.65600002 1.048
13.046 0.68300003 1.046
13.038 0.71100003 1.046
13.03 0.73900002 1.045
13.022 0.76700002 1.044
13.018 0.79500002 1.044
13.016 0.824 1.044
12.979 0.85100001 1.041
12.965 0.87900001 1.04
12.916 0.90600002 1.036
12.879 0.93300003 1.033
12.849 0.95999998 1.031
12.796 0.986 1.027
12.759 1.013 1.024
12.762 1.044 1.024
12.78 1.076 1.026
12.79 1.107 1.027
12.817 1.141 1.029
12.847 1.175 1.0319999
12.956 1.217 1.041
23.190001 2.178 1.863
12.923 1.245 1.038
23.080999 2.2249999 1.855
13.038 1.289 1.048
12.991 1.317 1.044
13.074 1.358 1.051
11.272 1.2 0.90600002
11.069 1.206 0.88999999
10.977 1.225 0.88300002
10.94 1.249 0.88
10.913 1.274 0.87800002
10.907 1.302 0.87800002
10.89 1.329 0.87699997
10.871 1.355 0.87599999
10.861 1.383 0.875
10.869 1.413 0.87599999
10.857 1.441 0.875
10.873 1.472 0.87699997
10.879 1.503 0.87800002
10.919 1.538 0.88099998
10.98 1.577 0.88700002
11.035 1.615 0.89099997
11.275 1.682 0.91100001
23.139 3.4519999 1.87
22.959999 3.4890001 1.8559999
22.955999 3.553 1.857
22.968 3.6199999 1.859
22.989 3.688 1.8609999
22.976 3.7520001 1.8609999
22.996 3.8210001 1.863
22.975 3.8840001 1.862
22.98 3.951 1.864
22.993999 4.02 1.8660001
22.997 4.0879998 1.867
22.997999 4.1550002 1.868
22.997 4.223 1.869
23.02 4.2950001 1.872
23.077 4.3740001 1.877
19.729 4.6459999 1.619
19.48 4.6490002 1.6
19.402 4.6919999 1.594
19.464001 4.7690001 1.601
7.6539998 2.023 0.63200003
7.5019999 2.007 0.62
7.3920002 2.0020001 0.611
7.3150001 2.0050001 0.60500002
7.2529998 2.0120001 0.60000002
7.2290001 2.029 0.59899998
7.191 2.0420001 0.59600002
7.158 2.056 0.59399998
7.1149998 2.0669999 0.59100002
7.112 2.0899999 0.59100002
7.119 2.1159999 0.59200001
7.1220002 2.141 0.59299999
7.1570001 2.175 0.59600002
7.2309999 2.2219999 0.60299999
7.2610002 2.256 0.60600001
7.3390002 2.3050001 0.61299998
10.604 -2.152 0.93099999
10.439 -2.0880001 0.91600001
10.313 -2.033 0.90499997
10.289 -1.998 0.903
10.281 -1.966 0.90200001
10.293 -1.939 0.90200001
10.326 -1.915 0.90499997
10.438 -1.905 0.91500002
12.515 -1.1619999 1.0880001
12.395 -1.115 1.0779999
12.365 -1.077 1.075
12.342 -1.039 1.073
12.374 -1.006 1.075
12.479 -0.97899997 1.084
13.115 -0.34900001 1.1339999
13.049 -0.30899999 1.128
13.032 -0.271 1.126
13.094 -0.235 1.131
12.911 0.176 1.112
12.913 0.213 1.1109999
13.051 0.25299999 1.123
13.041 0.219 1.073
13.064 0.233 1.075
13.073 0.24699999 1.075
13.125 0.26300001 1.079
13.111 0.27700001 1.077
13.099 0.29100001 1.076
13.024 0.30500001 1.0700001
13.072 0.322 1.073
13.084 0.338 1.074
13.09 0.354 1.074
13.032 0.36899999 1.069
13.038 0.38600001 1.069
13.055 0.403 1.0700001
13.114 0.42300001 1.075
13.184 0.57700002 1.079
13.143 0.59500003 1.076
13.098 0.61400002 1.072
13.105 0.63499999 1.073
13.132 0.65799999 1.075
13.179 0.68199998 1.0779999
13.111 0.69999999 1.073
13.101 0.72100002 1.072
13.089 0.74299997 1.071
13.052 0.76300001 1.068
13.032 0.78500003 1.066
13.037 0.80800003 1.067
12.999 0.829 1.064
12.983 0.852 1.062
12.955 0.87400001 1.0599999
12.934 0.89600003 1.059
12.887 0.917 1.0549999
12.87 0.94 1.053
12.828 0.96200001 1.05
12.793 0.98400003 1.0470001
12.775 1.008 1.046
12.788 1.034 1.0470001
12.799 1.061 1.048
12.803 1.087 1.049
12.821 1.115 1.05
12.875 1.146 1.0549999
12.925 1.177 1.059
23.077999 2.102 1.892
12.955 1.207 1.062
23.073 2.151 1.892
13.029 1.242 1.068
12.994 1.266 1.066
13.053 1.3 1.071
13.021 1.326 1.068
11.195 1.164 0.91900003
11.044 1.173 0.90700001
10.987 1.192 0.90200001
10.959 1.2130001 0.89999998
10.928 1.235 0.898
10.917 1.2589999 0.89700001
10.899 1.2819999 0.89600003
10.891 1.306 0.89600003
10.884 1.331 0.89600003
10.873 1.3559999 0.89499998
10.867 1.381 0.89499998
10.865 1.4069999 0.89499998
10.871 1.434 0.89600003
10.879 1.462 0.89700001
10.909 1.493 0.89999998
10.941 1.524 0.903
10.969 1.556 0.90499997
11.012 1.59 0.90899998
11.175 1.641 0.92299998
23.181 3.405 1.916
22.962 3.4319999 1.899
22.936001 3.487 1.897
22.957001 3.55 1.9
22.968 3.6110001 1.902
22.976999 3.6730001 1.904
22.966999 3.733 1.904
22.962 3.793 1.905
22.979 3.8570001 1.9069999
22.964001 3.9170001 1.9069999
22.974001 3.9809999 1.909
22.986 4.046 1.911
22.979 4.1079998 1.911
22.979 4.171 1.913
22.995001 4.2379999 1.915
22.997999 4.303 1.9170001
23.011999 4.3709998 1.919
23.07 4.447 1.925
23.223 4.5430002 1.939
7.7290001 2.0539999 0.65700001
7.5320001 2.026 0.64099997
7.434 2.0239999 0.63300002
7.3400002 2.0220001 0.62599999
7.277 2.029 0.62099999
7.2379999 2.0420001 0.61799997
7.1989999 2.0550001 0.61500001
7.1479998 2.0639999 0.61199999
7.1170001 2.079 0.61000001
7.1079998 2.0999999 0.60900003
7.0890002 2.119 0.60799998
7.0999999 2.1459999 0.61000001
7.1269999 2.1789999 0.61299998
7.2090001 2.2290001 0.62099999
7.256 2.2679999 0.625
7.3140001 2.312 0.63099998
11.061 6.9109998 1.064
10.929 6.8800001 1.053
10.948 6.9419999 1.057
27.613001 19.773001 2.753
27.454 19.795 2.7420001
14.037 -8.8640003 1.309
14.041 -8.7819996 1.309
14.074 -8.7189999 1.311
14.07 -8.6330004 1.309
14.111 -8.5760002 1.312
14.191 -8.5419998 1.318
14.227 -8.4820004 1.3200001
14.363 -8.4820004 1.332
14.432 -8.441 1.337
14.478 -8.3870001 1.341
14.513 -8.3260002 1.3430001
10.659 -2.2360001 0.94599998
10.426 -2.1559999 0.92500001
10.319 -2.105 0.91500002
10.266 -2.0650001 0.91100001
10.264 -2.0350001 0.91000003
10.264 -2.006 0.91000003
10.277 -1.98 0.91100001
10.324 -1.96 0.91500002
10.463 -1.9579999 0.92699999
12.538 -1.074 1.105
12.44 -1.04 1.097
12.394 -1.01 1.092
12.369 -0.98199999 1.09
12.344 -0.95499998 1.0880001
12.361 -0.93099999 1.089
12.384 -0.90799999 1.091
12.434 -0.88700002 1.096
12.513 -0.86699998 1.103
12.615 -0.85000002 1.112
12.983 -0.35299999 1.1440001
12.935 -0.331 1.14
12.888 -0.308 1.136
12.818 -0.285 1.13
12.781 -0.26300001 1.127
12.771 -0.243 1.126
12.75 -0.222 1.124
12.749 -0.20100001 1.124
12.769 -0.18099999 1.126
12.783 -0.162 1.127
12.813 -0.142 1.13
12.88 -0.123 1.136
13.083 -0.105 1.154
13.057 0.067000002 1.153
13.11 0.086000003 1.158
12.86 0.199 1.094
12.879 0.222 1.095
12.887 0.245 1.096
12.889 0.26800001 1.096
12.887 0.292 1.095
12.915 0.31600001 1.098
12.948 0.34099999 1.1
12.998 0.36700001 1.104
13.106 0.39500001 1.113
13.119 0.421 1.114
13.173 0.44800001 1.119
13.145 0.47299999 1.1160001
13.144 0.49900001 1.1160001
13.074 0.523 1.11
13.032 0.54799998 1.107
13.031 0.574 1.1059999
13.045 0.602 1.107
13.049 0.63 1.108
13.045 0.65700001 1.107
13.032 0.68400002 1.1059999
13.063 0.71399999 1.109
13.041 0.741 1.107
13.015 0.76800001 1.105
13.004 0.796 1.104
13.006 0.82499999 1.104
12.965 0.85100001 1.101
12.944 0.87900001 1.099
12.924 0.90700001 1.098
12.891 0.935 1.095
12.86 0.96200001 1.092
12.818 0.98900002 1.089
12.781 1.016 1.086
12.772 1.046 1.085
12.791 1.0779999 1.087
12.815 1.1109999 1.089
12.838 1.1440001 1.091
12.892 1.1799999 1.096
12.941 1.216 1.1
12.985 1.253 1.105
13.021 1.289 1.108
13.024 1.321 1.108
13.039 1.3559999 1.11
11.297 1.2029999 0.96200001
11.056 1.206 0.94099998
10.972 1.225 0.93400002
10.946 1.25 0.93300003
10.916 1.275 0.93000001
10.917 1.304 0.93099999
10.897 1.33 0.92900002
10.87 1.3559999 0.92699999
10.863 1.3839999 0.92699999
10.86 1.4119999 0.92699999
10.852 1.441 0.92699999
10.884 1.474 0.93000001
10.898 1.506 0.93099999
10.914 1.538 0.93300003
10.94 1.572 0.935
10.974 1.607 0.93900001
11.1 1.656 0.94999999
22.938999 3.4879999 1.964
22.926001 3.55 1.964
22.938 3.6170001 1.966
22.940001 3.6819999 1.967
22.952 3.7490001 1.969
22.950001 3.8150001 1.969
22.959999 3.882 1.971
22.952 3.947 1.971
22.969999 4.0170002 1.974
22.962999 4.0830002 1.974
22.974001 4.152 1.976
22.972 4.2189999 1.977
22.968 4.2870002 1.978
22.988001 4.3590002 1.9809999
23.024 4.434 1.985
23.062 4.5100002 1.989
23.169001 4.6009998 1.999
7.6479998 2.0220001 0.66900003
7.4949999 2.0050001 0.65600002
7.3990002 2.0039999 0.648
7.3210001 2.007 0.64200002
7.2579999 2.013 0.63700002
7.2249999 2.0280001 0.634
7.1820002 2.039 0.63099998
7.1329999 2.049 0.62699997
7.1160002 2.0680001 0.62599999
7.1110001 2.0899999 0.62599999
7.105 2.112 0.62599999
7.1040001 2.1359999 0.62699997
7.1269999 2.1659999 0.62900001
7.211 2.2160001 0.63700002
7.2470002 2.2520001 0.64099997
7.2909999 2.29 0.64600003
7.5679998 2.4030001 0.671
11.263 6.7690001 1.095
11.186 6.763 1.089
11.173 6.7950001 1.089
11.161 6.8280001 1.09
11.173 6.875 1.092
10.924 7.1830001 1.087
10.825 7.1550002 1.0779999
10.394 -2.079 0.958
10.307 -2.0309999 0.94999999
10.268 -1.994 0.94599998
10.266 -1.9630001 0.94599998
10.276 -1.936 0.94599998
10.302 -1.911 0.94800001
10.411 -1.901 0.958
12.611 -1.207 1.152
12.44 -1.154 1.136
12.373 -1.112 1.13
12.349 -1.075 1.127
12.344 -1.038 1.126
12.399 -1.007 1.131
12.483 -0.97799999 1.1390001
12.721 -0.95999998 1.16
12.98 -0.456 1.179
12.898 -0.41600001 1.171
12.797 -0.375 1.1619999
12.741 -0.33700001 1.156
12.716 -0.30000001 1.154
12.704 -0.26300001 1.152
12.707 -0.226 1.152
12.724 -0.19 1.154
12.744 -0.153 1.155
12.816 -0.117 1.161
12.98 -0.082000002 1.176
13.13 0.149 1.145
13.088 0.16 1.141
13.073 0.17200001 1.1390001
13.149 0.197 1.145
13.059 0.20900001 1.136
13.12 0.223 1.141
13.107 0.236 1.14
13.06 0.26300001 1.135
13.085 0.278 1.137
13.064 0.29300001 1.135
13.043 0.308 1.132
13.064 0.324 1.1339999
13.01 0.338 1.1289999
12.945 0.352 1.123
12.907 0.36700001 1.119
12.859 0.38299999 1.115
12.857 0.39899999 1.114
12.86 0.41600001 1.114
12.913 0.43599999 1.119
12.994 0.456 1.126
13.202 0.48199999 1.143
13.206 0.54000002 1.143
13.248 0.56099999 1.147
13.142 0.57700002 1.137
13.106 0.59600002 1.1339999
13.083 0.61500001 1.132
13.055 0.634 1.13
13.054 0.65499997 1.13
13.068 0.67799997 1.131
13.103 0.70099998 1.1339999
13.105 0.72299999 1.1339999
13.088 0.745 1.132
13.084 0.76700002 1.132
13.051 0.78799999 1.1289999
13.023 0.80900002 1.127
13.002 0.83099997 1.125
12.965 0.852 1.122
12.95 0.875 1.1210001
12.929 0.89700001 1.119
12.912 0.92000002 1.117
12.901 0.94400001 1.117
12.89 0.96799999 1.1160001
12.894 0.99299997 1.1160001
12.899 1.0190001 1.117
12.908 1.045 1.118
12.916 1.072 1.119
12.929 1.099 1.12
12.941 1.126 1.1210001
12.94 1.153 1.1210001
12.958 1.182 1.123
13.02 1.215 1.1289999
13.013 1.2410001 1.128
12.986 1.267 1.126
13.048 1.301 1.132
13.045 1.329 1.132
11.203 1.166 0.972
11.055 1.175 0.95999998
10.996 1.194 0.95499998
10.95 1.2130001 0.95099998
10.94 1.237 0.95099998
10.921 1.26 0.949
10.901 1.283 0.94800001
10.901 1.309 0.94800001
10.879 1.332 0.94700003
10.867 1.3559999 0.94599998
10.877 1.383 0.94700003
10.88 1.41 0.94800001
10.893 1.438 0.949
10.893 1.465 0.94999999
10.914 1.494 0.95200002
10.913 1.521 0.95200002
10.923 1.55 0.954
10.975 1.585 0.95899999
11.129 1.635 0.97299999
23.084999 3.3929999 2.0179999
22.954 3.4319999 2.007
22.929001 3.4879999 2.006
22.921 3.546 2.007
22.933001 3.6070001 2.0090001
22.940001 3.6689999 2.01
22.958 3.7320001 2.013
22.948 3.7920001 2.013
22.950001 3.8540001 2.0150001
22.945999 3.915 2.016
22.943001 3.977 2.016
22.962999 4.0430002 2.0190001
22.966999 4.1069999 2.0209999
22.962999 4.1700001 2.0220001
22.976 4.2360001 2.0239999
22.971001 4.2989998 2.0250001
22.988001 4.3670001 2.0280001
22.996 4.434 2.03
22.988001 4.4980001 2.0309999
23.016001 4.5700002 2.0350001
23.049 4.6430001 2.039
23.072001 4.7140002 2.0420001
23.079 4.783 2.0450001
23.083 4.8520002 2.046
23.101999 4.9239998 2.05
7.75 2.0599999 0.69700003
7.5349998 2.027 0.67799997
7.4359999 2.0250001 0.67000002
7.3460002 2.0239999 0.66299999
7.2740002 2.0280001 0.65700001
7.23 2.04 0.653
7.1950002 2.0539999 0.65100002
7.145 2.0639999 0.64700001
7.119 2.0799999 0.64499998
7.1069999 2.1010001 0.64499998
7.098 2.122 0.64499998
7.0960002 2.145 0.64499998
7.125 2.178 0.648
7.1820002 2.221 0.65399998
7.2389998 2.263 0.66000003
7.2969999 2.3069999 0.66600001
11.333 6.3600001 1.127
11.254 6.3660002 1.1210001
11.204 6.388 1.118
11.179 6.4239998 1.118
11.17 6.4689999 1.119
11.212 6.5440001 1.125
28.173 19.624001 2.9530001
28.027 19.66 2.9430001
27.926001 19.726 2.938
27.775999 19.757 2.928
27.643 19.799 2.9200001
27.410999 19.768999 2.901
10.357 -2.142 0.96399999
10.293 -2.099 0.958
10.271 -2.066 0.95599997
10.262 -2.0350001 0.95499998
10.26 -2.0050001 0.954
10.274 -1.979 0.95499998
10.325 -1.961 0.95999998
10.445 -1.954 0.97100002
12.426 -1.197 1.149
12.409 -1.168 1.148
12.462 -1.147 1.153
12.535 -1.1 1.159
12.477 -1.069 1.154
12.407 -1.0369999 1.147
12.383 -1.0089999 1.145
12.37 -0.98199999 1.1440001
12.345 -0.95499998 1.141
12.374 -0.93199998 1.1440001
12.409 -0.91000003 1.147
12.444 -0.88700002 1.15
12.486 -0.86500001 1.154
12.548 -0.84500003 1.16
12.973 -0.375 1.199
12.895 -0.35100001 1.192
12.836 -0.32699999 1.187
12.755 -0.30399999 1.1799999
12.711 -0.28200001 1.175
12.708 -0.26100001 1.175
12.691 -0.241 1.174
12.685 -0.22 1.173
12.686 -0.2 1.173
12.695 -0.18000001 1.174
12.704 -0.16 1.175
12.73 -0.141 1.178
12.772 -0.121 1.182
12.887 -0.103 1.192
13.097 -0.083999999 1.212
12.867 0.20100001 1.155
12.876 0.22400001 1.156
12.861 0.24600001 1.154
12.846 0.26899999 1.152
12.818 0.292 1.15
12.82 0.31600001 1.15
12.838 0.34 1.151
12.865 0.36500001 1.153
12.93 0.391 1.159
13.019 0.419 1.1670001
13.141 0.449 1.178
13.131 0.47400001 1.177
13.117 0.5 1.176
13.064 0.52399999 1.171
13.026 0.54900002 1.1670001
13.032 0.57599998 1.168
13.026 0.60299999 1.1670001
13.002 0.62900001 1.165
13.028 0.65799999 1.1670001
13.044 0.68599999 1.169
13.084 0.71600002 1.1720001
13.079 0.74400002 1.1720001
13.057 0.77200001 1.17
13.026 0.79900002 1.1670001
13.018 0.82700002 1.1670001
13 0.85500002 1.165
12.942 0.88099998 1.16
12.925 0.90899998 1.158
12.91 0.93699998 1.1569999
12.905 0.96700001 1.1569999
12.884 0.99599999 1.155
12.897 1.027 1.156
12.901 1.058 1.1569999
12.917 1.09 1.159
12.92 1.1210001 1.159
12.942 1.154 1.161
12.957 1.187 1.163
12.981 1.221 1.165
13.02 1.257 1.169
13.004 1.288 1.168
12.993 1.319 1.1670001
13.049 1.358 1.1720001
13.059 1.392 1.174
11.089 1.21 0.99699998
11.003 1.229 0.98900002
10.955 1.252 0.98500001
10.923 1.277 0.98299998
10.907 1.304 0.98100001
10.892 1.331 0.98000002
10.879 1.358 0.98000002
10.877 1.386 0.98000002
10.864 1.414 0.97899997
10.869 1.444 0.98000002
10.874 1.474 0.98000002
10.9 1.507 0.98299998
10.902 1.5369999 0.98400003
10.899 1.567 0.98400003
10.916 1.599 0.986
11.072 1.653 1
22.91 3.4849999 2.0710001
22.896999 3.5469999 2.0710001
22.914 3.6140001 2.073
22.934999 3.6830001 2.076
22.931999 3.7479999 2.0769999
22.931999 3.813 2.0780001
22.934 3.8800001 2.079
22.937 3.9460001 2.0799999
22.931999 4.0120001 2.0810001
22.948999 4.0819998 2.0829999
22.952 4.1500001 2.085
22.955999 4.2179999 2.086
22.972 4.289 2.089
22.959999 4.355 2.089
22.969 4.4250002 2.0910001
22.990999 4.4980001 2.0940001
22.993 4.5669999 2.095
22.997 4.6370001 2.0969999
23.007 4.7090001 2.099
23.021 4.7820001 2.102
23.034 4.855 2.1040001
23.084 4.9359999 2.1099999
7.6479998 2.0220001 0.70700002
7.4770002 2.0009999 0.69099998
7.3969998 2.0039999 0.68400002
7.3210001 2.007 0.67799997
7.263 2.0150001 0.67299998
7.223 2.0280001 0.67000002
7.184 2.0409999 0.667
7.1469998 2.053 0.66399997
7.1259999 2.0710001 0.662
7.118 2.092 0.662
7.1139998 2.115 0.662
7.1129999 2.1389999 0.66299999
7.131 2.168 0.66500002
7.2160001 2.2179999 0.67400002
7.2529998 2.2539999 0.67799997
7.3390002 2.306 0.68599999
11.234 6.632 1.15
11.109 6.598 1.1390001
11.029 6.5900002 1.132
11.014 6.6209998 1.132
10.991 6.6469998 1.132
10.98 6.6799998 1.132
10.972 6.7129998 1.133
10.954 6.7420001 1.133
10.984 6.7989998 1.137
10.368 -2.0739999 1.001
10.297 -2.029 0.99400002
10.267 -1.994 0.991
10.269 -1.964 0.991
10.289 -1.938 0.99299997
10.305 -1.911 0.99400002
10.38 -1.895 1.001
10.648 -1.913 1.027
12.54 -1.308 1.201
12.395 -1.257 1.187
12.531 -1.234 1.2
12.504 -1.1950001 1.197
12.407 -1.15 1.187
12.368 -1.1109999 1.183
12.338 -1.072 1.1799999
12.377 -1.04 1.183
12.406 -1.007 1.186
12.49 -0.977 1.193
12.725 -0.95899999 1.216
12.943 -0.45300001 1.232
12.845 -0.412 1.222
12.747 -0.37200001 1.212
12.7 -0.33399999 1.2079999
12.687 -0.29699999 1.206
12.697 -0.26100001 1.207
12.706 -0.22400001 1.207
12.734 -0.18799999 1.209
12.755 -0.152 1.211
12.847 -0.116 1.219
13.117 -0.079999998 1.245
13.24 0.824 1.2079999
13.198 0.84500003 1.204
13.143 0.86500001 1.199
13.098 0.88599998 1.1950001
13.034 0.90600002 1.189
13.017 0.92900002 1.188
12.998 0.95300001 1.186
12.984 0.97600001 1.1849999
12.983 1.002 1.1849999
13.031 1.031 1.1900001
13.062 1.059 1.193
13.101 1.0880001 1.196
13.105 1.115 1.197
13.123 1.143 1.199
13.098 1.168 1.197
13.122 1.198 1.199
13.156 1.228 1.2029999
13.167 1.257 1.204
13.225 1.291 1.209
23.094 2.355 2.1129999
11.325 1.1799999 1.036
23.065001 2.4030001 2.1110001
11.123 1.183 1.018
11.032 1.198 1.01
10.97 1.216 1.005
10.944 1.238 1.003
10.919 1.261 1.001
10.9 1.284 0.99900001
10.899 1.309 1
10.894 1.334 1
10.898 1.3609999 1
10.893 1.386 1
10.883 1.411 1
10.892 1.439 1.001
10.889 1.465 1.001
10.884 1.4910001 1.001
10.895 1.5190001 1.003
10.896 1.5470001 1.003
10.938 1.58 1.008
11.126 1.636 1.025
22.966 3.4360001 2.118
22.910999 3.4860001 2.1140001
22.896 3.543 2.1140001
22.919001 3.6070001 2.1170001
22.921 3.6670001 2.119
22.938999 3.7309999 2.1210001
22.931999 3.7909999 2.122
22.941999 3.8540001 2.1240001
22.938999 3.915 2.125
22.941999 3.9779999 2.1270001
22.955 4.0430002 2.1289999
22.972 4.1090002 2.132
22.948999 4.1680002 2.131
22.957001 4.2340002 2.1329999
22.976 4.302 2.1370001
22.976 4.3660002 2.138
22.976999 4.4320002 2.1400001
22.975 4.4970002 2.141
22.982 4.5640001 2.1429999
22.995001 4.6329999 2.1459999
22.997 4.6999998 2.1470001
22.992001 4.7659998 2.1489999
23.02 4.8400002 2.1530001
23.032 4.9099998 2.155
23.059 4.9840002 2.1600001
23.1 5.0619998 2.165
23.148001 5.1420002 2.171
7.8499999 2.0869999 0.745
7.5450001 2.03 0.71700001
7.4390001 2.026 0.70700002
7.348 2.0250001 0.699
7.29 2.033 0.69400001
7.2410002 2.043 0.69
7.1999998 2.056 0.68699998
7.152 2.066 0.68300003
7.1209998 2.0810001 0.68099999
7.1090002 2.1010001 0.68099999
7.1090002 2.125 0.68099999
7.1079998 2.1489999 0.68199998
7.1259999 2.1789999 0.68400002
7.171 2.217 0.68900001
7.2379999 2.263 0.69700003
7.3839998 2.335 0.71100003
11.378 6.3369999 1.193
11.246 6.3130002 1.181
11.191 6.3319998 1.177
11.183 6.3769999 1.179
11.176 6.4229999 1.1799999
11.176 6.473 1.182
11.263 6.5749998 1.193
29.410999 19.215 3.201
29.302999 19.284 3.1949999
29.150999 19.323 3.1849999
28.007999 19.650999 3.1070001
27.936001 19.738001 3.105
27.768999 19.757 3.092
27.594 19.768 3.079
27.422001 19.782 3.066
10.419 -2.277 1.016
10.341 -2.2290001 1.0089999
10.353 -2.141 1.0089999
10.291 -2.099 1.003
10.262 -2.0639999 1
10.268 -2.036 1
10.264 -2.006 1
10.275 -1.98 1
10.316 -1.959 1.0039999
10.385 -1.943 1.011
10.557 -1.947 1.027
22.407 -3.1429999 2.174
22.348 -3.0799999 2.168
22.409 -3.0339999 2.174
22.400999 -2.9790001 2.1730001
22.438 -2.9289999 2.1760001
12.466 -1.201 1.207
12.439 -1.171 1.204
12.636 -1.109 1.223
12.513 -1.072 1.211
12.424 -1.038 1.2029999
12.391 -1.0089999 1.199
12.39 -0.98400003 1.199
12.377 -0.95700002 1.198
12.423 -0.93599999 1.202
12.478 -0.91399997 1.2079999
12.493 -0.88999999 1.209
12.529 -0.86799997 1.212
12.605 -0.84799999 1.22
13.046 -0.354 1.263
12.934 -0.329 1.252
12.851 -0.30599999 1.244
12.792 -0.28299999 1.238
12.769 -0.26199999 1.2359999
12.775 -0.242 1.237
12.772 -0.221 1.2359999
12.788 -0.20100001 1.238
12.83 -0.18099999 1.242
12.869 -0.161 1.2460001
12.908 -0.142 1.25
12.99 -0.123 1.258
12.943 0.204 1.223
12.949 0.227 1.223
12.96 0.25 1.224
12.99 0.27399999 1.226
13.016 0.29800001 1.229
13.017 0.322 1.229
13.061 0.34799999 1.233
13.087 0.373 1.235
13.167 0.92699999 1.242
13.115 0.954 1.237
13.101 0.98299998 1.2359999
13.088 1.013 1.235
13.129 1.0470001 1.239
13.319 1.0930001 1.257
22.969999 2.335 2.1719999
22.886999 2.3840001 2.165
22.882999 2.4419999 2.165
11.136 1.217 1.054
11.023 1.232 1.043
10.966 1.2539999 1.038
10.923 1.278 1.034
10.909 1.3049999 1.033
10.896 1.332 1.0319999
10.893 1.36 1.033
10.884 1.388 1.0319999
10.882 1.4170001 1.0319999
10.867 1.444 1.031
10.878 1.475 1.033
10.883 1.506 1.033
10.869 1.533 1.033
10.871 1.564 1.033
10.92 1.601 1.038
11.113 1.66 1.057
23.089001 3.4489999 2.197
22.934 3.49 2.1830001
22.905001 3.55 2.181
22.905001 3.615 2.1819999
22.902 3.6789999 2.1830001
22.927 3.7479999 2.1860001
22.926001 3.8139999 2.187
22.929001 3.8800001 2.188
22.938 3.948 2.1900001
22.955 4.0170002 2.1930001
22.951 4.0840001 2.194
22.969999 4.1539998 2.197
22.965 4.2210002 2.197
22.969 4.29 2.1989999
22.969999 4.3579998 2.2
22.979 4.428 2.2019999
22.989 4.4990001 2.2049999
22.98 4.566 2.2049999
23.014999 4.6420002 2.21
23.025 4.7140002 2.2119999
23.021 4.783 2.2130001
23.038 4.8569999 2.2160001
23.048 4.9299998 2.2179999
23.065001 5.0050001 2.221
23.122 5.0879998 2.2279999
23.26 5.191 2.243
7.7030001 2.0369999 0.75
7.52 2.013 0.73199999
7.4219999 2.0109999 0.72299999
7.3499999 2.016 0.71700001
7.3039999 2.027 0.713
7.2329998 2.0309999 0.70700002
7.1849999 2.0409999 0.70200002
7.1560001 2.0569999 0.69999999
7.1230001 2.0710001 0.69800001
7.1160002 2.092 0.69700003
7.1100001 2.1140001 0.69700003
7.1160002 2.1400001 0.699
7.1370001 2.1700001 0.70099998
7.1760001 2.2060001 0.70599997
7.2529998 2.2539999 0.71399999
7.401 2.326 0.72899997
10.333 -2.187 1.045
10.314 -2.1530001 1.0420001
10.358 -2.072 1.046
10.292 -2.0280001 1.039
10.262 -1.993 1.036
10.254 -1.961 1.035
10.263 -1.933 1.035
10.289 -1.908 1.038
10.347 -1.8890001 1.043
10.443 -1.876 1.053
22.445 -3.184 2.256
22.243 -3.0910001 2.2349999
22.313 -3.036 2.2420001
22.353001 -2.977 2.2449999
12.548 -1.307 1.257
12.444 -1.261 1.2460001
12.591 -1.2029999 1.26
12.436 -1.152 1.244
12.401 -1.113 1.24
12.387 -1.076 1.239
12.428 -1.043 1.242
12.473 -1.011 1.2460001
12.535 -0.98000002 1.252
13.031 -0.41600001 1.296
12.923 -0.37599999 1.285
12.844 -0.336 1.277
12.825 -0.29899999 1.274
12.853 -0.26199999 1.277
12.921 -0.226 1.283
12.985 -0.19 1.289
13.067 -0.153 1.2970001
22.917999 1.9069999 2.201
22.819 1.944 2.1919999
22.794001 1.989 2.1900001
22.799 2.036 2.191
22.833 2.0869999 2.1949999
22.827999 2.1340001 2.1949999
22.822001 2.1819999 2.1949999
22.813 2.23 2.194
22.802999 2.2780001 2.194
22.813 2.329 2.1960001
11.303 1.178 1.0880001
22.885 2.3859999 2.2030001
11.111 1.183 1.0700001
11.04 1.2 1.063
10.977 1.2180001 1.057
10.933 1.238 1.054
10.912 1.261 1.052
10.892 1.284 1.05
10.892 1.309 1.051
10.888 1.334 1.051
10.886 1.36 1.051
