# .PCD v0.7 - Point Cloud Data file format
VERSION 0.7
FIELDS x y z
SIZE 4 4 4
TYPE F F F
COUNT 1 1 1
WIDTH 1851
HEIGHT 1
VIEWPOINT 0 0 0 1 0 0 0
POINTS 1851
DATA ascii
12.094 2.187 -0.059999999
12.112 2.224 -0.059999999
12.18 2.2709999 -0.061000001
12.288 2.326 -0.061999999
12.296 2.3629999 -0.061999999
12.021 2.3440001 -0.061000001
11.906 2.3559999 -0.061000001
11.881 2.3859999 -0.061000001
11.883 2.421 -0.061000001
11.96 2.4719999 -0.061999999
12.476 2.615 -0.064999998
12.538 2.6659999 -0.064999998
12.546 2.7049999 -0.066
12.559 2.7449999 -0.066
12.559 2.783 -0.066
12.56 2.822 -0.066
12.566 2.8610001 -0.067000002
12.579 2.9030001 -0.067000002
12.593 2.9449999 -0.067000002
12.591 2.984 -0.068000004
12.625 3.0309999 -0.068000004
12.643 3.075 -0.068999998
12.66 3.119 -0.068999998
12.668 3.161 -0.068999998
12.681 3.2049999 -0.07
12.712 3.253 -0.07
12.735 3.3 -0.071000002
12.749 3.345 -0.071000002
12.773 3.3929999 -0.071000002
12.768 3.4330001 -0.071999997
12.709 3.4590001 -0.071999997
12.689 3.4949999 -0.071999997
12.664 3.53 -0.071999997
12.645 3.5669999 -0.071999997
12.625 3.6029999 -0.071999997
12.622 3.645 -0.072999999
12.64 3.6919999 -0.072999999
12.726 3.7609999 -0.074000001
12.906 3.858 -0.075000003
12.948 3.915 -0.075999998
13.011 3.9779999 -0.075999998
12.803 3.9590001 -0.075999998
12.591 3.937 -0.075000003
12.627 3.9920001 -0.075000003
13.107 4.1890001 -0.078000002
13.185 4.2610002 -0.079000004
13.253 4.329 -0.079999998
13.243 4.3730001 -0.079999998
13.28 4.4320002 -0.081
13.322 4.494 -0.081
13.365 4.5560002 -0.082000002
13.398 4.6160002 -0.082000002
13.465 4.6869998 -0.082999997
13.464 4.7360001 -0.083999999
13.531 4.809 -0.083999999
13.571 4.8730001 -0.085000001
13.595 4.9310002 -0.085000001
13.648 5.0009999 -0.086000003
13.752 5.0900002 -0.086999997
13.754 5.1420002 -0.088
13.83 5.2220001 -0.088
13.831 5.2740002 -0.089000002
13.894 5.3509998 -0.090000004
13.941 5.421 -0.090000004
14 5.4980001 -0.090999998
14.084 5.5840001 -0.092
14.112 5.6490002 -0.093000002
14.097 5.697 -0.093000002
14.134 5.7670002 -0.093999997
14.161 5.8330002 -0.093999997
14.191 5.9000001 -0.094999999
14.209 5.9629998 -0.094999999
14.197 6.0139999 -0.096000001
14.272 6.1020002 -0.096000001
14.307 6.1729999 -0.097000003
14.384 6.263 -0.097999997
14.395 6.3249998 -0.097999997
12.276 6.098 -0.089000002
12.202 6.112 -0.089000002
12.175 6.2010002 -0.089000002
12.106 6.2179999 -0.089000002
12.1 6.2659998 -0.090000004
12.089 6.3130002 -0.090000004
12.073 6.3559999 -0.090000004
12.113 6.4289999 -0.090999998
12.111 6.4809999 -0.090999998
12.189 6.5749998 -0.092
10.669 6.1799998 -0.083999999
10.529 6.1459999 -0.082999997
10.412 6.125 -0.082000002
10.335 6.1259999 -0.082000002
10.278 6.1389999 -0.082000002
10.219 6.1500001 -0.082000002
10.169 6.1669998 -0.082000002
10.119 6.1830001 -0.082000002
10.062 6.1950002 -0.082000002
10.026 6.2189999 -0.082000002
9.993 6.244 -0.082000002
9.9560003 6.2670002 -0.082000002
9.9729996 6.3249998 -0.082000002
10.121 6.4660001 -0.083999999
7.1859999 -4.737 0.064000003
7.2270002 -4.7189999 0.064999998
7.244 -4.6849999 0.064999998
7.2670002 -4.6550002 0.064999998
7.2950001 -4.6279998 0.064999998
7.3260002 -4.6030002 0.066
7.348 -4.572 0.066
7.3720002 -4.5440001 0.066
7.3979998 -4.5159998 0.066
7.428 -4.4910002 0.067000002
7.454 -4.4629998 0.067000002
7.473 -4.4320002 0.067000002
7.4850001 -4.3959999 0.067000002
7.5029998 -4.3639998 0.067000002
7.5279999 -4.3369999 0.068000004
7.5549998 -4.3099999 0.068000004
7.5830002 -4.2849998 0.068000004
7.5879998 -4.2459998 0.068000004
7.6040001 -4.2140002 0.068000004
7.6290002 -4.1869998 0.068999998
7.6469998 -4.1560001 0.068999998
7.6820002 -4.1350002 0.068999998
7.6999998 -4.1040001 0.068999998
7.7129998 -4.0710001 0.068999998
7.7379999 -4.0450001 0.07
7.7639999 -4.0180001 0.07
7.7820001 -3.9890001 0.07
7.809 -3.9630001 0.07
7.823 -3.931 0.07
7.848 -3.905 0.071000002
7.8629999 -3.8740001 0.071000002
7.8850002 -3.8469999 0.071000002
7.908 -3.8199999 0.071000002
7.9330001 -3.7939999 0.071999997
7.9559999 -3.767 0.071999997
7.9780002 -3.74 0.071999997
8.0039997 -3.7149999 0.071999997
8.0290003 -3.6889999 0.072999999
8.0319996 -3.654 0.072999999
8.0649996 -3.632 0.072999999
8.0869999 -3.605 0.072999999
8.1059999 -3.5769999 0.072999999
8.1379995 -3.5539999 0.074000001
8.1590004 -3.5280001 0.074000001
8.1859999 -3.503 0.074000001
8.2030001 -3.474 0.074000001
8.2309999 -3.451 0.075000003
8.25 -3.4230001 0.075000003
8.2740002 -3.398 0.075000003
8.302 -3.3740001 0.075000003
8.3249998 -3.348 0.075999998
8.3660002 -3.3299999 0.075999998
8.375 -3.299 0.075999998
8.3870001 -3.2690001 0.075999998
8.434 -3.253 0.077
8.4569998 -3.227 0.077
8.4700003 -3.198 0.077
8.507 -3.178 0.077
8.5319996 -3.1530001 0.078000002
8.5430002 -3.1240001 0.078000002
8.5799999 -3.1029999 0.078000002
8.6070004 -3.0799999 0.078000002
8.6289997 -3.0539999 0.079000004
8.6429996 -3.026 0.079000004
8.6780005 -3.0050001 0.079000004
8.7019997 -2.98 0.079000004
8.7259998 -2.9560001 0.079999998
8.7469997 -2.9300001 0.079999998
8.7860003 -2.9100001 0.079999998
8.8149996 -2.888 0.079999998
8.8299999 -2.8599999 0.081
8.8549995 -2.836 0.081
8.8830004 -2.813 0.081
8.9350004 -2.7969999 0.082000002
8.9840002 -2.78 0.082000002
8.9980001 -2.753 0.082000002
9.0360003 -2.733 0.082999997
9.0640001 -2.7090001 0.082999997
9.085 -2.684 0.082999997
9.1160002 -2.6619999 0.083999999
9.1540003 -2.641 0.083999999
9.1960001 -2.622 0.083999999
9.1949997 -2.5910001 0.083999999
9.2299995 -2.5699999 0.085000001
9.2690001 -2.55 0.085000001
9.2910004 -2.5250001 0.085000001
9.3050003 -2.4979999 0.086000003
9.3409996 -2.477 0.086000003
9.3830004 -2.4579999 0.086000003
9.4169998 -2.4360001 0.086999997
9.4189997 -2.4059999 0.086999997
9.4879999 -2.3940001 0.086999997
9.5030003 -2.3670001 0.088
9.5570002 -2.3510001 0.088
9.599 -2.3310001 0.089000002
9.6140003 -2.3039999 0.089000002
9.6700001 -2.2880001 0.089000002
9.7119999 -2.2679999 0.090000004
9.75 -2.247 0.090000004
9.7639999 -2.221 0.090000004
9.7930002 -2.198 0.090999998
9.8109999 -2.1730001 0.090999998
9.8439999 -2.151 0.090999998
9.8809996 -2.1300001 0.092
9.9069996 -2.1059999 0.092
9.9200001 -2.0799999 0.092
9.9469995 -2.0569999 0.092
9.9709997 -2.033 0.093000002
10.002 -2.0109999 0.093000002
10.04 -1.99 0.093000002
10.061 -1.965 0.093000002
10.086 -1.942 0.093999997
10.117 -1.92 0.093999997
10.146 -1.897 0.093999997
10.199 -1.8789999 0.094999999
10.233 -1.857 0.094999999
10.238 -1.83 0.094999999
10.266 -1.807 0.096000001
10.298 -1.785 0.096000001
10.324 -1.762 0.096000001
10.352 -1.739 0.097000003
10.382 -1.717 0.097000003
10.405 -1.694 0.097000003
10.453 -1.674 0.097999997
10.482 -1.652 0.097999997
10.483 -1.625 0.097999997
10.495 -1.6 0.097999997
10.528 -1.579 0.098999999
10.55 -1.5549999 0.098999999
10.599 -1.536 0.098999999
10.644 -1.516 0.1
10.669 -1.493 0.1
10.679 -1.4680001 0.1
10.705 -1.446 0.101
10.736 -1.424 0.101
10.766 -1.402 0.101
10.793 -1.38 0.102
10.794 -1.354 0.102
10.835 -1.334 0.102
10.842 -1.309 0.102
10.868 -1.2869999 0.102
10.893 -1.265 0.103
10.927 -1.243 0.103
11.003 -1.227 0.104
9.243 -1.01 0.086999997
9.1070004 -0.97399998 0.086000003
9.0679998 -0.94999999 0.086000003
9.0430002 -0.92699999 0.085000001
9.0179996 -0.90399998 0.085000001
8.9960003 -0.88200003 0.085000001
8.9860001 -0.86199999 0.085000001
8.9860001 -0.84200001 0.085000001
8.9949999 -0.824 0.085000001
9 -0.80500001 0.085000001
9.0559998 -0.79100001 0.086000003
9.2110004 -0.78500003 0.086999997
11.329 -0.94199997 0.108
11.34 -0.91900003 0.108
11.323 -0.89499998 0.108
11.424 -0.87900001 0.109
11.461 -0.85900003 0.109
11.452 -0.83499998 0.109
9.3369999 -0.662 0.089000002
9.1560001 -0.63099998 0.086999997
9.1059999 -0.60900003 0.086999997
9.0780001 -0.58899999 0.086999997
9.085 -0.57200003 0.086999997
9.0970001 -0.55500001 0.086999997
9.1370001 -0.54000002 0.086999997
9.2250004 -0.528 0.088
11.496 0.147 -0.0089999996
11.572 0.169 -0.0099999998
11.587 0.19 -0.0099999998
11.626 0.212 -0.0099999998
11.601 0.233 -0.0099999998
11.646 0.25600001 -0.0099999998
11.672 0.27900001 -0.011
11.65 0.301 -0.011
11.664 0.324 -0.011
11.643 0.34599999 -0.011
11.672 0.37 -0.011
11.669 0.39399999 -0.011
11.685 0.41800001 -0.012
11.667 0.44100001 -0.012
11.693 0.46599999 -0.012
11.659 0.48899999 -0.012
11.678 0.51499999 -0.012
11.659 0.53899997 -0.013
11.649 0.56300002 -0.013
11.649 0.588 -0.013
11.653 0.61400002 -0.013
11.645 0.639 -0.013
11.661 0.66600001 -0.014
11.661 0.69199997 -0.014
11.664 0.71899998 -0.014
11.667 0.745 -0.014
11.685 0.773 -0.014
11.693 0.801 -0.015
11.715 0.82999998 -0.015
11.722 0.85799998 -0.015
11.767 0.889 -0.015
11.723 0.91399997 -0.015
11.736 0.94300002 -0.016000001
11.766 0.97399998 -0.016000001
11.749 1.001 -0.016000001
11.8 1.034 -0.016000001
11.798 1.063 -0.017000001
11.796 1.092 -0.017000001
11.82 1.124 -0.017000001
11.856 1.1569999 -0.017000001
11.868 1.188 -0.017999999
11.909 1.223 -0.017999999
11.904 1.253 -0.017999999
11.906 1.284 -0.017999999
11.938 1.318 -0.018999999
11.938 1.35 -0.018999999
11.958 1.383 -0.018999999
12.02 1.4220001 -0.018999999
12.031 1.456 -0.02
12.019 1.4859999 -0.02
12.045 1.522 -0.02
12.025 1.552 -0.02
12.086 1.5930001 -0.021
12.097 1.627 -0.021
12.146 1.6670001 -0.021
12.179 1.705 -0.021
12.188 1.74 -0.022
12.213 1.778 -0.022
12.235 1.816 -0.022
12.241 1.851 -0.022
12.251 1.887 -0.023
12.282 1.927 -0.023
12.297 1.964 -0.023
12.291 1.999 -0.024
12.192 2.0179999 -0.024
12.058 2.03 -0.024
11.996 2.0550001 -0.024
12.001 2.0910001 -0.024
12.007 2.1270001 -0.024
12.025 2.1659999 -0.024
12.047 2.2060001 -0.025
12.104 2.2520001 -0.025
12.313 2.3280001 -0.026000001
12.51 2.402 -0.026000001
12.012 2.3429999 -0.026000001
11.914 2.3599999 -0.026000001
11.889 2.391 -0.026000001
11.892 2.428 -0.026000001
12.046 2.4960001 -0.027000001
12.665 2.6630001 -0.028000001
12.701 2.71 -0.028999999
12.693 2.7479999 -0.028999999
12.698 2.7880001 -0.028999999
12.707 2.8299999 -0.028999999
12.73 2.875 -0.029999999
12.747 2.9189999 -0.029999999
12.76 2.9619999 -0.029999999
12.769 3.0039999 -0.030999999
12.797 3.0510001 -0.030999999
12.82 3.098 -0.030999999
12.863 3.1489999 -0.032000002
12.885 3.1960001 -0.032000002
12.87 3.234 -0.032000002
12.9 3.283 -0.033
12.92 3.3299999 -0.033
12.929 3.3740001 -0.033
12.958 3.424 -0.034000002
12.885 3.447 -0.034000002
12.823 3.4719999 -0.034000002
12.741 3.4909999 -0.034000002
12.677 3.516 -0.034000002
12.655 3.552 -0.034000002
12.627 3.585 -0.034000002
12.635 3.6300001 -0.035
12.685 3.6860001 -0.035
13.213 3.8840001 -0.037
13.282 3.9489999 -0.037
13.333 4.0089998 -0.037999999
13.385 4.0689998 -0.037999999
12.707 3.9059999 -0.037
12.572 3.9070001 -0.035999998
12.596 3.957 -0.037
13.597 4.3179998 -0.039999999
13.516 4.3379998 -0.039999999
13.568 4.402 -0.041000001
13.556 4.4439998 -0.041000001
13.581 4.4990001 -0.041000001
13.583 4.546 -0.041999999
13.679 4.6259999 -0.041999999
13.717 4.6859999 -0.043000001
13.728 4.737 -0.043000001
13.785 4.8049998 -0.044
13.804 4.8590002 -0.044
13.865 4.9289999 -0.044
13.903 4.9910002 -0.045000002
13.944 5.0549998 -0.045000002
14.004 5.125 -0.046
14.039 5.1880002 -0.046
14.11 5.263 -0.046999998
14.124 5.3189998 -0.046999998
14.187 5.3920002 -0.048
14.26 5.4710002 -0.048999999
14.313 5.5419998 -0.048999999
14.34 5.6030002 -0.048999999
14.38 5.6700001 -0.050000001
14.481 5.7610002 -0.050999999
14.514 5.8260002 -0.050999999
14.554 5.8940001 -0.052000001
14.604 5.9660001 -0.052000001
14.607 6.02 -0.052999999
14.603 6.0710001 -0.052999999
14.603 6.1230001 -0.052999999
14.582 6.1669998 -0.054000001
14.588 6.2220001 -0.054000001
14.617 6.2870002 -0.054000001
14.8 6.4190001 -0.056000002
12.262 6.0310001 -0.050999999
12.213 6.052 -0.050999999
12.219 6.0999999 -0.050999999
12.186 6.1269999 -0.052000001
12.184 6.171 -0.052000001
12.118 6.2259998 -0.052000001
12.113 6.2680001 -0.052999999
12.143 6.3270001 -0.052999999
12.122 6.3610001 -0.052999999
12.059 6.3720002 -0.052999999
12.06 6.4159999 -0.054000001
12.116 6.4910002 -0.054000001
12.108 6.5310001 -0.055
12.161 6.6030002 -0.055
12.247 6.6950002 -0.056000002
10.757 6.2309999 -0.052000001
10.534 6.1399999 -0.050999999
10.436 6.1209998 -0.050999999
10.396 6.1350002 -0.050999999
10.364 6.1529999 -0.050999999
10.34 6.1760001 -0.050999999
10.334 6.2090001 -0.052000001
10.343 6.2509999 -0.052000001
10.402 6.3239999 -0.052000001
9.8990002 6.572 -0.055
9.8339996 6.5619998 -0.055
9.8450003 6.6020002 -0.055
9.8950005 6.6690001 -0.055
7.691 -4.5289998 0.086000003
7.7059999 -4.5159998 0.086000003
7.71 -4.4959998 0.086999997
7.7319999 -4.487 0.086999997
7.7389998 -4.4689999 0.086999997
7.7379999 -4.447 0.086999997
7.7449999 -4.4289999 0.086999997
7.763 -4.4169998 0.086999997
7.7680001 -4.3969998 0.088
7.7870002 -4.3860002 0.088
7.7969999 -4.3699999 0.088
7.8080001 -4.3540001 0.088
7.816 -4.336 0.088
7.8249998 -4.3179998 0.088
7.835 -4.3010001 0.089000002
7.8509998 -4.2880001 0.089000002
7.8559999 -4.2680001 0.089000002
7.8699999 -4.2529998 0.089000002
7.8800001 -4.2360001 0.089000002
7.8870001 -4.217 0.089000002
7.8930001 -4.198 0.090000004
7.914 -4.1859999 0.090000004
7.9229999 -4.1680002 0.090000004
7.9510002 -4.1599998 0.090000004
7.934 -4.1279998 0.090000004
7.9590001 -4.118 0.090999998
7.9759998 -4.1040001 0.090999998
7.9840002 -4.085 0.090999998
7.9980001 -4.0689998 0.090999998
8.0019999 -4.0479999 0.090999998
8.0240002 -4.0359998 0.092
8.0170002 -4.0100002 0.090999998
8.0539999 -4.0050001 0.092
8.052 -3.98 0.092
8.0740004 -3.9679999 0.092
8.0889997 -3.9519999 0.092
8.0979996 -3.9330001 0.093000002
8.1210003 -3.921 0.093000002
8.1470003 -3.9100001 0.093000002
8.1429996 -3.8840001 0.093000002
8.1669998 -3.872 0.093999997
8.1709995 -3.8510001 0.093999997
8.1859999 -3.8340001 0.093999997
8.2060003 -3.819 0.093999997
8.224 -3.8039999 0.093999997
8.2379999 -3.7869999 0.094999999
8.2379999 -3.763 0.094999999
8.2700005 -3.7539999 0.094999999
8.2639999 -3.727 0.094999999
8.276 -3.7079999 0.094999999
8.2969999 -3.694 0.096000001
8.3269997 -3.6830001 0.096000001
8.3409996 -3.665 0.096000001
8.3509998 -3.645 0.096000001
8.3520002 -3.6210001 0.096000001
8.3870001 -3.612 0.097000003
8.3929996 -3.5910001 0.097000003
8.4049997 -3.5710001 0.097000003
8.4169998 -3.552 0.097000003
8.434 -3.5350001 0.097999997
8.4639997 -3.523 0.097999997
8.467 -3.5 0.097999997
8.4879999 -3.484 0.097999997
8.5039997 -3.4649999 0.098999999
8.5120001 -3.444 0.098999999
8.5139999 -3.4200001 0.098999999
8.5389996 -3.4059999 0.098999999
8.552 -3.3859999 0.098999999
8.5579996 -3.3629999 0.098999999
8.5740004 -3.345 0.1
8.5970001 -3.329 0.1
8.5950003 -3.303 0.1
8.6260004 -3.29 0.1
8.6700001 -3.2820001 0.101
8.6759996 -3.2590001 0.101
8.6859999 -3.2379999 0.101
8.7030001 -3.2190001 0.101
8.7279997 -3.2030001 0.102
8.7469997 -3.1849999 0.102
8.7580004 -3.1630001 0.102
8.7799997 -3.1459999 0.103
8.7880001 -3.1229999 0.103
8.8030005 -3.1029999 0.103
8.8100004 -3.0799999 0.103
8.8409996 -3.0650001 0.103
8.8599997 -3.046 0.104
8.8660002 -3.023 0.104
8.9090004 -3.0109999 0.104
8.9209995 -2.99 0.105
8.9090004 -2.96 0.104
8.9659996 -2.9530001 0.105
8.9870005 -2.934 0.105
9.0159998 -2.9170001 0.106
9.0340004 -2.8970001 0.106
9.0649996 -2.881 0.106
9.0860004 -2.8610001 0.107
9.1049995 -2.8410001 0.107
9.1639996 -2.8329999 0.108
9.184 -2.813 0.108
9.1599998 -2.779 0.108
9.2189999 -2.77 0.109
9.2279997 -2.7460001 0.109
9.2819996 -2.7360001 0.109
9.2650003 -2.704 0.109
9.2869997 -2.6830001 0.11
9.3260002 -2.668 0.11
9.3360004 -2.6440001 0.11
9.3599997 -2.6240001 0.111
9.3879995 -2.605 0.111
9.3979998 -2.5799999 0.111
9.4209995 -2.559 0.111
9.4549999 -2.5409999 0.112
9.5249996 -2.533 0.113
9.5030003 -2.5 0.112
9.5179996 -2.4760001 0.113
9.5860004 -2.4660001 0.114
9.5839996 -2.438 0.114
9.6400003 -2.425 0.114
9.6350002 -2.3959999 0.114
9.6520004 -2.372 0.115
9.717 -2.3599999 0.115
9.7419996 -2.3380001 0.116
9.7720003 -2.3169999 0.116
9.8120003 -2.299 0.117
9.8240004 -2.273 0.117
9.8520002 -2.2520001 0.117
9.8610001 -2.2249999 0.117
9.9139996 -2.2090001 0.118
9.9309998 -2.184 0.118
9.9289999 -2.155 0.118
9.967 -2.135 0.119
9.9870005 -2.1110001 0.119
10.013 -2.0880001 0.119
10.06 -2.0680001 0.12
10.107 -2.049 0.121
10.136 -2.026 0.121
10.134 -1.997 0.121
10.166 -1.974 0.121
10.2 -1.951 0.122
10.241 -1.9299999 0.122
10.266 -1.905 0.123
10.292 -1.88 0.123
10.313 -1.855 0.123
10.354 -1.8329999 0.124
10.37 -1.806 0.124
10.413 -1.783 0.125
10.433 -1.757 0.125
10.48 -1.735 0.126
10.514 -1.711 0.126
10.552 -1.687 0.127
10.594 -1.663 0.127
10.601 -1.6339999 0.127
10.637 -1.609 0.12800001
10.673 -1.584 0.12800001
10.708 -1.559 0.12899999
10.749 -1.534 0.12899999
10.783 -1.508 0.13
10.816 -1.482 0.13
10.842 -1.454 0.13
10.863 -1.426 0.131
10.911 -1.402 0.131
10.936 -1.374 0.132
10.961 -1.346 0.132
11 -1.319 0.133
11.099 -1.299 0.134
9.2080002 -1.051 0.111
9.0740004 -1.01 0.109
9.0279999 -0.97899997 0.109
8.9870005 -0.949 0.108
8.9750004 -0.92299998 0.108
8.9650002 -0.89600003 0.108
9.0059996 -0.875 0.109
9.1549997 -0.86299998 0.111
11.503 -1.052 0.139
11.553 -1.023 0.14
11.589 -0.99400002 0.14
9.3190002 -0.77200001 0.113
9.118 -0.73000002 0.11
9.085 -0.70099998 0.11
9.0690002 -0.67400002 0.11
9.1359997 -0.653 0.111
12.258 0.359 0.014
12.222 0.375 0.014
12.202 0.39199999 0.013
12.187 0.40900001 0.013
12.201 0.42699999 0.013
12.197 0.44499999 0.013
12.171 0.463 0.013
12.169 0.48100001 0.013
12.184 0.50099999 0.012
12.162 0.51899999 0.012
12.167 0.53899997 0.012
12.188 0.56 0.012
12.142 0.57800001 0.012
12.194 0.60100001 0.011
12.185 0.62099999 0.011
12.183 0.64200002 0.011
12.209 0.66500002 0.011
12.189 0.685 0.011
12.194 0.70700002 0.011
12.2 0.72899997 0.0099999998
12.21 0.75199997 0.0099999998
12.218 0.77499998 0.0099999998
12.206 0.79699999 0.0099999998
12.22 0.82099998 0.0099999998
12.231 0.84600002 0.0089999996
12.245 0.87 0.0089999996
12.234 0.89300001 0.0089999996
12.219 0.91600001 0.0089999996
12.236 0.94199997 0.0089999996
12.256 0.96799999 0.0089999996
12.263 0.99400002 0.0080000004
12.279 1.02 0.0080000004
12.297 1.0470001 0.0080000004
12.298 1.073 0.0080000004
12.341 1.103 0.0080000004
12.345 1.13 0.0070000002
12.365 1.158 0.0070000002
12.349 1.184 0.0070000002
12.354 1.211 0.0070000002
12.356 1.239 0.0070000002
12.374 1.268 0.0070000002
12.368 1.295 0.0060000001
12.361 1.323 0.0060000001
12.401 1.355 0.0060000001
12.433 1.388 0.0060000001
12.448 1.418 0.0060000001
12.43 1.4450001 0.0049999999
12.447 1.477 0.0049999999
12.472 1.51 0.0049999999
12.469 1.539 0.0049999999
12.477 1.5700001 0.0049999999
12.513 1.605 0.0040000002
12.538 1.6390001 0.0040000002
12.54 1.671 0.0040000002
12.569 1.706 0.0040000002
12.589 1.74 0.0040000002
12.601 1.774 0.003
12.623 1.809 0.003
12.638 1.844 0.003
12.612 1.873 0.003
12.651 1.911 0.003
12.652 1.944 0.0020000001
12.688 1.983 0.0020000001
12.702 2.0190001 0.0020000001
12.746 2.0599999 0.0020000001
12.187 2.003 0.0020000001
12.087 2.0190001 0.001
12.034 2.043 0.001
12.007 2.0710001 0.001
11.991 2.1010001 0.001
12.006 2.1370001 0.001
12.012 2.1719999 -0
12.076 2.217 -0
12.268 2.2869999 -0
12.808 2.424 -0
12.07 2.319 -0
11.954 2.3310001 -0
11.903 2.3559999 -0
11.897 2.3889999 -0
11.94 2.4330001 -0
12.108 2.5020001 -0
12.921 2.7090001 -0.001
12.941 2.7509999 -0.001
12.961 2.7939999 -0.001
12.969 2.835 -0.001
12.982 2.8770001 -0.0020000001
12.996 2.9200001 -0.0020000001
12.989 2.9579999 -0.0020000001
13.006 3.0009999 -0.0020000001
13.041 3.05 -0.003
13.067 3.096 -0.003
13.082 3.141 -0.003
13.121 3.191 -0.003
13.15 3.24 -0.003
13.154 3.2820001 -0.0040000002
13.151 3.323 -0.0040000002
13.199 3.378 -0.0040000002
13.238 3.4300001 -0.0040000002
13.277 3.483 -0.0049999999
13.304 3.533 -0.0049999999
13.335 3.585 -0.0049999999
13.459 3.6630001 -0.0049999999
12.861 3.5420001 -0.0049999999
12.727 3.5469999 -0.0060000001
12.667 3.573 -0.0060000001
12.611 3.599 -0.0060000001
12.591 3.635 -0.0060000001
12.662 3.6989999 -0.0060000001
13.625 4.026 -0.0070000002
13.669 4.085 -0.0080000004
13.673 4.1329999 -0.0080000004
13.744 4.2020001 -0.0080000004
12.623 3.9030001 -0.0080000004
12.533 3.918 -0.0080000004
12.569 3.973 -0.0080000004
13.977 4.467 -0.0089999996
13.859 4.4780002 -0.0089999996
13.873 4.5310001 -0.0099999998
13.902 4.5900002 -0.0099999998
13.918 4.6440001 -0.0099999998
13.983 4.7160001 -0.011
14.016 4.777 -0.011
14.097 4.8559999 -0.011
14.096 4.9060001 -0.011
14.137 4.9720001 -0.012
14.21 5.0489998 -0.012
14.28 5.1259999 -0.012
14.331 5.197 -0.013
14.424 5.2839999 -0.013
14.451 5.348 -0.013
14.535 5.4330001 -0.014
14.631 5.5240002 -0.014
14.628 5.5770001 -0.014
14.663 5.6459999 -0.015
14.653 5.697 -0.015
14.701 5.7719998 -0.015
14.699 5.8270001 -0.016000001
14.767 5.9099998 -0.016000001
14.766 5.967 -0.016000001
14.797 6.0359998 -0.017000001
14.865 6.1220002 -0.017000001
14.847 6.1719999 -0.017000001
14.741 6.1849999 -0.017000001
14.701 6.2259998 -0.017999999
12.336 5.9720001 -0.017999999
12.266 5.9889998 -0.018999999
12.168 5.9920001 -0.018999999
12.161 6.039 -0.018999999
12.203 6.1110001 -0.018999999
12.169 6.1459999 -0.02
12.237 6.2319999 -0.02
12.125 6.2259998 -0.02
12.151 6.2919998 -0.02
12.235 6.388 -0.021
12.124 6.382 -0.021
12.045 6.3920002 -0.021
12.092 6.4689999 -0.021
12.129 6.5419998 -0.022
12.112 6.585 -0.022
12.151 6.6599998 -0.022
10.67 6.2750001 -0.021
10.477 6.21 -0.021
10.409 6.2160001 -0.021
10.379 6.2459998 -0.022
10.396 6.3039999 -0.022
10.444 6.381 -0.022
10.502 6.4640002 -0.023
9.8330002 6.7490001 -0.024
9.7270002 6.723 -0.024
9.6739998 6.7329998 -0.025
9.6490002 6.763 -0.025
9.6630001 6.8200002 -0.025
9.7150002 6.9039998 -0.025
9.7720003 6.993 -0.026000001
9.7349997 7.0139999 -0.026000001
7.355 -4.8470001 0.101
7.3969998 -4.8270001 0.102
7.4099998 -4.79 0.102
7.4439998 -4.7659998 0.102
7.4699998 -4.737 0.103
7.5029998 -4.7119999 0.103
7.5300002 -4.684 0.104
7.552 -4.6529999 0.104
7.5700002 -4.619 0.104
7.5890002 -4.5869999 0.104
7.6149998 -4.5580001 0.105
7.6409998 -4.5300002 0.105
7.6469998 -4.4899998 0.105
7.677 -4.4640002 0.105
7.6950002 -4.4310002 0.106
7.7319999 -4.4099998 0.106
7.7519999 -4.3790002 0.106
7.7649999 -4.3439999 0.107
7.7870002 -4.3140001 0.107
7.809 -4.2839999 0.107
7.829 -4.2540002 0.107
7.8569999 -4.2280002 0.108
7.8610001 -4.1890001 0.108
7.875 -4.1550002 0.108
7.9050002 -4.1300001 0.108
7.9400001 -4.1079998 0.109
7.9640002 -4.0809999 0.109
7.9780002 -4.0479999 0.109
8.007 -4.0229998 0.11
8.0360003 -3.9979999 0.11
8.0570002 -3.9690001 0.11
8.0780001 -3.9400001 0.111
8.1020002 -3.9119999 0.111
8.1359997 -3.8900001 0.111
8.1590004 -3.862 0.112
8.184 -3.836 0.112
8.21 -3.809 0.112
8.2279997 -3.779 0.113
8.2550001 -3.7539999 0.113
8.2650003 -3.721 0.113
8.2950001 -3.697 0.114
8.3059998 -3.664 0.114
8.3409996 -3.642 0.114
8.3769999 -3.6210001 0.115
8.3900003 -3.5899999 0.115
8.4099998 -3.5610001 0.115
8.4390001 -3.5369999 0.116
8.448 -3.5050001 0.116
8.4949999 -3.4879999 0.116
8.5159998 -3.46 0.117
8.5389996 -3.434 0.117
8.5760002 -3.4130001 0.117
8.5889997 -3.382 0.118
8.6090002 -3.355 0.118
8.6409998 -3.332 0.118
8.6520004 -3.3010001 0.118
8.698 -3.2839999 0.119
8.7200003 -3.257 0.119
8.7609997 -3.237 0.12
8.7720003 -3.207 0.12
8.7969999 -3.181 0.12
8.8299999 -3.1589999 0.121
8.8549995 -3.1340001 0.121
8.8950005 -3.1140001 0.122
8.9219999 -3.089 0.122
8.9650002 -3.0699999 0.123
8.9879999 -3.0439999 0.123
9.007 -3.017 0.123
9.0710001 -3.0039999 0.124
9.0959997 -2.9790001 0.125
9.1389999 -2.96 0.125
9.1780005 -2.9389999 0.126
9.2220001 -2.9200001 0.126
9.3629999 -2.931 0.12800001
9.3859997 -2.905 0.12899999
9.3640003 -2.865 0.12800001
9.3859997 -2.8380001 0.12899999
9.4259996 -2.8169999 0.12899999
9.4530001 -2.7920001 0.13
9.5039997 -2.7750001 0.13
9.5249996 -2.7479999 0.131
9.5419998 -2.721 0.131
9.5740004 -2.697 0.131
9.6140003 -2.6760001 0.132
9.6759996 -2.661 0.133
9.6899996 -2.6329999 0.133
9.7139997 -2.6070001 0.133
9.7939997 -2.5969999 0.13500001
9.7959995 -2.566 0.13500001
9.8369999 -2.5439999 0.13500001
9.8959999 -2.5280001 0.13600001
9.9180002 -2.5020001 0.13600001
9.9119997 -2.4690001 0.13600001
9.9510002 -2.447 0.13699999
9.9949999 -2.427 0.13699999
10.009 -2.3989999 0.138
10.01 -2.368 0.138
10.07 -2.352 0.139
10.052 -2.3169999 0.138
10.086 -2.2939999 0.139
10.141 -2.276 0.14
10.169 -2.2520001 0.14
10.195 -2.227 0.14
10.233 -2.2060001 0.141
10.261 -2.181 0.141
10.278 -2.155 0.142
10.31 -2.132 0.142
10.346 -2.109 0.14300001
10.366 -2.0840001 0.14300001
10.428 -2.0669999 0.14399999
10.44 -2.04 0.14399999
10.448 -2.0120001 0.14399999
10.482 -1.989 0.145
10.483 -1.96 0.145
10.541 -1.942 0.146
10.558 -1.916 0.146
10.574 -1.89 0.146
10.6 -1.8660001 0.146
10.64 -1.845 0.147
10.677 -1.823 0.148
10.694 -1.7970001 0.148
10.74 -1.777 0.149
10.76 -1.752 0.149
10.789 -1.728 0.149
10.79 -1.701 0.149
10.83 -1.679 0.15000001
10.875 -1.658 0.15099999
10.882 -1.632 0.15099999
10.925 -1.6109999 0.15099999
10.961 -1.589 0.152
10.956 -1.561 0.152
10.983 -1.5369999 0.152
11.005 -1.513 0.153
11.023 -1.489 0.153
11.031 -1.4630001 0.153
11.073 -1.442 0.154
11.105 -1.42 0.154
11.123 -1.396 0.154
11.157 -1.374 0.155
11.168 -1.349 0.155
11.217 -1.329 0.156
11.253 -1.307 0.156
11.267 -1.283 0.15700001
11.312 -1.262 0.15700001
11.348 -1.24 0.15800001
11.409 -1.221 0.15899999
11.526 -1.2079999 0.16
9.191 -0.94300002 0.12800001
9.0799999 -0.91100001 0.126
9.026 -0.88599998 0.126
8.9910002 -0.86299998 0.125
8.9750004 -0.84200001 0.125
8.9589996 -0.82099998 0.125
8.9619999 -0.80199999 0.125
8.9689999 -0.78399998 0.125
9 -0.76800001 0.125
9.0290003 -0.75099999 0.126
9.1110001 -0.73900002 0.127
9.2530003 -0.65600002 0.12899999
9.1459999 -0.63099998 0.12800001
9.1029997 -0.61000001 0.127
9.085 -0.59100002 0.127
9.0869999 -0.57300001 0.127
9.0950003 -0.55599999 0.127
9.1230001 -0.54000002 0.12800001
9.2279997 -0.52899998 0.12899999
11.967 0.155 0.048
11.983 0.177 0.048
12.043 0.199 0.048
12.042 0.221 0.048
12.06 0.244 0.048
12.076 0.26699999 0.048
12.055 0.28999999 0.048
12.096 0.31400001 0.048
12.073 0.33700001 0.046999998
12.087 0.361 0.046999998
12.1 0.38499999 0.046999998
12.091 0.40900001 0.046999998
12.106 0.43399999 0.046999998
12.104 0.45899999 0.046999998
12.097 0.484 0.046
12.102 0.509 0.046
12.126 0.53600001 0.046
12.13 0.56199998 0.046
12.137 0.588 0.046
12.178 0.616 0.046
12.162 0.64200002 0.045000002
12.176 0.67000002 0.045000002
12.192 0.69800001 0.045000002
12.197 0.72500002 0.045000002
12.186 0.75199997 0.045000002
12.21 0.78100002 0.045000002
12.227 0.81 0.045000002
12.234 0.83899999 0.044
12.236 0.86799997 0.044
12.258 0.898 0.044
12.246 0.926 0.044
12.263 0.95700002 0.044
12.288 0.98799998 0.044
12.308 1.0190001 0.043000001
12.324 1.051 0.043000001
12.322 1.081 0.043000001
12.339 1.113 0.043000001
12.36 1.145 0.043000001
12.381 1.178 0.043000001
12.406 1.212 0.043000001
12.405 1.243 0.041999999
12.424 1.277 0.041999999
12.418 1.308 0.041999999
12.437 1.342 0.041999999
12.45 1.376 0.041999999
12.488 1.4119999 0.041999999
12.514 1.448 0.041999999
12.54 1.484 0.041999999
12.526 1.516 0.041000001
12.549 1.552 0.041000001
12.566 1.5880001 0.041000001
12.609 1.628 0.041000001
12.598 1.661 0.041000001
12.639 1.7 0.041000001
12.673 1.74 0.041000001
12.704 1.779 0.039999999
12.716 1.816 0.039999999
12.718 1.852 0.039999999
12.719 1.888 0.039999999
12.745 1.927 0.039999999
12.756 1.965 0.039999999
12.792 2.007 0.039999999
12.81 2.046 0.039000001
12.83 2.086 0.039000001
12.876 2.131 0.039000001
12.162 2.0480001 0.037
12.072 2.0680001 0.035999998
12.01 2.0929999 0.035999998
11.995 2.125 0.035999998
11.995 2.161 0.035999998
12.027 2.2019999 0.035
12.136 2.2579999 0.035999998
12.189 2.3039999 0.035999998
12.034 2.3110001 0.035
11.932 2.3269999 0.034000002
11.887 2.355 0.034000002
11.873 2.388 0.034000002
11.944 2.438 0.034000002
12.238 2.536 0.034000002
13.153 2.766 0.037
13.187 2.8139999 0.037
13.21 2.8599999 0.037
13.242 2.908 0.035999998
13.257 2.9519999 0.035999998
13.275 2.9979999 0.035999998
13.292 3.043 0.035999998
13.323 3.092 0.035999998
13.374 3.1459999 0.035999998
13.41 3.198 0.035999998
13.454 3.2509999 0.035
13.487 3.302 0.035
13.498 3.348 0.035
13.523 3.3970001 0.035
13.564 3.451 0.035
13.627 3.5120001 0.035
13.64 3.559 0.035
13.681 3.6140001 0.035
13.702 3.665 0.034000002
13.756 3.724 0.034000002
13.785 3.777 0.034000002
13.889 3.8510001 0.034000002
12.709 3.566 0.030999999
12.595 3.576 0.029999999
12.564 3.609 0.029999999
12.61 3.664 0.029999999
14.022 4.1209998 0.033
14.041 4.1739998 0.033
14.045 4.2220001 0.033
14.081 4.2800002 0.033
12.672 3.895 0.028999999
12.518 3.8900001 0.028999999
12.469 3.9170001 0.028000001
12.505 3.971 0.028000001
14.38 4.6149998 0.032000002
14.346 4.6529999 0.032000002
14.345 4.7020001 0.032000002
14.371 4.7600002 0.030999999
14.41 4.822 0.030999999
14.467 4.8909998 0.030999999
14.497 4.9520001 0.030999999
14.581 5.0310001 0.030999999
14.718 5.1290002 0.030999999
14.725 5.1830001 0.030999999
14.762 5.2470002 0.029999999
14.838 5.3260002 0.029999999
14.82 5.3709998 0.029999999
14.837 5.4299998 0.029999999
14.962 5.5279999 0.029999999
15.015 5.5999999 0.029999999
15.208 5.7259998 0.029999999
15.151 5.7579999 0.028999999
15.298 5.868 0.028999999
15.235 5.8969998 0.028999999
15.226 5.948 0.028999999
15.259 6.0149999 0.028999999
15.308 6.0890002 0.028000001
15.375 6.171 0.028000001
15.379 6.2270002 0.028000001
15.363 6.2750001 0.028000001
15.431 6.3579998 0.028000001
15.568 6.4710002 0.028000001
12.177 5.9889998 0.017000001
12.06 5.9749999 0.016000001
11.989 5.9840002 0.016000001
11.929 5.9970002 0.016000001
12.001 6.0770001 0.016000001
12.198 6.2220001 0.016000001
12.276 6.3060002 0.016000001
12.161 6.2919998 0.015
12.19 6.3509998 0.015
12.131 6.4089999 0.014
12.047 6.408 0.014
12.119 6.4910002 0.014
7.8930001 -4.651 0.126
7.9089999 -4.638 0.126
7.9159999 -4.6199999 0.126
7.927 -4.6040001 0.127
7.9369998 -4.5869999 0.127
7.9439998 -4.5689998 0.127
7.9510002 -4.5500002 0.127
7.974 -4.5409999 0.127
7.993 -4.5279999 0.12800001
8.0229998 -4.5229998 0.12800001
8.0220003 -4.4990001 0.12800001
8.0240002 -4.4770002 0.12800001
8.0319996 -4.4590001 0.12899999
8.052 -4.447 0.12899999
8.059 -4.428 0.12899999
8.0790005 -4.4159999 0.12899999
8.0860004 -4.3959999 0.13
8.1009998 -4.381 0.13
8.1049995 -4.3600001 0.13
8.1280003 -4.349 0.13
8.1280003 -4.3260002 0.13
8.1540003 -4.316 0.131
8.1700001 -4.3010001 0.131
8.177 -4.2810001 0.131
8.1949997 -4.2670002 0.132
8.2019997 -4.2470002 0.132
8.2209997 -4.2329998 0.132
8.2379999 -4.2179999 0.132
8.2480001 -4.1989999 0.133
8.276 -4.1900001 0.133
8.2770004 -4.1659999 0.133
8.2889996 -4.1479998 0.133
8.2889996 -4.1240001 0.133
8.3039999 -4.1079998 0.134
8.316 -4.0900002 0.134
8.3459997 -4.0809999 0.13500001
8.3610001 -4.0640001 0.13500001
8.3719997 -4.0440001 0.13500001
8.3809996 -4.0250001 0.13500001
8.3999996 -4.0100002 0.13600001
8.3990002 -3.9849999 0.13600001
8.4219999 -3.971 0.13600001
8.4449997 -3.9579999 0.13600001
8.4580002 -3.9389999 0.13699999
8.4759998 -3.9230001 0.13699999
8.4890003 -3.905 0.13699999
8.5209999 -3.8940001 0.138
8.5299997 -3.8740001 0.138
8.5509996 -3.859 0.138
8.5719995 -3.8429999 0.139
8.5830002 -3.823 0.139
8.5810003 -3.7969999 0.139
8.6029997 -3.7820001 0.139
8.6120005 -3.7609999 0.139
8.618 -3.7390001 0.14
8.6470003 -3.7260001 0.14
8.6639996 -3.7090001 0.14
8.6809998 -3.691 0.141
8.6890001 -3.6689999 0.141
8.71 -3.6530001 0.141
8.724 -3.6329999 0.142
8.75 -3.618 0.142
8.757 -3.596 0.142
8.7740002 -3.5769999 0.142
8.79 -3.559 0.14300001
8.802 -3.5380001 0.14300001
8.8079996 -3.5150001 0.14300001
8.8500004 -3.506 0.14399999
8.8450003 -3.4779999 0.14399999
8.8570004 -3.457 0.14399999
8.8859997 -3.4430001 0.145
8.9049997 -3.424 0.145
8.9130001 -3.402 0.145
8.9610004 -3.3940001 0.146
8.9540005 -3.365 0.146
8.9890003 -3.352 0.146
9.0010004 -3.3310001 0.147
9.0100002 -3.3080001 0.147
9.0240002 -3.2869999 0.147
9.0410004 -3.267 0.147
9.0570002 -3.2460001 0.148
9.0830002 -3.2290001 0.148
9.0909996 -3.2060001 0.148
9.099 -3.1819999 0.148
9.1440001 -3.1719999 0.149
9.1940002 -3.1630001 0.15000001
9.2060003 -3.1400001 0.15000001
9.2250004 -3.1199999 0.15099999
9.2480001 -3.1010001 0.15099999
9.276 -3.0829999 0.152
9.3199997 -3.0710001 0.152
9.3409996 -3.0510001 0.153
9.3699999 -3.033 0.153
9.4130001 -3.02 0.154
9.4350004 -3 0.154
9.5609999 -3.0120001 0.156
9.599 -2.9960001 0.15700001
9.6429996 -2.9820001 0.15800001
9.5930004 -2.9389999 0.15700001
9.592 -2.911 0.15700001
9.6289997 -2.8940001 0.15800001
9.6300001 -2.8670001 0.15800001
9.6549997 -2.8469999 0.15800001
9.6800003 -2.826 0.15899999
9.7189999 -2.809 0.15899999
9.7440004 -2.7880001 0.16
9.7489996 -2.7620001 0.16
9.7770004 -2.7409999 0.16
9.7860003 -2.7160001 0.161
9.8260002 -2.6989999 0.161
9.8529997 -2.677 0.162
9.8629999 -2.652 0.162
9.8730001 -2.6259999 0.162
9.9119997 -2.608 0.163
9.9390001 -2.586 0.163
9.9429998 -2.559 0.163
9.9540005 -2.533 0.164
10.001 -2.516 0.164
9.9980001 -2.487 0.164
10.055 -2.4719999 0.16500001
10.061 -2.444 0.16500001
10.062 -2.4159999 0.16500001
10.096 -2.395 0.16599999
10.12 -2.3710001 0.16599999
10.15 -2.349 0.167
10.152 -2.3210001 0.167
10.192 -2.3 0.168
10.215 -2.276 0.168
10.241 -2.253 0.169
10.269 -2.2290001 0.169
10.28 -2.2019999 0.169
10.315 -2.1800001 0.17
10.346 -2.1570001 0.17
10.389 -2.1359999 0.171
10.4 -2.109 0.171
10.451 -2.089 0.17200001
10.471 -2.063 0.17299999
10.498 -2.0380001 0.17299999
10.542 -2.017 0.17399999
10.573 -1.992 0.17399999
10.576 -1.9630001 0.17399999
10.611 -1.939 0.175
10.648 -1.915 0.176
10.673 -1.8890001 0.176
10.693 -1.862 0.176
10.728 -1.837 0.177
10.785 -1.816 0.178
10.806 -1.789 0.178
10.816 -1.7589999 0.17900001
10.88 -1.739 0.18000001
10.886 -1.709 0.18000001
10.943 -1.686 0.18099999
10.975 -1.66 0.18099999
11.008 -1.633 0.182
11.04 -1.607 0.182
11.078 -1.581 0.183
11.1 -1.552 0.184
11.139 -1.526 0.184
11.179 -1.499 0.185
11.214 -1.472 0.186
11.254 -1.4450001 0.186
11.313 -1.42 0.18700001
11.35 -1.393 0.18799999
11.393 -1.365 0.189
11.426 -1.337 0.189
11.544 -1.318 0.191
11.608 -1.2920001 0.192
9.2370005 -1.002 0.153
9.0459995 -0.95499998 0.15000001
8.9700003 -0.921 0.148
8.934 -0.89200002 0.148
8.9390001 -0.86699998 0.148
8.9490004 -0.84299999 0.148
9.0139999 -0.82300001 0.149
9.2379999 -0.76499999 0.153
9.0959997 -0.727 0.15099999
9.0679998 -0.699 0.15000001
9.0679998 -0.67299998 0.15000001
9.1300001 -0.65200001 0.15099999
12.669 0.391 0.075999998
12.653 0.40799999 0.075999998
12.583 0.42399999 0.075000003
12.639 0.44499999 0.075999998
12.64 0.46399999 0.075000003
12.639 0.48300001 0.075000003
12.611 0.50099999 0.075000003
12.617 0.52100003 0.075000003
12.618 0.54100001 0.074000001
12.603 0.56099999 0.074000001
12.601 0.58099997 0.074000001
12.561 0.60000002 0.074000001
12.581 0.62199998 0.074000001
12.59 0.64399999 0.072999999
12.582 0.66500002 0.072999999
12.569 0.68599999 0.072999999
12.582 0.70899999 0.072999999
12.561 0.73000002 0.072999999
12.58 0.75400001 0.071999997
12.573 0.77600002 0.071999997
12.589 0.801 0.071999997
12.623 0.82599998 0.071999997
12.623 0.85000002 0.071999997
12.606 0.87300003 0.071999997
12.646 0.89999998 0.071999997
12.638 0.92400002 0.071999997
12.669 0.95200002 0.071999997
12.688 0.97799999 0.071999997
12.692 1.0039999 0.071000002
12.722 1.033 0.071000002
12.75 1.061 0.071000002
12.746 1.087 0.071000002
12.758 1.115 0.071000002
12.768 1.143 0.071000002
12.757 1.169 0.071000002
12.784 1.199 0.071000002
12.776 1.226 0.07
12.794 1.256 0.07
12.797 1.284 0.07
12.812 1.314 0.07
12.83 1.345 0.07
12.856 1.377 0.07
12.88 1.409 0.07
12.877 1.438 0.07
12.897 1.471 0.07
12.891 1.5 0.07
12.908 1.533 0.07
12.911 1.564 0.068999998
12.91 1.595 0.068999998
12.906 1.625 0.068999998
12.911 1.6569999 0.068999998
12.941 1.693 0.068999998
12.949 1.726 0.068999998
12.979 1.762 0.068999998
12.996 1.7970001 0.068999998
13.006 1.832 0.068999998
12.999 1.864 0.068000004
13.03 1.902 0.068000004
13.045 1.937 0.068000004
13.082 1.977 0.068000004
13.071 2.0090001 0.068000004
13.099 2.0480001 0.068000004
13.113 2.085 0.068000004
13.135 2.1240001 0.068000004
13.173 2.165 0.068000004
13.195 2.2049999 0.068000004
12.155 2.0639999 0.061999999
12.029 2.075 0.061999999
11.995 2.1029999 0.061000001
11.993 2.135 0.061000001
12 2.1700001 0.061000001
12.04 2.211 0.061000001
12.127 2.2609999 0.061000001
12.068 2.2850001 0.061000001
11.999 2.306 0.059999999
11.895 2.3199999 0.059999999
11.835 2.342 0.059
11.817 2.3729999 0.059
11.861 2.4170001 0.059
11.997 2.48 0.059999999
13.55 2.8410001 0.067000002
13.538 2.878 0.067000002
13.573 2.927 0.067000002
13.581 2.9690001 0.067000002
13.598 3.0139999 0.067000002
13.627 3.0610001 0.067000002
13.654 3.109 0.067000002
13.658 3.152 0.067000002
13.702 3.204 0.067000002
13.746 3.257 0.067000002
13.762 3.3039999 0.067000002
13.798 3.3559999 0.067000002
13.846 3.411 0.067000002
13.892 3.4660001 0.067000002
13.884 3.5079999 0.066
13.932 3.5650001 0.067000002
13.95 3.6140001 0.066
14.001 3.6730001 0.067000002
14.008 3.72 0.066
14.077 3.7839999 0.067000002
14.156 3.852 0.067000002
14.158 3.8989999 0.067000002
14.18 3.9519999 0.067000002
14.229 4.013 0.067000002
12.63 3.6040001 0.059
12.553 3.6240001 0.057999998
12.567 3.6700001 0.057999998
12.685 3.7479999 0.059
14.374 4.296 0.066
14.404 4.3540001 0.066
14.491 4.4299998 0.067000002
12.638 3.9070001 0.057999998
12.496 3.9059999 0.057
12.439 3.931 0.057
12.458 3.9809999 0.057
14.982 4.8400002 0.068000004
14.727 4.809 0.067000002
14.758 4.8720002 0.067000002
14.839 4.9510002 0.067000002
14.871 5.0149999 0.067000002
14.908 5.0809999 0.067000002
15.008 5.1690001 0.067000002
15.117 5.2610002 0.067000002
15.126 5.3189998 0.067000002
15.111 5.369 0.067000002
15.249 5.473 0.067000002
15.201 5.5120001 0.067000002
15.294 5.6020002 0.067000002
15.411 5.7020001 0.068000004
15.409 5.7589998 0.067000002
15.476 5.8410001 0.068000004
15.481 5.901 0.067000002
15.553 5.987 0.068000004
15.578 6.0560002 0.067000002
15.601 6.1240001 0.067000002
15.64 6.1989999 0.067000002
15.733 6.296 0.068000004
15.724 6.3530002 0.067000002
15.766 6.4310002 0.067000002
15.811 6.5100002 0.067000002
12.29 5.9489999 0.050000001
12.151 5.9310002 0.048999999
12.021 5.9180002 0.048
11.947 5.9320002 0.048
11.908 5.9629998 0.048
12.041 6.0799999 0.048
12.215 6.2199998 0.048999999
12.219 6.2740002 0.048
12.165 6.2979999 0.048
12.349 6.4460001 0.048999999
12.123 6.3800001 0.048
12.059 6.3979998 0.046999998
12.332 6.5970001 0.048
12.281 6.6760001 0.048
12.287 6.7329998 0.048
9.8999996 6.842 0.035
9.8540001 6.8579998 0.035
7.5560002 -4.9770002 0.14
7.5869999 -4.9499998 0.141
7.6149998 -4.9200001 0.141
7.6490002 -4.895 0.142
7.6700001 -4.862 0.142
7.7010002 -4.835 0.14300001
7.73 -4.8060002 0.14300001
7.7519999 -4.7740002 0.14300001
7.783 -4.7480001 0.14399999
7.7989998 -4.711 0.14399999
7.8299999 -4.6849999 0.145
7.836 -4.6430001 0.145
7.8759999 -4.6220002 0.145
7.9000001 -4.592 0.146
7.908 -4.553 0.146
7.9400001 -4.527 0.146
7.9460001 -4.487 0.147
7.9889998 -4.4679999 0.147
8.0010004 -4.4310002 0.147
8.0249996 -4.402 0.148
8.0559998 -4.3759999 0.148
8.073 -4.3429999 0.149
8.0780001 -4.303 0.149
8.1269999 -4.2870002 0.15000001
8.1520004 -4.2579999 0.15000001
8.1929998 -4.2379999 0.15099999
8.224 -4.2119999 0.15099999
8.2270002 -4.1729999 0.15099999
8.2550001 -4.1459999 0.152
8.2790003 -4.1170001 0.152
8.3030005 -4.0890002 0.152
8.3290005 -4.0609999 0.153
8.3590002 -4.0349998 0.153
8.3719997 -4.0009999 0.154
8.4040003 -3.977 0.154
8.4259996 -3.948 0.155
8.448 -3.918 0.155
8.4870005 -3.8970001 0.156
8.5200005 -3.8729999 0.156
8.5430002 -3.845 0.15700001
8.5780001 -3.822 0.15700001
8.6110001 -3.7980001 0.15800001
8.6219997 -3.7639999 0.15800001
8.6309996 -3.73 0.15800001
8.6719999 -3.7090001 0.15899999
8.7030001 -3.6849999 0.15899999
8.7270002 -3.6570001 0.16
8.7539997 -3.631 0.16
8.7740002 -3.6010001 0.161
8.8120003 -3.5799999 0.161
8.8409996 -3.5539999 0.162
8.8620005 -3.526 0.162
8.8999996 -3.5039999 0.163
8.9209995 -3.4749999 0.163
8.9549999 -3.4519999 0.164
8.9849997 -3.427 0.164
9.0019999 -3.3970001 0.16500001
9.0500002 -3.3789999 0.16500001
9.0740004 -3.352 0.16599999
9.1219997 -3.3340001 0.167
9.1459999 -3.3069999 0.167
9.1619997 -3.277 0.167
9.1940002 -3.253 0.168
9.2620001 -3.2409999 0.169
9.2849998 -3.214 0.17
9.3319998 -3.1949999 0.17
9.375 -3.174 0.171
9.3900003 -3.1440001 0.17200001
9.4499998 -3.1289999 0.17299999
9.5290003 -3.1199999 0.17399999
9.5509996 -3.0929999 0.17399999
9.5629997 -3.062 0.175
9.7030001 -3.072 0.177
9.7180004 -3.0409999 0.177
9.7220001 -3.0079999 0.178
9.7089996 -2.97 0.177
9.7559996 -2.95 0.178
9.7620001 -2.9170001 0.178
9.7919998 -2.892 0.17900001
9.816 -2.8659999 0.17900001
9.8509998 -2.842 0.18000001
9.8909998 -2.8199999 0.18099999
9.9200001 -2.7950001 0.18099999
9.9209995 -2.7609999 0.18099999
9.9510002 -2.737 0.182
9.9630003 -2.707 0.182
10.001 -2.684 0.183
10.029 -2.6589999 0.183
10.054 -2.6329999 0.184
10.103 -2.6129999 0.184
10.131 -2.5880001 0.185
10.147 -2.5599999 0.185
10.186 -2.5369999 0.186
10.197 -2.5079999 0.186
10.239 -2.4860001 0.18700001
10.268 -2.461 0.18799999
10.294 -2.4360001 0.18799999
10.311 -2.408 0.18799999
10.336 -2.382 0.189
10.365 -2.358 0.189
10.402 -2.335 0.19
10.426 -2.309 0.19
10.45 -2.283 0.191
10.486 -2.26 0.192
10.516 -2.2360001 0.192
10.541 -2.21 0.193
10.577 -2.187 0.193
10.614 -2.164 0.19400001
10.646 -2.1400001 0.19499999
10.663 -2.1129999 0.19499999
10.698 -2.0899999 0.19599999
10.733 -2.0669999 0.19599999
10.774 -2.0450001 0.197
10.79 -2.0179999 0.197
10.839 -1.997 0.198
10.818 -1.964 0.198
10.887 -1.946 0.199
10.902 -1.92 0.199
10.93 -1.895 0.2
10.971 -1.873 0.20100001
11.001 -1.849 0.20100001
11.022 -1.824 0.20200001
11.068 -1.802 0.20299999
11.143 -1.785 0.204
11.185 -1.763 0.205
11.182 -1.734 0.205
11.171 -1.704 0.205
11.207 -1.681 0.205
11.259 -1.66 0.206
11.285 -1.636 0.207
11.303 -1.6109999 0.207
11.342 -1.5880001 0.208
11.362 -1.563 0.208
11.422 -1.543 0.20900001
11.461 -1.521 0.20999999
11.474 -1.495 0.20999999
11.502 -1.471 0.211
11.546 -1.449 0.212
11.57 -1.425 0.212
11.589 -1.4 0.213
11.619 -1.377 0.213
11.645 -1.353 0.214
11.761 -1.339 0.21600001
11.732 -1.309 0.215
11.818 -1.2920001 0.21699999
11.81 -1.265 0.21699999
11.846 -1.242 0.21799999
11.869 -1.2180001 0.21799999
11.93 -1.198 0.219
12.036 -1.182 0.221
9.099 -0.87400001 0.167
9.0279999 -0.847 0.16599999
8.9969997 -0.82499999 0.16500001
8.96 -0.80299997 0.16500001
8.9320002 -0.78100002 0.164
8.934 -0.76200002 0.164
8.9440002 -0.745 0.164
8.9460001 -0.72600001 0.164
8.9680004 -0.70899999 0.16500001
9.0050001 -0.69400001 0.16599999
9.1450005 -0.68599999 0.168
9.165 -0.65100002 0.169
9.1120005 -0.62900001 0.168
9.0760002 -0.60799998 0.167
9.059 -0.58899999 0.167
9.0780001 -0.57300001 0.167
9.099 -0.55699998 0.168
9.1389999 -0.54100001 0.168
9.2159996 -0.528 0.17
12.383 0.162 0.111
12.422 0.185 0.111
12.462 0.208 0.111
12.486 0.23100001 0.111
12.489 0.255 0.111
12.513 0.27900001 0.111
12.532 0.303 0.111
12.545 0.32699999 0.111
12.571 0.352 0.111
12.575 0.377 0.111
12.566 0.40200001 0.111
12.595 0.428 0.111
12.607 0.454 0.111
12.632 0.48100001 0.111
12.667 0.50800002 0.111
12.63 0.53299999 0.11
12.641 0.56 0.11
12.637 0.58700001 0.11
12.642 0.61400002 0.11
12.647 0.64099997 0.11
12.648 0.66900003 0.11
12.661 0.69800001 0.109
12.656 0.72500002 0.109
12.653 0.75300002 0.109
12.693 0.78399998 0.109
12.69 0.81300002 0.109
12.698 0.84299999 0.109
12.705 0.87199998 0.109
12.733 0.90399998 0.109
12.739 0.93400002 0.109
12.77 0.96700001 0.109
12.755 0.99599999 0.108
12.795 1.03 0.109
12.816 1.062 0.109
12.855 1.097 0.109
12.879 1.131 0.109
12.889 1.163 0.109
12.902 1.196 0.109
12.892 1.228 0.108
12.915 1.262 0.108
12.904 1.294 0.108
12.903 1.327 0.108
12.915 1.3609999 0.108
12.92 1.395 0.108
12.945 1.431 0.108
12.97 1.4680001 0.108
12.991 1.5039999 0.108
12.984 1.538 0.108
12.997 1.574 0.108
13.006 1.609 0.107
13.013 1.645 0.107
13.03 1.683 0.107
13.046 1.72 0.107
13.052 1.757 0.107
13.083 1.7970001 0.107
13.096 1.834 0.107
13.125 1.875 0.107
13.145 1.914 0.107
13.153 1.952 0.107
13.191 1.995 0.107
13.225 2.0380001 0.107
13.252 2.0799999 0.107
13.279 2.122 0.107
13.334 2.1689999 0.108
13.339 2.2079999 0.108
13.355 2.2490001 0.108
12.168 2.085 0.097999997
12.025 2.095 0.097000003
11.985 2.1240001 0.096000001
11.994 2.161 0.096000001
12.015 2.2 0.096000001
12.095 2.2509999 0.096000001
12.12 2.2909999 0.097000003
12.04 2.312 0.096000001
11.894 2.3199999 0.093999997
11.808 2.339 0.093999997
11.808 2.375 0.093000002
11.888 2.427 0.093999997
12.067 2.5 0.094999999
13.785 2.8989999 0.109
13.821 2.9489999 0.109
13.814 2.99 0.109
13.852 3.0409999 0.109
13.872 3.089 0.109
13.905 3.1400001 0.109
13.915 3.1860001 0.109
13.933 3.234 0.109
14.059 3.3069999 0.11
14.129 3.369 0.11
14.087 3.4030001 0.109
14.101 3.4519999 0.109
14.121 3.5020001 0.109
14.172 3.5599999 0.11
14.234 3.622 0.11
14.273 3.678 0.11
14.308 3.733 0.11
14.398 3.803 0.111
14.456 3.8659999 0.111
14.524 3.9319999 0.111
14.522 3.9790001 0.111
14.553 4.0349998 0.111
12.657 3.5510001 0.096000001
12.548 3.562 0.094999999
12.549 3.6040001 0.094999999
12.63 3.6689999 0.096000001
14.741 4.3319998 0.112
14.785 4.3940001 0.112
14.806 4.4499998 0.112
12.658 3.8469999 0.094999999
12.503 3.842 0.093999997
12.475 3.8759999 0.093999997
12.45 3.9100001 0.093000002
12.61 4.0029998 0.094999999
15.21 4.881 0.114
15.258 4.948 0.114
15.191 4.9790001 0.113
15.241 5.0469999 0.114
15.318 5.1259999 0.114
15.37 5.1960001 0.114
15.485 5.2880001 0.115
15.467 5.335 0.115
15.517 5.4070001 0.115
15.589 5.4860001 0.115
15.592 5.5409999 0.115
15.679 5.6269999 0.116
15.767 5.7140002 0.116
15.779 5.7729998 0.116
15.809 5.8400002 0.116
15.841 5.9070001 0.116
15.896 5.9840002 0.116
15.95 6.0609999 0.116
15.991 6.1329999 0.117
16.002001 6.1939998 0.117
16.048 6.2680001 0.117
16.084999 6.3400002 0.117
16.094999 6.401 0.117
16.187 6.4959998 0.117
14.78 6.0359998 0.107
14.799 6.0970001 0.107
12.31 5.9629998 0.086000003
12.232 5.9699998 0.085000001
12.021 5.9109998 0.083999999
11.929 5.9089999 0.082999997
11.908 5.9419999 0.082999997
11.899 5.9809999 0.082000002
11.972 6.0619998 0.082999997
12.216 6.23 0.083999999
12.25 6.2919998 0.085000001
12.294 6.3590002 0.085000001
12.162 6.335 0.083999999
12.18 6.3889999 0.083999999
12.088 6.3850002 0.082999997
12.051 6.4099998 0.082999997
12.203 6.5349998 0.082999997
8.2119999 -4.8429999 0.17
8.2200003 -4.8239999 0.17
8.2440004 -4.8150001 0.17
8.2480001 -4.7940001 0.17
8.2709999 -4.7839999 0.171
8.2790003 -4.7649999 0.171
8.29 -4.7480001 0.171
8.2880001 -4.723 0.171
8.3050003 -4.7090001 0.17200001
8.3170004 -4.6919999 0.17200001
8.3009996 -4.6589999 0.17200001
8.3129997 -4.6420002 0.17200001
8.3389997 -4.6329999 0.17299999
8.3660002 -4.6240001 0.17299999
8.3660002 -4.5999999 0.17299999
8.3879995 -4.5879998 0.17399999
8.3900003 -4.5650001 0.17399999
8.4139996 -4.5539999 0.17399999
8.4169998 -4.5310001 0.17399999
8.4189997 -4.5079999 0.175
8.4449997 -4.4970002 0.175
8.4650002 -4.4840002 0.176
8.4729996 -4.4640002 0.176
8.4790001 -4.4429998 0.176
8.5539999 -4.4569998 0.178
8.5539999 -4.4320002 0.178
8.5900002 -4.4260001 0.178
8.5860004 -4.3990002 0.178
8.5539999 -4.3579998 0.178
8.5799999 -4.3470001 0.178
8.5900002 -4.3270001 0.178
8.6079998 -4.3109999 0.17900001
8.6230001 -4.2930002 0.17900001
8.6359997 -4.2750001 0.17900001
8.6370001 -4.2509999 0.18000001
8.6850004 -4.2490001 0.18099999
8.6870003 -4.2249999 0.18099999
8.6920004 -4.2020001 0.18099999
8.6890001 -4.1750002 0.18099999
8.7270002 -4.1680002 0.182
8.6890001 -4.125 0.18099999
8.7519999 -4.1300001 0.182
8.7860003 -4.1199999 0.183
8.7749996 -4.0900002 0.183
8.7819996 -4.0669999 0.183
8.7950001 -4.0479999 0.183
8.8389997 -4.0419998 0.184
8.8540001 -4.0240002 0.184
8.8579998 -4 0.185
8.8760004 -3.9820001 0.185
8.8830004 -3.9590001 0.185
8.9060001 -3.944 0.186
8.9219999 -3.925 0.186
8.9309998 -3.9030001 0.186
8.941 -3.881 0.186
8.9560003 -3.862 0.18700001
8.9809999 -3.8469999 0.18700001
9.0299997 -3.8410001 0.18799999
9.026 -3.813 0.18799999
9.0410004 -3.793 0.189
9.0640001 -3.777 0.189
9.0900002 -3.7609999 0.19
9.1079998 -3.7420001 0.19
9.125 -3.723 0.19
9.1450005 -3.704 0.191
9.1490002 -3.6789999 0.191
9.1639996 -3.6589999 0.191
9.2089996 -3.6500001 0.192
9.2379999 -3.635 0.193
9.2419996 -3.609 0.193
9.2550001 -3.5880001 0.193
9.2840004 -3.572 0.19400001
