# .PCD v0.7 - Point Cloud Data file format
VERSION 0.7
FIELDS x y z
SIZE 4 4 4
TYPE F F F
COUNT 1 1 1
WIDTH 1900
HEIGHT 1
VIEWPOINT 0 0 0 1 0 0 0
POINTS 1900
DATA ascii
10.647 -6.1739998 0.64300001
10.688 -6.138 0.64499998
10.737 -6.1069999 0.648
10.751 -6.0560002 0.648
10.791 -6.0209999 0.64999998
10.853 -5.9970002 0.653
10.917 -5.974 0.65700001
10.939 -5.928 0.65799999
10.922 -5.862 0.65600002
10.925 -5.8070002 0.65600002
10.975 -5.777 0.65899998
11.005 -5.7360001 0.66000003
11.044 -5.7010002 0.662
11.072 -5.6589999 0.66299999
11.114 -5.625 0.66500002
11.157 -5.592 0.667
11.193 -5.5549998 0.66900003
11.217 -5.5120001 0.67000002
11.249 -5.474 0.67199999
11.26 -5.4250002 0.67199999
11.316 -5.3979998 0.67500001
11.343 -5.3579998 0.676
11.365 -5.3150001 0.67699999
11.409 -5.2820001 0.68000001
11.421 -5.2350001 0.68000001
11.441 -5.1919999 0.68099999
11.506 -5.1690001 0.68400002
11.539 -5.132 0.68599999
11.588 -5.1020002 0.68800002
11.602 -5.0560002 0.68900001
11.667 -5.033 0.69199997
11.705 -4.9980001 0.69400001
11.748 -4.9660001 0.69599998
11.794 -4.934 0.699
11.828 -4.8979998 0.70099998
11.871 -4.8649998 0.70300001
11.899 -4.8270001 0.704
11.936 -4.7919998 0.70599997
12.038 -4.7820001 0.71200001
12.1 -4.757 0.71499997
12.161 -4.7309999 0.71799999
12.233 -4.7090001 0.722
12.295 -4.6830001 0.72600001
12.389 -4.6700001 0.73100001
12.443 -4.6399999 0.73400003
12.501 -4.612 0.73699999
12.581 -4.592 0.741
12.588 -4.546 0.741
12.671 -4.527 0.74599999
12.851 -4.5409999 0.75599998
12.833 -4.4860001 0.755
12.867 -4.4489999 0.75700003
12.982 -4.4400001 0.76300001
13.612 -4.1599998 0.79799998
13.532 -4.0879998 0.79299998
13.559 -4.0489998 0.79400003
13.633 -4.0240002 0.79799998
13.708 -3.9990001 0.80199999
13.644 -3.934 0.79799998
13.671 -3.895 0.80000001
13.749 -3.8710001 0.80400002
13.839 -3.8499999 0.80900002
13.912 -3.8239999 0.81300002
13.979 -3.796 0.81699997
14.046 -3.7679999 0.81999999
14.172 -3.71 0.82700002
14.177 -3.665 0.82700002
14.121 -3.6059999 0.824
14.178 -3.575 0.82700002
14.209 -3.5380001 0.829
14.281 -3.5109999 0.833
14.28 -3.467 0.83200002
14.422 -3.4119999 0.83999997
14.484 -3.382 0.84399998
11.353 -1.734 0.65799999
11.212 -1.684 0.64999998
11.178 -1.65 0.648
11.158 -1.62 0.64600003
11.11 -1.585 0.64399999
11.046 -1.549 0.63999999
11.029 -1.5190001 0.639
11.025 -1.492 0.63800001
11.057 -1.47 0.63999999
11.094 -1.448 0.64200002
11.283 -1.446 0.653
13.047 -0.40000001 0.755
12.92 -0.375 0.74800003
12.882 -0.352 0.74599999
12.845 -0.329 0.74400002
12.824 -0.308 0.74299997
12.815 -0.28600001 0.74199998
12.803 -0.26499999 0.741
12.811 -0.245 0.74199998
12.771 -0.223 0.74000001
12.745 -0.20299999 0.73799998
12.74 -0.183 0.73799998
12.758 -0.163 0.73900002
12.812 -0.14399999 0.74199998
12.901 -0.125 0.74800003
12.627 0.182 0.65899998
12.644 0.205 0.65899998
12.65 0.228 0.65899998
12.646 0.25099999 0.65899998
12.645 0.27399999 0.65899998
12.666 0.29800001 0.66000003
12.656 0.32100001 0.65899998
12.657 0.345 0.65899998
12.662 0.37 0.65899998
12.663 0.39399999 0.65899998
12.663 0.419 0.65899998
12.669 0.44499999 0.65899998
12.671 0.47 0.65899998
12.675 0.49599999 0.65899998
12.674 0.52200001 0.65899998
12.685 0.54799998 0.65899998
12.675 0.574 0.65899998
12.686 0.602 0.65899998
12.687 0.62900001 0.65899998
12.704 0.65700001 0.66000003
12.754 0.68699998 0.662
12.833 0.71899998 0.66600001
12.896 0.75099999 0.67000002
12.889 0.77899998 0.66900003
12.867 0.80699998 0.66799998
12.834 0.833 0.66600001
12.805 0.861 0.66500002
12.759 0.88700002 0.662
12.721 0.91299999 0.66000003
12.696 0.94099998 0.65899998
12.695 0.97100002 0.65899998
12.685 1 0.65799999
12.707 1.0319999 0.66000003
12.73 1.0650001 0.66100001
12.745 1.097 0.662
12.764 1.1289999 0.66299999
12.788 1.163 0.66399997
12.821 1.197 0.66600001
12.917 1.238 0.671
17.236 1.653 0.89499998
12.951 1.274 0.67299998
17.153999 1.688 0.89099997
12.964 1.308 0.67299998
17.146 1.73 0.89099997
12.988 1.3430001 0.67500001
17.222 1.781 0.89499998
12.984 1.376 0.67500001
20.642 2.188 1.073
12.988 1.41 0.67500001
20.589001 2.2349999 1.0700001
13.04 1.449 0.67799997
20.631001 2.2920001 1.072
13.141 1.494 0.68300003
20.596001 2.342 1.071
20.681 2.4059999 1.075
20.645 2.4560001 1.074
20.608999 2.506 1.072
20.691999 2.5710001 1.076
20.796 2.6389999 1.082
20.837 2.701 1.084
20.778 2.7490001 1.081
20.816 2.8110001 1.084
20.847 2.872 1.086
20.844999 2.9289999 1.086
20.879 2.9909999 1.0880001
20.965 3.0610001 1.0930001
21.07 3.1359999 1.098
20.933001 3.174 1.091
20.868999 3.223 1.0880001
20.924999 3.2909999 1.092
11.048 1.8 0.57700002
10.875 1.803 0.56800002
10.81 1.824 0.56400001
10.79 1.852 0.56400001
10.768 1.8789999 0.56300002
10.763 1.91 0.56300002
10.774 1.943 0.56300002
10.837 1.987 0.56699997
10.964 2.0420001 0.574
11.223 2.1240001 0.588
21.889999 4.1430001 1.146
21.893 4.2090001 1.147
22.024 4.3000002 1.154
22.056999 4.3730001 1.1569999
22.256001 4.5469999 1.168
22.306999 4.6259999 1.171
22.325001 4.698 1.173
22.332001 4.7680001 1.174
22.320999 4.8340001 1.174
15.119 3.6530001 0.79799998
15.06 3.687 0.79500002
15.067 3.737 0.796
15.137 3.802 0.80000001
19.671 5.132 1.0420001
19.641001 5.1880002 1.041
19.618 5.2459998 1.041
19.566 5.296 1.039
19.631001 5.3779998 1.043
19.759001 5.4780002 1.05
18.086 5.1329999 0.96200001
17.913 5.1430001 0.954
17.777 5.1630001 0.94700003
17.660999 5.1880002 0.94199997
17.596001 5.2280002 0.93900001
17.636999 5.2989998 0.94199997
11.017 -6.546 0.68800002
11.068 -6.5440001 0.69199997
11.069 -6.513 0.69199997
11.145 -6.5250001 0.69599998
11.153 -6.4970002 0.69700003
11.144 -6.46 0.69599998
11.164 -6.4390001 0.69700003
11.165 -6.4070001 0.69700003
11.271 -6.4359999 0.704
11.226 -6.3779998 0.70099998
11.201 -6.3309999 0.699
11.238 -6.3189998 0.70200002
11.208 -6.2690001 0.69999999
11.209 -6.237 0.69999999
11.233 -6.2179999 0.70099998
11.234 -6.1859999 0.70099998
11.247 -6.1599998 0.70200002
11.297 -6.1550002 0.70499998
11.291 -6.118 0.704
11.347 -6.1160002 0.708
11.397 -6.1090002 0.71100003
11.426 -6.0250001 0.71200001
11.436 -5.9970002 0.713
11.469 -5.98 0.71499997
11.451 -5.9369998 0.71399999
11.459 -5.908 0.71399999
11.502 -5.8969998 0.71700001
11.492 -5.8579998 0.71600002
11.508 -5.8319998 0.71700001
11.547 -5.8179998 0.71899998
11.551 -5.7859998 0.71899998
11.599 -5.777 0.722
11.638 -5.7620001 0.72500002
11.612 -5.7150002 0.72299999
11.65 -5.6989999 0.72500002
11.639 -5.6599998 0.72399998
11.633 -5.6230001 0.72399998
11.68 -5.6110001 0.727
11.737 -5.6040001 0.73000002
11.742 -5.572 0.73000002
11.763 -5.5479999 0.73199999
11.769 -5.5159998 0.73199999
11.809 -5.5 0.73400003
11.857 -5.487 0.73699999
11.873 -5.46 0.73799998
11.887 -5.4320002 0.73900002
11.936 -5.4190001 0.74199998
11.952 -5.3909998 0.74299997
11.986 -5.3709998 0.745
12.005 -5.3439999 0.74599999
12.07 -5.3379998 0.75
12.097 -5.3140001 0.75099999
12.107 -5.283 0.75199997
12.189 -5.283 0.75700003
12.202 -5.2529998 0.75800002
12.201 -5.217 0.75700003
12.289 -5.2179999 0.76300001
12.313 -5.1919999 0.764
12.333 -5.164 0.76499999
12.338 -5.1300001 0.76499999
12.318 -5.086 0.764
12.393 -5.0799999 0.76899999
12.398 -5.046 0.76899999
12.469 -5.0380001 0.773
12.54 -5.0300002 0.77700001
12.701 -5.0570002 0.787
12.649 -4.9990001 0.78399998
12.772 -5.0110002 0.79100001
12.923 -4.9559999 0.80000001
12.845 -4.888 0.79500002
12.853 -4.8540001 0.796
12.951 -4.8530002 0.80199999
12.944 -4.8119998 0.801
13.065 -4.8189998 0.80900002
13.119 -4.8010001 0.81199998
13.068 -4.743 0.80800003
13.178 -4.7449999 0.815
13.209 -4.7179999 0.81699997
13.583 -4.612 0.83899999
13.438 -4.5240002 0.82999998
13.586 -4.5339999 0.83899999
13.53 -4.4759998 0.83600003
13.565 -4.448 0.838
13.591 -4.4169998 0.83899999
13.646 -4.3940001 0.84200001
13.676 -4.3639998 0.84399998
13.679 -4.3249998 0.84399998
13.82 -4.1680002 0.852
13.784 -4.1170001 0.85000002
13.873 -4.1030002 0.85500002
13.868 -4.0609999 0.85500002
13.909 -4.033 0.85699999
13.976 -4.0110002 0.861
14.052 -3.951 0.86500001
14.059 -3.9130001 0.866
14.076 -3.8759999 0.866
14.164 -3.859 0.87199998
14.202 -3.8280001 0.87400001
14.498 -3.529 0.89099997
14.499 -3.487 0.89099997
14.542 -3.4549999 0.89300001
14.577 -3.4219999 0.89499998
14.663 -3.3989999 0.89999998
11.323 -1.709 0.69099998
11.196 -1.6569999 0.68300003
11.162 -1.62 0.68099999
11.082 -1.577 0.676
11.028 -1.5369999 0.67299998
11.021 -1.5039999 0.67199999
11.061 -1.478 0.67400002
11.219 -1.467 0.68400002
12.942 -0.50300002 0.78299999
12.848 -0.463 0.77700001
12.771 -0.42300001 0.773
12.718 -0.38499999 0.76899999
12.704 -0.34799999 0.76800001
12.687 -0.31099999 0.76700002
12.681 -0.27500001 0.76599997
12.679 -0.23800001 0.76599997
12.68 -0.20200001 0.76599997
12.692 -0.16599999 0.76700002
12.724 -0.13 0.76800001
12.804 -0.093999997 0.773
12.724 0.126 0.69099998
12.73 0.138 0.69099998
12.731 0.15000001 0.69
12.733 0.162 0.69
12.716 0.17399999 0.68900001
12.735 0.18700001 0.68900001
12.729 0.2 0.68900001
12.727 0.213 0.68800002
12.726 0.227 0.68800002
12.735 0.241 0.68800002
12.726 0.255 0.68699998
12.741 0.27000001 0.68800002
12.732 0.285 0.68699998
12.731 0.30000001 0.68699998
12.733 0.31600001 0.68699998
12.736 0.33199999 0.68699998
12.739 0.34799999 0.68699998
12.739 0.36399999 0.68599999
12.746 0.38100001 0.68599999
12.741 0.398 0.68599999
12.751 0.41600001 0.68599999
12.764 0.435 0.68699998
12.774 0.45300001 0.68699998
12.777 0.472 0.68699998
12.773 0.49000001 0.68699998
12.79 0.50999999 0.68800002
12.795 0.52899998 0.68800002
12.798 0.54900002 0.68800002
12.803 0.56900001 0.68800002
12.799 0.58899999 0.68800002
12.806 0.61000001 0.68800002
12.817 0.63200003 0.68800002
12.834 0.65399998 0.68900001
12.891 0.67799997 0.69199997
12.901 0.69999999 0.69199997
12.915 0.72299999 0.69300002
12.905 0.745 0.69300002
12.904 0.76800001 0.69199997
12.882 0.78899997 0.69099998
12.873 0.81199998 0.69099998
12.846 0.83399999 0.68900001
12.837 0.85699999 0.68900001
12.774 0.87599999 0.685
12.74 0.898 0.68300003
12.708 0.92000002 0.68199998
12.711 0.94499999 0.68199998
12.713 0.97000003 0.68199998
12.714 0.995 0.68199998
12.742 1.022 0.68400002
12.745 1.048 0.68400002
12.767 1.076 0.685
12.798 1.105 0.68699998
12.82 1.133 0.68800002
12.876 1.165 0.69099998
17.245001 1.561 0.926
12.908 1.196 0.69300002
17.149 1.589 0.921
12.905 1.223 0.69300002
17.103001 1.6210001 0.91799998
12.941 1.2539999 0.69499999
17.118 1.659 0.91900003
12.942 1.2819999 0.69499999
17.225 1.707 0.92500001
12.978 1.314 0.69700003
12.972 1.342 0.69700003
12.996 1.374 0.69800001
21.465 2.2690001 1.153
13.008 1.404 0.699
21.412001 2.312 1.151
13.062 1.4400001 0.70200002
21.075001 2.323 1.133
13.188 1.484 0.70899999
21.108999 2.375 1.135
21.118 2.425 1.136
21.552 2.5250001 1.159
21.563 2.5769999 1.16
21.634001 2.6370001 1.164
21.759001 2.704 1.171
21.892 2.773 1.179
21.879999 2.8239999 1.179
21.872999 2.8770001 1.179
21.823999 2.924 1.176
21.823 2.9779999 1.177
21.806999 3.03 1.176
21.778 3.0799999 1.175
21.653 3.1170001 1.169
21.684 3.177 1.171
22.143999 3.3010001 1.196
22.193001 3.3659999 1.199
22.245001 3.4319999 1.202
22.257 3.4920001 1.204
22.388 3.5710001 1.211
10.934 1.773 0.59200001
10.851 1.789 0.58700001
10.797 1.809 0.58499998
10.781 1.835 0.58399999
10.764 1.862 0.583
10.762 1.891 0.58399999
10.778 1.923 0.58499998
10.816 1.96 0.58700001
10.888 2.003 0.59100002
10.98 2.0510001 0.597
11.118 2.108 0.60399997
22.377001 4.3070002 1.2180001
22.233 4.3429999 1.211
11.374 2.2539999 0.61900002
11.137 2.24 0.60699999
11.134 2.2709999 0.60699999
11.266 2.3310001 0.61500001
22.563999 4.6700001 1.2309999
22.486 4.7189999 1.228
22.444 4.777 1.226
15.1 3.674 0.83099997
15.05 3.7090001 0.82800001
15.04 3.7539999 0.82800001
15.081 3.812 0.83099997
15.561 3.983 0.85900003
19.636 5.2150002 1.086
19.615999 5.2729998 1.086
19.582001 5.3280001 1.085
19.632999 5.4070001 1.089
18.284 5.2160001 1.016
17.974001 5.1880002 1
17.84 5.2090001 0.99299997
17.742001 5.2410002 0.98900002
17.683001 5.283 0.986
17.806999 5.381 0.99400002
17.673 5.5830002 0.99000001
17.476999 5.5819998 0.98000002
17.343 5.5999999 0.97399998
17.386999 5.6760001 0.977
17.43 5.7509999 0.98100001
17.302999 5.77 0.97399998
11.366 6.527 0.69099998
11.312 6.546 0.68900001
11.296 6.5879998 0.68900001
10.506 -6.9000001 0.69
10.561 -6.869 0.69300002
10.593 -6.8249998 0.69499999
10.656 -6.8000002 0.69800001
10.683 -6.7519999 0.69999999
10.727 -6.7150002 0.70200002
10.788 -6.6890001 0.70499998
10.805 -6.6360002 0.70599997
10.858 -6.605 0.70899999
10.881 -6.5560002 0.70999998
10.929 -6.5209999 0.71200001
10.941 -6.467 0.713
10.968 -6.4200001 0.71399999
10.998 -6.3759999 0.71499997
11.036 -6.3369999 0.71700001
11.081 -6.302 0.72000003
11.114 -6.2600002 0.72100002
11.161 -6.2259998 0.72399998
11.228 -6.2030001 0.72799999
11.278 -6.1700001 0.73000002
11.29 -6.1170001 0.73100001
11.314 -6.0710001 0.73199999
11.341 -6.027 0.73299998
11.351 -5.974 0.73299998
11.399 -5.941 0.736
11.421 -5.8940001 0.73699999
11.45 -5.8509998 0.73799998
11.489 -5.8140001 0.74000001
11.532 -5.7789998 0.74199998
11.571 -5.7420001 0.745
11.61 -5.7049999 0.74699998
11.61 -5.6479998 0.74599999
11.63 -5.6020002 0.74699998
11.694 -5.5770001 0.75099999
11.773 -5.5599999 0.755
11.814 -5.5240002 0.75800002
11.846 -5.4840002 0.759
11.894 -5.4510002 0.76200002
11.952 -5.4229999 0.76499999
11.974 -5.3790002 0.76599997
12.016 -5.3429999 0.76800001
12.084 -5.3189998 0.77200001
12.109 -5.277 0.77399999
12.183 -5.2550001 0.778
12.254 -5.2319999 0.78200001
12.329 -5.211 0.787
12.304 -5.1469998 0.78500003
12.4 -5.1339998 0.79000002
12.435 -5.0960002 0.792
12.547 -5.0890002 0.79900002
12.561 -5.0419998 0.79900002
12.597 -5.0040002 0.801
12.676 -4.9829998 0.80599999
12.832 -4.9920001 0.81599998
12.895 -4.9120002 0.81900001
13.025 -4.9089999 0.82700002
13.086 -4.8800001 0.82999998
13.087 -4.8280001 0.82999998
13.234 -4.8299999 0.83899999
13.282 -4.796 0.84200001
13.326 -4.7600002 0.84399998
13.389 -4.7309999 0.84799999
13.48 -4.7119999 0.85299999
13.596 -4.7010002 0.86000001
13.623 -4.6589999 0.86199999
13.735 -4.645 0.86799997
13.712 -4.586 0.86699998
13.658 -4.5180001 0.86299998
13.7 -4.4819999 0.86500001
13.754 -4.4489999 0.86799997
13.77 -4.4039998 0.86900002
13.808 -4.3670001 0.87099999
13.922 -4.3530002 0.87800002
14.041 -4.2909999 0.88499999
13.96 -4.217 0.88
14 -4.1799998 0.88200003
14.016 -4.1370001 0.88300002
14.083 -4.1079998 0.88599998
14.437 -4.0159998 0.90799999
14.364 -3.948 0.903
11.282 -1.694 0.70300001
11.207 -1.655 0.69800001
11.191 -1.625 0.69700003
11.119 -1.587 0.69300002
11.059 -1.551 0.68900001
11.023 -1.5190001 0.68599999
11.028 -1.493 0.68699998
11.039 -1.467 0.68699998
11.093 -1.448 0.69099998
11.206 -1.436 0.69800001
12.955 -0.41999999 0.80599999
12.855 -0.39399999 0.80000001
12.749 -0.37 0.79299998
12.696 -0.347 0.79000002
12.661 -0.32499999 0.78799999
12.647 -0.303 0.787
12.641 -0.28200001 0.787
12.635 -0.26199999 0.78600001
12.631 -0.241 0.78600001
12.634 -0.221 0.787
12.625 -0.20100001 0.78600001
12.64 -0.18099999 0.787
12.643 -0.161 0.787
12.653 -0.142 0.78799999
12.674 -0.123 0.78899997
12.718 -0.104 0.792
12.829 -0.085000001 0.79900002
12.716 0.185 0.72299999
12.725 0.208 0.72399998
12.739 0.23100001 0.72399998
12.735 0.25400001 0.72399998
12.739 0.278 0.72399998
12.734 0.301 0.72299999
12.764 0.32600001 0.72500002
12.77 0.34999999 0.72500002
12.778 0.375 0.72500002
12.79 0.40000001 0.72600001
12.789 0.42500001 0.72600001
12.797 0.45100001 0.72600001
12.792 0.47600001 0.72600001
12.822 0.50300002 0.727
12.826 0.52999997 0.727
12.825 0.55599999 0.727
12.836 0.583 0.72799999
12.849 0.611 0.72799999
12.876 0.639 0.73000002
12.895 0.66799998 0.73100001
12.917 0.69700003 0.73199999
12.907 0.72500002 0.73100001
12.914 0.75300002 0.73199999
12.903 0.78100002 0.73100001
12.874 0.80800003 0.72899997
12.853 0.83600003 0.72799999
12.821 0.86299998 0.72600001
12.785 0.88999999 0.72399998
12.736 0.91600001 0.72100002
12.707 0.94300002 0.72000003
12.71 0.97299999 0.72000003
12.717 1.0039999 0.72000003
12.726 1.035 0.72100002
12.75 1.067 0.722
12.782 1.101 0.72399998
12.814 1.135 0.72600001
12.85 1.169 0.72799999
12.886 1.204 0.73000002
17.26 1.613 0.97799999
12.889 1.237 0.73100001
17.138 1.645 0.972
12.91 1.271 0.73199999
17.091999 1.683 0.96899998
12.934 1.306 0.73299998
17.129 1.73 0.97100002
12.949 1.34 0.73400003
17.334999 1.794 0.98299998
12.964 1.375 0.73500001
12.98 1.41 0.736
21.406 2.325 1.214
12.983 1.443 0.736
21.392 2.3789999 1.214
13.007 1.48 0.73799998
21.412001 2.4360001 1.215
13.142 1.529 0.74599999
21.455999 2.497 1.2180001
21.603001 2.5710001 1.226
21.57 2.6240001 1.225
21.599001 2.6849999 1.227
21.76 2.763 1.2359999
21.858999 2.8340001 1.242
21.867001 2.8940001 1.243
21.847 2.951 1.242
21.846001 3.0109999 1.242
21.855 3.072 1.243
21.855 3.132 1.243
21.826 3.188 1.242
22.042 3.2809999 1.255
22.132 3.3570001 1.26
22.159 3.4230001 1.262
22.215 3.4949999 1.266
22.291 3.5699999 1.271
11.012 1.795 0.62800002
10.854 1.8 0.61900002
10.794 1.821 0.616
10.777 1.85 0.61500001
10.77 1.88 0.61500001
10.762 1.91 0.61500001
10.78 1.9450001 0.616
10.825 1.985 0.61900002
10.92 2.0350001 0.62400001
11.001 2.082 0.62900001
22.572001 4.3400002 1.2920001
22.57 4.408 1.293
11.194 2.22 0.64099997
11.077 2.23 0.63499999
11.071 2.2620001 0.63499999
11.183 2.319 0.64099997
15.094 3.648 0.87099999
15.04 3.6819999 0.86799997
15.031 3.7279999 0.86799997
15.066 3.7850001 0.87099999
19.643 5.1890001 1.138
19.653 5.2550001 1.14
19.573 5.2979999 1.136
19.702999 5.3979998 1.1440001
18.117001 5.2020001 1.0549999
18.028999 5.237 1.051
18.132999 5.3270001 1.057
17.677 5.4899998 1.035
17.462999 5.4829998 1.023
17.396999 5.5209999 1.02
17.302999 5.5500002 1.015
17.283001 5.6020002 1.015
17.426001 5.7080002 1.024
17.285 5.7210002 1.016
17.25 5.7690001 1.015
17.224001 5.8200002 1.0140001
11.175 6.5500002 0.708
11.118 6.5570002 0.70499998
11.082 6.5760002 0.704
11.044 6.5929999 0.70200002
11.02 6.618 0.70200002
11.002 6.6469998 0.70099998
10.966 6.664 0.69999999
10.965 6.7030001 0.70099998
10.962 6.7399998 0.70200002
10.947 6.77 0.70099998
10.992 6.836 0.70499998
11.68 -6.6059999 0.78299999
11.691 -6.579 0.78399998
11.805 -6.6090002 0.79100001
12.031 -6.2779999 0.80500001
11.967 -6.21 0.801
12.003 -6.1929998 0.80299997
12.031 -6.1719999 0.80500001
12.075 -6.1589999 0.80699998
12.113 -6.1430001 0.81
12.081 -6.092 0.80800003
12.088 -6.059 0.80800003
12.182 -6.0710001 0.81400001
12.189 -6.039 0.815
12.19 -6.0029998 0.815
12.2 -5.973 0.815
12.271 -5.9710002 0.81999999
12.22 -5.9109998 0.81599998
12.28 -5.9029999 0.81999999
12.297 -5.875 0.82099998
12.301 -5.8410001 0.82099998
12.349 -5.8280001 0.824
12.385 -5.8080001 0.82700002
12.399 -5.7779999 0.82700002
12.397 -5.7410002 0.82700002
12.41 -5.711 0.82800001
12.466 -5.6989999 0.83200002
12.494 -5.6760001 0.833
12.521 -5.651 0.83499998
12.546 -5.625 0.83700001
12.565 -5.5970001 0.838
12.595 -5.573 0.83999997
12.636 -5.5539999 0.84200001
12.7 -5.5450001 0.84600002
12.749 -5.5289998 0.84899998
12.762 -5.4970002 0.85000002
12.786 -5.4699998 0.852
12.793 -5.4349999 0.852
12.882 -5.4349999 0.85799998
12.897 -5.4029999 0.85900003
12.999 -5.408 0.86500001
13.004 -5.3720002 0.866
13.04 -5.2719998 0.86799997
13.054 -5.2389998 0.86799997
13.677 -5.0469999 0.90799999
13.657 -5 0.90700001
13.641 -4.954 0.90499997
13.68 -4.928 0.90799999
13.691 -4.8920002 0.90799999
13.665 -4.842 0.90700001
13.725 -4.823 0.91000003
13.738 -4.7880001 0.91100001
13.77 -4.7579999 0.91299999
13.854 -4.7470002 0.91799998
13.817 -4.6939998 0.91600001
13.88 -4.6750002 0.92000002
13.944 -4.6550002 0.92400002
14.04 -4.5229998 0.93000001
13.992 -4.467 0.926
14.017 -4.434 0.92799997
14.039 -4.4000001 0.92900002
14.017 -4.3520002 0.92699999
14.082 -4.3309999 0.93199998
14.18 -4.1950002 0.93699998
14.369 -4.2090001 0.94999999
14.51 -4.2080002 0.95899999
14.471 -4.1550002 0.95599997
14.492 -4.119 0.95700002
14.581 -4.1009998 0.963
14.566 -4.0549998 0.96200001
14.603 -3.98 0.96399999
14.674 -3.957 0.96899998
14.644 -3.9059999 0.96600002
11.294 -1.671 0.73900002
11.209 -1.626 0.73299998
11.143 -1.585 0.72899997
11.042 -1.539 0.722
11.008 -1.502 0.72000003
11.043 -1.475 0.722
11.145 -1.457 0.72799999
12.977 -0.54000002 0.84200001
12.836 -0.49700001 0.833
12.713 -0.456 0.824
12.656 -0.41800001 0.82099998
12.64 -0.38100001 0.81900001
12.637 -0.345 0.81900001
12.63 -0.308 0.81800002
12.615 -0.27200001 0.81699997
12.643 -0.236 0.81900001
12.647 -0.2 0.81900001
12.663 -0.164 0.81999999
12.69 -0.12800001 0.82099998
12.788 -0.092 0.82700002
13.037 0.132 0.76899999
13.033 0.14399999 0.76800001
13.052 0.156 0.76899999
13.018 0.168 0.76700002
13.021 0.18099999 0.76700002
13.035 0.19400001 0.76700002
12.999 0.206 0.76499999
13.009 0.22 0.76499999
13.002 0.234 0.764
12.976 0.248 0.76200002
12.981 0.26300001 0.76200002
12.968 0.27700001 0.76099998
12.961 0.292 0.76099998
12.949 0.30700001 0.75999999
12.963 0.324 0.75999999
12.949 0.33899999 0.759
12.953 0.35600001 0.759
12.947 0.373 0.75800002
12.952 0.38999999 0.75800002
12.938 0.40700001 0.75700003
12.961 0.42500001 0.759
12.951 0.44299999 0.75800002
12.976 0.46200001 0.759
12.984 0.48100001 0.759
13.005 0.50099999 0.75999999
12.997 0.51999998 0.75999999
12.966 0.53799999 0.75800002
12.952 0.55800003 0.75700003
12.977 0.579 0.75800002
12.976 0.59899998 0.75800002
12.987 0.62099999 0.759
12.995 0.64200002 0.759
13.009 0.66399997 0.75999999
13.007 0.68599999 0.759
12.995 0.70700002 0.759
12.97 0.72799999 0.75700003
12.953 0.74900001 0.75599998
12.95 0.77200001 0.75599998
12.947 0.79500002 0.75599998
12.936 0.81800002 0.755
12.905 0.83899999 0.75300002
12.891 0.86199999 0.75199997
12.853 0.88300002 0.75
12.856 0.90799999 0.75
12.856 0.93199998 0.75
12.875 0.958 0.75099999
12.873 0.98299998 0.75099999
12.871 1.0089999 0.75099999
12.879 1.035 0.75199997
12.901 1.063 0.75300002
12.892 1.0880001 0.75300002
12.901 1.115 0.75300002
12.934 1.145 0.755
12.926 1.171 0.755
17.205 1.559 1.005
12.916 1.198 0.75400001
17.127001 1.5880001 1
12.92 1.225 0.755
17.09 1.6210001 0.99800003
12.965 1.258 0.75700003
17.120001 1.661 1
12.975 1.2869999 0.75800002
17.205 1.706 1.005
12.969 1.3150001 0.75800002
22.117001 2.2420001 1.293
12.98 1.344 0.759
21.9 2.2679999 1.28
13.007 1.376 0.75999999
21.91 2.3180001 1.281
13.081 1.413 0.76499999
21.917 2.368 1.2819999
13.118 1.447 0.76700002
22.065001 2.434 1.291
22.052 2.483 1.29
22.030001 2.5320001 1.289
22.105 2.592 1.294
22.209 2.6559999 1.301
22.209 2.7079999 1.301
22.176001 2.757 1.299
22.195999 2.813 1.301
22.143999 2.8599999 1.298
22.132 2.9119999 1.298
22.045 2.9549999 1.293
22.039 3.0090001 1.294
22.059 3.066 1.295
22.118999 3.1300001 1.299
22.247 3.204 1.307
22.229 3.2579999 1.307
22.216 3.313 1.306
22.249001 3.3759999 1.309
22.337999 3.447 1.3150001
22.403 3.516 1.319
10.93 1.773 0.64399999
10.848 1.789 0.639
10.803 1.8099999 0.63700002
10.784 1.836 0.63599998
10.772 1.863 0.63599998
10.776 1.8940001 0.63599998
10.795 1.927 0.63800001
10.816 1.96 0.639
10.831 1.993 0.64099997
10.908 2.0380001 0.64600003
10.944 2.076 0.648
11.068 2.131 0.65600002
11.159 2.2119999 0.662
11.05 2.223 0.65600002
11.028 2.25 0.65499997
11.058 2.289 0.65700001
11.2 2.3510001 0.66600001
15.13 3.6819999 0.90700001
15.034 3.7049999 0.90200001
15.003 3.7449999 0.90100002
14.963 3.7820001 0.89899999
14.963 3.8299999 0.89999998
17.469999 5.52 1.067
17.395 5.5570002 1.064
17.35 5.6030002 1.062
17.377001 5.6719999 1.0650001
17.500999 5.7750001 1.074
17.336 5.7810001 1.064
17.194 5.7950001 1.057
17.193001 5.8569999 1.058
11.345 6.263 0.74800003
11.261 6.2659998 0.74299997
11.22 6.2930002 0.74199998
11.184 6.323 0.741
11.169 6.3639998 0.741
11.14 6.3969998 0.74000001
11.149 6.4520001 0.74199998
11.158 6.5079999 0.74400002
10.914 -7.165 0.76800001
10.975 -7.1370001 0.77200001
11.034 -7.1069999 0.77499998
11.067 -7.0609999 0.77700001
11.127 -7.0310001 0.77999997
11.143 -6.974 0.78100002
11.195 -6.9400001 0.78399998
11.227 -6.8940001 0.78500003
11.276 -6.8579998 0.78799999
11.309 -6.8119998 0.79000002
11.362 -6.7789998 0.79299998
11.385 -6.7280002 0.79400003
11.439 -6.6950002 0.79699999
11.485 -6.6570001 0.80000001
11.531 -6.6199999 0.80199999
11.584 -6.5869999 0.80500001
11.604 -6.5339999 0.80599999
11.675 -6.5110002 0.81099999
11.754 -6.4920001 0.81599998
11.796 -6.4530001 0.81800002
11.77 -6.3769999 0.81599998
11.788 -6.3239999 0.81599998
11.829 -6.2849998 0.81900001
11.867 -6.244 0.82099998
11.878 -6.1890001 0.82099998
11.937 -6.1599998 0.824
12.016 -6.1399999 0.829
12.035 -6.0900002 0.82999998
12.075 -6.0500002 0.83200002
12.079 -5.993 0.83200002
12.146 -5.967 0.83600003
12.173 -5.9219999 0.838
12.223 -5.8870001 0.84100002
12.231 -5.8330002 0.84100002
12.306 -5.8109999 0.84500003
12.35 -5.7740002 0.84799999
12.38 -5.73 0.84899998
12.451 -5.7059999 0.85399997
12.469 -5.6570001 0.85500002
12.506 -5.6170001 0.85699999
12.54 -5.5760002 0.85900003
12.605 -5.5479999 0.86299998
12.674 -5.5219998 0.86699998
12.722 -5.487 0.87
12.768 -5.4510002 0.87199998
12.82 -5.4180002 0.875
12.874 -5.3850002 0.87900001
12.99 -5.3779998 0.88599998
13.757 -5.1290002 0.93400002
13.727 -5.0640001 0.93199998
13.75 -5.0180001 0.93300003
13.74 -4.961 0.93199998
13.748 -4.9099998 0.93199998
13.775 -4.8670001 0.93400002
13.739 -4.802 0.93099999
13.794 -4.7690001 0.93400002
13.835 -4.7309999 0.93699998
13.896 -4.6999998 0.94
13.978 -4.6750002 0.94599998
14.099 -4.6630001 0.95300001
14.622 -4.3660002 0.986
14.523 -4.2859998 0.97899997
14.621 -4.2649999 0.98500001
11.299 -1.669 0.75300002
11.228 -1.63 0.74800003
11.125 -1.5880001 0.741
11.052 -1.55 0.736
11.008 -1.517 0.73299998
11.016 -1.4910001 0.73400003
11.031 -1.466 0.73500001
11.081 -1.446 0.73799998
11.239 -1.4400001 0.74800003
12.983 -0.421 0.86400002
12.969 -0.398 0.86299998
12.872 -0.373 0.85699999
12.764 -0.34900001 0.85000002
12.711 -0.32600001 0.84600002
12.701 -0.30500001 0.84500003
12.701 -0.28400001 0.84500003
12.687 -0.26300001 0.84500003
12.689 -0.242 0.84500003
12.695 -0.222 0.84500003
12.688 -0.20200001 0.84500003
12.726 -0.182 0.847
12.762 -0.163 0.85000002
12.796 -0.14300001 0.852
12.828 -0.124 0.85500002
12.889 -0.105 0.85900003
12.856 0.189 0.792
12.885 0.213 0.79299998
12.883 0.236 0.79299998
12.906 0.259 0.79400003
12.912 0.28299999 0.79400003
12.941 0.308 0.796
12.938 0.33199999 0.796
12.927 0.35600001 0.79500002
12.936 0.38100001 0.79500002
12.957 0.40700001 0.796
12.975 0.433 0.79699999
12.982 0.45899999 0.79799998
12.988 0.48500001 0.79799998
12.999 0.51200002 0.79799998
12.995 0.53799999 0.79799998
13.024 0.56599998 0.80000001
13.019 0.59299999 0.79900002
13.02 0.62 0.79900002
13.049 0.64899999 0.801
13.05 0.67699999 0.801
13.016 0.704 0.79900002
13.027 0.73299998 0.80000001
13.014 0.76099998 0.79900002
12.987 0.78799999 0.79699999
12.986 0.81699997 0.79699999
12.963 0.84399998 0.796
12.952 0.87300003 0.79500002
12.941 0.90200001 0.79400003
12.909 0.93000001 0.792
12.889 0.958 0.79100001
12.915 0.99000001 0.79299998
12.957 1.024 0.79500002
12.935 1.053 0.79400003
12.937 1.084 0.79400003
12.937 1.115 0.79400003
12.955 1.148 0.79500002
12.967 1.181 0.796
12.947 1.211 0.79500002
17.205 1.61 1.057
12.95 1.244 0.79500002
17.118 1.6440001 1.052
12.979 1.279 0.79699999
17.094 1.684 1.05
13.045 1.318 0.801
17.110001 1.729 1.051
13.047 1.351 0.80199999
17.24 1.786 1.0599999
22.337999 2.3139999 1.373
13.049 1.385 0.80199999
22.107 2.346 1.359
13.097 1.423 0.80500001
22.054001 2.3970001 1.3559999
22.044001 2.4530001 1.3559999
22.087999 2.5150001 1.359
22.143999 2.579 1.362
22.097 2.631 1.36
22.444 2.7320001 1.381
22.365 2.7820001 1.377
22.32 2.836 1.374
22.299999 2.8929999 1.373
22.243999 2.9460001 1.37
22.193001 2.9990001 1.368
22.17 3.0569999 1.367
22.143 3.1140001 1.365
22.164 3.178 1.367
22.247 3.2509999 1.373
22.268 3.316 1.374
22.292 3.382 1.376
22.374001 3.4579999 1.382
22.423 3.529 1.385
22.598 3.6199999 1.397
10.942 1.784 0.676
10.845 1.799 0.67000002
10.795 1.822 0.66799998
10.793 1.853 0.66799998
10.779 1.882 0.667
10.782 1.914 0.66799998
10.781 1.9450001 0.66799998
10.804 1.9809999 0.67000002
10.858 2.023 0.67299998
10.901 2.0639999 0.676
10.975 2.1110001 0.68099999
11.13 2.207 0.69099998
11.017 2.2179999 0.685
11.026 2.253 0.68599999
11.089 2.3 0.69
19.684999 4.6329999 1.2309999
19.542999 4.6609998 1.223
15.096 3.648 0.94499999
15.015 3.677 0.94099998
14.972 3.714 0.93900001
14.914 3.747 0.93599999
14.947 3.803 0.93800002
17.278999 5.7789998 1.104
17.225 5.8200002 1.102
17.389999 5.9359999 1.113
12.429 -6.6729999 0.889
12.413 -6.6269999 0.88800001
12.394 -6.5809999 0.88599998
12.448 -6.573 0.88999999
12.579 -6.605 0.89899999
12.493 -6.5240002 0.89300001
12.709 -6.3379998 0.90700001
12.778 -6.335 0.912
12.763 -6.289 0.91100001
12.816 -6.2779999 0.91500002
12.851 -6.2579999 0.917
13.861 -5.5250001 0.98400003
13.881 -5.4920001 0.986
13.806 -5.4219999 0.98000002
13.87 -5.4060001 0.98500001
13.847 -5.316 0.98299998
13.858 -5.2789998 0.98299998
13.916 -5.2600002 0.98699999
13.859 -5.198 0.98299998
13.872 -5.1620002 0.98400003
13.861 -5.118 0.98299998
13.901 -5.092 0.98500001
13.916 -5.0560002 0.986
13.929 -5.02 0.98699999
13.943 -4.9840002 0.98799998
13.94 -4.9419999 0.98799998
13.958 -4.9070001 0.98900002
13.951 -4.8639998 0.98799998
13.972 -4.8299999 0.98900002
14.047 -4.8150001 0.99400002
14.088 -4.7880001 0.99699998
14.242 -4.7979999 1.008
14.378 -4.802 1.017
11.27 -1.635 0.787
11.133 -1.5829999 0.77700001
11.019 -1.535 0.76899999
11.012 -1.502 0.76800001
11.031 -1.473 0.76899999
11.15 -1.457 0.778
13.051 -0.542 0.903
12.956 -0.5 0.89700001
12.856 -0.46000001 0.889
12.788 -0.41999999 0.88499999
12.753 -0.38299999 0.88200003
12.76 -0.34599999 0.88200003
12.781 -0.31 0.88300002
12.795 -0.27399999 0.884
12.858 -0.23800001 0.88800001
12.973 -0.20299999 0.89600003
13.012 -0.16599999 0.89899999
13.264 0.88800001 0.83600003
13.197 0.90899998 0.83200002
13.154 0.93000001 0.82999998
13.179 0.95700002 0.83099997
13.233 0.98699999 0.83499998
17.347 1.5369999 1.095
17.172001 1.558 1.084
17.108999 1.5880001 1.08
17.101 1.624 1.08
17.132 1.663 1.082
17.219 1.709 1.0880001
22.406 2.273 1.416
22.382999 2.3199999 1.415
22.398001 2.372 1.416
22.447001 2.428 1.419
23.007 2.54 1.455
22.975 2.589 1.4529999
22.801001 2.622 1.443
22.732 2.6670001 1.439
22.716999 2.7179999 1.438
22.677999 2.767 1.436
22.621 2.8139999 1.433
22.497999 2.8529999 1.426
22.457001 2.902 1.424
22.337 2.941 1.4170001
22.312 2.9920001 1.415
22.292 3.0450001 1.415
22.291 3.0999999 1.415
22.322001 3.1600001 1.418
22.353001 3.221 1.42
22.377001 3.2820001 1.4220001
22.469 3.3529999 1.429
22.577 3.427 1.436
22.612 3.4909999 1.439
11.249 1.766 0.71600002
10.968 1.751 0.69800001
10.859 1.762 0.69199997
10.819 1.784 0.69
10.806 1.811 0.68900001
10.781 1.836 0.68800002
10.767 1.863 0.68699998
10.765 1.892 0.68800002
10.78 1.925 0.68900001
10.781 1.955 0.68900001
10.816 1.9910001 0.69199997
10.84 2.026 0.69400001
10.876 2.063 0.69700003
10.952 2.109 0.70200002
11.153 2.1789999 0.71499997
11.132 2.207 0.71399999
11.022 2.217 0.708
10.996 2.244 0.70599997
11.077 2.293 0.71200001
19.548 4.6360002 1.266
19.403999 4.6620002 1.258
15.143 3.6849999 0.98199999
19.436001 4.73 1.261
15.021 3.7030001 0.97500002
14.946 3.7309999 0.97100002
14.91 3.7690001 0.96899998
14.9 3.8139999 0.97000003
14.976 3.882 0.97500002
15.141 3.973 0.98699999
11.402 -7.4850001 0.85500002
11.439 -7.4380002 0.85699999
11.51 -7.4120002 0.86199999
11.533 -7.3569999 0.86299998
11.61 -7.335 0.86799997
11.656 -7.2940001 0.87099999
11.699 -7.2519999 0.87300003
11.769 -7.2249999 0.87800002
11.794 -7.1719999 0.87900001
11.827 -7.1230001 0.88099998
11.87 -7.0799999 0.88300002
11.899 -7.0300002 0.88499999
11.935 -6.9840002 0.88700002
11.979 -6.9429998 0.889
12.023 -6.901 0.89200002
12.083 -6.869 0.89600003
12.147 -6.8390002 0.89999998
12.196 -6.8010001 0.903
12.242 -6.7610002 0.90499997
12.217 -6.6820002 0.903
12.284 -6.6539998 0.90700001
12.28 -6.5869999 0.90600002
12.287 -6.527 0.90600002
12.356 -6.5009999 0.91100001
12.423 -6.473 0.91500002
12.473 -6.4349999 0.91799998
12.502 -6.3870001 0.92000002
12.558 -6.3540001 0.92299998
12.564 -6.2950001 0.92299998
12.635 -6.2680001 0.92799997
12.68 -6.2290001 0.93099999
12.746 -6.1989999 0.935
12.858 -6.1919999 0.94300002
12.938 -6.1700001 0.94800001
13.179 -6.2220001 0.96499997
13.283 -6.2090001 0.972
13.971 -5.4910002 1.013
13.904 -5.408 1.008
13.909 -5.3530002 1.008
13.982 -5.3249998 1.013
14.078 -5.3049998 1.0190001
14.092 -5.2540002 1.02
14.105 -5.2030001 1.02
14.019 -5.1160002 1.0140001
14.088 -5.086 1.018
14.105 -5.0380001 1.0190001
14.238 -4.9219999 1.028
14.294 -4.8870001 1.031
11.279 -1.638 0.801
11.126 -1.5880001 0.79000002
11.044 -1.549 0.78399998
10.994 -1.515 0.77999997
11.001 -1.489 0.78100002
11.018 -1.465 0.78200001
11.054 -1.443 0.78399998
11.153 -1.429 0.79100001
13.169 -0.382 0.93300003
12.993 -0.35499999 0.921
12.969 -0.333 0.91900003
12.954 -0.31099999 0.91799998
12.934 -0.289 0.917
12.921 -0.26800001 0.91600001
12.905 -0.24600001 0.91500002
12.956 -0.227 0.91900003
13.107 -0.208 0.92900002
13.319 0.89899999 0.88
13.239 0.92400002 0.875
13.227 0.954 0.87400001
13.202 0.98299998 0.87300003
13.331 1.023 0.88099998
13.177 1.074 0.87099999
13.192 1.107 0.87199998
13.287 1.147 0.87900001
17.330999 1.58 1.146
17.136999 1.605 1.1339999
17.080999 1.642 1.13
17.082001 1.6849999 1.13
17.122999 1.732 1.133
17.426001 1.806 1.154
22.521999 2.335 1.4910001
22.408001 2.3800001 1.484
22.445999 2.441 1.487
22.584 2.5139999 1.4960001
23.025999 2.6229999 1.526
23.044001 2.6860001 1.527
22.93 2.7320001 1.52
22.796 2.776 1.511
22.759001 2.832 1.5089999
22.754999 2.892 1.51
22.659 2.941 1.5039999
22.43 2.9719999 1.489
22.379 3.026 1.4859999
22.364 3.085 1.485
22.299999 3.1370001 1.482
22.341999 3.2049999 1.485
22.368999 3.27 1.487
22.422001 3.3410001 1.4910001
22.587 3.428 1.503
22.686001 3.507 1.51
11.064 1.773 0.73699999
10.879 1.774 0.72500002
10.812 1.794 0.72000003
10.787 1.821 0.71899998
10.778 1.851 0.71899998
10.768 1.881 0.71799999
10.761 1.911 0.71799999
10.763 1.943 0.71899998
10.787 1.979 0.72100002
10.818 2.017 0.72299999
10.857 2.056 0.72600001
10.913 2.099 0.73000002
11.084 2.165 0.74199998
11.132 2.2079999 0.745
11.002 2.2160001 0.73699999
11.014 2.2509999 0.73799998
11.228 2.329 0.75300002
19.521 4.5949998 1.316
19.379999 4.6230001 1.308
15.152 3.6630001 1.023
19.417999 4.6939998 1.311
14.996 3.6719999 1.013
14.944 3.707 1.01
14.92 3.7490001 1.0089999
14.883 3.7880001 1.007
14.954 3.8540001 1.013
15.112 3.9430001 1.024
13.368 -6.434 1.0140001
13.421 -6.4200001 1.018
13.369 -6.3559999 1.0140001
13.39 -6.3270001 1.016
13.464 -6.322 1.021
13.563 -6.329 1.028
13.704 -6.3540001 1.039
13.798 -6.3569999 1.046
13.847 -6.3390002 1.05
13.837 -6.2930002 1.049
14.257 -5.7280002 1.077
14.347 -5.7210002 1.084
14.256 -5.6430001 1.077
14.32 -5.6259999 1.081
14.663 -5.1570001 1.104
14.784 -5.1570001 1.113
11.295 -1.638 0.838
11.088 -1.576 0.82300001
10.991 -1.53 0.815
10.997 -1.499 0.815
11.022 -1.471 0.81699997
11.105 -1.45 0.82300001
13.151 -0.35499999 0.96600002
13.081 -0.31600001 0.96100003
13.254 0.889 0.898
13.199 0.91000003 0.89399999
13.149 0.93199998 0.89099997
13.189 0.95899999 0.89399999
13.236 0.98799998 0.89700001
13.139 1.007 0.88999999
13.101 1.029 0.88800001
13.084 1.054 0.88700002
13.12 1.0829999 0.889
13.174 1.115 0.89300001
13.202 1.1440001 0.89499998
17.18 1.524 1.165
17.101999 1.553 1.16
17.083 1.587 1.159
17.073999 1.623 1.159
17.136 1.666 1.163
13.247 1.316 0.89899999
17.358999 1.725 1.179
13.139 1.334 0.89200002
11.102 1.743 0.75999999
10.948 1.748 0.75
10.837 1.7589999 0.74199998
10.816 1.785 0.741
10.778 1.807 0.73900002
10.77 1.835 0.73900002
10.755 1.862 0.73799998
10.76 1.892 0.73900002
10.761 1.9220001 0.74000001
10.794 1.9579999 0.74199998
10.811 1.9910001 0.74400002
10.852 2.029 0.74699998
10.882 2.0650001 0.75
10.932 2.1059999 0.75400001
11.122 2.174 0.76700002
11.096 2.201 0.76599997
11.007 2.2149999 0.75999999
11.018 2.2490001 0.76099998
11.271 2.3340001 0.77899998
23.216999 4.8070002 1.6059999
23.285 4.8899999 1.612
19.655001 4.6620002 1.369
19.434999 4.6700001 1.355
15.12 3.6800001 1.0549999
19.504 4.7470002 1.3609999
15 3.698 1.0470001
14.937 3.7290001 1.044
14.895 3.766 1.0420001
14.872 3.8080001 1.041
14.914 3.8659999 1.045
15.009 3.9389999 1.052
11.888 -7.802 0.94700003
11.92 -7.7490001 0.949
11.992 -7.7210002 0.954
12.06 -7.6919999 0.958
12.101 -7.6440001 0.96100003
12.151 -7.6020002 0.96399999
12.158 -7.5349998 0.96399999
12.197 -7.487 0.96600002
12.237 -7.4400001 0.96799999
12.224 -7.3610001 0.96700001
12.236 -7.2979999 0.96700001
12.266 -7.2459998 0.96799999
12.276 -7.1820002 0.96799999
12.315 -7.1360002 0.97100002
12.313 -7.0669999 0.97000003
12.333 -7.0100002 0.97100002
12.371 -6.9650002 0.97299999
12.406 -6.9169998 0.97500002
12.439 -6.869 0.977
12.466 -6.8179998 0.97799999
12.536 -6.789 0.98299998
13.084 -6.8829999 1.024
13.064 -6.8060002 1.022
13.118 -6.7670002 1.025
13.222 -6.7550001 1.033
13.226 -6.691 1.033
13.378 -6.7020001 1.044
13.373 -6.6329999 1.043
13.402 -6.5819998 1.044
13.397 -6.5159998 1.043
13.269 -6.3899999 1.033
13.296 -6.3400002 1.034
13.36 -6.3070002 1.039
13.416 -6.2709999 1.0420001
13.511 -6.2519999 1.049
13.603 -6.2319999 1.056
13.679 -6.204 1.061
13.839 -6.2140002 1.073
13.955 -6.204 1.081
14.013 -6.1669998 1.085
14.066 -6.1279998 1.089
14.175 -6.0510001 1.096
14.147 -5.9770002 1.0930001
14.191 -5.9349999 1.096
14.16 -5.8610001 1.0930001
14.214 -5.823 1.097
14.263 -5.783 1.1
14.238 -5.7140002 1.098
14.265 -5.665 1.099
14.338 -5.6350002 1.104
14.425 -5.6100001 1.11
14.428 -5.552 1.11
14.539 -5.5359998 1.118
14.531 -5.4749999 1.117
14.535 -5.4190001 1.117
14.607 -5.388 1.122
14.677 -5.3559999 1.127
14.808 -5.119 1.1339999
14.87 -5.0840001 1.1390001
14.878 -5.0310001 1.1390001
11.31 -1.642 0.852
11.173 -1.595 0.84200001
11.046 -1.549 0.83200002
11.002 -1.516 0.829
10.979 -1.4859999 0.82700002
11.001 -1.4630001 0.82800001
11.018 -1.438 0.82999998
11.052 -1.416 0.83200002
11.189 -1.4069999 0.84200001
13.026 0.19599999 0.92500001
13.058 0.219 0.92699999
13.025 0.242 0.92400002
13.03 0.266 0.92400002
13.045 0.28999999 0.92500001
13.086 0.315 0.92799997
13.082 0.33899999 0.92799997
13.091 0.36399999 0.92799997
13.084 0.389 0.92699999
13.069 0.414 0.926
13.074 0.44 0.926
13.063 0.465 0.926
13.102 0.493 0.92799997
13.101 0.51899999 0.92799997
13.12 0.54699999 0.92900002
13.114 0.57300001 0.92900002
13.089 0.59899998 0.92699999
13.112 0.62800002 0.92799997
13.143 0.65700001 0.93099999
13.12 0.68400002 0.92900002
13.164 0.71499997 0.93199998
13.16 0.74299997 0.93199998
13.107 0.76899999 0.92799997
13.14 0.80000001 0.93000001
13.121 0.82800001 0.92900002
13.138 0.85900003 0.93000001
13.112 0.88700002 0.92799997
13.089 0.91500002 0.92699999
13.059 0.94300002 0.92500001
13.061 0.97299999 0.92500001
13.055 1.0039999 0.92500001
13.019 1.031 0.92199999
13 1.061 0.921
13.017 1.0930001 0.92199999
13.062 1.1289999 0.92500001
13.086 1.1619999 0.92699999
13.108 1.196 0.92900002
17.150999 1.5650001 1.216
13.22 1.239 0.93699998
17.063 1.599 1.21
13.147 1.265 0.93199998
17.069 1.642 1.21
13.167 1.299 0.93400002
17.066999 1.6849999 1.21
13.155 1.331 0.93300003
17.177 1.739 1.2180001
13.094 1.358 0.92900002
13.118 1.3940001 0.93099999
13.246 1.442 0.94
23.316 2.9649999 1.658
23.226999 3.016 1.652
23.204 3.076 1.651
23.208 3.1389999 1.651
23.158001 3.1960001 1.648
23.153 3.2590001 1.649
23.143999 3.3210001 1.649
23.285 3.4059999 1.659
23.288 3.471 1.66
23.129999 3.5120001 1.649
23.139 3.579 1.651
11.29 1.778 0.80500001
23.232 3.6589999 1.658
10.999 1.763 0.78500003
10.863 1.772 0.77600002
10.802 1.793 0.77200001
10.78 1.821 0.76999998
10.763 1.849 0.76899999
10.746 1.877 0.76800001
10.744 1.908 0.76899999
10.764 1.943 0.77100003
10.794 1.9809999 0.773
10.838 2.0209999 0.77700001
10.865 2.0580001 0.77899998
10.91 2.099 0.78200001
11.129 2.175 0.79900002
11.064 2.1949999 0.79400003
10.987 2.2130001 0.78899997
11.061 2.2609999 0.79500002
23.322001 4.7690001 1.677
23.233 4.8210001 1.671
15.31 3.6530001 1.108
15.091 3.648 1.0930001
15 3.674 1.087
14.931 3.7049999 1.082
14.916 3.7490001 1.082
14.876 3.786 1.08
14.902 3.8410001 1.082
15.03 3.9230001 1.0930001
14.187 -6.4980001 1.14
14.167 -6.447 1.138
14.183 -6.4130001 1.1390001
14.278 -6.4130001 1.146
14.296 -6.3790002 1.148
14.378 -6.3730001 1.154
14.392 -6.3369999 1.155
14.44 -6.145 1.158
14.469 -6.1149998 1.16
14.475 -6.0749998 1.16
14.486 -6.0359998 1.161
14.542 -6.0170002 1.165
14.566 -5.9840002 1.1670001
14.598 -5.954 1.169
14.629 -5.9229999 1.171
14.616 -5.875 1.17
14.677 -5.8559999 1.175
14.634 -5.796 1.171
14.686 -5.7729998 1.175
14.79 -5.7709999 1.183
14.866 -5.7129998 1.189
14.836 -5.6570001 1.186
14.82 -5.6069999 1.1849999
14.84 -5.5710001 1.186
11.22 -1.627 0.88200003
11.069 -1.573 0.87
10.988 -1.529 0.86299998
10.967 -1.495 0.861
11 -1.4680001 0.86400002
11.043 -1.441 0.86699998
13.123 0.33399999 0.954
13.077 0.34900001 0.95099998
13.149 0.368 0.95499998
13.13 0.384 0.954
13.13 0.40200001 0.954
13.098 0.491 0.94999999
13.256 0.51700002 0.96200001
13.096 0.52999997 0.94999999
13.086 0.54900002 0.949
13.118 0.56999999 0.95099998
13.178 0.59299999 0.95499998
13.165 0.61400002 0.954
13.148 0.634 0.95300001
13.144 0.65499997 0.95300001
13.119 0.67500001 0.95099998
13.107 0.69599998 0.94999999
13.093 0.71799999 0.949
13.071 0.73900002 0.94700003
13.036 0.759 0.94400001
13.059 0.78299999 0.94599998
13.042 0.80599999 0.94499999
13.05 0.829 0.94499999
13.043 0.85299999 0.94499999
12.997 0.87400001 0.94199997
12.971 0.89600003 0.94
12.951 0.91900003 0.93800002
12.938 0.94300002 0.93800002
12.896 0.96399999 0.935
12.892 0.98900002 0.93400002
12.893 1.0140001 0.935
12.893 1.04 0.935
12.904 1.067 0.93599999
12.903 1.0930001 0.93599999
12.921 1.1210001 0.93699998
17.24 1.4960001 1.25
12.937 1.149 0.93800002
17.099001 1.5190001 1.24
12.955 1.178 0.94
17.075001 1.552 1.239
13.039 1.2130001 0.94599998
17.063 1.587 1.238
13.035 1.24 0.94599998
17.075001 1.624 1.239
12.992 1.2640001 0.94300002
17.150999 1.668 1.245
13.024 1.295 0.94599998
13.025 1.324 0.94599998
13.043 1.354 0.94700003
13.111 1.39 0.95300001
13.182 1.428 0.958
23.186001 2.5109999 1.6849999
13.253 1.465 0.963
23.007 2.5439999 1.673
22.981001 2.5940001 1.671
22.997999 2.648 1.673
13.142 1.544 0.95599997
23.000999 2.7019999 1.674
13.068 1.566 0.95099998
23.009001 2.757 1.675
13.007 1.589 0.94700003
23.047001 2.816 1.678
13.038 1.624 0.94999999
23.038 2.869 1.678
13.135 1.6670001 0.95700002
23.028 2.9230001 1.678
23.003 2.9760001 1.677
23.023001 3.0339999 1.679
23.011999 3.089 1.679
23.003 3.145 1.679
23.018 3.204 1.681
23.025999 3.263 1.682
23.052 3.325 1.6849999
23.132 3.395 1.691
23.035 3.4400001 1.6849999
23.048 3.5009999 1.687
23.091 3.5680001 1.691
11.039 1.734 0.80800003
10.933 1.7460001 0.801
10.86 1.763 0.796
10.817 1.785 0.79299998
10.786 1.809 0.79100001
10.762 1.834 0.79000002
10.742 1.86 0.78899997
10.742 1.8890001 0.79000002
10.758 1.9220001 0.79100001
10.786 1.957 0.79400003
10.81 1.9910001 0.796
10.848 2.029 0.79900002
10.866 2.063 0.801
10.905 2.1010001 0.80400002
11.062 2.1630001 0.81699997
11.046 2.191 0.81599998
10.966 2.207 0.81
10.995 2.2449999 0.81300002
15.136 3.6849999 1.131
15.05 3.711 1.125
14.968 3.7379999 1.12
14.917 3.7720001 1.117
14.909 3.8169999 1.117
14.857 3.852 1.114
14.94 3.921 1.1210001
15.114 4.0159998 1.136
12.625 -8.2849998 1.0650001
12.695 -8.2510004 1.069
12.767 -8.2200003 1.075
12.825 -8.1780005 1.079
12.889 -8.1409998 1.0829999
12.926 -8.0860004 1.085
12.999 -8.0550003 1.09
13.036 -8.0010004 1.0930001
13.118 -7.974 1.099
13.156 -7.921 1.101
13.192 -7.8670001 1.103
13.246 -7.823 1.107
13.291 -7.7750001 1.11
13.609 -7.3699999 1.1289999
13.565 -7.2750001 1.125
13.736 -7.296 1.1390001
13.746 -7.23 1.1390001
13.796 -7.1859999 1.142
13.762 -7.099 1.138
13.879 -7.0900002 1.147
14.195 -6.3740001 1.164
14.266 -6.3410001 1.169
14.328 -6.3049998 1.174
14.411 -6.2779999 1.1799999
14.544 -6.2709999 1.1900001
14.541 -6.2069998 1.1900001
14.595 -6.1659999 1.193
14.539 -6.0799999 1.188
14.565 -6.0289998 1.1900001
14.55 -5.96 1.188
14.611 -5.9239998 1.192
14.685 -5.8920002 1.198
14.731 -5.8499999 1.201
14.766 -5.803 1.2029999
14.804 -5.757 1.206
14.837 -5.7090001 1.2079999
14.861 -5.6589999 1.209
14.981 -5.6440001 1.2180001
11.304 -1.641 0.90100002
11.154 -1.592 0.889
11.078 -1.554 0.88300002
10.998 -1.516 0.87599999
10.979 -1.4859999 0.87400001
10.984 -1.46 0.875
11 -1.436 0.87599999
11.01 -1.411 0.87699997
11.046 -1.3890001 0.87900001
11.176 -1.38 0.88999999
12.916 0.19599999 0.97799999
12.936 0.219 0.97899997
12.942 0.242 0.97899997
12.947 0.266 0.97899997
12.952 0.28999999 0.97899997
12.972 0.31400001 0.98100001
12.995 0.33899999 0.98199999
12.993 0.36300001 0.98199999
13.012 0.389 0.98299998
12.996 0.41299999 0.98199999
13.021 0.44 0.98400003
13.039 0.46599999 0.98500001
13.029 0.49200001 0.98400003
13.033 0.51800001 0.98400003
13.048 0.54500002 0.98500001
13.038 0.57099998 0.98500001
13.061 0.60000002 0.986
13.05 0.62599999 0.98500001
13.049 0.65399998 0.98500001
13.051 0.68199998 0.98500001
13.034 0.70899999 0.98400003
13.029 0.73699999 0.98400003
13.012 0.76499999 0.98199999
13.013 0.79400003 0.98299998
13.01 0.82200003 0.98199999
12.993 0.85000002 0.98100001
12.981 0.87900001 0.98000002
12.941 0.90600002 0.977
12.923 0.93400002 0.97600001
12.903 0.963 0.97399998
12.88 0.991 0.97299999
12.862 1.02 0.972
12.853 1.05 0.97100002
12.851 1.08 0.97100002
12.867 1.113 0.972
12.878 1.145 0.97299999
12.924 1.181 0.977
17.136 1.566 1.295
12.925 1.2130001 0.977
17.056999 1.6 1.29
12.939 1.2460001 0.97799999
17.049999 1.642 1.289
13.043 1.288 0.986
17.063999 1.686 1.291
12.965 1.313 0.98100001
17.139999 1.7359999 1.2970001
12.998 1.349 0.98299998
12.988 1.381 0.98299998
13.042 1.42 0.98699999
13.092 1.46 0.991
23.212 2.5880001 1.758
13.153 1.5 0.99599999
22.966 2.6199999 1.739
13.251 1.546 1.0039999
22.931 2.6760001 1.737
13.205 1.575 1
22.931999 2.7360001 1.738
13.058 1.592 0.99000001
22.952 2.799 1.74
12.983 1.617 0.98400003
22.965 2.8610001 1.7410001
12.964 1.65 0.98299998
22.996 2.9260001 1.744
13.062 1.697 0.991
22.976 2.9849999 1.743
22.975 3.0469999 1.744
22.972 3.109 1.744
22.966 3.171 1.744
22.969 3.234 1.745
22.973 3.2980001 1.7460001
23.006001 3.3659999 1.749
23.087 3.4430001 1.756
23.007 3.4949999 1.75
22.997 3.5580001 1.75
11.106 1.749 0.84500003
23.127001 3.6429999 1.761
10.947 1.755 0.83399999
10.884 1.776 0.829
10.822 1.7970001 0.82499999
10.779 1.821 0.82200003
10.766 1.85 0.82099998
10.737 1.876 0.81900001
10.732 1.9069999 0.81900001
10.758 1.943 0.82200003
10.779 1.978 0.824
10.827 2.0190001 0.82800001
10.855 2.0569999 0.82999998
10.89 2.096 0.83399999
11.028 2.155 0.84500003
10.996 2.1819999 0.84299999
10.951 2.2060001 0.83999997
11.03 2.256 0.84600002
19.780001 4.7199998 1.528
15.118 3.655 1.168
19.76 4.7779999 1.527
15.05 3.687 1.164
14.977 3.717 1.159
14.92 3.75 1.155
14.893 3.7909999 1.154
14.865 3.832 1.153
14.969 3.9070001 1.1619999
15.215 4.0209999 1.182
14.658 -6.8049998 1.244
14.684 -6.7740002 1.2460001
14.702 -6.7379999 1.248
14.671 -6.5939999 1.244
14.73 -6.5770001 1.249
14.739 -6.5370002 1.25
14.865 -6.5489998 1.26
14.867 -6.506 1.26
14.813 -6.3509998 1.255
14.836 -6.3169999 1.257
14.952 -6.323 1.266
11.201 -1.623 0.92900002
11.087 -1.575 0.92000002
10.984 -1.528 0.91100001
10.975 -1.495 0.91000003
10.979 -1.464 0.91000003
11.013 -1.437 0.91299999
11.073 -1.413 0.917
13.1 0.21799999 1.017
13.115 0.23199999 1.017
13.111 0.28999999 1.016
13.099 0.30399999 1.0140001
13.121 0.32100001 1.016
13.113 0.35299999 1.015
13.136 0.37 1.016
13.122 0.43900001 1.0140001
13.106 0.456 1.013
13.12 0.47499999 1.013
13.15 0.495 1.016
13.118 0.51300001 1.013
13.201 0.53600001 1.0190001
13.16 0.55400002 1.016
13.162 0.574 1.016
13.112 0.59200001 1.012
13.072 0.611 1.0089999
13.102 0.63300002 1.011
13.056 0.65200001 1.007
13.096 0.676 1.01
13.087 0.69700003 1.01
13.08 0.71899998 1.0089999
13.043 0.73900002 1.006
13.029 0.75999999 1.005
13.025 0.78299999 1.005
13.039 0.80699998 1.006
13.01 0.82800001 1.0039999
12.997 0.85100001 1.003
12.98 0.87400001 1.001
12.924 0.89399999 0.99699998
12.91 0.917 0.99599999
12.878 0.94 0.99400002
12.825 0.95999998 0.99000001
12.798 0.98299998 0.98799998
12.78 1.007 0.986
