# .PCD v0.7 - Point Cloud Data file format
VERSION 0.7
FIELDS x y z
SIZE 4 4 4
TYPE F F F
COUNT 1 1 1
WIDTH 1659
HEIGHT 1
VIEWPOINT 0 0 0 1 0 0 0
POINTS 1659
DATA ascii
6.0380001 -2.8169999 -0.35299999
6.0619998 -2.8 -0.354
6.0630002 -2.7720001 -0.354
6.0700002 -2.7479999 -0.354
6.0749998 -2.7219999 -0.354
6.092 -2.7019999 -0.354
6.1149998 -2.684 -0.35499999
6.138 -2.6670001 -0.35699999
6.1539998 -2.6459999 -0.35699999
6.1760001 -2.6289999 -0.35800001
6.1939998 -2.609 -0.359
6.2160001 -2.5910001 -0.36000001
6.2319999 -2.5710001 -0.361
6.2410002 -2.5480001 -0.361
6.2649999 -2.5309999 -0.36199999
6.2729998 -2.5079999 -0.36199999
6.2880001 -2.4879999 -0.36300001
6.2989998 -2.4660001 -0.36300001
6.3260002 -2.45 -0.36399999
6.3330002 -2.427 -0.36399999
6.3639998 -2.4130001 -0.366
6.3730001 -2.3900001 -0.366
6.382 -2.368 -0.366
6.4089999 -2.3529999 -0.368
6.427 -2.3340001 -0.368
6.4320002 -2.3099999 -0.36899999
6.4619999 -2.2950001 -0.37
6.4510002 -2.267 -0.36899999
6.4770002 -2.2509999 -0.37
6.4889998 -2.23 -0.37099999
6.4980001 -2.2090001 -0.37099999
6.5180001 -2.191 -0.37200001
6.5310001 -2.171 -0.37200001
6.5539999 -2.154 -0.37400001
6.573 -2.1359999 -0.37400001
6.5809999 -2.1140001 -0.375
6.6020002 -2.0969999 -0.37599999
6.6059999 -2.0739999 -0.37599999
6.6090002 -2.0510001 -0.375
6.6440001 -2.0380001 -0.377
6.651 -2.017 -0.377
6.658 -1.995 -0.377
6.6620002 -1.973 -0.37799999
6.6900001 -1.9579999 -0.37900001
6.6999998 -1.938 -0.37900001
6.7080002 -1.9170001 -0.37900001
6.7290001 -1.9 -0.38
6.7379999 -1.88 -0.38100001
6.7610002 -1.863 -0.382
6.7709999 -1.8430001 -0.382
6.7940001 -1.827 -0.38299999
6.7870002 -1.803 -0.38299999
6.8039999 -1.785 -0.38299999
6.8179998 -1.766 -0.384
6.8270001 -1.7460001 -0.384
6.835 -1.726 -0.384
6.8610001 -1.711 -0.38600001
6.8709998 -1.692 -0.38600001
6.8839998 -1.673 -0.38699999
6.901 -1.656 -0.38699999
6.915 -1.637 -0.38800001
6.941 -1.622 -0.389
6.9499998 -1.603 -0.38999999
6.973 -1.586 -0.391
6.9829998 -1.568 -0.391
7 -1.55 -0.39199999
7.0120001 -1.5319999 -0.39199999
7.04 -1.517 -0.39399999
7.0500002 -1.498 -0.39399999
7.0609999 -1.48 -0.39399999
7.0710001 -1.461 -0.39500001
7.079 -1.442 -0.39500001
7.1009998 -1.426 -0.396
7.1040001 -1.406 -0.396
7.1139998 -1.388 -0.396
7.1479998 -1.374 -0.398
7.1399999 -1.353 -0.398
7.1700001 -1.3380001 -0.39899999
7.1929998 -1.323 -0.40000001
7.1929998 -1.303 -0.40000001
7.2059999 -1.285 -0.40099999
7.2249999 -1.2690001 -0.40099999
7.2309999 -1.25 -0.40200001
7.2449999 -1.233 -0.40200001
7.2540002 -1.216 -0.403
7.2729998 -1.199 -0.403
7.2789998 -1.181 -0.40400001
7.2969999 -1.165 -0.40400001
7.3169999 -1.149 -0.405
7.3210001 -1.13 -0.405
7.3439999 -1.115 -0.40700001
7.3429999 -1.096 -0.40599999
7.3600001 -1.08 -0.40700001
7.3730001 -1.063 -0.40799999
7.3759999 -1.045 -0.40799999
7.3930001 -1.029 -0.40900001
7.3920002 -1.011 -0.40799999
7.4029999 -0.99400002 -0.40900001
7.421 -0.97799999 -0.41
7.428 -0.96100003 -0.41
7.434 -0.94400001 -0.41
7.4450002 -0.92799997 -0.41100001
7.474 -0.91299999 -0.412
7.474 -0.89600003 -0.412
7.4809999 -0.87900001 -0.412
7.5079999 -0.86400002 -0.414
7.5040002 -0.847 -0.41299999
7.5190001 -0.83099997 -0.414
7.533 -0.815 -0.41499999
7.5359998 -0.79799998 -0.41499999
7.5380001 -0.78200001 -0.41499999
7.5710001 -0.76800001 -0.41600001
7.5799999 -0.75199997 -0.417
7.592 -0.73699999 -0.417
7.6059999 -0.72100002 -0.41800001
7.6230001 -0.70599997 -0.419
7.6240001 -0.69 -0.419
7.6409998 -0.67500001 -0.419
7.6719999 -0.66100001 -0.421
7.6700001 -0.64399999 -0.421
7.6739998 -0.62900001 -0.421
7.6989999 -0.61500001 -0.42199999
7.7069998 -0.59899998 -0.42199999
7.7210002 -0.58399999 -0.42300001
7.73 -0.56900001 -0.42399999
7.7290001 -0.55299997 -0.42300001
7.75 -0.53899997 -0.42399999
7.7480001 -0.523 -0.42399999
7.7680001 -0.509 -0.42500001
7.7709999 -0.49399999 -0.42500001
7.7779999 -0.479 -0.426
7.7859998 -0.46399999 -0.426
7.8080001 -0.44999999 -0.42699999
7.823 -0.43599999 -0.428
7.8270001 -0.42199999 -0.428
7.8249998 -0.40700001 -0.428
7.855 -0.39300001 -0.42899999
7.8839998 -0.38 -0.43099999
7.8769999 -0.36500001 -0.43000001
7.8899999 -0.35100001 -0.43099999
7.914 -0.338 -0.43200001
7.9219999 -0.324 -0.433
7.9530001 -0.31099999 -0.43399999
7.974 -0.29699999 -0.435
7.9910002 -0.28400001 -0.43599999
8.0030003 -0.27000001 -0.43700001
8.0139999 -0.25600001 -0.43700001
8.0299997 -0.243 -0.43799999
8.0539999 -0.23 -0.43900001
8.0970001 -0.21699999 -0.442
8.1040001 -0.20299999 -0.442
8.2060003 -0.192 -0.447
7.5370002 0.079999998 -0.55900002
7.5910001 0.094999999 -0.56300002
7.579 0.109 -0.56199998
7.5770001 0.123 -0.56199998
7.5819998 0.138 -0.56300002
7.5819998 0.152 -0.56300002
7.5900002 0.167 -0.56400001
7.5929999 0.182 -0.56400001
7.5689998 0.197 -0.56199998
7.5780001 0.212 -0.56300002
7.5710001 0.227 -0.56300002
7.5739999 0.243 -0.56300002
7.5580001 0.25799999 -0.56199998
7.5580001 0.27399999 -0.56300002
7.5599999 0.28999999 -0.56300002
7.5440001 0.30500001 -0.56199998
7.5440001 0.32100001 -0.56199998
7.5430002 0.33700001 -0.56199998
7.5419998 0.354 -0.56300002
7.5500002 0.37099999 -0.56400001
7.54 0.38699999 -0.56300002
7.546 0.40400001 -0.56400001
7.5359998 0.421 -0.56300002
7.5380001 0.43799999 -0.56400001
7.5419998 0.456 -0.56400001
7.5349998 0.47299999 -0.56400001
7.54 0.491 -0.565
7.5380001 0.50800002 -0.565
7.5380001 0.52600002 -0.565
7.5300002 0.54299998 -0.565
7.5380001 0.56199998 -0.56599998
7.5339999 0.57999998 -0.56599998
7.5469999 0.59899998 -0.56699997
7.5450001 0.61799997 -0.56699997
7.5469999 0.63599998 -0.56800002
7.5609999 0.65600002 -0.56900001
7.5819998 0.67699999 -0.57099998
7.586 0.69700003 -0.57200003
7.5630002 0.71399999 -0.57099998
7.5679998 0.73299998 -0.57099998
7.5869999 0.755 -0.57300001
7.605 0.77600002 -0.57499999
7.6100001 0.796 -0.57599998
7.5869999 0.81400001 -0.574
7.5879998 0.83399999 -0.57499999
7.5939999 0.85500002 -0.57599998
7.6009998 0.87599999 -0.57700002
7.5900002 0.89499998 -0.57599998
7.6100001 0.91799998 -0.57800001
7.6209998 0.93900001 -0.57999998
7.6259999 0.96100003 -0.58099997
7.6090002 0.97899997 -0.57999998
7.6220002 1.002 -0.58099997
7.618 1.023 -0.58099997
7.6279998 1.045 -0.583
7.6329999 1.067 -0.583
7.6490002 1.091 -0.58499998
7.6539998 1.113 -0.58600003
7.6490002 1.1339999 -0.58600003
7.6599998 1.158 -0.588
7.684 1.183 -0.58999997
7.6669998 1.2029999 -0.58899999
7.6929998 1.229 -0.59200001
7.6999998 1.252 -0.59299999
7.717 1.278 -0.59500003
7.7059999 1.298 -0.59399998
7.7150002 1.323 -0.59600002
7.7049999 1.3430001 -0.59500003
7.7069998 1.367 -0.59600002
7.73 1.3940001 -0.59799999
7.7340002 1.418 -0.59899998
7.75 1.444 -0.60100001
7.7639999 1.47 -0.60299999
7.7600002 1.493 -0.60299999
7.7789998 1.52 -0.60500002
7.783 1.545 -0.60600001
7.7880001 1.569 -0.60699999
7.7950001 1.595 -0.60799998
7.7969999 1.619 -0.60900003
7.803 1.6440001 -0.61000001
7.8060002 1.67 -0.611
7.816 1.696 -0.61299998
7.8179998 1.721 -0.61299998
7.8179998 1.7460001 -0.61400002
7.8270001 1.772 -0.61500001
7.8340001 1.798 -0.61699998
7.862 1.83 -0.62
7.8610001 1.855 -0.62
7.8639998 1.881 -0.62099999
7.8540001 1.903 -0.62099999
7.8730001 1.933 -0.62300003
7.8800001 1.96 -0.625
7.8870001 1.988 -0.62599999
7.8860002 2.013 -0.62699997
7.9000001 2.043 -0.62800002
7.9060001 2.0699999 -0.63
7.914 2.098 -0.63099998
7.927 2.1270001 -0.63300002
7.927 2.1530001 -0.634
7.9250002 2.1789999 -0.634
7.928 2.2060001 -0.63499999
7.934 2.234 -0.63700002
7.9369998 2.2620001 -0.63800001
7.9460001 2.2909999 -0.639
7.948 2.3180001 -0.63999999
7.9580002 2.348 -0.64200002
7.9679999 2.378 -0.64300001
7.9780002 2.408 -0.64499998
7.9990001 2.441 -0.648
8.0059996 2.47 -0.64899999
7.9970002 2.4949999 -0.64899999
8.0010004 2.523 -0.64999998
8.007 2.553 -0.65200001
7.9990001 2.5769999 -0.65200001
8.0249996 2.6129999 -0.65499997
8.0170002 2.638 -0.65499997
8.0200005 2.6670001 -0.65600002
8.0319996 2.6989999 -0.65799999
8.0349998 2.7279999 -0.65899998
8.0570002 2.763 -0.662
8.0690002 2.796 -0.66399997
8.066 2.823 -0.66500002
8.0710001 2.8529999 -0.66600001
8.0810003 2.8840001 -0.66799998
8.0979996 2.9189999 -0.67000002
8.0950003 2.9460001 -0.671
8.1049995 2.9790001 -0.67299998
8.1049995 3.007 -0.67400002
8.1059999 3.036 -0.67500001
8.1359997 3.076 -0.67799997
8.1429996 3.108 -0.68000001
8.1470003 3.138 -0.68099999
8.1549997 3.171 -0.68300003
8.158 3.201 -0.68400002
8.165 3.233 -0.68599999
8.1829996 3.2690001 -0.68800002
8.198 3.3050001 -0.69
8.2130003 3.3399999 -0.69300002
8.2139997 3.3699999 -0.69400001
8.2060003 3.3959999 -0.69400001
8.2309999 3.4360001 -0.69700003
8.224 3.4630001 -0.69800001
8.2290001 3.4949999 -0.699
8.2620001 3.539 -0.70300001
8.2589998 3.5669999 -0.704
8.29 3.6099999 -0.708
8.3009996 3.6459999 -0.70999998
8.3310003 3.6889999 -0.71399999
8.3549995 3.73 -0.71700001
8.3439999 3.7550001 -0.71700001
8.3450003 3.786 -0.71799999
8.3669996 3.8269999 -0.72100002
8.3640003 3.8559999 -0.722
8.3789997 3.8929999 -0.72500002
8.3979998 3.9330001 -0.727
8.3850002 3.957 -0.727
8.401 3.9960001 -0.73000002
8.4130001 4.0320001 -0.73199999
8.4169998 4.0650001 -0.73400003
8.4359999 4.105 -0.73699999
8.441 4.1389999 -0.73799998
8.4460001 4.1719999 -0.74000001
8.4119997 4.1859999 -0.73799998
8.3260002 4.1739998 -0.73199999
8.3009996 4.1919999 -0.73100001
8.2840004 4.2129998 -0.73100001
8.2340002 4.2179999 -0.727
8.1859999 4.224 -0.72399998
8.0959997 4.2059999 -0.71799999
8.0360003 4.2049999 -0.713
8 4.2150002 -0.71100003
7.98 4.2340002 -0.71100003
7.9679999 4.257 -0.71100003
7.974 4.289 -0.713
7.9980001 4.3319998 -0.71600002
8.5570002 4.6659999 -0.76800001
8.5799999 4.71 -0.77100003
8.5790005 4.7399998 -0.77200001
8.6079998 4.7880001 -0.77600002
8.6219997 4.8270001 -0.77899998
8.6280003 4.862 -0.78100002
8.6429996 4.902 -0.78299999
8.6569996 4.941 -0.78600001
8.6590004 4.973 -0.78799999
8.6630001 5.007 -0.78899997
8.6850004 5.0510001 -0.79299998
8.7060003 5.0949998 -0.796
8.7119999 5.1300001 -0.79799998
8.7189999 5.1659999 -0.80000001
8.7080002 5.191 -0.80000001
8.7329998 5.237 -0.80400002
8.724 5.263 -0.80500001
8.7510004 5.3099999 -0.80900002
8.7480001 5.3400002 -0.81
8.7679996 5.3829999 -0.81300002
8.7550001 5.4070001 -0.81300002
8.7749996 5.4499998 -0.81699997
8.7860003 5.4879999 -0.81900001
8.8170004 5.539 -0.824
8.8260002 5.5749998 -0.82599998
8.8299999 5.6090002 -0.82800001
8.8330002 5.6420002 -0.82999998
8.842 5.678 -0.83200002
8.8570004 5.7179999 -0.83499998
8.868 5.756 -0.83700001
8.8789997 5.7940001 -0.83999997
8.8940001 5.835 -0.84299999
8.908 5.875 -0.84600002
8.9110003 5.9070001 -0.847
8.9320002 5.9520001 -0.85100001
8.9219999 5.9759998 -0.852
8.9309998 6.0110002 -0.85399997
8.9619999 6.0630002 -0.85900003
8.9390001 6.0770001 -0.85799998
8.9849997 6.138 -0.86400002
8.9980001 6.177 -0.86699998
9.0059996 6.2119999 -0.86900002
9.0209999 6.2519999 -0.87199998
9.0620003 6.3099999 -0.87800002
5.7719998 -3.3610001 -0.329
5.7820001 -3.3510001 -0.33000001
5.7859998 -3.3369999 -0.33000001
5.7930002 -3.325 -0.33000001
5.8000002 -3.313 -0.33000001
5.8200002 -3.3080001 -0.331
5.7989998 -3.28 -0.33000001
5.8150001 -3.273 -0.331
5.8249998 -3.2620001 -0.331
5.835 -3.2520001 -0.33199999
5.8470001 -3.2420001 -0.33199999
5.8670001 -3.237 -0.333
5.868 -3.221 -0.333
5.875 -3.2090001 -0.333
5.888 -3.1989999 -0.33399999
5.8889999 -3.1830001 -0.33399999
5.9039998 -3.175 -0.33500001
5.9089999 -3.161 -0.33500001
5.9159999 -3.148 -0.33500001
5.928 -3.138 -0.336
5.9349999 -3.125 -0.336
5.941 -3.1110001 -0.336
5.9499998 -3.099 -0.336
5.9679999 -3.092 -0.33700001
5.9689999 -3.076 -0.33700001
5.9949999 -3.072 -0.338
6.0019999 -3.059 -0.33899999
6.0079999 -3.0450001 -0.33899999
6.0149999 -3.0309999 -0.33899999
6.0279999 -3.0209999 -0.34
6.0300002 -3.0050001 -0.34
6.0489998 -2.997 -0.34099999
6.0419998 -2.977 -0.34
6.0500002 -2.9630001 -0.34
6.0749998 -2.9590001 -0.34200001
6.0760002 -2.9419999 -0.34200001
6.0689998 -2.921 -0.34099999
6.0890002 -2.914 -0.34200001
6.1020002 -2.9030001 -0.34299999
6.1079998 -2.888 -0.34299999
6.1209998 -2.8770001 -0.34299999
6.1129999 -2.8559999 -0.34299999
6.1230001 -2.8429999 -0.34299999
6.138 -2.8329999 -0.34400001
6.1479998 -2.8199999 -0.34400001
6.1560001 -2.806 -0.345
6.1690001 -2.7939999 -0.345
6.1690001 -2.777 -0.345
6.1680002 -2.7590001 -0.345
6.1999998 -2.7550001 -0.347
6.2080002 -2.7409999 -0.347
6.2090001 -2.724 -0.347
6.2270002 -2.714 -0.34799999
6.2340002 -2.7 -0.34799999
6.2529998 -2.6900001 -0.34900001
6.2600002 -2.675 -0.34900001
6.2659998 -2.6600001 -0.34900001
6.2849998 -2.6500001 -0.34999999
6.2880001 -2.6329999 -0.34999999
6.3109999 -2.625 -0.35100001
6.3169999 -2.6099999 -0.35100001
6.3309999 -2.5969999 -0.352
6.3499999 -2.5869999 -0.35299999
6.3520002 -2.5699999 -0.35299999
6.3569999 -2.553 -0.35299999
6.368 -2.54 -0.354
6.3850002 -2.5280001 -0.354
6.402 -2.517 -0.35499999
6.4180002 -2.5050001 -0.35600001
6.395 -2.4779999 -0.354
6.4070001 -2.464 -0.35499999
6.4359999 -2.457 -0.35600001
6.4590001 -2.447 -0.35699999
6.454 -2.427 -0.35699999
6.4710002 -2.415 -0.35800001
6.4710002 -2.3959999 -0.35800001
6.493 -2.3859999 -0.359
6.4889998 -2.3659999 -0.35800001
6.5180001 -2.358 -0.36000001
6.5209999 -2.3399999 -0.36000001
6.5209999 -2.322 -0.36000001
6.54 -2.3099999 -0.36000001
6.5510001 -2.2950001 -0.361
6.5539999 -2.2780001 -0.361
6.5560002 -2.2590001 -0.361
6.5500002 -2.2390001 -0.36000001
6.5890002 -2.233 -0.36199999
6.5869999 -2.214 -0.36199999
6.592 -2.197 -0.36199999
6.5999999 -2.181 -0.36199999
6.618 -2.168 -0.36300001
6.6230001 -2.151 -0.36300001
6.6290002 -2.1340001 -0.36399999
6.6399999 -2.118 -0.36399999
6.6539998 -2.1040001 -0.36500001
6.6729999 -2.0910001 -0.36500001
6.6929998 -2.0780001 -0.366
6.684 -2.056 -0.366
6.6999998 -2.0420001 -0.366
6.7010002 -2.023 -0.366
6.7140002 -2.0079999 -0.36700001
6.7160001 -1.99 -0.36700001
6.73 -1.975 -0.36700001
6.7220001 -1.9529999 -0.36700001
6.7329998 -1.937 -0.36700001
6.7540002 -1.924 -0.368
6.763 -1.9069999 -0.368
6.7620001 -1.888 -0.368
6.7779999 -1.873 -0.36899999
6.8010001 -1.86 -0.37
6.8060002 -1.842 -0.37
6.8130002 -1.824 -0.37
6.829 -1.809 -0.37099999
6.8379998 -1.7920001 -0.37099999
6.8449998 -1.775 -0.37200001
6.849 -1.756 -0.37200001
6.875 -1.744 -0.373
6.8730001 -1.723 -0.373
6.8990002 -1.71 -0.37400001
6.902 -1.692 -0.37400001
6.914 -1.675 -0.37400001
6.9369998 -1.661 -0.375
6.9299998 -1.64 -0.375
6.9349999 -1.6210001 -0.375
6.9660001 -1.609 -0.37599999
6.9850001 -1.5930001 -0.377
7.0029998 -1.577 -0.37799999
7.0009999 -1.557 -0.37799999
7.0120001 -1.54 -0.37799999
7.0300002 -1.524 -0.37900001
7.0469999 -1.507 -0.38
7.0700002 -1.492 -0.38100001
7.0619998 -1.471 -0.38
7.0939999 -1.457 -0.382
7.105 -1.439 -0.382
7.1240001 -1.423 -0.38299999
7.1269999 -1.404 -0.38299999
7.1459999 -1.387 -0.384
7.1589999 -1.369 -0.384
7.1669998 -1.351 -0.384
7.184 -1.3329999 -0.38499999
7.2010002 -1.316 -0.38600001
7.2129998 -1.298 -0.38600001
7.2360001 -1.2819999 -0.38699999
7.2410002 -1.262 -0.38699999
7.2649999 -1.2460001 -0.389
7.2719998 -1.226 -0.389
7.2789998 -1.207 -0.389
7.3049998 -1.191 -0.38999999
7.3210001 -1.173 -0.391
7.3379998 -1.155 -0.39199999
7.3569999 -1.137 -0.39199999
7.3740001 -1.119 -0.39300001
7.3720002 -1.098 -0.39300001
7.401 -1.081 -0.39399999
7.4159999 -1.062 -0.39500001
7.434 -1.044 -0.396
7.4450002 -1.024 -0.396
7.46 -1.005 -0.396
7.4780002 -0.98699999 -0.39700001
7.4749999 -0.96499997 -0.39700001
7.513 -0.949 -0.39899999
7.5209999 -0.92900002 -0.39899999
7.5289998 -0.90899998 -0.39899999
7.5560002 -0.88999999 -0.40000001
7.5710001 -0.87099999 -0.40099999
7.5819998 -0.85100001 -0.40099999
7.599 -0.83099997 -0.40200001
7.6290002 -0.81300002 -0.403
7.645 -0.79299998 -0.40400001
7.6690001 -0.77399999 -0.405
7.697 -0.755 -0.40599999
7.7080002 -0.73500001 -0.40700001
7.7140002 -0.71399999 -0.40700001
7.7490001 -0.69499999 -0.40900001
7.7709999 -0.67500001 -0.41
7.7750001 -0.65399998 -0.41
7.796 -0.63300002 -0.41
7.8099999 -0.61199999 -0.41100001
7.835 -0.59200001 -0.412
7.8579998 -0.57200003 -0.41299999
7.9000001 -0.55299997 -0.41499999
7.9050002 -0.53100002 -0.41499999
7.9169998 -0.50999999 -0.41600001
7.9359999 -0.48800001 -0.41600001
7.9549999 -0.46700001 -0.417
7.9959998 -0.447 -0.419
8.0179996 -0.426 -0.41999999
8.052 -0.405 -0.42199999
8.0909996 -0.384 -0.42300001
8.1339998 -0.36300001 -0.42500001
7.9580002 0.20900001 -0.56699997
7.9840002 0.221 -0.56900001
7.901 0.23 -0.56300002
7.8860002 0.242 -0.56199998
7.8470001 0.252 -0.55900002
7.8590002 0.26499999 -0.56
7.8010001 0.27500001 -0.55599999
7.8210001 0.28799999 -0.55800003
7.8130002 0.30000001 -0.55800003
7.7969999 0.31299999 -0.55699998
7.8000002 0.32600001 -0.55699998
7.789 0.338 -0.55699998
7.79 0.35100001 -0.55699998
7.7909999 0.36500001 -0.55699998
7.7750001 0.37799999 -0.55599999
7.8080001 0.39300001 -0.55900002
7.7930002 0.40599999 -0.55800003
7.7620001 0.419 -0.55599999
7.7849998 0.43399999 -0.55800003
7.7839999 0.44800001 -0.55800003
7.7709999 0.46200001 -0.55699998
7.7620001 0.47600001 -0.55699998
7.7810001 0.49200001 -0.55900002
7.7649999 0.50599998 -0.55800003
7.7649999 0.52200001 -0.55800003
7.7579999 0.53600001 -0.55800003
7.757 0.55199999 -0.55800003
7.7490001 0.56699997 -0.55800003
7.7589998 0.583 -0.55900002
7.7459998 0.59799999 -0.55800003
7.7449999 0.61400002 -0.55900002
7.757 0.63200003 -0.56
7.757 0.648 -0.56
7.75 0.66399997 -0.56
7.7540002 0.68099999 -0.56099999
7.7529998 0.69800001 -0.56099999
7.7509999 0.71499997 -0.56099999
7.7649999 0.73299998 -0.56199998
7.7810001 0.75199997 -0.56400001
7.7859998 0.76999998 -0.565
7.7800002 0.787 -0.565
7.776 0.80400002 -0.565
7.7680001 0.82200003 -0.565
7.7639999 0.83899999 -0.565
7.7849998 0.86000001 -0.56699997
7.7750001 0.87699997 -0.56599998
7.7729998 0.89499998 -0.56699997
7.7670002 0.91299999 -0.56699997
7.7670002 0.93199998 -0.56699997
7.7719998 0.95200002 -0.56800002
7.777 0.972 -0.56900001
7.7750001 0.99000001 -0.56900001
7.7779999 1.01 -0.56999999
7.7820001 1.03 -0.57099998
7.7789998 1.05 -0.57099998
7.7849998 1.0700001 -0.57200003
7.7940001 1.092 -0.57300001
7.7979999 1.112 -0.574
7.816 1.135 -0.57599998
7.8189998 1.156 -0.57599998
7.816 1.176 -0.57700002
7.8270001 1.199 -0.57800001
7.8280001 1.22 -0.579
7.8400002 1.243 -0.57999998
7.8449998 1.265 -0.58099997
7.8449998 1.286 -0.58200002
7.8499999 1.308 -0.583
7.8520002 1.33 -0.583
7.8569999 1.353 -0.58399999
7.8540001 1.374 -0.58499998
7.8629999 1.398 -0.58600003
7.8670001 1.421 -0.58700001
7.8769999 1.4450001 -0.588
7.8740001 1.467 -0.58899999
7.902 1.495 -0.59100002
7.8889999 1.515 -0.59100002
7.8909998 1.538 -0.59200001
7.8930001 1.562 -0.59299999
7.8940001 1.585 -0.59299999
7.9060001 1.6109999 -0.59500003
7.8990002 1.633 -0.59500003
7.9229999 1.6619999 -0.59799999
7.9130001 1.683 -0.59799999
7.9289999 1.711 -0.59899998
7.9400001 1.737 -0.60100001
7.9450002 1.763 -0.602
7.9369998 1.785 -0.602
7.9640002 1.816 -0.60500002
7.9699998 1.842 -0.60600001
7.973 1.867 -0.60699999
7.9749999 1.893 -0.60799998
7.9749999 1.918 -0.60900003
7.9809999 1.9450001 -0.61000001
7.9970002 1.974 -0.61199999
7.9959998 1.999 -0.61299998
8.0010004 2.026 -0.61400002
8.033 2.0599999 -0.61699998
8.0059996 2.079 -0.616
8.0179996 2.108 -0.61799997
8.0249996 2.1359999 -0.61900002
8.0360003 2.1659999 -0.62099999
8.0439997 2.194 -0.62199998
8.0360003 2.2190001 -0.62199998
8.0410004 2.247 -0.62400001
8.0369997 2.273 -0.62400001
8.0570002 2.3050001 -0.62599999
8.0550003 2.332 -0.62699997
8.0710001 2.3640001 -0.62900001
8.0950003 2.3989999 -0.63200003
8.1040001 2.4289999 -0.634
8.0869999 2.4519999 -0.63300002
8.0959997 2.483 -0.63499999
8.0939999 2.51 -0.63599998
8.1129999 2.5439999 -0.63800001
8.118 2.5739999 -0.639
8.1190004 2.6029999 -0.63999999
8.1330004 2.6359999 -0.64200002
8.1359997 2.6659999 -0.64399999
8.1479998 2.6989999 -0.64600003
8.1450005 2.727 -0.64600003
8.1560001 2.76 -0.648
8.184 2.799 -0.65100002
8.1859999 2.8299999 -0.653
8.1789999 2.8570001 -0.653
8.1949997 2.8929999 -0.65499997
8.2080002 2.927 -0.65700001
8.2080002 2.957 -0.65799999
8.2259998 2.994 -0.66100001
8.2390003 3.03 -0.66299999
8.2419996 3.062 -0.66399997
8.257 3.098 -0.667
8.2609997 3.1300001 -0.66799998
8.276 3.1670001 -0.67000002
8.2930002 3.2049999 -0.67299998
8.2740002 3.2290001 -0.67199999
8.302 3.2720001 -0.676
8.302 3.3039999 -0.67699999
8.323 3.3440001 -0.68000001
8.3450003 3.385 -0.68300003
8.3500004 3.4200001 -0.68400002
8.3570004 3.4549999 -0.68599999
8.3769999 3.4960001 -0.68900001
8.3780003 3.53 -0.69
8.3879995 3.5669999 -0.69199997
8.4099998 3.609 -0.69499999
8.4200001 3.6470001 -0.69700003
8.448 3.6930001 -0.70099998
8.4849997 3.743 -0.70499998
8.4639997 3.7679999 -0.704
8.4729996 3.806 -0.70700002
8.4899998 3.848 -0.70899999
8.4960003 3.885 -0.71100003
8.5010004 3.9219999 -0.713
8.5030003 3.9579999 -0.71399999
8.5059996 3.994 -0.71600002
8.5120001 4.0320001 -0.71799999
8.5279999 4.0749998 -0.72000003
8.552 4.1220002 -0.72399998
8.5459995 4.1550002 -0.72399998
8.5830002 4.2080002 -0.72899997
8.5869999 4.2459998 -0.73100001
8.5310001 4.2540002 -0.727
8.4519997 4.2509999 -0.722
8.3859997 4.2529998 -0.71700001
8.2810001 4.2350001 -0.70999998
8.2290001 4.244 -0.70700002
8.1929998 4.2600002 -0.70499998
8.118 4.256 -0.69999999
8.0430002 4.2519999 -0.69499999
7.9920001 4.2589998 -0.69199997
7.9530001 4.2729998 -0.69
7.9580002 4.3099999 -0.69099998
8.0139999 4.3759999 -0.69800001
8.6590004 4.7659998 -0.755
8.6800003 4.816 -0.759
8.7040005 4.868 -0.76200002
8.7049999 4.9070001 -0.764
8.7270002 4.9580002 -0.76700002
8.7449999 5.007 -0.76999998
8.7379999 5.0430002 -0.77100003
8.7469997 5.0869999 -0.77399999
8.7559996 5.132 -0.77600002
8.7720003 5.1810002 -0.77899998
8.7589998 5.2129998 -0.77999997
8.7679996 5.2589998 -0.78200001
8.7740002 5.302 -0.78399998
8.7790003 5.3460002 -0.78600001
8.7860003 5.3909998 -0.78899997
8.7910004 5.434 -0.79100001
8.8059998 5.4840002 -0.79400003
8.7840004 5.5110002 -0.79299998
8.7969999 5.5599999 -0.796
8.7980003 5.6020002 -0.79799998
8.8179998 5.6560001 -0.801
8.816 5.697 -0.80299997
8.8249998 5.744 -0.80500001
8.823 5.7849998 -0.80699998
8.8179998 5.823 -0.80800003
8.8310003 5.8740001 -0.81099999
8.8319998 5.9169998 -0.81300002
8.8369999 5.9619999 -0.815
8.8280001 5.9990001 -0.81599998
8.8290005 6.0419998 -0.81800002
8.8299999 6.086 -0.81999999
8.8190002 6.1209998 -0.82099998
8.823 6.1669998 -0.82300001
8.8059998 6.197 -0.82300001
8.8109999 6.244 -0.82599998
8.776 6.2620001 -0.824
8.7779999 6.3070002 -0.82599998
8.7360001 6.3200002 -0.824
5.5240002 -3.6670001 -0.30599999
5.5450001 -3.645 -0.30700001
5.5560002 -3.6170001 -0.30700001
5.5840001 -3.5999999 -0.30899999
5.5879998 -3.5680001 -0.30899999
5.6149998 -3.5510001 -0.31
5.6360002 -3.53 -0.31
5.6490002 -3.5039999 -0.31099999
5.6669998 -3.4809999 -0.31099999
5.6820002 -3.457 -0.31200001
5.684 -3.425 -0.31200001
5.6999998 -3.402 -0.31200001
5.7259998 -3.3840001 -0.31299999
5.7529998 -3.3670001 -0.31400001
5.7750001 -3.3469999 -0.315
5.7979999 -3.3280001 -0.31600001
5.8119998 -3.3039999 -0.317
5.8109999 -3.2709999 -0.31600001
5.8460002 -3.2590001 -0.31799999
5.8509998 -3.23 -0.31799999
5.8740001 -3.211 -0.31900001
5.8990002 -3.1930001 -0.31999999
5.8990002 -3.1619999 -0.31900001
5.9190001 -3.142 -0.31999999
5.9369998 -3.1210001 -0.32100001
5.9569998 -3.0999999 -0.322
5.9749999 -3.079 -0.322
5.9949999 -3.059 -0.32300001
5.9990001 -3.0309999 -0.32300001
6.026 -3.0139999 -0.324
6.0430002 -2.993 -0.32499999
6.0549998 -2.9690001 -0.32499999
6.0599999 -2.9419999 -0.32499999
6.072 -2.918 -0.32499999
6.0999999 -2.9030001 -0.32600001
6.1079998 -2.8770001 -0.32699999
6.1300001 -2.859 -0.32800001
6.1269999 -2.829 -0.32699999
6.1469998 -2.809 -0.32800001
6.165 -2.789 -0.32800001
6.1739998 -2.7650001 -0.329
6.198 -2.747 -0.33000001
6.2150002 -2.727 -0.33000001
6.224 -2.7030001 -0.33000001
6.256 -2.6889999 -0.33199999
6.2649999 -2.665 -0.33199999
6.3000002 -2.6530001 -0.33399999
6.3119998 -2.6300001 -0.33399999
6.3200002 -2.6059999 -0.33399999
6.3449998 -2.5899999 -0.33500001
6.3660002 -2.5710001 -0.336
6.375 -2.5480001 -0.336
6.3979998 -2.53 -0.33700001
6.414 -2.51 -0.338
6.4419999 -2.494 -0.33899999
6.4499998 -2.471 -0.33899999
6.4530001 -2.4460001 -0.33899999
6.4819999 -2.4300001 -0.34
6.4959998 -2.4100001 -0.34099999
6.5100002 -2.3889999 -0.34099999
6.533 -2.3710001 -0.34200001
6.5469999 -2.3510001 -0.34299999
6.5619998 -2.3299999 -0.34299999
6.5770001 -2.3099999 -0.34400001
6.592 -2.29 -0.345
6.5939999 -2.266 -0.34400001
6.619 -2.2490001 -0.345
6.6350002 -2.2290001 -0.34599999
6.6370001 -2.2049999 -0.34599999
6.6529999 -2.1860001 -0.347
6.658 -2.1630001 -0.347
6.684 -2.1470001 -0.34799999
6.7069998 -2.1289999 -0.34900001
6.7140002 -2.1070001 -0.34900001
6.7309999 -2.0880001 -0.34900001
6.7470002 -2.069 -0.34999999
6.7480001 -2.046 -0.34999999
6.7680001 -2.0280001 -0.35100001
6.7750001 -2.006 -0.35100001
6.7779999 -1.984 -0.35100001
6.8080001 -1.969 -0.352
6.8049998 -1.944 -0.352
6.835 -1.9299999 -0.35299999
6.8530002 -1.911 -0.354
6.8699999 -1.893 -0.35499999
6.8730001 -1.8710001 -0.354
6.8990002 -1.855 -0.35600001
6.8959999 -1.831 -0.35499999
6.9180002 -1.8150001 -0.35600001
6.9369998 -1.7970001 -0.35699999
6.9419999 -1.776 -0.35699999
6.9749999 -1.762 -0.359
6.9720001 -1.739 -0.35800001
6.9920001 -1.721 -0.359
7 -1.701 -0.359
7.0300002 -1.686 -0.361
7.0539999 -1.67 -0.36199999
7.059 -1.649 -0.36199999
7.073 -1.631 -0.36199999
7.098 -1.615 -0.36300001
7.1030002 -1.594 -0.36300001
7.1220002 -1.577 -0.36399999
7.1199999 -1.556 -0.36399999
7.1430001 -1.539 -0.36500001
7.1620002 -1.522 -0.366
7.1739998 -1.5039999 -0.366
7.1960001 -1.487 -0.36700001
7.2179999 -1.471 -0.368
7.2280002 -1.452 -0.368
7.2360001 -1.433 -0.36899999
7.256 -1.416 -0.36899999
7.2579999 -1.396 -0.36899999
7.2729998 -1.378 -0.37
7.2909999 -1.3609999 -0.37099999
7.3150001 -1.345 -0.37200001
7.3039999 -1.323 -0.37099999
7.3210001 -1.306 -0.37200001
7.3379998 -1.289 -0.37200001
7.3499999 -1.271 -0.373
7.3629999 -1.2539999 -0.373
7.3779998 -1.237 -0.37400001
7.3979998 -1.22 -0.375
7.3930001 -1.2 -0.375
7.4289999 -1.186 -0.37599999
7.4250002 -1.166 -0.37599999
7.4429998 -1.15 -0.377
7.4520001 -1.132 -0.377
7.4759998 -1.117 -0.37799999
7.487 -1.099 -0.37799999
7.5009999 -1.082 -0.37900001
7.52 -1.066 -0.38
7.5339999 -1.049 -0.38
7.539 -1.031 -0.38
7.5409999 -1.013 -0.38
7.5549998 -0.99699998 -0.38100001
7.5739999 -0.98100001 -0.382
7.5819998 -0.963 -0.382
7.592 -0.94599998 -0.382
7.6030002 -0.93000001 -0.38299999
7.6300001 -0.91500002 -0.384
7.6139998 -0.89499998 -0.38299999
7.6279998 -0.87900001 -0.384
7.645 -0.86299998 -0.384
7.6560001 -0.847 -0.38499999
7.6810002 -0.83200002 -0.38600001
7.6810002 -0.815 -0.38600001
7.6900001 -0.79799998 -0.38600001
7.698 -0.78200001 -0.38699999
7.7150002 -0.76599997 -0.38699999
7.7160001 -0.74900001 -0.38699999
7.7179999 -0.73299998 -0.38699999
7.7480001 -0.71799999 -0.389
7.7849998 -0.70499998 -0.38999999
7.7789998 -0.68800002 -0.38999999
7.7839999 -0.671 -0.38999999
7.7950001 -0.65600002 -0.391
7.816 -0.64099997 -0.391
7.8189998 -0.625 -0.39199999
7.8559999 -0.61199999 -0.39300001
7.8590002 -0.59600002 -0.39300001
7.8730001 -0.58099997 -0.39399999
7.8740001 -0.565 -0.39399999
7.8759999 -0.54900002 -0.39399999
7.8920002 -0.53399998 -0.39500001
7.9180002 -0.51999998 -0.396
7.9359999 -0.505 -0.39700001
7.9489999 -0.491 -0.39700001
7.9520001 -0.47499999 -0.39700001
7.9809999 -0.46200001 -0.39899999
7.9819999 -0.44600001 -0.39899999
7.9980001 -0.43200001 -0.39899999
8.0139999 -0.417 -0.40000001
8.0349998 -0.403 -0.40099999
8.0419998 -0.389 -0.40099999
8.0509996 -0.37400001 -0.40200001
8.1000004 -0.36199999 -0.40400001
8.059 -0.345 -0.40200001
8.0740004 -0.331 -0.403
8.1230001 -0.31799999 -0.405
8.1149998 -0.30399999 -0.40400001
8.1829996 -0.292 -0.40799999
8.2110004 -0.278 -0.40900001
8.2119999 -0.264 -0.40900001
8.2299995 -0.25 -0.41
8.2519999 -0.237 -0.41100001
7.8790002 0.085000001 -0.54000002
7.8969998 0.1 -0.542
7.9200001 0.115 -0.54299998
7.8940001 0.12899999 -0.542
7.8309999 0.14300001 -0.53799999
7.8379998 0.15800001 -0.53799999
7.8260002 0.17299999 -0.53799999
7.796 0.18799999 -0.53600001
7.7930002 0.20299999 -0.53600001
7.7950001 0.219 -0.53600001
7.783 0.234 -0.53500003
7.7859998 0.25 -0.53600001
7.7789998 0.266 -0.53600001
7.7670002 0.28200001 -0.53500003
7.783 0.29899999 -0.53600001
7.7659998 0.315 -0.53500003
7.7639999 0.331 -0.53500003
7.7490001 0.347 -0.53500003
7.7529998 0.36500001 -0.53500003
7.7420001 0.38100001 -0.53500003
7.7620001 0.39899999 -0.53600001
7.743 0.41600001 -0.53500003
7.7389998 0.433 -0.53500003
7.7589998 0.45199999 -0.537
7.7509999 0.46900001 -0.537
7.7420001 0.486 -0.53600001
7.7410002 0.50400001 -0.537
7.7179999 0.52100003 -0.53500003
7.7550001 0.542 -0.53799999
7.7329998 0.55800003 -0.537
7.7350001 0.57700002 -0.537
7.7069998 0.59399998 -0.53600001
7.7199998 0.61299998 -0.537
7.7309999 0.63300002 -0.53799999
7.7129998 0.65100002 -0.537
7.7280002 0.671 -0.53899997
7.737 0.69099998 -0.54000002
7.7379999 0.71100003 -0.54000002
7.7399998 0.73100001 -0.54100001
7.7340002 0.75 -0.54100001
7.7389998 0.76999998 -0.54100001
7.7509999 0.79100001 -0.54299998
7.77 0.81300002 -0.54400003
7.796 0.83600003 -0.546
7.7820001 0.85500002 -0.546
7.77 0.875 -0.54500002
7.7709999 0.89499998 -0.546
7.7719998 0.91600001 -0.546
7.7930002 0.94 -0.54799998
7.7810001 0.95899999 -0.54799998
7.7779999 0.98000002 -0.54799998
7.7909999 1.003 -0.55000001
7.7849998 1.024 -0.55000001
7.7810001 1.045 -0.55000001
7.7930002 1.068 -0.551
7.803 1.091 -0.55199999
7.8049998 1.113 -0.55299997
7.8119998 1.136 -0.55400002
7.8379998 1.1619999 -0.55599999
7.842 1.1849999 -0.55699998
7.8530002 1.209 -0.55800003
7.8520002 1.2309999 -0.55900002
7.875 1.258 -0.56099999
7.8720002 1.28 -0.56099999
7.8829999 1.3049999 -0.56199998
7.9029999 1.331 -0.56400001
7.9130001 1.3559999 -0.56599998
7.915 1.38 -0.56599998
7.927 1.405 -0.56800002
7.9219999 1.428 -0.56800002
7.9299998 1.4529999 -0.56900001
7.9320002 1.477 -0.56999999
7.9559999 1.506 -0.57200003
7.961 1.531 -0.57300001
7.9699998 1.557 -0.574
7.967 1.58 -0.57499999
7.9860001 1.609 -0.57700002
7.9980001 1.636 -0.57800001
8.007 1.6619999 -0.579
8.0170002 1.689 -0.58099997
8.0290003 1.717 -0.58200002
8.0369997 1.743 -0.58399999
8.052 1.772 -0.58499998
8.073 1.802 -0.58700001
8.0670004 1.826 -0.588
8.0900002 1.857 -0.58999997
8.1140003 1.888 -0.59200001
8.1110001 1.913 -0.59299999
8.1219997 1.942 -0.59399998
8.1309996 1.97 -0.59600002
8.1339998 1.997 -0.597
8.1420002 2.0250001 -0.59799999
8.1540003 2.0539999 -0.60000002
8.165 2.0840001 -0.60100001
8.184 2.115 -0.60299999
8.1800003 2.141 -0.60399997
8.1820002 2.168 -0.60500002
8.1929998 2.198 -0.60600001
8.1929998 2.2249999 -0.60699999
8.1999998 2.2539999 -0.60799998
8.2189999 2.2869999 -0.61000001
8.2320004 2.3180001 -0.61199999
8.2299995 2.3440001 -0.61299998
8.2399998 2.375 -0.61400002
8.2679996 2.411 -0.61699998
8.2740002 2.4400001 -0.61799997
8.2939997 2.474 -0.62099999
8.283 2.4990001 -0.62099999
8.2860003 2.5280001 -0.62199998
8.3179998 2.566 -0.625
8.3249998 2.596 -0.62599999
8.3319998 2.6270001 -0.62800002
8.3409996 2.658 -0.62900001
8.3400002 2.6860001 -0.63
8.3470001 2.717 -0.63099998
8.3479996 2.7460001 -0.63200003
8.3649998 2.7809999 -0.63499999
8.382 2.816 -0.63700002
8.3789997 2.8440001 -0.63700002
8.3879995 2.8759999 -0.639
8.4020004 2.9100001 -0.64099997
8.4209995 2.9460001 -0.64300001
8.4530001 2.9860001 -0.64700001
8.4560003 3.017 -0.648
8.46 3.0480001 -0.64899999
8.4750004 3.0840001 -0.65100002
8.4910002 3.119 -0.653
8.4870005 3.148 -0.65399998
8.4890003 3.178 -0.65499997
8.493 3.21 -0.65600002
8.507 3.2460001 -0.65799999
8.5170002 3.28 -0.66000003
8.5209999 3.3110001 -0.66100001
8.5410004 3.3499999 -0.66399997
8.5500002 3.3840001 -0.66600001
8.5710001 3.4230001 -0.66799998
8.566 3.451 -0.66900003
8.5819998 3.4890001 -0.671
8.5909996 3.523 -0.67299998
8.6169996 3.5650001 -0.676
8.6099997 3.5929999 -0.67699999
8.6289997 3.632 -0.67900002
8.6389999 3.668 -0.68099999
8.6459999 3.7019999 -0.68300003
8.6660004 3.7420001 -0.685
8.6789999 3.779 -0.68699998
8.6899996 3.8150001 -0.68900001
8.6949997 3.848 -0.69099998
8.71 3.8870001 -0.69300002
8.7080002 3.918 -0.69400001
8.7320004 3.96 -0.69700003
8.7670002 4.0079999 -0.70099998
8.7650003 4.039 -0.70200002
8.7580004 4.0679998 -0.70300001
8.7589998 4.1009998 -0.704
8.7620001 4.1339998 -0.70499998
8.783 4.1760001 -0.708
8.7770004 4.2049999 -0.70899999
8.7939997 4.2449999 -0.71100003
8.8009996 4.2810001 -0.713
8.8170004 4.3210001 -0.71600002
8.8210001 4.355 -0.71700001
8.8290005 4.3920002 -0.71899998
8.8290005 4.4239998 -0.72000003
8.8269997 4.4549999 -0.72100002
8.8210001 4.4850001 -0.722
8.4659996 4.335 -0.69400001
8.335 4.2989998 -0.68400002
8.2670002 4.2940001 -0.68000001
8.2200003 4.3000002 -0.67699999
8.1429996 4.289 -0.67199999
8.0620003 4.276 -0.66600001
7.9790001 4.2610002 -0.66100001
7.9320002 4.2649999 -0.65799999
7.9180002 4.2870002 -0.65799999
7.9380002 4.3260002 -0.66100001
8.0740004 4.4299998 -0.67299998
8.9289999 4.9310002 -0.74599999
8.9449997 4.973 -0.74900001
8.948 5.007 -0.75
8.967 5.0510001 -0.75300002
8.9829998 5.092 -0.75599998
8.9890003 5.1290002 -0.75800002
8.9860001 5.1589999 -0.759
8.9969997 5.198 -0.76099998
9.0039997 5.2350001 -0.76300001
8.9720001 5.2490001 -0.76099998
8.9960003 5.2950001 -0.76499999
8.9870005 5.322 -0.76499999
8.9949999 5.3600001 -0.76800001
9.0129995 5.4029999 -0.76999998
9.0190001 5.4390001 -0.77200001
9.0349998 5.48 -0.77499998
9.0439997 5.5180001 -0.77700001
9.0290003 5.5409999 -0.77700001
9.0170002 5.566 -0.778
9.0410004 5.6129999 -0.78100002
9.0600004 5.6570001 -0.78399998
9.0760002 5.6989999 -0.787
9.0790005 5.7329998 -0.78899997
9.0900002 5.7709999 -0.79100001
9.0939999 5.8060002 -0.79299998
9.1029997 5.8429999 -0.79500002
9.1160002 5.8839998 -0.79799998
9.132 5.9260001 -0.801
9.1420002 5.9640002 -0.80299997
9.1450005 5.9970002 -0.80500001
9.1230001 6.0139999 -0.80400002
9.1359997 6.0539999 -0.80699998
9.1389999 6.0869999 -0.80900002
9.1549997 6.1290002 -0.81199998
9.1700001 6.1700001 -0.81400001
9.1639996 6.197 -0.815
9.1689997 6.2309999 -0.81699997
9.1800003 6.2690001 -0.81999999
9.1929998 6.3080001 -0.82200003
9.1800003 6.3299999 -0.82300001
9.1859999 6.3649998 -0.82499999
9.2089996 6.4109998 -0.82800001
9.2159996 6.4460001 -0.83099997
9.2329998 6.487 -0.83399999
9.2309999 6.5149999 -0.83499998
9.2329998 6.546 -0.83700001
9.2639999 6.598 -0.84100002
9.257 6.6220002 -0.84200001
5.882 -3.428 -0.30599999
5.8889999 -3.415 -0.30599999
5.8969998 -3.404 -0.30599999
5.9050002 -3.392 -0.30700001
5.9120002 -3.3789999 -0.30700001
5.9200001 -3.368 -0.30700001
5.9260001 -3.355 -0.30700001
5.9390001 -3.346 -0.308
5.9530001 -3.3369999 -0.308
5.947 -3.3169999 -0.308
5.967 -3.3110001 -0.30899999
5.967 -3.2950001 -0.30899999
5.974 -3.2820001 -0.30899999
5.9749999 -3.266 -0.30899999
5.9949999 -3.26 -0.31
6.0079999 -3.25 -0.31
6.0019999 -3.23 -0.31
6.0029998 -3.214 -0.31
6.0100002 -3.201 -0.31
6.0289998 -3.1930001 -0.31099999
6.04 -3.1819999 -0.31099999
6.0310001 -3.161 -0.31099999
6.0489998 -3.1530001 -0.31200001
6.046 -3.1340001 -0.31099999
6.0580001 -3.1240001 -0.31200001
6.0549998 -3.105 -0.31099999
6.072 -3.0969999 -0.31200001
6.0679998 -3.0780001 -0.31200001
6.1069999 -3.0799999 -0.31400001
6.1030002 -3.0599999 -0.31299999
6.105 -3.0439999 -0.31299999
6.1199999 -3.0350001 -0.31400001
6.1350002 -3.0250001 -0.315
6.1529999 -3.016 -0.315
6.1620002 -3.003 -0.31600001
6.1799998 -2.994 -0.317
6.1859999 -2.9790001 -0.317
6.1799998 -2.9590001 -0.31600001
6.1999998 -2.951 -0.317
6.1989999 -2.9330001 -0.317
6.2129998 -2.9219999 -0.31799999
6.2259998 -2.9100001 -0.31799999
6.2319999 -2.895 -0.31799999
6.2329998 -2.878 -0.31799999
6.2490001 -2.868 -0.31900001
6.2610002 -2.855 -0.31900001
6.2740002 -2.8429999 -0.31999999
6.2789998 -2.8280001 -0.31999999
6.2859998 -2.813 -0.31999999
6.296 -2.8 -0.32100001
6.3130002 -2.789 -0.32100001
6.3200002 -2.7739999 -0.32100001
6.336 -2.763 -0.322
6.3590002 -2.7550001 -0.32300001
6.3590002 -2.737 -0.32300001
6.3769999 -2.727 -0.324
6.3860002 -2.7119999 -0.324
6.4070001 -2.7030001 -0.32499999
6.4050002 -2.684 -0.32499999
6.414 -2.6689999 -0.32499999
6.4260001 -2.6559999 -0.32600001
6.4299998 -2.6389999 -0.32600001
6.4520001 -2.6300001 -0.32699999
6.4499998 -2.6110001 -0.32600001
6.4689999 -2.5999999 -0.32699999
6.4720001 -2.5829999 -0.32699999
6.4889998 -2.5710001 -0.32800001
6.4959998 -2.5550001 -0.32800001
6.5019999 -2.539 -0.32800001
6.5219998 -2.5280001 -0.329
6.5279999 -2.5120001 -0.329
6.5409999 -2.4979999 -0.33000001
6.5500002 -2.483 -0.33000001
6.5469999 -2.4630001 -0.33000001
6.559 -2.4489999 -0.33000001
6.579 -2.438 -0.331
6.5929999 -2.424 -0.33199999
6.599 -2.4070001 -0.33199999
6.6030002 -2.3900001 -0.33199999
6.6069999 -2.372 -0.33199999
6.6269999 -2.3610001 -0.333
6.6290002 -2.342 -0.333
6.6300001 -2.3239999 -0.33199999
6.6609998 -2.316 -0.33399999
6.6500001 -2.293 -0.333
6.658 -2.277 -0.333
6.6849999 -2.267 -0.33500001
6.6810002 -2.2460001 -0.33399999
6.6900001 -2.2309999 -0.33500001
6.6929998 -2.2119999 -0.33500001
6.6989999 -2.1949999 -0.33500001
6.7150002 -2.181 -0.33500001
6.7270002 -2.1659999 -0.336
6.7259998 -2.1470001 -0.336
6.7350001 -2.1300001 -0.336
6.7470002 -2.115 -0.336
6.763 -2.0999999 -0.33700001
6.7740002 -2.085 -0.33700001
6.7740002 -2.0650001 -0.33700001
6.7870002 -2.05 -0.338
6.7969999 -2.033 -0.338
6.816 -2.02 -0.33899999
6.8299999 -2.0050001 -0.33899999
6.8410001 -1.988 -0.34
6.835 -1.967 -0.33899999
6.848 -1.951 -0.34
6.862 -1.936 -0.34
6.8610001 -1.916 -0.34
6.8870001 -1.904 -0.34099999
6.8979998 -1.887 -0.34099999
6.9089999 -1.87 -0.34200001
6.9219999 -1.854 -0.34200001
6.9289999 -1.836 -0.34299999
6.9380002 -1.819 -0.34299999
6.9419999 -1.8 -0.34299999
6.9819999 -1.791 -0.345
6.974 -1.7690001 -0.34400001
6.9829998 -1.751 -0.34400001
7.0180001 -1.74 -0.34599999
6.9980001 -1.715 -0.345
7.02 -1.701 -0.34599999
7.052 -1.689 -0.347
7.0609999 -1.671 -0.347
7.0749998 -1.654 -0.34799999
7.0879998 -1.637 -0.34799999
7.112 -1.622 -0.34900001
7.1090002 -1.601 -0.34900001
7.1339998 -1.587 -0.34999999
7.1459999 -1.569 -0.35100001
7.1479998 -1.549 -0.34999999
7.1539998 -1.53 -0.35100001
7.1789999 -1.515 -0.352
7.1950002 -1.498 -0.352
7.2080002 -1.4809999 -0.35299999
7.2210002 -1.4630001 -0.35299999
7.237 -1.446 -0.354
7.27 -1.432 -0.35499999
7.2729998 -1.4119999 -0.35499999
7.277 -1.392 -0.35499999
7.2950001 -1.375 -0.35600001
7.3200002 -1.359 -0.35699999
7.3299999 -1.34 -0.35699999
7.3369999 -1.3200001 -0.35699999
7.3460002 -1.301 -0.35800001
7.3670001 -1.284 -0.359
7.3860002 -1.266 -0.359
7.4039998 -1.249 -0.36000001
7.4190001 -1.23 -0.361
7.4260001 -1.21 -0.361
7.4439998 -1.192 -0.361
7.467 -1.175 -0.36199999
7.4920001 -1.1569999 -0.36300001
7.494 -1.137 -0.36300001
7.5120001 -1.118 -0.36399999
7.5339999 -1.1 -0.36500001
7.5549998 -1.082 -0.366
7.5630002 -1.062 -0.366
7.5710001 -1.041 -0.366
7.598 -1.024 -0.36700001
7.6160002 -1.005 -0.368
7.625 -0.98400003 -0.368
7.6490002 -0.96600002 -0.36899999
7.6560001 -0.94499999 -0.36899999
7.6830001 -0.92699999 -0.37
7.6950002 -0.90700001 -0.37099999
7.7309999 -0.889 -0.37200001
7.7259998 -0.86699998 -0.37200001
7.7350001 -0.84600002 -0.37200001
7.7670002 -0.82700002 -0.373
7.7870002 -0.80699998 -0.37400001
7.8200002 -0.78899997 -0.37599999
7.8299999 -0.76800001 -0.37599999
7.8470001 -0.74699998 -0.377
7.8769999 -0.72799999 -0.37799999
7.902 -0.708 -0.37900001
7.9299998 -0.68800002 -0.38
7.9390001 -0.667 -0.38
7.9439998 -0.64499998 -0.38
7.9850001 -0.62599999 -0.382
8.0120001 -0.60500002 -0.38299999
8.0240002 -0.583 -0.38299999
8.0410004 -0.56199998 -0.384
8.0780001 -0.542 -0.38600001
8.0930004 -0.51999998 -0.38600001
8.1049995 -0.498 -0.38600001
8.1370001 -0.477 -0.38800001
8.1680002 -0.456 -0.389
8.1870003 -0.43399999 -0.38999999
8.243 -0.414 -0.39199999
8.283 -0.39199999 -0.39399999
8.2690001 -0.368 -0.39300001
8.3540001 -0.34900001 -0.39700001
8.375 -0.32600001 -0.398
8.1009998 0.20299999 -0.53299999
8.0679998 0.213 -0.52999997
8.0349998 0.22400001 -0.528
8.0469999 0.236 -0.52899998
8.0240002 0.248 -0.528
7.9910002 0.259 -0.52600002
7.994 0.271 -0.52600002
7.9640002 0.28200001 -0.52499998
7.9910002 0.296 -0.52600002
7.9720001 0.308 -0.52499998
7.9780002 0.32100001 -0.52600002
7.9679999 0.33399999 -0.52600002
7.961 0.347 -0.52499998
7.948 0.36000001 -0.52499998
7.9380002 0.373 -0.52399999
7.9349999 0.38699999 -0.52399999
7.9380002 0.40099999 -0.52499998
7.9390001 0.41499999 -0.52499998
7.9390001 0.42899999 -0.52499998
7.9499998 0.44499999 -0.52600002
7.9349999 0.458 -0.52499998
7.934 0.47299999 -0.52600002
7.9239998 0.48800001 -0.52499998
7.9320002 0.50300002 -0.52600002
7.9450002 0.51899999 -0.52700001
7.9450002 0.53500003 -0.52700001
7.9429998 0.55000001 -0.52700001
7.9569998 0.56699997 -0.52899998
7.941 0.58200002 -0.528
7.9510002 0.59899998 -0.52899998
7.9450002 0.61500001 -0.52899998
7.9369998 0.63099998 -0.52899998
7.934 0.64700001 -0.52899998
7.9349999 0.66399997 -0.52899998
7.9359999 0.68099999 -0.52999997
7.9460001 0.699 -0.53100002
7.9520001 0.71700001 -0.53100002
7.9460001 0.73299998 -0.53100002
7.947 0.75099999 -0.53200001
7.941 0.76800001 -0.53200001
7.9559999 0.78799999 -0.53299999
7.9549999 0.80599999 -0.53299999
7.967 0.82499999 -0.53500003
7.9650002 0.84299999 -0.53500003
7.96 0.861 -0.53500003
7.9460001 0.87800002 -0.53399998
7.9660001 0.89899999 -0.53600001
7.9759998 0.91900003 -0.537
7.967 0.93800002 -0.537
7.98 0.958 -0.53799999
7.9770002 0.977 -0.53899997
7.9679999 0.99599999 -0.53899997
7.9660001 1.015 -0.53899997
7.9640002 1.035 -0.53899997
7.973 1.056 -0.54000002
7.9860001 1.0779999 -0.542
7.9889998 1.099 -0.542
7.9829998 1.118 -0.542
7.9829998 1.1390001 -0.54299998
7.9879999 1.16 -0.54400003
7.9949999 1.182 -0.54500002
8.0150003 1.206 -0.54699999
8.0120001 1.227 -0.54699999
8.0209999 1.25 -0.54799998
8.0319996 1.273 -0.54900002
8.0469999 1.2970001 -0.551
8.0450001 1.319 -0.551
8.0419998 1.34 -0.55199999
8.0649996 1.3660001 -0.55400002
8.0679998 1.3890001 -0.55500001
8.0690002 1.4119999 -0.55500001
8.0799999 1.436 -0.55699998
8.0799999 1.459 -0.55699998
8.085 1.483 -0.55800003
8.0880003 1.507 -0.55900002
8.1140003 1.535 -0.56099999
8.1129999 1.558 -0.56199998
8.1120005 1.581 -0.56199998
8.1239996 1.607 -0.56400001
8.1289997 1.632 -0.565
8.1350002 1.658 -0.56599998
8.1429996 1.683 -0.56699997
8.1499996 1.709 -0.56800002
8.1590004 1.7359999 -0.56999999
8.1809998 1.765 -0.57200003
8.1669998 1.7869999 -0.57099998
8.1759996 1.814 -0.57300001
8.1899996 1.842 -0.574
8.1940002 1.868 -0.57499999
8.2010002 1.895 -0.57700002
8.2180004 1.924 -0.579
8.2290001 1.9529999 -0.57999998
8.2489996 1.983 -0.58200002
8.243 2.0079999 -0.583
8.2550001 2.0369999 -0.58399999
8.2550001 2.063 -0.58499998
8.2639999 2.092 -0.58600003
8.3039999 2.1289999 -0.58999997
8.2910004 2.1530001 -0.58999997
8.2980003 2.181 -0.59100002
8.3039999 2.21 -0.59200001
8.3249998 2.243 -0.59500003
8.3190002 2.2690001 -0.59500003
8.323 2.2969999 -0.59600002
8.3479996 2.332 -0.59899998
8.3500004 2.3610001 -0.60000002
8.3789997 2.3970001 -0.60299999
8.3760004 2.424 -0.60299999
8.3839998 2.4549999 -0.60500002
8.3859997 2.484 -0.60600001
8.3940001 2.516 -0.60699999
8.4099998 2.549 -0.60900003
8.4139996 2.579 -0.61000001
8.4219999 2.6110001 -0.61199999
8.4259996 2.642 -0.61299998
8.4309998 2.6730001 -0.61400002
8.4540005 2.71 -0.61699998
8.4510002 2.7390001 -0.61799997
8.4499998 2.7679999 -0.61799997
8.4689999 2.8050001 -0.62099999
8.4860001 2.8410001 -0.62300003
8.4989996 2.8759999 -0.625
8.5129995 2.911 -0.62699997
8.5129995 2.9419999 -0.62800002
8.5360003 2.9809999 -0.63099998
8.5570002 3.0190001 -0.63300002
8.5670004 3.0539999 -0.63499999
8.5889997 3.0940001 -0.63700002
8.592 3.1259999 -0.639
8.6160002 3.1670001 -0.64200002
8.6090002 3.197 -0.64200002
8.6230001 3.234 -0.64399999
8.6260004 3.2679999 -0.64499998
8.6339998 3.303 -0.64700001
8.6549997 3.3440001 -0.64999998
8.6569996 3.378 -0.65100002
8.6759996 3.418 -0.65399998
8.6960001 3.46 -0.65600002
8.7040005 3.4960001 -0.65799999
8.71 3.5320001 -0.65899998
8.7320004 3.575 -0.662
8.7440004 3.6140001 -0.66399997
8.7550001 3.652 -0.66600001
8.7700005 3.6930001 -0.66900003
8.8039999 3.7420001 -0.67199999
8.8059998 3.7780001 -0.67400002
8.8009996 3.8110001 -0.67400002
8.823 3.855 -0.67699999
8.8380003 3.8970001 -0.68000001
8.8629999 3.944 -0.68300003
8.8990002 3.9960001 -0.68699998
8.9040003 4.0339999 -0.68800002
8.8800001 4.059 -0.68800002
8.882 4.0960002 -0.68900001
8.9090004 4.145 -0.69300002
8.9169998 4.1849999 -0.69400001
8.9090004 4.2179999 -0.69499999
8.934 4.2670002 -0.69800001
8.9580002 4.316 -0.70200002
8.9619999 4.355 -0.70300001
8.9659996 4.3940001 -0.70499998
8.9680004 4.4330001 -0.70599997
8.9689999 4.4710002 -0.708
8.9940004 4.5209999 -0.71100003
8.5080004 4.3130002 -0.67400002
8.3699999 4.2789998 -0.66399997
8.2349997 4.2449999 -0.65499997
8.1490002 4.2360001 -0.64899999
8.0380001 4.2119999 -0.64200002
7.9749999 4.2140002 -0.63800001
7.9549999 4.2379999 -0.63800001
8.0019999 4.2969999 -0.64200002
9.073 4.9120002 -0.73000002
9.0620003 4.9460001 -0.73100001
9.0740004 4.9920001 -0.73299998
9.1140003 5.0549998 -0.73799998
9.1429996 5.1110001 -0.741
9.1300001 5.145 -0.74199998
9.1020002 5.1690001 -0.741
9.1020002 5.21 -0.74299997
9.0930004 5.2449999 -0.74299997
9.1140003 5.2979999 -0.74699998
9.0880003 5.3239999 -0.74599999
9.1059999 5.3759999 -0.74900001
9.1009998 5.414 -0.75
9.1219997 5.4689999 -0.75400001
9.1339998 5.5180001 -0.75599998
9.1309996 5.5580001 -0.75700003
9.125 5.5960002 -0.759
9.1269999 5.6389999 -0.75999999
9.1429996 5.6919999 -0.76300001
9.1490002 5.7379999 -0.76499999
9.158 5.7859998 -0.76800001
9.1499996 5.8239999 -0.76899999
9.1470003 5.8649998 -0.76999998
9.1689997 5.9219999 -0.77399999
9.1719999 5.967 -0.77600002
9.1590004 6.0019999 -0.77600002
9.1590004 6.046 -0.778
9.1569996 6.0879998 -0.77899998
9.1590004 6.1329999 -0.78100002
9.158 6.177 -0.78299999
9.1420002 6.21 -0.78299999
9.1370001 6.25 -0.78500003
9.1400003 6.2969999 -0.787
9.1280003 6.3319998 -0.787
9.1330004 6.381 -0.78899997
9.1079998 6.408 -0.78899997
9.1059999 6.4510002 -0.79100001
9.0760002 6.474 -0.79000002
9.052 6.5009999 -0.78899997
9.026 6.527 -0.78899997
5.6149998 -3.7249999 -0.28299999
5.6300001 -3.6989999 -0.28299999
5.6609998 -3.6830001 -0.28400001
5.677 -3.658 -0.285
5.6859999 -3.6289999 -0.285
5.7140002 -3.612 -0.28600001
5.737 -3.5910001 -0.287
5.7519999 -3.566 -0.287
5.7649999 -3.54 -0.287
5.783 -3.516 -0.28799999
5.7940001 -3.4890001 -0.28799999
5.8130002 -3.467 -0.289
5.8280001 -3.4419999 -0.289
5.842 -3.4170001 -0.28999999
5.8559999 -3.3929999 -0.28999999
5.8730001 -3.369 -0.29100001
5.8979998 -3.3510001 -0.29100001
5.8990002 -3.319 -0.29100001
5.928 -3.303 -0.292
5.9239998 -3.2690001 -0.292
5.9390001 -3.2449999 -0.292
5.967 -3.2279999 -0.29300001
5.9710002 -3.1989999 -0.29300001
5.9970002 -3.1819999 -0.294
6.0219998 -3.1630001 -0.29499999
6.0359998 -3.1400001 -0.296
6.0510001 -3.1170001 -0.296
6.0780001 -3.0999999 -0.29699999
6.092 -3.076 -0.29699999
6.1160002 -3.0580001 -0.29800001
6.1279998 -3.0339999 -0.29899999
6.1259999 -3.0020001 -0.29800001
6.152 -2.9849999 -0.29899999
6.171 -2.9649999 -0.30000001
6.2020001 -2.95 -0.301
6.2020001 -2.9200001 -0.301
6.224 -2.901 -0.30199999
6.2290001 -2.875 -0.30199999
6.2399998 -2.8510001 -0.30199999
6.263 -2.832 -0.303
6.2820001 -2.812 -0.303
6.3010001 -2.7920001 -0.30399999
6.3280001 -2.7750001 -0.30500001
6.3379998 -2.7520001 -0.30500001
6.3610001 -2.733 -0.30599999
6.382 -2.714 -0.30700001
6.3930001 -2.691 -0.30700001
6.4190001 -2.674 -0.308
6.4299998 -2.651 -0.308
6.4439998 -2.6289999 -0.30899999
6.4590001 -2.608 -0.30899999
6.4829998 -2.5899999 -0.31
6.506 -2.572 -0.31099999
6.5149999 -2.5480001 -0.31099999
6.5380001 -2.53 -0.31200001
6.5580001 -2.5109999 -0.31299999
6.5650001 -2.487 -0.31299999
6.5700002 -2.4619999 -0.31299999
6.5869999 -2.4419999 -0.31299999
6.6079998 -2.424 -0.31400001
6.6290002 -2.405 -0.315
6.6360002 -2.382 -0.315
6.6599998 -2.3640001 -0.31600001
6.6620002 -2.339 -0.31600001
6.6760001 -2.319 -0.31600001
6.704 -2.303 -0.317
6.7059999 -2.2780001 -0.317
6.7189999 -2.257 -0.31799999
6.7410002 -2.2390001 -0.31900001
6.7550001 -2.2190001 -0.31900001
6.7729998 -2.1989999 -0.31999999
