# .PCD v0.7 - Point Cloud Data file format
VERSION 0.7
FIELDS x y z
SIZE 4 4 4
TYPE F F F
COUNT 1 1 1
WIDTH 1995
HEIGHT 1
VIEWPOINT 0 0 0 1 0 0 0
POINTS 1995
DATA ascii
11.039 6.5960002 1.133
11.015 6.6220002 1.133
10.985 6.6430001 1.131
10.98 6.6799998 1.132
10.969 6.7119999 1.133
10.962 6.7470002 1.133
10.994 6.8060002 1.138
10.585 -3.2939999 1.031
10.522 -3.244 1.025
10.491 -3.2030001 1.022
10.5 -3.175 1.022
10.533 -3.154 1.025
10.557 -3.1300001 1.028
10.577 -3.105 1.029
10.482 -3.0469999 1.02
10.423 -2.9990001 1.0140001
10.409 -2.964 1.012
10.426 -2.938 1.0140001
10.454 -2.9159999 1.016
10.534 -2.9070001 1.024
12.937 -0.45199999 1.2309999
12.85 -0.412 1.222
12.745 -0.37200001 1.212
12.71 -0.33399999 1.2079999
12.698 -0.29800001 1.207
12.696 -0.26100001 1.206
12.703 -0.22400001 1.207
12.727 -0.18799999 1.209
12.746 -0.152 1.21
12.839 -0.116 1.219
13.075 -0.079999998 1.2410001
10.975 0.127 1.0089999
10.96 0.13600001 1.007
10.954 0.146 1.006
10.972 0.156 1.007
10.945 0.16599999 1.0039999
10.946 0.177 1.0039999
10.93 0.18799999 1.002
10.916 0.199 1
10.927 0.20999999 1.001
10.907 0.222 0.99900001
10.926 0.234 1
10.902 0.24600001 0.99800003
10.893 0.259 0.99699998
10.89 0.271 0.99599999
10.896 0.285 0.99599999
10.89 0.29800001 0.99599999
10.893 0.31200001 0.99599999
10.918 0.32600001 0.99800003
10.918 0.34099999 0.99699998
10.9 0.35499999 0.99599999
10.894 0.36899999 0.995
10.887 0.384 0.99400002
10.893 0.39899999 0.99400002
10.907 0.41499999 0.99599999
10.978 0.43399999 1.002
12.194 0.5 1.113
12.132 0.51599997 1.107
12.138 0.53399998 1.107
12.149 0.55400002 1.108
12.166 0.57300001 1.11
12.195 0.59399998 1.112
12.26 0.61699998 1.118
13.232 0.824 1.207
13.188 0.84399998 1.2029999
13.145 0.86500001 1.199
13.107 0.88700002 1.196
13.041 0.90700001 1.1900001
13.005 0.92799997 1.187
12.998 0.95300001 1.186
12.975 0.97600001 1.184
12.983 1.002 1.1849999
13.014 1.029 1.188
13.062 1.059 1.193
13.093 1.0880001 1.196
13.099 1.115 1.196
13.1 1.142 1.197
13.109 1.169 1.198
13.134 1.199 1.2
13.188 1.2309999 1.206
13.167 1.257 1.204
13.247 1.293 1.211
13.298 1.327 1.216
13.198 1.346 1.2079999
22.931 2.339 2.099
22.875999 2.3840001 2.0940001
22.841 2.431 2.092
22.833 2.4809999 2.0910001
22.820999 2.5309999 2.0910001
22.832001 2.5840001 2.0929999
22.848 2.6389999 2.095
22.84 2.691 2.095
22.853001 2.7449999 2.0969999
22.863001 2.8 2.099
22.855 2.8540001 2.099
22.868 2.9100001 2.1010001
22.858 2.964 2.1010001
22.863001 3.02 2.102
22.862 3.076 2.1029999
22.847 3.1300001 2.102
22.865999 3.1889999 2.105
22.886 3.2490001 2.108
22.903 3.3099999 2.1099999
22.945 3.3740001 2.115
22.934999 3.431 2.115
22.91 3.4860001 2.1140001
22.910999 3.546 2.115
22.913 3.6059999 2.1170001
22.919001 3.6670001 2.118
22.924 3.7279999 2.1199999
22.934999 3.7909999 2.122
22.940001 3.8540001 2.1240001
22.938999 3.915 2.125
22.937 3.977 2.1259999
22.952 4.0419998 2.1289999
22.954 4.1059999 2.1300001
22.962 4.171 2.1329999
22.972 4.237 2.135
22.973 4.3010001 2.1359999
22.959999 4.3629999 2.1359999
22.989 4.434 2.141
22.972 4.4959998 2.1400001
22.988001 4.5650001 2.1429999
22.99 4.632 2.145
22.993999 4.6999998 2.1470001
22.993 4.7670002 2.1489999
23.011 4.8379998 2.152
23.032 4.9099998 2.155
23.046 4.9809999 2.158
23.09 5.0599999 2.164
23.165001 5.1459999 2.1730001
8.1730003 3.99 0.83499998
8.0459995 3.961 0.824
7.9829998 3.964 0.81800002
7.9390001 3.9749999 0.815
7.9070001 3.993 0.81300002
7.9000001 4.0229998 0.81400001
7.8909998 4.0510001 0.81400001
7.927 4.1040001 0.81900001
7.9980001 4.1750002 0.82800001
11.383 6.3400002 1.194
11.239 6.309 1.1799999
11.197 6.335 1.178
11.192 6.3829999 1.1799999
11.179 6.4250002 1.1799999
11.191 6.4819999 1.183
11.271 6.579 1.194
28.188999 19.639999 3.1210001
28.003 19.648001 3.1059999
27.912001 19.721001 3.102
27.747 19.740999 3.0899999
27.612 19.782 3.0810001
27.412001 19.774 3.0650001
10.534 -3.256 1.0369999
10.499 -3.2079999 1.033
10.497 -3.171 1.0319999
10.536 -3.1459999 1.036
10.552 -3.1140001 1.0369999
10.438 -3.0439999 1.025
10.407 -3 1.022
10.401 -2.9630001 1.021
10.454 -2.9430001 1.026
10.589 -2.9449999 1.039
22.429001 -3.1459999 2.177
22.348 -3.0799999 2.168
22.41 -3.0339999 2.174
22.426001 -2.9820001 2.175
22.447001 -2.931 2.177
13.033 -0.354 1.261
12.928 -0.329 1.251
12.842 -0.30599999 1.243
12.795 -0.28400001 1.238
12.759 -0.26199999 1.235
12.758 -0.241 1.235
12.764 -0.221 1.2359999
12.794 -0.20100001 1.239
12.83 -0.18099999 1.242
12.86 -0.161 1.245
12.908 -0.142 1.25
13.016 -0.123 1.26
10.821 0.171 1.022
10.835 0.19 1.023
10.843 0.20900001 1.024
10.855 0.229 1.025
10.858 0.249 1.025
10.861 0.26899999 1.025
10.857 0.289 1.025
10.844 0.30899999 1.023
10.847 0.33000001 1.023
10.853 0.35100001 1.024
10.885 0.373 1.027
10.97 0.398 1.035
12.119 0.463 1.143
12.106 0.48699999 1.142
12.102 0.51200002 1.141
12.128 0.53799999 1.1440001
12.168 0.565 1.147
12.216 0.59200001 1.152
12.362 0.625 1.166
13.178 0.92799997 1.243
13.105 0.95300001 1.2359999
13.101 0.98299998 1.2359999
13.091 1.013 1.235
13.129 1.0470001 1.239
13.305 1.092 1.256
22.985001 2.3369999 2.174
22.879999 2.3840001 2.164
22.834 2.437 2.1600001
22.813999 2.493 2.1589999
22.795 2.549 2.158
22.801001 2.609 2.1589999
22.811001 2.6689999 2.161
22.819 2.73 2.1619999
22.841 2.793 2.165
22.844 2.8529999 2.1659999
22.84 2.914 2.1659999
22.841999 2.9749999 2.1670001
22.841999 3.036 2.168
22.855 3.0999999 2.1700001
22.853001 3.1619999 2.171
22.861 3.2260001 2.1719999
22.879 3.2909999 2.175
22.875999 3.3540001 2.175
22.906 3.4219999 2.1789999
22.914 3.487 2.181
22.898001 3.549 2.1800001
22.898001 3.6129999 2.181
22.896 3.678 2.1819999
22.909 3.7449999 2.184
22.917 3.812 2.1860001
22.936001 3.881 2.1889999
22.929001 3.947 2.1889999
22.931 4.013 2.191
22.955 4.0840001 2.194
22.945 4.1500001 2.194
22.961 4.2199998 2.197
22.965 4.289 2.1989999
22.964001 4.3569999 2.2
22.983999 4.4289999 2.2030001
22.986 4.4980001 2.204
22.988001 4.5679998 2.2060001
22.993 4.638 2.2079999
23.016001 4.7119999 2.211
23.014999 4.7820001 2.2119999
23.021 4.8540001 2.214
23.059 4.9320002 2.2190001
23.079 5.0079999 2.223
23.118 5.0869999 2.2279999
23.257 5.1900001 2.243
8.1689997 4.0770001 0.852
7.9970002 4.0209999 0.83499998
7.9390001 4.0209999 0.82999998
7.914 4.0370002 0.829
7.908 4.0630002 0.829
7.9439998 4.1110001 0.83399999
8.1269999 4.2350001 0.85500002
10.553 -3.2850001 1.075
10.501 -3.2390001 1.0700001
10.492 -3.2049999 1.069
10.5 -3.1760001 1.069
10.507 -3.1470001 1.0700001
10.54 -3.1259999 1.073
10.551 -3.099 1.074
10.472 -3.0450001 1.0650001
10.4 -2.993 1.058
10.404 -2.964 1.058
10.415 -2.9360001 1.059
10.421 -2.9070001 1.059
10.506 -2.9000001 1.068
10.779 -2.944 1.095
22.482 -3.1900001 2.26
22.246 -3.092 2.2349999
22.313 -3.036 2.2420001
22.356001 -2.977 2.2449999
13.035 -0.41600001 1.296
12.924 -0.37599999 1.285
12.853 -0.336 1.278
12.831 -0.29899999 1.275
12.855 -0.26199999 1.277
12.915 -0.226 1.283
12.977 -0.19 1.289
13.04 -0.153 1.294
10.978 0.12899999 1.061
10.956 0.138 1.058
10.97 0.148 1.059
10.967 0.15800001 1.058
10.964 0.168 1.058
10.961 0.17900001 1.057
10.941 0.19 1.0549999
10.926 0.20100001 1.053
10.94 0.212 1.054
10.926 0.22400001 1.052
10.904 0.236 1.05
10.913 0.248 1.05
10.909 0.26100001 1.049
10.913 0.27399999 1.049
10.899 0.28600001 1.048
10.897 0.30000001 1.0470001
10.899 0.31299999 1.0470001
10.883 0.32699999 1.046
10.89 0.34099999 1.046
10.857 0.35499999 1.043
10.847 0.36899999 1.0420001
10.855 0.384 1.0420001
10.867 0.40000001 1.043
10.947 0.41800001 1.051
12.17 0.48300001 1.168
12.129 0.49900001 1.164
12.107 0.51599997 1.1619999
12.118 0.53500003 1.1619999
12.135 0.55500001 1.164
12.172 0.57499999 1.1670001
12.192 0.59600002 1.169
12.264 0.61900002 1.176
22.926001 1.9069999 2.2019999
22.833 1.946 2.1930001
22.802 1.989 2.191
22.799 2.036 2.191
22.822001 2.086 2.194
22.823 2.1340001 2.194
22.812 2.181 2.194
22.809999 2.23 2.194
22.796 2.277 2.1930001
22.801001 2.3280001 2.194
22.813 2.3789999 2.1960001
22.805 2.4289999 2.1960001
22.833 2.483 2.1989999
22.823 2.533 2.1989999
22.83 2.586 2.201
22.837999 2.6389999 2.2019999
22.844999 2.6930001 2.204
22.848 2.747 2.2049999
22.844999 2.8 2.2049999
22.861 2.8559999 2.2079999
22.870001 2.9119999 2.21
22.874001 2.9679999 2.211
22.868 3.0220001 2.211
22.871 3.079 2.2130001
22.872999 3.135 2.214
22.877001 3.1930001 2.2149999
22.896 3.253 2.2179999
22.902 3.3110001 2.22
22.912001 3.3710001 2.2219999
22.915001 3.4300001 2.223
22.909 3.4879999 2.224
22.912001 3.5469999 2.2249999
22.907 3.6059999 2.2260001
22.923 3.6689999 2.2290001
22.947001 3.734 2.2320001
22.93 3.7920001 2.2320001
22.961 3.859 2.2360001
22.940001 3.9170001 2.2360001
22.966999 3.984 2.24
22.971001 4.0469999 2.2409999
22.972 4.1100001 2.243
22.955999 4.171 2.243
22.988001 4.2410002 2.247
22.976999 4.303 2.2479999
23.003 4.3730001 2.2520001
22.999001 4.4369998 2.253
23.000999 4.5029998 2.2550001
23.007 4.5700002 2.257
23.033001 4.6420002 2.2609999
23.052 4.7129998 2.2639999
23.056 4.7810001 2.267
23.075001 4.8520002 2.27
23.077 4.921 2.2720001
23.096001 4.994 2.276
23.117001 5.0669999 2.28
23.174999 5.1490002 2.2869999
23.332001 5.2550001 2.3039999
8.3000002 4.1220002 0.89600003
8.0209999 4.0170002 0.86699998
7.9429998 4.0120001 0.86000001
7.9219999 4.0339999 0.85900003
7.9169998 4.066 0.86000001
7.9879999 4.1360002 0.86900002
27.785999 19.774 3.2590001
27.618999 19.792 3.2460001
10.529 -3.2539999 1.0829999
10.489 -3.2049999 1.0779999
10.508 -3.174 1.08
10.54 -3.1470001 1.0829999
10.527 -3.1070001 1.081
10.456 -3.05 1.073
10.411 -3.0009999 1.068
10.406 -2.964 1.067
10.427 -2.9349999 1.069
10.52 -2.9260001 1.0779999
22.291 -3.1270001 2.26
22.235001 -3.0639999 2.2539999
22.263 -3.0139999 2.257
22.302999 -2.9649999 2.26
22.396 -2.924 2.2690001
22.610001 -1.842 2.2869999
22.653999 -1.798 2.2909999
22.636999 -1.751 2.289
22.665001 -1.707 2.2920001
13.115 -0.28999999 1.326
13.065 -0.26800001 1.321
13.102 -0.24699999 1.325
13.153 -0.206 1.33
13.124 -0.185 1.327
10.809 0.17200001 1.072
10.827 0.191 1.073
10.823 0.20999999 1.073
10.829 0.23 1.073
10.821 0.249 1.072
10.805 0.26899999 1.071
10.813 0.289 1.071
10.813 0.31 1.071
10.827 0.331 1.072
10.866 0.35299999 1.076
10.95 0.377 1.084
12.097 0.44 1.198
12.084 0.46399999 1.197
12.083 0.48800001 1.196
12.102 0.51300001 1.198
12.135 0.53899997 1.201
12.158 0.56599998 1.204
12.238 0.59500003 1.212
12.507 0.634 1.238
22.826 1.9859999 2.2639999
22.789 2.0369999 2.26
22.783001 2.092 2.26
22.771999 2.1470001 2.26
22.783001 2.204 2.2609999
22.785 2.2609999 2.2620001
22.783001 2.3180001 2.2620001
22.771999 2.3740001 2.2620001
22.783001 2.4330001 2.2639999
22.802999 2.494 2.266
22.805 2.552 2.267
22.802999 2.6110001 2.267
22.813999 2.6719999 2.2690001
22.83 2.733 2.2720001
22.832001 2.793 2.273
22.846001 2.855 2.2750001
22.844 2.9159999 2.2750001
22.851 2.9779999 2.277
22.843 3.0380001 2.277
22.85 3.1010001 2.2780001
22.858999 3.165 2.28
22.853001 3.2260001 2.2809999
22.874001 3.2920001 2.2839999
22.875 3.355 2.2850001
22.906 3.424 2.289
22.896999 3.4860001 2.289
22.912001 3.553 2.2909999
22.908001 3.6170001 2.2920001
22.931999 3.6860001 2.2950001
22.940001 3.7520001 2.2969999
22.921 3.8150001 2.296
22.954 3.8859999 2.3010001
22.945 3.951 2.3010001
22.969 4.0219998 2.3050001
22.962 4.0869999 2.3050001
22.964001 4.1550002 2.3069999
22.972 4.224 2.309
22.99 4.2950001 2.312
23.009001 4.3670001 2.3150001
23.011999 4.4359999 2.3169999
23.025999 4.5079999 2.319
23.035 4.579 2.322
23.054001 4.652 2.325
23.065001 4.724 2.3280001
23.082001 4.7979999 2.3310001
23.103001 4.8720002 2.3340001
23.125 4.948 2.3380001
23.153 5.0250001 2.342
23.191 5.105 2.348
23.326 5.2069998 2.3629999
8.066 4.0560002 0.88599998
7.967 4.0359998 0.87599999
7.9289999 4.046 0.87300003
7.9229999 4.0710001 0.87400001
7.9359999 4.1069999 0.87599999
7.994 4.1669998 0.884
8.125 4.2649999 0.89999998
10.727 -3.3729999 1.141
10.536 -3.2820001 1.1210001
10.493 -3.237 1.1160001
10.476 -3.201 1.114
10.488 -3.174 1.115
10.504 -3.148 1.1160001
10.521 -3.122 1.118
10.515 -3.089 1.117
10.449 -3.039 1.11
10.394 -2.9920001 1.104
10.396 -2.9619999 1.104
10.411 -2.9360001 1.105
10.438 -2.9130001 1.108
10.479 -2.8929999 1.112
10.661 -2.9119999 1.131
22.330999 -3.1670001 2.342
22.254 -3.092 2.3340001
22.249001 -3.026 2.3329999
22.315001 -2.971 2.339
22.554001 -2.6099999 2.3599999
22.507 -2.539 2.355
22.517 -2.4749999 2.355
22.541 -2.4130001 2.3570001
22.580999 -2.3510001 2.3610001
22.618 -2.29 2.3640001
22.573 -2.22 2.358
22.598 -2.1570001 2.3599999
22.6 -2.026 2.359
22.530001 -1.955 2.3510001
22.546 -1.891 2.352
13.206 -0.26800001 1.369
13.066 -0.227 1.354
10.952 0.13 1.11
10.959 0.14 1.11
10.951 0.15000001 1.109
10.933 0.15899999 1.107
10.936 0.17 1.1059999
10.93 0.18000001 1.105
10.914 0.191 1.103
10.924 0.20200001 1.104
10.906 0.214 1.102
10.888 0.22499999 1.1
10.888 0.237 1.099
10.883 0.249 1.098
10.868 0.26100001 1.097
10.835 0.273 1.0930001
10.833 0.28600001 1.092
10.809 0.29899999 1.09
10.805 0.31200001 1.089
10.805 0.32600001 1.089
10.788 0.34 1.087
10.824 0.35499999 1.09
10.829 0.37 1.091
10.887 0.38699999 1.096
10.998 0.40599999 1.107
12.138 0.46599999 1.222
12.12 0.48300001 1.22
12.117 0.5 1.22
12.107 0.51800001 1.2180001
12.114 0.537 1.219
12.121 0.55500001 1.22
12.184 0.57700002 1.226
12.253 0.60000002 1.233
12.398 0.62699997 1.247
22.898001 1.9529999 2.3080001
22.858 1.9960001 2.3039999
22.847 2.0420001 2.303
22.829 2.0880001 2.302
22.83 2.1359999 2.303
22.813 2.1830001 2.302
22.827 2.233 2.3039999
22.822001 2.2820001 2.3039999
22.826 2.332 2.3050001
22.837999 2.3829999 2.3069999
22.834999 2.434 2.3069999
22.851999 2.487 2.3099999
22.858 2.539 2.3110001
22.886 2.5940001 2.3150001
22.886 2.6470001 2.3150001
22.886 2.7 2.316
22.881001 2.7520001 2.3169999
22.9 2.8080001 2.3199999
22.931 2.8670001 2.3239999
22.938999 2.9230001 2.325
22.952999 2.98 2.3280001
22.952 3.0350001 2.329
22.950001 3.0910001 2.3299999
22.959 3.1489999 2.332
22.966 3.207 2.3329999
22.952999 3.2620001 2.3329999
22.966 3.322 2.336
22.973 3.381 2.3380001
22.993999 3.4430001 2.3410001
22.976 3.4990001 2.3399999
22.969 3.5580001 2.3410001
22.981001 3.6199999 2.3429999
22.992001 3.6819999 2.346
23.009001 3.7449999 2.349
23.023001 3.809 2.352
23.027 3.8710001 2.3529999
23.024 3.9330001 2.355
23.034 3.997 2.3570001
23.046 4.0619998 2.3599999
23.032 4.1230001 2.3599999
23.041 4.1880002 2.362
23.054001 4.2540002 2.365
23.072001 4.322 2.369
23.077999 4.388 2.3710001
23.1 4.4580002 2.375
23.09 4.5219998 2.375
23.113001 4.5929999 2.3789999
23.118 4.6609998 2.382
23.104 4.7249999 2.382
23.115 4.7940001 2.385
23.113001 4.862 2.3870001
23.125999 4.9330001 2.3900001
23.153999 5.007 2.3940001
23.188999 5.0840001 2.4000001
23.316999 5.1820002 2.415
8.1829996 4.0650001 0.92799997
8.0220003 4.0180001 0.91100001
7.9450002 4.013 0.90399998
7.928 4.0380001 0.903
7.9330001 4.0749998 0.90499997
7.9520001 4.119 0.90899998
8.0310001 4.1939998 0.91900003
33.030998 18.697001 3.845
32.937 18.791 3.8410001
12.438 -8.1569996 1.395
12.534 -8.1420002 1.405
12.586 -8.0979996 1.409
12.674 -8.0780001 1.418
12.759 -8.0539999 1.426
12.83 -8.0220003 1.433
12.957 -8.0249996 1.446
13.091 -8.0299997 1.459
10.709 -3.348 1.149
10.511 -3.2490001 1.127
10.473 -3.2 1.123
10.489 -3.168 1.124
10.501 -3.135 1.125
10.493 -3.0969999 1.124
10.42 -3.039 1.115
10.398 -2.997 1.113
10.393 -2.961 1.112
10.425 -2.9349999 1.115
10.5 -2.921 1.122
22.389 -3.1949999 2.3670001
22.346001 -3.1340001 2.3629999
22.295 -3.072 2.3570001
22.264999 -3.0139999 2.3529999
22.282 -2.9619999 2.355
22.362 -2.9189999 2.3629999
22.445999 -2.8759999 2.372
22.497999 -2.516 2.375
22.483999 -2.464 2.3729999
22.488001 -2.414 2.3740001
22.525999 -2.3670001 2.3770001
22.532 -2.3180001 2.378
22.528 -2.2679999 2.3770001
22.591999 -2.2249999 2.3840001
22.628 -1.89 2.3859999
22.6 -1.84 2.3829999
22.603001 -1.794 2.3840001
22.603001 -1.747 2.3829999
22.694 -1.7079999 2.3929999
10.765 0.17299999 1.118
10.771 0.192 1.119
10.756 0.211 1.117
10.74 0.23 1.115
10.757 0.25 1.117
10.75 0.26899999 1.1160001
10.776 0.28999999 1.118
10.78 0.31 1.119
10.834 0.33199999 1.124
10.904 0.35499999 1.131
11.119 0.384 1.153
12.08 0.44100001 1.253
12.066 0.46399999 1.252
12.077 0.48899999 1.253
12.083 0.514 1.253
12.111 0.54000002 1.256
12.155 0.56699997 1.261
12.262 0.597 1.272
12.383 0.62900001 1.284
12.536 0.66399997 1.3
23.048 2.007 2.395
22.906 2.05 2.381
22.875999 2.1029999 2.378
22.837999 2.1559999 2.375
22.851999 2.2130001 2.3759999
22.83 2.2679999 2.375
22.826 2.325 2.375
22.834 2.3829999 2.3759999
22.816999 2.4389999 2.375
22.827999 2.4979999 2.3770001
22.847 2.559 2.3800001
22.885 2.622 2.3840001
22.906 2.684 2.3870001
22.877001 2.7409999 2.385
22.84 2.796 2.382
22.844 2.8570001 2.3829999
22.985001 2.9360001 2.3989999
23.091999 3.0739999 2.4119999
23.134001 3.142 2.4170001
23.094 3.1989999 2.414
23.106001 3.2639999 2.4159999
23.108999 3.3280001 2.4170001
23.198999 3.405 2.428
23.143 3.461 2.4230001
23.098 3.5190001 2.4189999
23.15 3.592 2.4260001
23.149 3.6570001 2.427
23.172001 3.7260001 2.431
23.24 3.803 2.4389999
23.254 3.872 2.4419999
23.223 3.9330001 2.4389999
23.169001 3.9909999 2.4349999
23.25 4.073 2.4449999
23.285999 4.1469998 2.45
23.337 4.5700002 2.464
23.327 4.638 2.464
23.187 4.6799998 2.451
23.121 4.737 2.4449999
23.110001 4.8049998 2.4460001
23.166 4.8870001 2.4530001
23.162001 4.9569998 2.454
23.224001 5.0419998 2.4630001
23.424999 5.158 2.4849999
8.1169996 4.053 0.93400002
8.0120001 4.0300002 0.92299998
7.9629998 4.0349998 0.91900003
7.9299998 4.0469999 0.91600001
7.9190001 4.0700002 0.91600001
7.9239998 4.1020002 0.91799998
7.9369998 4.138 0.921
7.9809999 4.1900001 0.92699999
12.762 -7.651 1.442
12.803 -7.638 1.447
12.835 -7.6199999 1.45
12.882 -7.6100001 1.455
12.938 -7.605 1.461
12.993 -7.599 1.467
13.121 -7.6350002 1.482
15.071 -7.0229998 1.6900001
15.093 -6.9879999 1.692
15.073 -6.934 1.689
15.063 -6.8839998 1.688
15.079 -6.8470001 1.689
15.185 -6.8499999 1.701
10.617 -3.339 1.177
10.497 -3.2709999 1.164
10.476 -3.233 1.161
10.462 -3.198 1.159
10.472 -3.1700001 1.16
10.485 -3.1429999 1.161
10.486 -3.112 1.161
10.465 -3.075 1.158
10.408 -3.0280001 1.152
10.392 -2.993 1.15
10.398 -2.964 1.15
10.411 -2.937 1.151
10.436 -2.9130001 1.154
10.488 -2.8970001 1.159
10.633 -2.9059999 1.175
22.382999 -3.174 2.4460001
22.326 -3.1010001 2.4389999
22.309999 -3.0339999 2.437
22.35 -2.974 2.441
22.364 -2.911 2.4419999
22.495001 -2.602 2.4530001
22.459 -2.5320001 2.448
22.466 -2.4679999 2.448
22.507999 -2.4070001 2.4519999
22.542 -2.346 2.4549999
22.572001 -2.283 2.4579999
10.939 0.132 1.16
10.94 0.141 1.16
10.943 0.15099999 1.16
10.931 0.161 1.158
10.924 0.171 1.1569999
10.931 0.182 1.1569999
10.919 0.193 1.155
10.904 0.204 1.153
10.891 0.215 1.152
10.876 0.226 1.15
10.869 0.23800001 1.149
10.846 0.25 1.146
10.836 0.26199999 1.1440001
10.819 0.27500001 1.142
10.812 0.287 1.141
10.806 0.30000001 1.14
10.785 0.31299999 1.138
10.793 0.32699999 1.138
10.805 0.34200001 1.14
10.819 0.35699999 1.141
10.86 0.373 1.145
10.899 0.389 1.149
10.982 0.40700001 1.1569999
12.168 0.46799999 1.2819999
12.118 0.484 1.277
12.116 0.50199997 1.277
12.109 0.51999998 1.276
12.115 0.53799999 1.276
12.105 0.55599999 1.275
12.147 0.57700002 1.279
12.206 0.59899998 1.286
12.285 0.62300003 1.294
12.329 0.64499998 1.298
12.354 0.667 1.301
12.345 0.68699998 1.3
12.444 0.71399999 1.311
23.205999 2.0769999 2.45
23.097 2.115 2.4389999
23.082001 2.1619999 2.438
23.02 2.2049999 2.4319999
22.997 2.2520001 2.4300001
22.937 2.2950001 2.424
22.902 2.342 2.421
22.896999 2.392 2.421
22.896999 2.4419999 2.4219999
22.99 2.5039999 2.4330001
22.900999 2.6500001 2.4260001
22.787001 2.6900001 2.415
22.742001 2.737 2.411
22.809999 2.799 2.4189999
23.197001 4.678 2.503
23.150999 4.7360001 2.5
23.132 4.7989998 2.4990001
23.153 4.8720002 2.5039999
23.172001 4.9439998 2.5079999
23.263 5.0320001 2.52
23.358 5.1220002 2.5320001
8.0799999 4.0139999 0.95999998
7.994 4.0050001 0.95099998
7.9489999 4.0159998 0.94700003
7.9320002 4.0409999 0.94700003
7.9159999 4.0669999 0.94599998
7.9390001 4.1129999 0.95099998
7.9629998 4.1589999 0.95499998
8.2290001 4.3330002 0.98900002
12.346 -8.0959997 1.442
12.404 -8.0570002 1.448
12.466 -8.0209999 1.454
12.523 -7.9809999 1.459
12.605 -7.9569998 1.467
12.7 -7.9400001 1.477
12.8 -7.927 1.487
12.882 -7.902 1.4960001
12.949 -7.8670001 1.502
13.038 -7.8460002 1.511
13.132 -7.8270001 1.521
13.284 -7.842 1.5369999
14.822 -7.4949999 1.6950001
14.856 -7.4390001 1.698
15.043 -6.9590001 1.711
14.983 -6.862 1.7029999
15.054 -6.8260002 1.71
15.101 -6.7789998 1.714
15.112 -6.7160001 1.715
15.285 -6.724 1.733
10.618 -3.3199999 1.186
10.489 -3.2420001 1.171
10.473 -3.2 1.169
10.472 -3.1630001 1.168
10.486 -3.131 1.17
10.466 -3.089 1.1670001
10.404 -3.0350001 1.16
10.393 -2.9960001 1.158
10.391 -2.96 1.1569999
10.417 -2.9330001 1.16
10.482 -2.9159999 1.1670001
10.723 -2.947 1.193
22.316999 -3.1300001 2.457
22.32 -3.075 2.457
22.360001 -3.026 2.461
22.344999 -2.97 2.4590001
22.385 -2.9219999 2.4630001
22.403999 -2.8710001 2.464
22.511999 -2.5179999 2.474
22.465 -2.461 2.4690001
22.475 -2.4119999 2.47
22.487 -2.3629999 2.471
22.482 -2.312 2.47
22.496 -2.2639999 2.471
22.587 -2.174 2.4809999
22.561001 -2.1229999 2.4779999
10.738 0.17399999 1.166
10.748 0.193 1.1670001
10.74 0.212 1.166
10.746 0.23100001 1.166
10.76 0.25099999 1.168
10.771 0.271 1.169
10.79 0.292 1.171
10.828 0.31299999 1.175
10.881 0.33500001 1.1799999
11.033 0.361 1.197
12.08 0.419 1.3099999
12.07 0.442 1.309
12.069 0.46599999 1.309
12.077 0.491 1.3099999
12.077 0.51499999 1.3099999
12.123 0.542 1.3150001
12.173 0.56900001 1.3200001
12.255 0.59899998 1.329
12.287 0.62599999 1.332
12.294 0.653 1.3329999
12.361 0.68300003 1.341
12.494 0.71700001 1.355
23.061001 2.293 2.5079999
23.013 2.346 2.5039999
22.937 2.3959999 2.4960001
22.900999 2.45 2.493
22.898001 2.5079999 2.493
22.945 2.572 2.4990001
23.063 2.645 2.513
23.013 2.6989999 2.5079999
22.83 2.737 2.4890001
22.771 2.79 2.483
22.802 2.8540001 2.4879999
23.24 4.6230001 2.5680001
23.166 4.678 2.5610001
23.135 4.7410002 2.559
23.176001 4.8200002 2.5650001
23.219 4.9000001 2.572
23.333 4.9959998 2.586
8.1520004 4.072 0.98199999
8.0319996 4.0409999 0.96899998
7.9720001 4.04 0.963
7.9419999 4.0539999 0.95999998
7.927 4.0749998 0.95999998
7.9250002 4.1040001 0.96100003
7.9450002 4.1430001 0.96499997
8.0100002 4.2059999 0.97399998
12.751 -7.652 1.5
12.78 -7.631 1.503
12.81 -7.6110001 1.506
12.838 -7.5900002 1.5089999
12.865 -7.5679998 1.512
12.913 -7.5580001 1.518
12.955 -7.5440001 1.522
13.011 -7.5380001 1.529
13.076 -7.5380001 1.536
13.146 -7.539 1.544
13.211 -7.5370002 1.551
13.29 -7.5430002 1.5599999
13.414 -7.573 1.575
14.972 -7.0700002 1.747
14.838 -6.9629998 1.7309999
14.837 -6.9180002 1.7309999
14.901 -6.9039998 1.738
10.596 -3.3340001 1.222
10.5 -3.2720001 1.211
10.467 -3.2309999 1.207
10.47 -3.201 1.207
10.466 -3.1689999 1.206
10.475 -3.141 1.207
10.44 -3.0999999 1.2029999
10.435 -3.0669999 1.202
10.394 -3.0250001 1.197
10.377 -2.9890001 1.194
10.381 -2.96 1.1950001
10.406 -2.9360001 1.197
10.434 -2.9130001 1.2
10.471 -2.8929999 1.204
10.56 -2.8859999 1.214
22.239 -5.4260001 2.5510001
22.233999 -5.3590002 2.55
22.254 -5.2329998 2.5510001
22.261999 -5.1700001 2.5510001
22.396999 -3.109 2.5450001
22.323 -3.0339999 2.536
22.327 -2.97 2.536
22.521 -2.6689999 2.5550001
22.447001 -2.595 2.546
22.448 -2.53 2.5450001
22.434999 -2.4630001 2.543
22.466999 -2.401 2.546
22.497999 -2.339 2.549
22.49 -2.273 2.5469999
22.523001 -2.211 2.55
10.981 0.134 1.217
10.979 0.14399999 1.216
10.948 0.153 1.212
10.951 0.163 1.212
10.927 0.17299999 1.209
10.924 0.184 1.2079999
10.898 0.19400001 1.205
10.874 0.205 1.202
10.895 0.21699999 1.204
10.855 0.228 1.199
10.868 0.23999999 1.2
10.843 0.252 1.197
10.817 0.26300001 1.193
10.827 0.27599999 1.194
10.821 0.289 1.193
10.815 0.30199999 1.192
10.8 0.315 1.191
10.802 0.329 1.1900001
10.838 0.34400001 1.194
10.838 0.359 1.194
10.854 0.37400001 1.196
10.934 0.39199999 1.204
11.098 0.41299999 1.222
12.136 0.46900001 1.336
12.103 0.48500001 1.332
12.096 0.50199997 1.331
12.08 0.51999998 1.33
12.097 0.53899997 1.331
12.126 0.55900002 1.335
12.143 0.57800001 1.336
12.212 0.60100001 1.344
12.261 0.62300003 1.349
12.299 0.64499998 1.353
12.288 0.66500002 1.352
12.305 0.68599999 1.354
12.388 0.71200001 1.363
23.129 2.5209999 2.5580001
23.041 2.563 2.549
23.02 2.6129999 2.5469999
22.997999 2.6630001 2.546
23.021999 2.7190001 2.549
23.167 2.79 2.5669999
23.216999 4.5500002 2.6140001
23.171 4.6069999 2.6110001
23.179001 4.6760001 2.6140001
23.214001 4.75 2.6199999
23.299999 4.835 2.632
8.2329998 4.0910001 1.023
8.0319996 4.0250001 1
7.9569998 4.0209999 0.99199998
7.9380002 4.0450001 0.991
7.9229999 4.0710001 0.991
7.934 4.1110001 0.99400002
7.9629998 4.1599998 0.99900001
8.2690001 4.3559999 1.039
12.345 -8.0950003 1.5
12.411 -8.0620003 1.506
12.469 -8.0220003 1.512
12.527 -7.9829998 1.518
12.578 -7.9400001 1.522
12.642 -7.9039998 1.529
12.726 -7.881 1.538
12.79 -7.8449998 1.544
12.898 -7.836 1.556
12.979 -7.8099999 1.564
13.083 -7.7979999 1.576
13.207 -7.796 1.589
13.357 -7.8099999 1.6059999
14.942 -6.9130001 1.767
14.869 -6.8099999 1.757
14.926 -6.7680001 1.763
15.65 -6.4770002 1.839
15.618 -6.3969998 1.834
15.792 -6.402 1.854
10.639 -3.326 1.2359999
10.501 -3.2460001 1.219
10.464 -3.197 1.214
10.467 -3.1619999 1.214
10.469 -3.1259999 1.214
10.391 -3.0669999 1.204
10.354 -3.02 1.2
10.375 -2.9909999 1.202
10.393 -2.961 1.2029999
10.428 -2.9360001 1.207
10.491 -2.918 1.214
10.67 -2.9330001 1.234
22.205 -5.5300002 2.563
22.201 -5.4590001 2.5610001
22.454 -3.5439999 2.572
22.413 -3.48 2.5669999
22.382 -3.418 2.563
22.393999 -3.3640001 2.5639999
22.421 -2.5580001 2.562
22.43 -2.5079999 2.563
22.388 -2.4519999 2.5580001
22.417 -2.405 2.5610001
22.382 -2.3510001 2.556
22.368999 -2.3 2.5550001
22.358 -2.2490001 2.553
22.337 -2.198 2.5510001
22.388 -2.154 2.556
22.497 -2.1159999 2.5680001
22.499001 -2.0680001 2.569
22.485001 -2.0190001 2.5669999
22.531 -1.975 2.572
22.584 -1.837 2.5769999
22.627001 -1.794 2.582
10.741 0.176 1.217
10.762 0.19499999 1.219
10.76 0.214 1.219
10.75 0.233 1.2180001
10.772 0.25299999 1.22
10.777 0.273 1.22
10.809 0.294 1.224
10.826 0.31400001 1.226
10.897 0.33700001 1.233
10.998 0.361 1.245
12.053 0.41999999 1.364
12.052 0.44299999 1.364
12.054 0.46700001 1.364
12.053 0.491 1.364
12.07 0.51599997 1.3660001
12.095 0.542 1.369
12.148 0.56999999 1.375
12.207 0.59799999 1.381
12.26 0.62599999 1.388
12.255 0.65200001 1.387
12.272 0.67900002 1.3890001
12.336 0.70899999 1.396
23.069 2.7079999 2.6240001
23.01 2.7609999 2.619
22.999001 2.8199999 2.618
23.070999 2.8900001 2.6270001
23.243 4.4850001 2.678
23.18 4.5430002 2.6719999
23.188 4.6139998 2.675
23.257 4.698 2.684
8.0830002 4.0679998 1.0190001
7.993 4.052 1.0089999
7.9549999 4.0609999 1.005
7.9520001 4.0890002 1.006
7.9429998 4.1139998 1.006
7.9569998 4.1500001 1.0089999
7.9959998 4.1999998 1.016
12.868 -7.7280002 1.573
12.874 -7.6939998 1.573
12.907 -7.6750002 1.577
12.92 -7.645 1.5779999
12.963 -7.632 1.5829999
12.979 -7.6030002 1.585
13.044 -7.6020002 1.5930001
13.15 -7.625 1.605
13.214 -7.6230001 1.613
13.28 -7.6220002 1.6210001
13.346 -7.6199999 1.6289999
15.049 -7.066 1.825
14.897 -6.9499998 1.806
14.914 -6.914 1.807
15.049 -6.9310002 1.823
15.516 -6.6370001 1.876
15.437 -6.5570002 1.8660001
15.477 -6.5279999 1.87
15.562 -6.5170002 1.88
15.684 -6.5209999 1.8940001
15.838 -6.5380001 1.913
10.657 -3.3540001 1.277
10.494 -3.2720001 1.257
10.478 -3.2360001 1.255
10.453 -3.197 1.252
10.441 -3.1630001 1.25
10.449 -3.1340001 1.251
10.407 -3.0910001 1.245
10.344 -3.0420001 1.238
10.316 -3.003 1.234
10.335 -2.9779999 1.2359999
10.387 -2.9619999 1.242
10.418 -2.9400001 1.245
10.418 -2.9100001 1.245
10.472 -2.8940001 1.251
10.568 -2.8889999 1.262
22.238001 -5.4920001 2.651
22.158001 -5.4070001 2.6400001
22.261 -5.3660002 2.652
22.421 -3.503 2.651
22.353001 -3.428 2.642
22.323 -3.358 2.638
22.403999 -2.6530001 2.6400001
22.382 -2.586 2.6359999
22.322001 -2.5139999 2.6289999
22.211 -2.437 2.615
22.150999 -2.3659999 2.6070001
22.146 -2.3010001 2.6059999
22.261999 -2.2479999 2.619
22.438999 -2.201 2.6389999
22.451 -2.1370001 2.6389999
22.531 -2.079 2.648
11.002 0.13600001 1.271
10.987 0.146 1.2690001
10.967 0.155 1.266
10.941 0.16500001 1.263
10.919 0.175 1.26
10.928 0.186 1.26
10.889 0.19599999 1.255
10.879 0.207 1.2539999
10.862 0.21799999 1.251
10.849 0.229 1.25
10.849 0.241 1.249
10.837 0.25299999 1.247
10.838 0.26499999 1.247
10.836 0.278 1.247
10.833 0.29100001 1.2460001
10.825 0.30399999 1.245
10.824 0.31799999 1.244
10.856 0.33199999 1.248
10.882 0.347 1.251
10.928 0.36300001 1.256
11.025 0.38100001 1.267
12.086 0.43399999 1.388
12.071 0.45100001 1.386
12.063 0.46799999 1.385
12.077 0.486 1.387
12.092 0.50400001 1.388
12.089 0.52200001 1.388
12.115 0.54100001 1.391
12.153 0.56099999 1.395
12.227 0.58399999 1.403
12.27 0.60500002 1.408
12.309 0.62699997 1.413
12.299 0.64600003 1.4119999
12.273 0.66500002 1.409
12.293 0.68699998 1.411
12.435 0.71600002 1.427
23.155001 2.9000001 2.678
23.107 2.9489999 2.674
23.122 3.007 2.677
23.195999 3.073 2.687
23.302 4.3699999 2.7320001
23.264 4.428 2.7290001
23.267 4.4949999 2.7320001
23.271999 4.5619998 2.734
23.312 4.6370001 2.7409999
8.2279997 4.0900002 1.067
8.0439997 4.0320001 1.045
7.98 4.0339999 1.038
7.961 4.0580001 1.038
7.9489999 4.086 1.038
7.954 4.1220002 1.04
8.0240002 4.1929998 1.051
12.376 -8.1160002 1.561
12.441 -8.0810003 1.568
12.494 -8.0380001 1.573
12.543 -7.994 1.5779999
12.601 -7.954 1.584
12.674 -7.9239998 1.592
12.771 -7.9089999 1.602
12.859 -7.888 1.612
12.944 -7.8639998 1.6210001
13.038 -7.8460002 1.632
13.124 -7.822 1.641
13.263 -7.8299999 1.6569999
13.39 -7.8299999 1.6720001
14.975 -6.8590002 1.8380001
14.963 -6.7849998 1.835
15.175 -6.8119998 1.86
15.513 -6.4200001 1.893
15.512 -6.3540001 1.892
15.639 -6.3400002 1.906
15.835 -6.3540001 1.929
10.66 -3.3329999 1.285
10.479 -3.2390001 1.263
10.459 -3.1960001 1.26
10.429 -3.1500001 1.256
10.433 -3.115 1.256
10.34 -3.052 1.244
10.316 -3.0090001 1.2410001
10.35 -2.984 1.245
10.401 -2.9630001 1.25
10.429 -2.9360001 1.253
10.507 -2.9230001 1.262
10.727 -2.9489999 1.288
22.152 -5.5869999 2.655
22.108999 -5.506 2.6489999
22.250999 -5.4720001 2.665
22.245001 -5.3319998 2.6630001
22.184999 -5.2490001 2.655
22.431999 -3.54 2.668
22.361 -3.4719999 2.6589999
22.334 -3.411 2.655
22.294001 -3.348 2.6500001
22.424999 -2.6619999 2.661
22.389 -2.6059999 2.6559999
22.375 -2.552 2.654
22.374001 -2.5009999 2.654
22.344999 -2.447 2.6500001
22.231001 -2.3840001 2.6359999
22.156 -2.3269999 2.6270001
22.118999 -2.2739999 2.622
22.08 -2.221 2.618
22.072001 -2.1719999 2.6159999
22.094 -2.1259999 2.619
22.186001 -2.086 2.6289999
22.395 -2.0580001 2.654
22.459999 -2.016 2.661
22.455 -1.967 2.661
22.507999 -1.925 2.6670001
10.753 0.178 1.27
10.766 0.197 1.271
10.766 0.21600001 1.271
10.793 0.235 1.274
10.799 0.255 1.274
10.833 0.27599999 1.278
10.881 0.29699999 1.284
10.945 0.31900001 1.291
11.156 0.347 1.316
12.006 0.396 1.416
12.008 0.41999999 1.416
12.018 0.44400001 1.4170001
12.038 0.46799999 1.419
12.071 0.49399999 1.423
12.099 0.51899999 1.427
12.166 0.54699999 1.4349999
12.223 0.57499999 1.441
12.288 0.60299999 1.449
12.282 0.62900001 1.448
12.26 0.65399998 1.446
12.281 0.68099999 1.448
12.392 0.71399999 1.461
23.124001 3.0840001 2.7479999
23.115 3.145 2.7479999
23.176001 3.2160001 2.756
23.281 3.2950001 2.77
23.375 4.0999999 2.7969999
23.297001 4.1539998 2.789
23.302 4.223 2.7909999
23.278999 4.2870002 2.79
23.337999 4.3670001 2.799
23.323 4.434 2.799
8.177 4.1160002 1.075
8.0509996 4.0819998 1.059
8.0139999 4.0929999 1.056
8.0019999 4.1160002 1.056
7.9829998 4.1350002 1.0549999
8.0120001 4.1799998 1.0599999
15.466 -6.573 1.9400001
15.503 -6.5419998 1.944
15.593 -6.5339999 1.955
15.697 -6.5300002 1.967
15.852 -6.5469999 1.9859999
10.451 -3.8180001 1.3049999
10.433 -3.7809999 1.302
10.51 -3.777 1.311
10.532 -3.2850001 1.309
10.469 -3.234 1.301
10.43 -3.191 1.296
10.415 -3.1559999 1.294
10.43 -3.1300001 1.295
10.403 -3.0910001 1.2920001
10.384 -3.0539999 1.289
10.352 -3.0139999 1.285
10.346 -2.9820001 1.284
10.368 -2.9579999 1.286
10.41 -2.9389999 1.291
10.439 -2.9159999 1.294
10.478 -2.8959999 1.299
10.565 -2.8889999 1.309
22.245001 -5.4289999 2.75
22.205999 -5.3540001 2.744
22.309 -5.3130002 2.757
22.150999 -5.145 2.7360001
22.132 -5.0760002 2.733
22.349001 -3.4260001 2.74
22.309999 -3.355 2.7349999
22.320999 -3.2920001 2.7360001
22.368 -3.234 2.7409999
22.349001 -2.71 2.7320001
22.370001 -2.648 2.734
22.341 -2.579 2.73
22.242001 -2.503 2.717
22.136 -2.427 2.7030001
22.059999 -2.3540001 2.6930001
22.052 -2.289 2.691
22.172001 -2.2379999 2.7049999
22.434999 -2.1989999 2.737
22.433001 -2.1340001 2.7360001
22.478001 -2.073 2.74
22.563999 -2.0150001 2.75
11.077 0.139 1.3329999
11.092 0.149 1.334
11.089 0.15899999 1.3329999
11.036 0.168 1.326
11.038 0.17900001 1.326
11.023 0.189 1.324
10.996 0.199 1.3200001
10.985 0.20999999 1.318
10.98 0.222 1.317
10.946 0.233 1.313
10.947 0.245 1.312
10.945 0.257 1.312
10.924 0.26899999 1.309
10.92 0.28200001 1.308
10.926 0.29499999 1.309
10.938 0.30899999 1.3099999
10.94 0.322 1.3099999
10.972 0.33700001 1.313
11.073 0.35499999 1.325
12.194 0.40700001 1.459
12.076 0.419 1.4450001
12.044 0.435 1.441
12.037 0.45100001 1.4400001
12.051 0.46900001 1.441
12.051 0.486 1.441
12.07 0.50400001 1.443
12.097 0.523 1.446
12.137 0.54400003 1.451
12.201 0.565 1.4579999
12.262 0.58700001 1.466
12.392 0.61299998 1.4809999
12.601 0.64300001 1.506
12.407 0.65399998 1.483
12.312 0.66900003 1.471
12.292 0.68800002 1.469
12.443 0.71799999 1.487
23.288 3.2579999 2.813
23.237 3.309 2.809
23.243999 3.369 2.8110001
23.231001 3.4260001 2.8110001
23.240999 3.487 2.8139999
23.250999 3.5480001 2.816
23.271999 3.6110001 2.8199999
23.327 3.681 2.829
23.34 3.744 2.832
23.867001 4.4770002 2.915
23.809999 4.5339999 2.9100001
8.092 4.0910001 1.098
8.0220003 4.0900002 1.09
8.0019999 4.1139998 1.089
8.0310001 4.1630001 1.095
8.2390003 4.3070002 1.125
12.356 -8.1029997 1.6160001
12.43 -8.0740004 1.624
12.476 -8.0270004 1.6289999
12.543 -7.993 1.636
12.612 -7.961 1.6440001
12.698 -7.9390001 1.653
12.787 -7.9190001 1.664
12.877 -7.8990002 1.674
12.966 -7.8769999 1.684
13.08 -7.8709998 1.698
13.191 -7.862 1.71
15.721 -6.507 1.989
15.587 -6.3850002 1.971
15.706 -6.368 1.985
15.883 -6.3730001 2.006
10.452 -3.733 1.313
10.426 -3.6830001 1.309
10.549 -3.687 1.324
10.51 -3.2490001 1.313
10.433 -3.188 1.303
10.406 -3.1440001 1.299
10.414 -3.1099999 1.3
10.391 -3.0669999 1.2970001
10.379 -3.0280001 1.295
10.351 -2.984 1.291
10.402 -2.964 1.2970001
10.431 -2.937 1.3
10.509 -2.924 1.309
22.417 -3.48 2.763
22.339001 -3.411 2.753
22.302999 -3.349 2.7479999
22.285 -3.29 2.7460001
22.299999 -3.237 2.747
22.313 -3.1830001 2.7479999
22.311001 -3.128 2.7479999
22.344999 -3.0780001 2.7509999
22.42 -3.033 2.76
22.407 -2.977 2.7579999
22.408001 -2.924 2.7579999
22.41 -2.6589999 2.757
22.354 -2.6010001 2.7490001
22.360001 -2.55 2.75
22.378 -2.5009999 2.7520001
22.375 -2.45 2.7509999
22.351 -2.3970001 2.7479999
22.267 -2.3380001 2.737
22.225 -2.2839999 2.7320001
22.149 -2.227 2.7219999
22.139 -2.177 2.721
22.188 -2.1340001 2.7260001
22.327 -2.099 2.743
22.481001 -2.0650001 2.7620001
22.454 -2.0139999 2.7579999
10.817 0.18000001 1.329
10.846 0.2 1.332
10.87 0.219 1.335
10.905 0.23899999 1.339
10.929 0.25999999 1.342
11.029 0.28200001 1.354
12.037 0.33000001 1.477
12.006 0.352 1.473
11.987 0.37400001 1.471
12.004 0.398 1.473
12.013 0.421 1.474
12.027 0.44499999 1.476
12.05 0.47 1.478
12.097 0.49599999 1.484
12.167 0.52399999 1.493
12.246 0.55199999 1.502
12.356 0.58200002 1.516
12.459 0.61299998 1.528
12.314 0.63200003 1.511
12.244 0.65399998 1.502
12.3 0.68400002 1.5089999
19.087 -7.033 2.47
10.47 -3.8269999 1.354
19.013 -6.9489999 2.46
10.391 -3.767 1.344
19.108 -6.927 2.471
10.383 -3.733 1.342
10.428 -3.7179999 1.348
10.584 -3.302 1.363
10.466 -3.2349999 1.348
10.409 -3.1860001 1.34
10.396 -3.151 1.3380001
10.41 -3.125 1.34
10.41 -3.0940001 1.339
10.398 -3.0599999 1.337
10.395 -3.0280001 1.337
10.352 -2.9849999 1.331
10.348 -2.9530001 1.33
10.382 -2.9319999 1.334
10.432 -2.915 1.34
10.47 -2.895 1.345
10.572 -2.892 1.357
22.309999 -5.3800001 2.8570001
22.295 -5.3109999 2.8540001
22.334 -3.358 2.8369999
22.329 -3.2920001 2.835
22.277 -3.2190001 2.8280001
22.275999 -3.154 2.8269999
22.309999 -3.0940001 2.8299999
22.332001 -3.0320001 2.832
22.33 -2.967 2.8310001
22.358999 -2.905 2.8340001
22.382999 -2.7130001 2.835
22.381001 -2.648 2.8340001
22.379 -2.582 2.8329999
22.357 -2.5150001 2.829
22.305 -2.444 2.822
22.271 -2.375 2.8169999
22.236 -2.3069999 2.812
22.402 -2.2590001 2.832
22.403 -2.194 2.8310001
22.528999 -2.141 2.846
11.192 0.142 1.4
11.178 0.152 1.398
11.11 0.161 1.3890001
11.094 0.171 1.386
11.1 0.18099999 1.386
11.07 0.191 1.382
11.056 0.20200001 1.38
11.047 0.213 1.378
11.028 0.22400001 1.376
11.028 0.236 1.375
11.048 0.249 1.377
11.042 0.26100001 1.376
11.039 0.27399999 1.375
11.051 0.287 1.377
11.13 0.30199999 1.386
12.175 0.40799999 1.515
12.147 0.42300001 1.511
12.098 0.43799999 1.505
12.093 0.45500001 1.5039999
12.11 0.472 1.506
12.115 0.49000001 1.506
12.168 0.50999999 1.513
12.182 0.52899998 1.5140001
12.221 0.54900002 1.5190001
12.314 0.57200003 1.531
12.38 0.65399998 1.539
12.299 0.66900003 1.528
12.347 0.69300002 1.535
12.456 -8.1689997 1.688
12.532 -8.1400003 1.696
12.603 -8.1090002 1.704
12.677 -8.0790005 1.7130001
12.756 -8.052 1.722
12.854 -8.0369997 1.734
12.959 -8.0249996 1.7460001
13.148 -8.0649996 1.77
19.136999 -6.9089999 2.4920001
18.987 -6.7820001 2.471
10.485 -3.704 1.364
19.099001 -6.7480001 2.484
10.438 -3.648 1.357
10.535 -3.642 1.369
10.499 -3.2460001 1.359
10.42 -3.184 1.348
10.394 -3.1400001 1.344
10.408 -3.108 1.345
10.388 -3.066 1.342
10.385 -3.03 1.341
10.342 -2.9820001 1.335
10.359 -2.9519999 1.337
10.441 -2.9400001 1.347
10.504 -2.9219999 1.355
22.388 -3.3050001 2.8559999
22.306 -3.237 2.845
22.301001 -3.181 2.8440001
22.311001 -3.1270001 2.845
22.319 -3.0739999 2.846
22.318001 -3.0190001 2.845
22.304001 -2.9630001 2.8429999
22.326 -2.9119999 2.845
22.361 -2.8629999 2.8499999
22.485001 -2.72 2.8640001
22.461 -2.665 2.8610001
22.423 -2.608 2.8559999
22.384001 -2.552 2.8499999
22.386999 -2.5009999 2.8499999
22.414 -2.4530001 2.8529999
22.427999 -2.404 2.855
22.444 -2.3559999 2.8570001
22.445999 -2.306 2.8570001
22.43 -2.2539999 2.8540001
22.412001 -2.2030001 2.852
22.450001 -2.158 2.8559999
22.535999 -2.1170001 2.8670001
22.447001 -2.0610001 2.8559999
22.455999 -2.013 2.8570001
10.918 0.184 1.393
10.95 0.20299999 1.397
10.988 0.223 1.402
11.077 0.245 1.413
12.363 0.31799999 1.576
12.162 0.336 1.551
12.088 0.35600001 1.541
12.064 0.37799999 1.538
12.048 0.40099999 1.536
12.038 0.42399999 1.534
12.073 0.449 1.539
12.099 0.47400001 1.5420001
12.121 0.49900001 1.545
12.165 0.52499998 1.55
12.215 0.55199999 1.557
12.333 0.583 1.572
12.412 0.639 1.582
12.247 0.65600002 1.561
12.222 0.68099999 1.558
12.347 0.71399999 1.574
19.159 -7.1209998 2.5669999
18.952999 -6.987 2.539
18.927 -6.921 2.5339999
18.99 -6.8870001 2.5420001
10.482 -3.7390001 1.402
10.47 -3.704 1.4
10.497 -3.6819999 1.404
10.647 -3.7030001 1.423
10.526 -3.2850001 1.403
10.429 -3.224 1.39
10.399 -3.184 1.386
10.395 -3.152 1.385
10.396 -3.1210001 1.3839999
10.378 -3.085 1.382
10.386 -3.0569999 1.382
10.38 -3.0239999 1.381
10.363 -2.9890001 1.3789999
10.345 -2.9530001 1.376
10.351 -2.924 1.376
10.41 -2.9100001 1.3839999
10.49 -2.901 1.3940001
10.583 -2.8959999 1.406
22.437 -3.3069999 2.948
22.329 -3.2260001 2.9330001
22.308001 -3.158 2.9300001
22.320999 -3.0940001 2.931
22.341999 -3.0320001 2.9319999
22.334 -2.9660001 2.931
22.341 -2.902 2.931
22.384001 -2.842 2.9349999
22.386999 -2.777 2.9349999
22.396 -2.7130001 2.9349999
22.372 -2.645 2.931
22.377001 -2.5799999 2.931
22.400999 -2.5179999 2.934
12.287 0.48100001 1.587
12.207 0.495 1.576
12.186 0.51200002 1.573
12.187 0.52999997 1.573
12.161 0.54699999 1.5700001
12.156 0.56599998 1.569
12.172 0.58600003 1.571
12.184 0.60500002 1.573
12.178 0.62400001 1.572
12.17 0.64399999 1.571
12.178 0.66399997 1.572
12.18 0.685 1.572
12.247 0.70899999 1.581
12.495 -8.1940002 1.751
12.572 -8.1669998 1.761
12.633 -8.1280003 1.767
12.728 -8.1120005 1.779
12.819 -8.0930004 1.79
12.903 -8.0679998 1.8
13.012 -8.059 1.814
13.382 -8.0539999 1.8609999
13.395 -7.9850001 1.8609999
13.452 -7.9419999 1.868
19.188999 -6.9289999 2.5840001
19.025999 -6.796 2.5610001
19.115 -6.7540002 2.572
10.511 -3.6340001 1.413
10.522 -3.598 1.414
10.646 -3.6010001 1.4299999
10.466 -3.2360001 1.401
10.416 -3.1830001 1.3940001
10.397 -3.141 1.391
10.387 -3.102 1.3890001
10.377 -3.063 1.387
10.365 -3.0239999 1.385
10.368 -2.99 1.385
10.338 -2.9460001 1.38
10.391 -2.9260001 1.387
10.512 -2.925 1.403
22.201 -4.9840002 2.947
22.150999 -4.9070001 2.9400001
22.457001 -3.2030001 2.9630001
22.441 -3.145 2.96
22.437 -3.0899999 2.9590001
22.455999 -2.983 2.961
22.426001 -2.925 2.9560001
22.452 -2.875 2.9590001
22.444 -2.8199999 2.9579999
22.459999 -2.7690001 2.96
22.419001 -2.711 2.954
22.511 -2.6700001 2.9660001
22.461 -2.612 2.9590001
22.41 -2.5539999 2.9519999
22.398001 -2.5020001 2.95
22.443001 -2.4560001 2.9549999
12.283 0.38699999 1.625
12.205 0.40799999 1.614
12.171 0.43000001 1.61
12.142 0.45300001 1.6059999
12.127 0.47600001 1.604
12.117 0.5 1.602
12.117 0.52499998 1.602
12.126 0.55000001 1.604
12.119 0.574 1.603
12.113 0.59899998 1.602
12.118 0.625 1.603
12.125 0.65100002 1.604
12.145 0.67799997 1.6059999
12.244 0.70999998 1.62
14.897 -7.1030002 2.0799999
14.823 -7.0229998 2.069
14.899 -7.0139999 2.079
19.155001 -7.0650001 2.6530001
19.107 -6.9899998 2.645
10.526 -3.694 1.455
10.464 -3.641 1.446
10.474 -3.6129999 1.447
10.506 -3.5929999 1.451
10.694 -3.625 1.477
10.501 -3.279 1.447
10.415 -3.221 1.4349999
10.39 -3.1819999 1.431
10.381 -3.1489999 1.4299999
10.372 -3.115 1.428
10.367 -3.0829999 1.427
10.38 -3.056 1.428
10.368 -3.0220001 1.426
10.368 -2.9909999 1.426
10.371 -2.961 1.426
10.352 -2.925 1.423
10.374 -2.901 1.426
10.442 -2.8889999 1.4349999
10.631 -2.9100001 1.46
22.09 -4.809 3.02
22.062 -4.7379999 3.0150001
22.256001 -4.7140002 3.0409999
22.493 -2.658 3.0469999
22.479 -2.5910001 3.0439999
12.352 0.53899997 1.654
12.232 0.55199999 1.638
12.181 0.56800002 1.631
12.137 0.58499998 1.625
12.146 0.60500002 1.626
12.109 0.62199998 1.6210001
12.114 0.64200002 1.622
12.127 0.66299999 1.623
12.175 0.68599999 1.63
12.26 0.71100003 1.641
12.492 -8.1929998 1.809
12.569 -8.165 1.819
12.639 -8.1330004 1.827
12.723 -8.1090002 1.8380001
12.811 -8.0880003 1.849
12.917 -8.0769997 1.863
13.053 -8.085 1.881
14.972 -6.9980001 2.112
14.896 -6.8930001 2.0999999
10.574 -3.6159999 1.4680001
10.485 -3.5469999 1.455
10.52 -3.5190001 1.459
10.454 -3.2320001 1.446
10.397 -3.178 1.438
10.384 -3.138 1.4349999
10.373 -3.098 1.433
10.358 -3.0580001 1.431
10.373 -3.027 1.432
10.386 -2.9949999 1.433
10.38 -2.9579999 1.432
10.36 -2.9170001 1.429
10.45 -2.908 1.441
22.069 -4.9549999 3.0280001
21.987 -4.8709998 3.016
22.038 -4.816 3.0220001
12.313 0.48500001 1.688
12.232 0.50700003 1.676
12.133 0.52700001 1.663
12.11 0.551 1.66
12.109 0.57499999 1.66
12.073 0.59899998 1.655
12.077 0.62400001 1.655
12.085 0.64999998 1.6569999
12.143 0.67900002 1.665
12.248 0.71200001 1.679
10.521 -3.631 1.502
10.463 -3.579 1.493
10.485 -3.556 1.4960001
10.524 -3.5380001 1.501
10.618 -3.5380001 1.5140001
10.466 -3.2690001 1.49
10.4 -3.217 1.48
10.378 -3.1800001 1.477
10.374 -3.148 1.476
10.369 -3.1159999 1.475
10.36 -3.082 1.473
10.36 -3.0510001 1.473
10.362 -3.0209999 1.472
10.37 -2.993 1.473
10.382 -2.9649999 1.475
10.378 -2.934 1.474
10.369 -2.9000001 1.472
10.396 -2.8770001 1.475
10.556 -2.8900001 1.498
22.041 -4.7979999 3.112
22.018 -4.7290001 3.108
22.190001 -4.6999998 3.132
12.28 0.574 1.7029999
12.204 0.58999997 1.693
12.192 0.60799998 1.691
12.176 0.62699997 1.689
12.175 0.64700001 1.688
12.195 0.66799998 1.691
12.257 0.69199997 1.7
12.433 -8.1549997 1.86
12.511 -8.1280003 1.869
12.585 -8.099 1.8789999
12.665 -8.073 1.8890001
12.753 -8.052 1.9
12.846 -8.033 1.913
12.935 -8.0129995 1.924
10.58 -3.579 1.516
10.487 -3.5090001 1.502
10.517 -3.48 1.506
10.576 -3.46 1.513
10.426 -3.224 1.489
10.379 -3.1719999 1.482
10.384 -3.138 1.482
10.376 -3.099 1.48
10.352 -3.056 1.476
10.358 -3.0220001 1.476
10.37 -2.9909999 1.478
10.385 -2.96 1.479
10.364 -2.9189999 1.476
10.39 -2.891 1.479
10.593 -2.9130001 1.507
22.084999 -4.8920002 3.1270001
22.200001 -4.8520002 3.142
12.316 0.51200002 1.748
12.215 0.53200001 1.733
12.16 0.55400002 1.725
12.116 0.57700002 1.719
12.12 0.60299999 1.72
12.122 0.62800002 1.72
12.135 0.65499997 1.722
12.192 0.68400002 1.73
12.384 0.72100002 1.758
12.9 -7.7870002 1.936
12.973 -7.7919998 1.947
19.195999 -7.0869999 2.8329999
19.025999 -6.967 2.8069999
19.073 -6.927 2.8139999
19.707001 -6.8629999 2.904
19.625999 -6.776 2.891
10.569 -3.6170001 1.556
19.738001 -6.756 2.9070001
10.493 -3.5599999 1.545
10.474 -3.5220001 1.5420001
10.487 -3.4949999 1.543
10.53 -3.4779999 1.549
10.652 -3.487 1.567
10.628 -3.352 1.562
10.431 -3.2590001 1.5319999
10.388 -3.2149999 1.525
10.362 -3.1760001 1.521
10.362 -3.145 1.521
10.373 -3.118 1.522
10.363 -3.0840001 1.52
10.354 -3.05 1.5190001
10.353 -3.0190001 1.518
10.367 -2.993 1.52
10.392 -2.9690001 1.523
10.385 -2.9360001 1.522
10.373 -2.902 1.5190001
10.382 -2.8740001 1.52
10.436 -2.858 1.528
10.643 -2.8829999 1.558
22.184999 -4.7649999 3.2309999
22.173 -4.697 3.2290001
22.208 -4.6389999 3.233
22.278 -4.5879998 3.2420001
22.375 -4.5419998 3.2550001
22.575001 -4.5159998 3.2839999
12.402 -8.1359997 1.913
12.479 -8.1079998 1.923
12.538 -8.0699997 1.931
12.619 -8.0439997 1.941
12.736 -8.0419998 1.9579999
12.829 -8.0240002 1.97
12.968 -8.0340004 1.99
19.037001 -6.802 2.8199999
19.107 -6.7540002 2.829
10.581 -3.54 1.563
10.511 -3.4779999 1.552
10.502 -3.437 1.55
10.573 -3.421 1.5599999
10.568 -3.306 1.557
10.408 -3.2179999 1.533
10.375 -3.1719999 1.528
10.368 -3.1329999 1.526
10.355 -3.0929999 1.524
10.351 -3.056 1.522
10.347 -3.0190001 1.521
10.37 -2.9909999 1.524
10.385 -2.96 1.526
10.396 -2.928 1.527
10.391 -2.892 1.526
10.469 -2.878 1.536
22.132 -4.9029999 3.2320001
22.1 -4.8299999 3.2260001
22.101999 -4.7649999 3.2260001
22.204 -4.7220001 3.24
22.282 -4.6739998 3.25
19.114 -7.0599999 2.9089999
19.028 -6.9710002 2.895
19.070999 -6.9299998 2.901
19.275999 -6.947 2.931
10.647 -3.6140001 1.6160001
10.536 -3.5450001 1.599
10.503 -3.5020001 1.5930001
10.492 -3.467 1.591
10.53 -3.448 1.597
10.642 -3.4530001 1.613
10.56 -3.332 1.6
10.426 -3.2590001 1.579
10.374 -3.211 1.571
10.362 -3.177 1.568
10.361 -3.1459999 1.568
10.354 -3.1129999 1.566
10.345 -3.079 1.5650001
10.338 -3.0469999 1.563
10.349 -3.0190001 1.564
10.338 -2.9849999 1.562
10.374 -2.9649999 1.567
10.403 -2.9419999 1.571
10.401 -2.911 1.571
10.383 -2.875 1.568
10.425 -2.8559999 1.574
10.592 -2.8699999 1.598
22.254999 -4.7800002 3.342
22.197001 -4.7020001 3.332
22.264 -4.651 3.3410001
22.357 -4.605 3.3540001
12.437 -8.1590004 1.978
12.517 -8.1339998 1.988
12.604 -8.1129999 2
12.69 -8.0900002 2.0120001
12.8 -8.0830002 2.0280001
12.915 -8.0790005 2.0439999
10.633 -3.5190001 1.618
10.509 -3.4389999 1.599
10.51 -3.401 1.598
10.608 -3.395 1.612
10.539 -3.2969999 1.601
10.399 -3.2160001 1.579
10.369 -3.1700001 1.573
10.366 -3.1329999 1.572
10.347 -3.0910001 1.569
10.331 -3.0510001 1.566
10.34 -3.0179999 1.567
10.358 -2.9879999 1.569
10.379 -2.9579999 1.571
10.384 -2.925 1.572
10.406 -2.8959999 1.574
10.509 -2.8900001 1.589
10.611 -3.54 1.658
10.502 -3.4719999 1.641
10.477 -3.4319999 1.636
10.484 -3.4030001 1.637
10.515 -3.382 1.642
10.555 -3.3629999 1.647
10.541 -3.3269999 1.645
10.434 -3.2620001 1.628
10.367 -3.211 1.617
10.346 -3.1730001 1.613
10.357 -3.1459999 1.615
10.353 -3.1140001 1.613
10.341 -3.079 1.6109999
10.335 -3.0469999 1.61
10.34 -3.0179999 1.61
10.345 -2.9879999 1.61
10.364 -2.9630001 1.613
10.376 -2.9349999 1.614
10.374 -2.904 1.614
10.372 -2.8729999 1.613
10.433 -2.858 1.622
31.419001 12.734 5.2870002
31.375999 12.837 5.2880001
31.358 12.952 5.2919998
10.627 -3.4779999 1.665
10.475 -3.3900001 1.64
10.476 -3.3529999 1.64
10.508 -3.325 1.6440001
