# .PCD v0.7 - Point Cloud Data file format
VERSION 0.7
FIELDS x y z
SIZE 4 4 4
TYPE F F F
COUNT 1 1 1
WIDTH 1821
HEIGHT 1
VIEWPOINT 0 0 0 1 0 0 0
POINTS 1821
DATA ascii
12.809 0.37799999 0.66000003
12.814 0.414 0.66000003
12.807 0.45100001 0.66000003
12.819 0.48800001 0.66000003
12.824 0.52499998 0.66000003
12.825 0.56199998 0.66000003
12.83 0.59899998 0.66000003
12.825 0.63499999 0.66000003
12.833 0.67199999 0.66000003
12.846 0.70999998 0.66100001
12.835 0.74599999 0.66000003
12.869 0.78500003 0.66100001
12.871 0.82200003 0.66100001
12.882 0.85900003 0.662
12.854 0.89399999 0.66000003
12.65 0.12 0.56699997
12.644 0.131 0.56599998
12.647 0.14300001 0.56599998
12.649 0.155 0.56599998
12.637 0.167 0.565
12.643 0.18000001 0.565
12.645 0.193 0.565
12.634 0.206 0.56400001
12.648 0.22 0.56400001
12.636 0.234 0.56300002
12.65 0.249 0.56400001
12.657 0.26300001 0.56400001
12.642 0.278 0.56300002
12.648 0.29300001 0.56300002
12.643 0.30899999 0.56300002
12.644 0.32499999 0.56199998
12.642 0.34099999 0.56199998
12.657 0.35800001 0.56199998
12.654 0.37400001 0.56199998
12.654 0.391 0.56199998
12.656 0.40900001 0.56199998
12.659 0.42699999 0.56199998
12.669 0.44499999 0.56199998
12.66 0.463 0.56099999
12.663 0.48199999 0.56099999
12.661 0.50099999 0.56099999
12.666 0.51999998 0.56099999
12.67 0.54000002 0.56099999
12.668 0.55900002 0.56099999
12.67 0.57999998 0.56099999
12.66 0.59899998 0.56
12.666 0.62 0.56099999
12.679 0.64200002 0.56099999
12.687 0.66399997 0.56099999
12.746 0.68800002 0.56400001
12.832 0.71499997 0.56800002
12.887 0.741 0.56999999
12.892 0.764 0.56999999
12.885 0.78600001 0.56999999
12.874 0.80900002 0.56900001
12.872 0.83200002 0.56900001
12.854 0.85500002 0.56800002
12.819 0.87599999 0.56599998
12.811 0.89999998 0.56599998
12.807 0.92400002 0.56599998
12.793 0.94800001 0.565
12.797 0.97299999 0.565
12.806 0.99900001 0.56599998
12.801 1.024 0.565
12.812 1.051 0.56599998
12.827 1.0779999 0.56699997
12.854 1.107 0.56800002
12.868 1.135 0.56800002
12.891 1.164 0.56999999
12.889 1.191 0.56900001
12.932 1.223 0.57099998
12.945 1.252 0.57200003
12.964 1.2819999 0.57300001
12.976 1.312 0.57300001
19.250999 1.946 0.85100001
12.988 1.342 0.574
19.521999 2.017 0.86299998
13.035 1.376 0.57599998
19.402 2.0480001 0.85799998
13.08 1.41 0.57800001
19.229 2.073 0.85000002
13.159 1.448 0.58200002
19.292 2.1240001 0.85299999
13.127 1.475 0.58099997
19.308001 2.1700001 0.85399997
13.096 1.502 0.579
19.405001 2.2249999 0.85900003
13.001 1.521 0.57499999
12.992 1.55 0.57499999
19.579 2.3369999 0.86699998
13.07 1.591 0.57800001
19.379 2.359 0.85799998
19.329 2.3989999 0.85600001
19.357 2.4489999 0.85699999
19.409 2.5020001 0.86000001
19.427 2.552 0.861
19.448999 2.6029999 0.86199999
19.466 2.6530001 0.86299998
19.589001 2.7190001 0.86900002
19.548 2.763 0.86699998
13.033 1.875 0.57800001
19.645 2.826 0.87199998
13.127 1.9220001 0.58200002
19.763 2.8929999 0.87699997
19.795 2.9489999 0.87900001
19.811001 3.0020001 0.88
19.743 3.043 0.87699997
19.785999 3.102 0.87900001
19.789 3.155 0.88
19.813999 3.211 0.88099998
19.870001 3.273 0.884
19.964001 3.3429999 0.88800001
20.202999 3.437 0.89899999
20.497999 3.543 0.91299999
20.434999 3.5880001 0.91100001
20.864 4.0149999 0.93199998
20.917 4.0840001 0.935
21.804001 4.77 0.97899997
21.857 4.8470001 0.98199999
21.701 4.8779998 0.97500002
21.790001 4.9640002 0.98000002
19.774 5.1869998 0.89600003
19.673 5.224 0.89200002
19.601999 5.2690001 0.889
19.594999 5.3309999 0.88999999
19.615999 5.401 0.89099997
19.712999 5.493 0.89600003
18.156 5.2399998 0.82800001
17.945 5.2399998 0.81900001
17.743 5.2399998 0.81
17.643 5.2709999 0.80599999
17.673 5.3400002 0.80800003
14.922 5.7410002 0.69700003
14.705 5.7119999 0.68800002
14.669 5.7540002 0.68699998
14.684 5.816 0.68900001
14.611 5.8429999 0.68599999
8.2650003 4.2410002 0.40099999
7.9629998 4.1199999 0.38699999
7.8800001 4.1110001 0.384
7.8150001 4.1100001 0.38100001
7.777 4.1240001 0.38
7.737 4.1360002 0.37799999
7.6950002 4.1469998 0.377
7.6599998 4.1609998 0.37599999
7.6290002 4.178 0.375
7.6110001 4.2010002 0.37400001
7.6020002 4.23 0.37400001
7.5819998 4.2519999 0.37400001
7.5770001 4.283 0.37400001
7.5949998 4.3270001 0.37599999
7.7389998 4.4439998 0.38299999
10.986 6.961 0.55599999
10.873 6.941 0.551
10.82 6.9580002 0.54900002
10.794 6.9920001 0.54900002
10.756 7.0180001 0.54699999
10.736 7.0560002 0.54699999
10.711 7.0910001 0.54699999
10.699 7.1329999 0.54699999
10.669 7.165 0.54699999
10.634 7.1919999 0.546
10.605 7.224 0.54500002
10.574 7.2540002 0.54500002
10.562 7.2969999 0.54500002
10.545 7.336 0.54500002
10.502 7.3569999 0.54400003
10.495 7.4039998 0.54400003
10.466 7.4349999 0.54400003
10.442 7.4689999 0.54299998
10.407 7.4949999 0.542
9.8059998 -6.4429998 0.55299997
9.8549995 -6.4130001 0.55500001
9.9180002 -6.3920002 0.55800003
9.9460001 -6.3499999 0.55900002
9.9799995 -6.3109999 0.56099999
10.036 -6.2859998 0.56300002
10.07 -6.2470002 0.565
10.107 -6.21 0.56599998
10.153 -6.1789999 0.56900001
10.162 -6.125 0.56900001
10.193 -6.085 0.56999999
10.219 -6.0419998 0.57099998
10.256 -6.006 0.57300001
10.292 -5.9689999 0.574
10.329 -5.934 0.57599998
10.338 -5.882 0.57599998
10.356 -5.835 0.57700002
10.421 -5.8150001 0.57999998
10.455 -5.7779999 0.58099997
10.549 -5.7740002 0.58600003
10.575 -5.7319999 0.58700001
10.523 -5.6490002 0.58399999
10.556 -5.612 0.58499998
10.618 -5.5900002 0.58899999
10.646 -5.5500002 0.58999997
10.676 -5.5120001 0.59100002
10.71 -5.4749999 0.59299999
10.746 -5.4400001 0.59399998
10.777 -5.4029999 0.59600002
10.802 -5.362 0.597
10.834 -5.3249998 0.59799999
10.861 -5.2859998 0.59899998
10.921 -5.2620001 0.602
10.948 -5.224 0.60299999
10.976 -5.1849999 0.60500002
11.01 -5.1500001 0.60600001
11.032 -5.1079998 0.60699999
11.048 -5.0650001 0.60799998
11.103 -5.039 0.61000001
11.139 -5.0050001 0.61199999
11.19 -4.9770002 0.61400002
11.204 -4.9330001 0.61500001
11.235 -4.8969998 0.616
11.269 -4.862 0.61799997
11.322 -4.836 0.62
11.369 -4.8060002 0.62300003
11.366 -4.756 0.62199998
11.394 -4.7189999 0.62400001
11.444 -4.691 0.62599999
11.5 -4.665 0.62900001
11.533 -4.6300001 0.63
11.577 -4.5999999 0.63200003
11.607 -4.5640001 0.634
11.661 -4.5370002 0.63599998
11.718 -4.5110002 0.639
11.753 -4.4770002 0.64099997
11.763 -4.434 0.64099997
11.826 -4.4109998 0.64399999
11.844 -4.3699999 0.64499998
11.873 -4.3340001 0.64600003
11.946 -4.3140001 0.64999998
11.994 -4.2849998 0.653
11.983 -4.2350001 0.65200001
12.049 -4.2119999 0.65499997
12.145 -4.1999998 0.66000003
12.217 -4.1789999 0.66399997
12.307 -4.1630001 0.66799998
12.377 -4.1409998 0.67199999
12.479 -4.1279998 0.67699999
12.666 -4.1440001 0.68699998
13.416 -3.868 0.72500002
13.434 -3.8280001 0.72600001
13.429 -3.7809999 0.72600001
13.446 -3.7409999 0.72600001
13.541 -3.7219999 0.73100001
13.535 -3.6760001 0.73100001
13.62 -3.654 0.73500001
13.712 -3.6340001 0.74000001
13.752 -3.5999999 0.74199998
13.707 -3.5439999 0.73900002
13.77 -3.516 0.74299997
13.76 -3.47 0.74199998
13.846 -3.448 0.74599999
13.985 -3.395 0.75400001
13.933 -3.339 0.75099999
13.973 -3.306 0.75300002
14.062 -3.2839999 0.75700003
11.051 -2.5469999 0.59500003
10.876 -2.474 0.58499998
10.839 -2.4330001 0.583
10.862 -2.405 0.58399999
10.936 -2.3889999 0.588
14.344 -3.05 0.77100003
14.309 -3.0009999 0.76899999
14.376 -2.973 0.773
14.428 -2.9430001 0.77499998
14.427 -2.901 0.77499998
14.475 -2.8699999 0.778
14.528 -2.839 0.77999997
14.57 -2.8069999 0.78200001
11.068 -2.1010001 0.59399998
10.961 -2.0510001 0.588
10.945 -2.0179999 0.58700001
10.948 -1.988 0.58700001
11.015 -1.97 0.59100002
15.128 -2.4660001 0.81099999
15.004 -2.4059999 0.80400002
15.015 -2.3699999 0.80500001
12.914 0.082000002 0.69300002
12.855 0.098999999 0.69
12.826 0.117 0.68900001
12.832 0.134 0.68900001
12.829 0.152 0.68900001
12.848 0.169 0.69
12.848 0.186 0.69
12.862 0.20299999 0.69099998
12.876 0.22 0.69199997
12.882 0.237 0.69300002
12.896 0.25299999 0.69400001
12.9 0.27000001 0.69400001
12.896 0.28600001 0.69400001
12.92 0.30199999 0.69499999
12.937 0.31900001 0.69599998
12.952 0.33500001 0.69700003
12.991 0.35100001 0.699
13.038 0.368 0.70200002
13.051 0.384 0.70300001
13.118 0.40099999 0.70700002
13.178 0.41800001 0.70999998
12.623 0.18000001 0.59899998
12.647 0.20299999 0.60000002
12.649 0.226 0.60000002
12.658 0.249 0.60000002
12.658 0.27200001 0.60000002
12.654 0.296 0.59899998
12.659 0.31999999 0.59899998
12.66 0.34400001 0.59899998
12.658 0.368 0.59899998
12.667 0.39300001 0.59899998
12.665 0.41800001 0.59899998
12.671 0.44299999 0.59899998
12.664 0.46799999 0.59899998
12.672 0.49399999 0.59899998
12.669 0.51999998 0.59899998
12.682 0.54699999 0.59899998
12.668 0.57300001 0.59799999
12.677 0.60000002 0.59899998
12.661 0.62599999 0.59799999
12.679 0.65399998 0.59899998
12.706 0.68300003 0.60000002
12.781 0.71499997 0.60299999
12.879 0.74900001 0.60799998
12.884 0.77700001 0.60799998
12.873 0.80599999 0.60699999
12.871 0.83499998 0.60699999
12.865 0.86299998 0.60699999
12.825 0.88999999 0.60500002
12.801 0.91799998 0.60399997
12.79 0.94700003 0.60299999
12.78 0.97600001 0.60299999
12.766 1.005 0.602
12.769 1.036 0.602
12.785 1.068 0.60299999
12.779 1.098 0.60299999
12.793 1.131 0.60299999
12.83 1.166 0.60500002
12.871 1.201 0.60699999
12.883 1.234 0.60799998
12.913 1.2690001 0.60900003
19.483999 1.915 0.91900003
12.935 1.304 0.61000001
19.479 1.964 0.91900003
12.935 1.337 0.61000001
19.400999 2.0050001 0.91500002
12.959 1.372 0.611
19.406 2.0550001 0.91600001
12.969 1.4069999 0.61199999
19.422001 2.1070001 0.917
13.037 1.448 0.61500001
19.410999 2.155 0.91600001
13.091 1.488 0.61799997
19.472 2.2130001 0.91900003
13.145 1.528 0.62
19.563999 2.2739999 0.92400002
13.103 1.558 0.61799997
19.676001 2.339 0.92900002
13.048 1.586 0.616
19.686001 2.392 0.93000001
13.047 1.62 0.616
19.625 2.437 0.92699999
13.094 1.661 0.61799997
19.634001 2.4909999 0.92699999
19.608999 2.54 0.926
19.709999 2.6070001 0.93099999
19.747999 2.665 0.93300003
19.903 2.74 0.94099998
19.777 2.7780001 0.935
19.997 2.8640001 0.94599998
13.077 1.909 0.61799997
13.028 1.938 0.616
19.983 2.973 0.94499999
19.955 3.0250001 0.94400001
20.032 3.0929999 0.94800001
20.028 3.1489999 0.94800001
20.129 3.2219999 0.95300001
20.374001 3.319 0.96499997
20.437 3.388 0.96799999
20.450001 3.4489999 0.96899998
20.438 3.507 0.96899998
20.471001 3.572 0.97100002
20.586 3.652 0.977
21.691999 4.105 1.031
21.674999 4.1659999 1.03
21.658001 4.2280002 1.03
21.659 4.2930002 1.03
21.778999 4.3829999 1.036
22.056999 4.6409998 1.051
21.915001 4.678 1.045
21.785999 4.7179999 1.039
21.736 4.7740002 1.0369999
21.691 4.8319998 1.035
21.746 4.9120002 1.038
19.773001 5.0939999 0.949
19.662001 5.1290002 0.94400001
19.652 5.1900001 0.94400001
19.608 5.243 0.94300002
19.568001 5.296 0.94099998
19.636 5.3790002 0.94499999
19.76 5.4780002 0.95200002
18.110001 5.1399999 0.87300003
17.900999 5.1399999 0.86400002
17.752001 5.1560001 0.85699999
17.625 5.178 0.852
17.573 5.2210002 0.85000002
17.674999 5.3109999 0.85500002
14.843 5.7410002 0.73199999
14.79 5.7729998 0.73000002
14.863 5.8540001 0.73400003
14.837 5.8969998 0.73299998
7.9520001 4.1110001 0.40599999
7.8930001 4.1090002 0.403
7.8299999 4.105 0.40000001
7.7659998 4.0999999 0.398
7.7179999 4.1030002 0.396
7.6919999 4.1170001 0.39500001
7.6570001 4.1259999 0.39300001
7.6469998 4.1490002 0.39300001
7.6209998 4.1620002 0.39199999
7.6059999 4.1820002 0.39199999
7.5910001 4.2020001 0.39199999
7.5819998 4.224 0.39199999
7.5700002 4.2449999 0.39199999
7.5689998 4.2719998 0.39199999
7.5939999 4.3130002 0.39399999
7.684 4.3920002 0.39899999
10.977 7.2480001 0.588
10.785 7.158 0.57800001
10.739 7.1630001 0.57599998
10.707 7.178 0.57499999
10.707 7.2140002 0.57599998
10.673 7.2280002 0.57499999
10.668 7.2600002 0.57499999
10.66 7.29 0.57599998
10.65 7.3189998 0.57599998
10.625 7.336 0.57499999
10.596 7.3509998 0.57499999
10.581 7.3759999 0.574
10.565 7.3990002 0.574
10.548 7.421 0.574
10.541 7.4510002 0.57499999
10.528 7.4749999 0.57499999
10.523 7.5050001 0.57499999
10.513 7.5310001 0.57499999
10.511 7.5630002 0.57599998
10.489 7.5799999 0.57499999
10.463 7.5939999 0.57499999
10.463 7.625 0.57499999
10.706 -6.355 0.62
10.674 -6.3060002 0.61799997
10.693 -6.2859998 0.61900002
10.748 -6.2870002 0.62199998
10.752 -6.2589998 0.62199998
10.767 -6.237 0.62300003
10.779 -6.2119999 0.62400001
10.789 -6.1869998 0.62400001
10.831 -6.1789999 0.62599999
10.839 -6.1529999 0.62699997
10.879 -6.1440001 0.62900001
10.867 -6.105 0.62800002
10.877 -6.079 0.62900001
10.898 -6.0599999 0.63
10.869 -6.0120001 0.62800002
10.902 -5.9990001 0.63
10.899 -5.9650002 0.63
10.917 -5.9429998 0.63099998
10.957 -5.9330001 0.63300002
10.947 -5.8959999 0.63300002
10.955 -5.868 0.63300002
11.019 -5.8699999 0.63700002
11.13 -5.7989998 0.64300001
11.074 -5.7379999 0.639
11.058 -5.697 0.63800001
11.085 -5.6789999 0.63999999
11.101 -5.6539998 0.64099997
11.119 -5.631 0.64200002
11.162 -5.6199999 0.64399999
11.183 -5.598 0.64499998
11.188 -5.5679998 0.64600003
11.217 -5.5489998 0.64700001
11.229 -5.5229998 0.648
11.242 -5.4959998 0.648
11.24 -5.4619999 0.648
11.323 -5.4689999 0.653
11.306 -5.428 0.65200001
11.319 -5.401 0.653
11.336 -5.3759999 0.653
11.325 -5.3379998 0.653
11.363 -5.322 0.65499997
11.367 -5.2909999 0.65499997
11.39 -5.2680001 0.65600002
11.414 -5.2459998 0.65799999
11.443 -5.2249999 0.65899998
11.447 -5.1939998 0.65899998
11.48 -5.1750002 0.66100001
11.505 -5.152 0.662
11.521 -5.1259999 0.66299999
11.556 -5.1069999 0.66500002
11.595 -5.0910001 0.667
11.601 -5.059 0.66799998
11.652 -5.0469999 0.671
11.652 -5.013 0.67000002
11.673 -4.9879999 0.67199999
11.701 -4.9650002 0.67299998
11.75 -4.9520001 0.676
11.767 -4.9250002 0.67699999
11.746 -4.881 0.67500001
11.783 -4.862 0.67699999
11.806 -4.8369999 0.67900002
11.832 -4.8130002 0.68000001
11.908 -4.809 0.68400002
11.974 -4.8000002 0.68800002
11.976 -4.7659998 0.68800002
12.077 -4.7709999 0.69400001
12.032 -4.7179999 0.69099998
12.133 -4.7220001 0.69700003
12.098 -4.6729999 0.69499999
12.107 -4.6409998 0.69499999
12.229 -4.652 0.70200002
12.265 -4.6300001 0.704
12.252 -4.5890002 0.70300001
12.291 -4.5669999 0.70499998
12.308 -4.5380001 0.70599997
12.369 -4.5240002 0.70999998
12.43 -4.5100002 0.713
12.561 -4.5209999 0.72000003
12.607 -4.5 0.72299999
12.699 -4.4959998 0.72799999
12.765 -4.4819999 0.73199999
12.706 -4.4239998 0.72799999
12.854 -4.4380002 0.73699999
12.796 -4.381 0.73299998
12.857 -4.3639998 0.73699999
12.917 -4.3470001 0.74000001
13.006 -4.3390002 0.745
13.43 -4.0879998 0.76800001
13.458 -4.0580001 0.76899999
13.457 -4.0180001 0.76899999
13.502 -3.9920001 0.77200001
13.548 -3.9660001 0.77399999
13.532 -3.9219999 0.773
13.572 -3.8940001 0.77499998
13.556 -3.8499999 0.77399999
13.57 -3.8150001 0.77499998
13.631 -3.7920001 0.778
13.645 -3.757 0.77899998
13.701 -3.7320001 0.78200001
13.78 -3.714 0.78600001
13.787 -3.675 0.787
13.923 -3.671 0.79400003
13.967 -3.642 0.79699999
13.9 -3.5439999 0.79299998
13.929 -3.5109999 0.79400003
13.957 -3.4779999 0.796
14.004 -3.4489999 0.79799998
14.13 -3.4389999 0.80500001
14.158 -3.3640001 0.80599999
14.16 -3.323 0.80599999
14.146 -3.279 0.80500001
14.22 -3.2550001 0.81
11.109 -2.51 0.63200003
10.899 -2.431 0.62
10.86 -2.391 0.61799997
10.861 -2.3599999 0.61799997
10.898 -2.3369999 0.62
11.095 -2.3469999 0.63099998
14.638 -2.927 0.83200002
14.594 -2.8759999 0.829
14.678 -2.8499999 0.83399999
14.759 -2.823 0.838
14.753 -2.78 0.838
10.98 -2.0369999 0.62300003
10.933 -1.997 0.62
10.948 -1.9680001 0.62099999
11 -1.946 0.62400001
12.944 0.236 0.72399998
12.835 0.27000001 0.71700001
12.831 0.30700001 0.71700001
12.831 0.34400001 0.71700001
12.832 0.38100001 0.71700001
12.846 0.41800001 0.71700001
12.842 0.454 0.71700001
12.861 0.49200001 0.71799999
12.863 0.52899998 0.71799999
12.853 0.565 0.71700001
12.868 0.60299999 0.71799999
12.865 0.639 0.71700001
12.884 0.67699999 0.71799999
12.899 0.71499997 0.71899998
12.916 0.75300002 0.72000003
12.936 0.79100001 0.72100002
12.934 0.82800001 0.72000003
12.944 0.866 0.72100002
12.942 0.903 0.72000003
12.65 0.123 0.62699997
12.635 0.134 0.62599999
12.638 0.146 0.625
12.635 0.15800001 0.625
12.632 0.17 0.625
12.632 0.183 0.62400001
12.652 0.19599999 0.625
12.642 0.20900001 0.62400001
12.648 0.223 0.62400001
12.64 0.237 0.62300003
12.642 0.25099999 0.62300003
12.644 0.26499999 0.62300003
12.641 0.28 0.62300003
12.647 0.296 0.62300003
12.638 0.31099999 0.62199998
12.643 0.32699999 0.62199998
12.643 0.34299999 0.62199998
12.643 0.359 0.62199998
12.651 0.37599999 0.62199998
12.651 0.39399999 0.62199998
12.654 0.41100001 0.62099999
12.658 0.42899999 0.62199998
12.652 0.447 0.62099999
12.654 0.465 0.62099999
12.654 0.48300001 0.62099999
12.658 0.50300002 0.62099999
12.669 0.52200001 0.62099999
12.666 0.54100001 0.62099999
12.672 0.56199998 0.62099999
12.671 0.58200002 0.62099999
12.667 0.602 0.62099999
12.674 0.62300003 0.62099999
12.682 0.64399999 0.62099999
12.697 0.66600001 0.62199998
12.72 0.68900001 0.62300003
12.79 0.71399999 0.62599999
12.875 0.74199998 0.63
12.885 0.76499999 0.63099998
12.902 0.78899997 0.63099998
12.884 0.81099999 0.63
12.854 0.833 0.62900001
12.826 0.85399997 0.62699997
12.782 0.875 0.625
12.748 0.89700001 0.62400001
12.726 0.92000002 0.62300003
12.711 0.94300002 0.62199998
12.707 0.96799999 0.62199998
12.711 0.99299997 0.62199998
12.73 1.02 0.62300003
12.736 1.046 0.62300003
12.749 1.073 0.62400001
12.768 1.101 0.625
12.775 1.128 0.625
12.805 1.158 0.62699997
12.86 1.1900001 0.62900001
12.905 1.222 0.63200003
12.939 1.253 0.63300002
12.955 1.2819999 0.634
12.97 1.312 0.63499999
20.597 2.0840001 1.0089999
12.963 1.34 0.63499999
20.591 2.1289999 1.008
12.982 1.3710001 0.63599998
20.688999 2.1849999 1.013
13.04 1.4069999 0.639
20.559 2.2179999 1.007
13.139 1.447 0.64399999
20.586 2.2679999 1.0089999
13.192 1.483 0.64600003
20.607 2.3169999 1.01
20.676001 2.3729999 1.013
20.617001 2.414 1.011
20.57 2.457 1.0089999
20.614 2.5109999 1.011
20.964001 2.6029999 1.029
20.671 2.6170001 1.0140001
20.74 2.675 1.018
20.757 2.7279999 1.0190001
20.698999 2.7720001 1.017
20.66 2.8180001 1.015
20.614 2.8629999 1.013
20.664 2.9219999 1.016
20.857 3.0020001 1.026
20.940001 3.0669999 1.03
20.813999 3.102 1.024
20.798 3.1530001 1.024
20.796 3.207 1.024
20.889999 3.276 1.029
20.728001 3.3050001 1.022
20.705 3.3570001 1.021
20.660999 3.405 1.0190001
20.722 3.471 1.022
21.922001 3.79 1.0829999
21.701 3.812 1.072
21.771 3.8840001 1.076
21.775 3.9449999 1.077
21.695999 3.9920001 1.074
21.657 4.0450001 1.072
21.709 4.1160002 1.075
21.731001 4.1820002 1.077
21.809999 4.2600002 1.081
21.882999 4.3369999 1.086
21.966 4.4169998 1.09
22.052 4.4980001 1.095
22.056999 4.5640001 1.096
22.214001 4.6620002 1.105
22.23 4.7309999 1.1059999
22.094999 4.7680001 1.1
21.992001 4.8109999 1.095
21.892 4.855 1.091
21.895 4.9219999 1.092
19.655001 5.1560001 0.98799998
19.613001 5.2090001 0.98699999
19.591999 5.2670002 0.98699999
19.561001 5.322 0.986
19.573999 5.3899999 0.98699999
19.679001 5.4840002 0.99400002
18.139 5.1750002 0.917
17.938 5.178 0.90799999
17.768999 5.1880002 0.89999998
17.635 5.2090001 0.89399999
17.563999 5.2470002 0.89099997
17.591 5.3150001 0.89300001
14.995 5.7690001 0.77899998
14.834 5.7620001 0.77200001
8.0369997 4.0890002 0.43399999
7.8969998 4.052 0.42699999
7.8390002 4.0549998 0.42399999
7.796 4.0669999 0.42300001
7.737 4.0689998 0.41999999
7.71 4.0879998 0.419
7.6700001 4.0999999 0.41800001
7.6560001 4.1259999 0.417
7.6420002 4.152 0.417
7.6259999 4.1760001 0.417
7.5949998 4.1929998 0.41600001
7.5819998 4.2189999 0.41600001
7.5689998 4.2449999 0.41600001
7.566 4.277 0.41600001
7.598 4.329 0.419
7.7059999 4.4250002 0.42500001
10.904 6.961 0.61500001
10.855 6.98 0.61400002
10.829 7.0149999 0.61299998
10.806 7.0510001 0.61299998
10.785 7.0879998 0.61299998
10.767 7.1279998 0.61299998
10.729 7.1539998 0.61199999
10.705 7.1890001 0.611
10.681 7.224 0.611
10.65 7.2550001 0.61000001
10.62 7.2859998 0.61000001
10.607 7.3280001 0.61000001
10.585 7.3639998 0.61000001
10.558 7.3969998 0.60900003
10.538 7.4349999 0.60900003
10.505 7.4629998 0.60799998
10.47 7.4899998 0.60699999
10.448 7.5250001 0.60699999
10.173 -6.6820002 0.62099999
10.215 -6.6459999 0.62300003
10.265 -6.6149998 0.625
10.308 -6.579 0.62800002
10.344 -6.54 0.62900001
10.394 -6.5079999 0.63200003
10.429 -6.4679999 0.63300002
10.445 -6.4159999 0.634
10.498 -6.3870001 0.63700002
10.513 -6.335 0.63700002
10.543 -6.2919998 0.63800001
10.573 -6.25 0.63999999
10.606 -6.2090001 0.64099997
10.639 -6.1690001 0.64300001
10.675 -6.131 0.64499998
10.721 -6.098 0.64700001
10.743 -6.052 0.648
10.774 -6.0110002 0.64899999
10.842 -5.9910002 0.653
10.898 -5.9640002 0.65600002
10.92 -5.9180002 0.65700001
10.934 -5.868 0.65700001
10.943 -5.816 0.65700001
10.954 -5.7659998 0.65700001
10.99 -5.7290001 0.65899998
11.029 -5.6929998 0.66100001
11.075 -5.6609998 0.66299999
11.101 -5.619 0.66500002
11.139 -5.5830002 0.66600001
11.174 -5.546 0.66799998
11.217 -5.5120001 0.67000002
11.236 -5.467 0.671
11.243 -5.4169998 0.671
11.297 -5.3889999 0.67400002
11.346 -5.3590002 0.676
11.378 -5.3210001 0.67799997
11.418 -5.2859998 0.68000001
11.413 -5.2309999 0.67900002
11.457 -5.1989999 0.68199998
11.499 -5.1659999 0.68400002
11.517 -5.1220002 0.68400002
11.572 -5.0949998 0.68699998
11.607 -5.059 0.68900001
11.654 -5.0279999 0.69199997
11.699 -4.9959998 0.69400001
11.735 -4.96 0.69599998
11.763 -4.921 0.69700003
11.796 -4.8850002 0.699
11.855 -4.8590002 0.70200002
11.898 -4.8260002 0.704
11.936 -4.7919998 0.70599997
12.028 -4.7789998 0.71100003
12.096 -4.756 0.71499997
12.206 -4.7490001 0.72100002
12.208 -4.6999998 0.72100002
12.254 -4.6680002 0.72299999
12.35 -4.6550002 0.72899997
12.423 -4.6329999 0.73299998
12.496 -4.6100001 0.73699999
12.534 -4.5749998 0.73900002
12.591 -4.5469999 0.74199998
12.641 -4.5159998 0.74400002
12.8 -4.5229998 0.75300002
12.874 -4.5 0.75700003
12.89 -4.4569998 0.75800002
13.014 -4.4510002 0.76499999
13.065 -4.4190001 0.76800001
13.126 -4.3909998 0.77100003
13.22 -4.3730001 0.77600002
13.589 -4.1529999 0.796
13.533 -4.0879998 0.79299998
13.578 -4.0549998 0.79500002
13.619 -4.02 0.79699999
13.678 -3.99 0.80000001
13.702 -3.95 0.80199999
13.654 -3.8900001 0.79900002
13.748 -3.8710001 0.80400002
13.833 -3.848 0.80900002
13.915 -3.825 0.81300002
13.947 -3.7880001 0.815
14.165 -3.6170001 0.82599998
14.165 -3.572 0.82599998
14.247 -3.5480001 0.83099997
14.241 -3.5009999 0.82999998
14.318 -3.4760001 0.83499998
10.881 -2.4749999 0.63300002
10.846 -2.434 0.63099998
10.847 -2.402 0.63099998
10.881 -2.3770001 0.63300002
11.051 -2.382 0.64300001
10.97 -2.0829999 0.63700002
10.927 -2.0439999 0.634
10.935 -2.016 0.63499999
10.93 -1.985 0.634
11.021 -1.972 0.63999999
13.024 -0.40000001 0.75400001
12.921 -0.375 0.74800003
12.877 -0.352 0.74599999
12.848 -0.329 0.74400002
12.829 -0.308 0.74299997
12.819 -0.28600001 0.74199998
12.822 -0.266 0.74299997
12.838 -0.245 0.74400002
12.793 -0.22400001 0.741
12.75 -0.20299999 0.73900002
12.751 -0.183 0.73900002
12.767 -0.163 0.74000001
12.821 -0.14399999 0.74299997
12.946 -0.125 0.75
13.124 0.119 0.76200002
13.079 0.13699999 0.759
12.626 0.182 0.65899998
12.647 0.205 0.65899998
12.653 0.228 0.66000003
12.646 0.25099999 0.65899998
12.657 0.27399999 0.65899998
12.655 0.29699999 0.65899998
12.65 0.32100001 0.65899998
12.665 0.34599999 0.65899998
12.658 0.37 0.65899998
12.66 0.39399999 0.65899998
12.666 0.419 0.65899998
12.675 0.44499999 0.65899998
12.667 0.47 0.65899998
12.67 0.49599999 0.65899998
12.681 0.52200001 0.65899998
12.685 0.54799998 0.65899998
12.683 0.57499999 0.65899998
12.689 0.602 0.65899998
12.694 0.62900001 0.65899998
12.71 0.65700001 0.66000003
12.757 0.68699998 0.66299999
12.847 0.72000003 0.667
12.885 0.75 0.66900003
12.883 0.77899998 0.66900003
12.872 0.80699998 0.66799998
12.835 0.833 0.66600001
12.796 0.86000001 0.66399997
12.762 0.88700002 0.662
12.724 0.91399997 0.66100001
12.693 0.94099998 0.65899998
12.695 0.97100002 0.65899998
12.697 1.001 0.65899998
12.701 1.0319999 0.65899998
12.725 1.064 0.66100001
12.736 1.096 0.66100001
12.761 1.1289999 0.66299999
12.793 1.163 0.66399997
12.82 1.197 0.66600001
12.902 1.237 0.67000002
12.95 1.274 0.67199999
12.967 1.308 0.67299998
12.988 1.3430001 0.67500001
12.97 1.374 0.67400002
20.545 2.177 1.068
12.976 1.408 0.67400002
20.559 2.2309999 1.068
13.041 1.449 0.67799997
20.591999 2.2880001 1.0700001
13.134 1.493 0.68300003
20.608 2.3429999 1.071
20.634001 2.4000001 1.073
20.648001 2.4560001 1.074
20.613001 2.506 1.072
20.688999 2.5699999 1.076
20.794001 2.6389999 1.082
20.818001 2.698 1.0829999
20.834999 2.757 1.084
20.872 2.8180001 1.087
20.861 2.8740001 1.086
20.892 2.9349999 1.0880001
20.968 3.0039999 1.092
21.113001 3.0829999 1.1
21.046 3.132 1.097
20.945999 3.1760001 1.092
20.879999 3.2249999 1.089
20.936001 3.2920001 1.092
21.766001 3.7349999 1.137
21.812 3.8069999 1.14
21.830999 3.8740001 1.142
21.885 3.948 1.145
21.858999 4.007 1.1440001
21.853001 4.0710001 1.1440001
21.864 4.138 1.145
21.997999 4.2290001 1.153
22.025999 4.3010001 1.155
22.054001 4.3730001 1.156
22.134001 4.4549999 1.161
22.261 4.5479999 1.168
22.337999 4.632 1.173
22.333 4.6989999 1.173
22.346001 4.7709999 1.174
22.323 4.835 1.174
22.448999 4.9310002 1.181
19.667999 5.131 1.0420001
19.618 5.1820002 1.04
19.615 5.2449999 1.04
19.583 5.3000002 1.039
19.617001 5.3740001 1.0420001
19.790001 5.4860001 1.052
18.094999 5.1360002 0.963
17.914 5.1440001 0.954
17.789 5.1669998 0.94800001
17.667 5.1900001 0.94199997
17.604 5.23 0.93900001
17.636999 5.2989998 0.94199997
8.0030003 4.0500002 0.44999999
7.8410001 3.9960001 0.442
7.7810001 3.994 0.43900001
7.7459998 4.0050001 0.43700001
7.7319999 4.026 0.43700001
7.7150002 4.0450001 0.43700001
7.697 4.0640001 0.43599999
7.6999998 4.0929999 0.43700001
7.6799998 4.1110001 0.43599999
7.6789999 4.138 0.43700001
7.6729999 4.1630001 0.43700001
7.6560001 4.1820002 0.43599999
7.631 4.1960001 0.435
7.5999999 4.2069998 0.43399999
7.5749998 4.2199998 0.433
7.5560002 4.237 0.433
7.552 4.2620001 0.433
7.5689998 4.3000002 0.43399999
7.6329999 4.3639998 0.43900001
11.127 -6.5139999 0.69499999
11.21 -6.5310001 0.69999999
11.19 -6.487 0.699
11.237 -6.4489999 0.70200002
11.283 -6.4419999 0.704
11.172 -6.3460002 0.69700003
11.243 -6.3540001 0.70200002
11.23 -6.3140001 0.70099998
11.233 -6.2839999 0.70099998
11.227 -6.2470002 0.70099998
11.219 -6.21 0.69999999
11.243 -6.191 0.70200002
11.257 -6.1659999 0.70200002
11.281 -6.1459999 0.704
11.33 -6.1399999 0.70700002
11.37 -6.1279998 0.70899999
11.446 -6.1360002 0.71399999
11.484 -6.0549998 0.71600002
11.426 -5.9910002 0.71200001
11.488 -5.9899998 0.71600002
11.484 -5.9549999 0.71600002
11.511 -5.9349999 0.71700001
11.489 -5.8899999 0.71600002
11.508 -5.8660002 0.71700001
11.524 -5.8400002 0.71799999
11.513 -5.8010001 0.71700001
11.556 -5.789 0.72000003
11.621 -5.7870002 0.72399998
11.626 -5.756 0.72399998
11.639 -5.7280002 0.72500002
11.608 -5.6789999 0.72299999
11.656 -5.6680002 0.72500002
11.661 -5.6360002 0.72600001
11.674 -5.6079998 0.72600001
11.727 -5.599 0.73000002
11.732 -5.5669999 0.73000002
11.766 -5.5489998 0.73199999
11.799 -5.5300002 0.73400003
11.811 -5.5009999 0.73400003
11.831 -5.4749999 0.736
11.871 -5.4590001 0.73799998
11.903 -5.4390001 0.74000001
11.938 -5.4200001 0.74199998
11.967 -5.3979998 0.74400002
11.987 -5.3709998 0.745
12.027 -5.3540001 0.74699998
12.07 -5.3379998 0.75
12.088 -5.3099999 0.75099999
12.121 -5.289 0.75300002
12.137 -5.2600002 0.75400001
12.18 -5.243 0.75599998
12.242 -5.2340002 0.75999999
12.332 -5.2360001 0.76499999
12.331 -5.1999998 0.76499999
12.295 -5.1479998 0.76300001
12.36 -5.1389999 0.76700002
12.356 -5.1009998 0.76599997
12.388 -5.0780001 0.76800001
12.398 -5.046 0.76899999
12.46 -5.0349998 0.773
12.526 -5.0240002 0.77700001
12.578 -5.0079999 0.77999997
12.669 -5.007 0.78500003
12.605 -4.9450002 0.78100002
12.902 -5.0240002 0.79900002
12.959 -5.0079999 0.80299997
12.842 -4.8870001 0.79500002
12.818 -4.8410001 0.79400003
12.911 -4.8379998 0.79900002
13.011 -4.8369999 0.80500001
13.004 -4.796 0.80500001
13.052 -4.776 0.80800003
13.081 -4.7480001 0.80900002
13.121 -4.724 0.81199998
13.232 -4.7259998 0.81800002
13.223 -4.6830001 0.81800002
13.425 -4.5190001 0.829
13.535 -4.5170002 0.83600003
13.562 -4.4860001 0.838
13.539 -4.4390001 0.83600003
13.56 -4.4060001 0.83700001
13.591 -4.3769999 0.83899999
13.599 -4.3400002 0.83899999
13.699 -4.3319998 0.84500003
13.795 -4.1609998 0.85100001
13.758 -4.1090002 0.84799999
13.797 -4.0809999 0.85000002
13.841 -4.053 0.85299999
13.869 -4.0209999 0.85399997
13.957 -4.006 0.86000001
14.027 -3.9849999 0.86400002
13.976 -3.9300001 0.861
14.039 -3.9070001 0.86400002
14.104 -3.8840001 0.86799997
14.143 -3.8540001 0.87
14.186 -3.8239999 0.87300003
14.356 -3.7449999 0.88300002
14.357 -3.7030001 0.88300002
14.408 -3.507 0.88499999
14.453 -3.4760001 0.88800001
14.523 -3.451 0.89200002
14.622 -3.3900001 0.898
14.704 -3.3659999 0.903
10.984 -2.451 0.67400002
10.881 -2.3959999 0.667
10.852 -2.358 0.66500002
10.85 -2.326 0.66500002
10.921 -2.3099999 0.66900003
10.96 -2.033 0.671
10.927 -1.995 0.66799998
10.924 -1.9630001 0.66799998
10.971 -1.9400001 0.671
11.227 -1.9529999 0.68599999
12.95 -0.50300002 0.78399998
12.844 -0.46200001 0.77700001
12.765 -0.42300001 0.77200001
12.717 -0.38499999 0.76899999
12.69 -0.34799999 0.76700002
12.681 -0.31099999 0.76700002
12.675 -0.27500001 0.76599997
12.676 -0.23800001 0.76599997
12.669 -0.20200001 0.76499999
12.68 -0.16599999 0.76599997
12.708 -0.13 0.76700002
12.784 -0.093999997 0.77200001
12.721 0.126 0.69
12.719 0.138 0.69
12.721 0.149 0.69
12.725 0.162 0.69
12.724 0.17399999 0.68900001
12.733 0.18700001 0.68900001
12.72 0.2 0.68800002
12.724 0.213 0.68800002
12.732 0.227 0.68800002
12.733 0.241 0.68800002
12.74 0.255 0.68800002
12.74 0.27000001 0.68800002
12.74 0.285 0.68800002
12.737 0.30000001 0.68699998
12.74 0.31600001 0.68699998
12.745 0.33199999 0.68699998
12.735 0.34799999 0.68599999
12.738 0.36399999 0.68599999
12.734 0.38100001 0.68599999
12.753 0.39899999 0.68699998
12.755 0.41600001 0.68699998
12.763 0.43399999 0.68699998
12.768 0.45300001 0.68699998
12.774 0.47099999 0.68699998
12.782 0.49000001 0.68699998
12.787 0.50999999 0.68699998
12.793 0.52899998 0.68800002
12.795 0.54900002 0.68800002
12.803 0.56900001 0.68800002
12.804 0.58999997 0.68800002
12.807 0.61000001 0.68800002
12.818 0.63200003 0.68800002
12.844 0.65399998 0.69
12.872 0.67699999 0.69099998
12.898 0.69999999 0.69199997
12.913 0.72299999 0.69300002
12.904 0.745 0.69199997
12.909 0.76800001 0.69300002
12.896 0.79000002 0.69199997
12.874 0.81199998 0.69099998
12.851 0.83399999 0.68900001
12.831 0.85600001 0.68800002
12.78 0.87699997 0.68599999
12.731 0.89700001 0.68300003
12.705 0.92000002 0.68199998
12.715 0.94499999 0.68199998
12.718 0.97000003 0.68199998
12.716 0.995 0.68199998
12.741 1.022 0.68400002
12.761 1.05 0.685
12.773 1.077 0.685
12.79 1.104 0.68599999
12.829 1.1339999 0.68800002
12.873 1.165 0.69099998
12.907 1.1950001 0.69300002
12.916 1.224 0.69300002
20.891001 1.98 1.122
12.936 1.2539999 0.69499999
20.896 2.0250001 1.122
12.953 1.283 0.69599998
20.816999 2.063 1.118
12.969 1.313 0.69599998
20.924999 2.119 1.124
12.983 1.344 0.69700003
13.002 1.374 0.699
21.400999 2.263 1.15
13.013 1.405 0.699
21.299 2.3 1.145
13.055 1.439 0.70200002
21.18 2.335 1.1390001
13.144 1.479 0.70700002
21.091 2.3729999 1.1339999
21.129999 2.427 1.136
21.625 2.5339999 1.163
21.591 2.5799999 1.1619999
21.641001 2.6370001 1.165
21.764999 2.704 1.1720001
21.844999 2.767 1.176
21.854 2.8210001 1.177
21.867001 2.8759999 1.178
21.837 2.925 1.177
21.782 2.9719999 1.174
21.823999 3.0320001 1.177
21.77 3.079 1.175
21.67 3.1199999 1.17
21.607 3.1659999 1.1670001
22.16 3.3039999 1.197
22.239 3.3729999 1.202
22.216999 3.427 1.201
22.246 3.49 1.2029999
22.301001 3.5580001 1.206
22.322001 3.6199999 1.2079999
22.261999 3.6700001 1.205
22.289 3.734 1.207
22.219 3.7820001 1.204
22.15 3.8310001 1.201
22.070999 3.878 1.197
22.117001 3.947 1.2
22.174999 4.0190001 1.204
22.240999 4.0929999 1.2079999
22.264 4.1589999 1.21
22.320999 4.2329998 1.214
22.285999 4.29 1.2130001
22.233 4.3429999 1.211
22.412001 4.4419999 1.221
22.499001 4.5250001 1.226
22.492001 4.5890002 1.227
22.509001 4.658 1.228
22.465 4.7150002 1.227
22.429001 4.7740002 1.226
22.544001 4.8649998 1.233
19.775 5.1880002 1.0930001
19.667 5.224 1.0880001
19.625 5.276 1.086
19.584999 5.329 1.085
19.624001 5.4039998 1.0880001
18.306999 5.223 1.018
17.974001 5.1880002 1
17.844999 5.211 0.99400002
17.743 5.2410002 0.98900002
17.683001 5.283 0.986
17.766001 5.368 0.99199998
17.492001 5.5869999 0.98100001
17.344999 5.6009998 0.97399998
17.402 5.6799998 0.97799999
17.447001 5.757 0.98100001
17.295 5.7680001 0.97399998
7.8800001 3.9760001 0.46799999
7.7909999 3.964 0.463
7.7550001 3.9790001 0.46200001
7.7309999 3.9990001 0.461
7.7160001 4.0250001 0.461
7.7140002 4.0570002 0.461
7.6999998 4.0830002 0.461
7.6989999 4.1160002 0.46200001
7.6859999 4.1420002 0.46200001
7.6760001 4.1700001 0.46200001
7.658 4.1939998 0.461
7.6170001 4.2049999 0.46000001
7.5799999 4.2179999 0.458
7.5479999 4.2329998 0.45699999
7.5339999 4.2589998 0.45699999
7.533 4.2919998 0.45699999
7.566 4.3439999 0.46000001
11.334 6.5079999 0.68900001
7.71 4.4619999 0.46900001
11.267 6.5209999 0.68599999
11.243 6.5570002 0.68599999
10.523 -6.9099998 0.69099998
10.548 -6.8610001 0.69199997
10.569 -6.809 0.69300002
10.641 -6.79 0.69700003
10.672 -6.7449999 0.699
10.726 -6.7150002 0.70200002
10.788 -6.6890001 0.70499998
10.819 -6.645 0.70700002
10.842 -6.5949998 0.708
10.875 -6.552 0.70899999
10.909 -6.5100002 0.71100003
10.936 -6.4629998 0.71200001
10.966 -6.4190001 0.71399999
10.997 -6.375 0.71499997
11.016 -6.3260002 0.71600002
11.066 -6.2930002 0.71899998
11.118 -6.2620001 0.72100002
11.15 -6.2199998 0.72299999
11.226 -6.2020001 0.727
11.277 -6.1700001 0.73000002
11.269 -6.1059999 0.72899997
11.274 -6.0500002 0.72899997
11.298 -6.0040002 0.73000002
11.341 -5.9679999 0.73199999
11.384 -5.9330001 0.73500001
11.394 -5.8800001 0.73500001
11.438 -5.8460002 0.73699999
11.499 -5.8200002 0.741
11.545 -5.7859998 0.74299997
11.557 -5.7350001 0.74400002
11.578 -5.6890001 0.745
11.599 -5.6430001 0.745
11.645 -5.6100001 0.74800003
11.691 -5.5760002 0.75
11.748 -5.5479999 0.75400001
11.747 -5.4920001 0.75300002
11.817 -5.4710002 0.75700003
11.85 -5.4310002 0.759
11.949 -5.421 0.76499999
11.958 -5.3709998 0.76499999
12.004 -5.3379998 0.76800001
12.048 -5.3039999 0.76999998
12.095 -5.2709999 0.773
12.18 -5.2540002 0.778
12.202 -5.21 0.77899998
12.304 -5.1999998 0.78500003
12.284 -5.1389999 0.78299999
12.374 -5.1240001 0.78899997
12.455 -5.1040001 0.79299998
12.45 -5.0489998 0.79299998
12.487 -5.0120001 0.79500002
12.575 -4.9949999 0.80000001
12.654 -4.974 0.80500001
12.779 -4.9710002 0.81199998
12.832 -4.9390001 0.815
12.948 -4.9310002 0.82200003
13.029 -4.9099998 0.82700002
13.033 -4.8600001 0.82700002
13.077 -4.8239999 0.829
13.151 -4.8000002 0.83399999
13.241 -4.7810001 0.83899999
13.29 -4.6960001 0.84200001
13.492 -4.7160001 0.85399997
13.621 -4.7090001 0.86199999
13.561 -4.6370001 0.85799998
13.69 -4.6300001 0.866
13.644 -4.5640001 0.86199999
13.658 -4.5180001 0.86299998
13.654 -4.467 0.86199999
13.727 -4.4400001 0.86699998
13.762 -4.402 0.86900002
13.777 -4.3569999 0.86900002
13.953 -4.3629999 0.88
13.923 -4.2059999 0.87699997
13.934 -4.1609998 0.87800002
14.002 -4.1329999 0.88200003
14.072 -4.105 0.88599998
14.278 -3.9719999 0.898
14.356 -3.9460001 0.90200001
14.426 -3.918 0.90700001
10.871 -2.473 0.68099999
10.847 -2.434 0.67900002
10.844 -2.401 0.67900002
10.884 -2.378 0.68099999
11.025 -2.3759999 0.69
10.954 -2.1099999 0.68400002
10.904 -2.0699999 0.68099999
10.885 -2.036 0.68000001
10.922 -2.0139999 0.68199998
10.963 -1.9910001 0.68400002
12.95 -0.41999999 0.80599999
12.833 -0.39399999 0.79799998
12.737 -0.36899999 0.79299998
12.694 -0.347 0.79000002
12.659 -0.32499999 0.78799999
12.653 -0.30399999 0.787
12.654 -0.28299999 0.78799999
12.632 -0.26199999 0.78600001
12.64 -0.241 0.787
12.631 -0.221 0.78600001
12.634 -0.20100001 0.787
12.64 -0.18099999 0.787
12.646 -0.161 0.787
12.662 -0.142 0.78899997
12.676 -0.123 0.79000002
12.724 -0.104 0.79299998
12.833 -0.085000001 0.79900002
12.713 0.185 0.72299999
12.722 0.208 0.72299999
12.73 0.23100001 0.72399998
12.735 0.25400001 0.72399998
12.745 0.278 0.72399998
12.749 0.301 0.72399998
12.749 0.32499999 0.72399998
12.766 0.34999999 0.72500002
12.78 0.375 0.72500002
12.789 0.40000001 0.72600001
12.788 0.42500001 0.72600001
12.787 0.44999999 0.72500002
12.792 0.47600001 0.72600001
12.815 0.50300002 0.727
12.824 0.52899998 0.727
12.823 0.55599999 0.727
12.827 0.583 0.727
12.844 0.611 0.72799999
12.875 0.639 0.73000002
12.897 0.66799998 0.73100001
12.912 0.69700003 0.73199999
12.907 0.72500002 0.73100001
12.906 0.75300002 0.73100001
12.907 0.78200001 0.73100001
12.877 0.80900002 0.73000002
12.856 0.83600003 0.72799999
12.826 0.86299998 0.727
12.788 0.88999999 0.72399998
12.748 0.917 0.722
12.704 0.94300002 0.72000003
12.71 0.97299999 0.72000003
12.715 1.0039999 0.72000003
12.729 1.035 0.72100002
12.748 1.067 0.722
12.773 1.1 0.72399998
12.812 1.135 0.72600001
12.847 1.169 0.72799999
12.88 1.204 0.73000002
12.887 1.2359999 0.73000002
12.913 1.271 0.73199999
21.482 2.115 1.2180001
12.94 1.306 0.73400003
21.358 2.1570001 1.211
12.946 1.34 0.73400003
21.278999 2.2019999 1.207
12.957 1.374 0.73500001
12.975 1.409 0.736
21.513 2.3369999 1.22
12.986 1.444 0.73699999
21.360001 2.375 1.212
13.024 1.482 0.73900002
21.451 2.441 1.217
13.112 1.526 0.74400002
21.459 2.4979999 1.2180001
21.665001 2.5780001 1.23
21.632 2.632 1.228
21.608 2.6860001 1.227
21.709 2.757 1.233
21.849001 2.8329999 1.2410001
21.846001 2.892 1.242
21.858999 2.9530001 1.243
21.858 3.0120001 1.243
21.847 3.0710001 1.243
21.825001 3.128 1.242
21.811001 3.1860001 1.2410001
22.09 3.2880001 1.258
22.118 3.355 1.26
22.159 3.4230001 1.262
22.233999 3.4979999 1.267
22.273001 3.5669999 1.27
22.357 3.645 1.275
22.367001 3.71 1.276
22.377001 3.776 1.277
22.298 3.8280001 1.273
22.264 3.8870001 1.271
22.25 3.9489999 1.271
22.218 4.0089998 1.27
22.247999 4.0799999 1.272
22.327 4.1599998 1.277
22.427 4.2449999 1.283
22.51 4.3280001 1.289
22.514 4.3969998 1.289
22.528 4.467 1.291
22.57 4.5440001 1.294
22.580999 4.6149998 1.295
22.67 4.7020001 1.301
19.627001 5.1849999 1.138
19.625999 5.2480001 1.138
19.587 5.302 1.137
19.735001 5.4060001 1.146
18.125999 5.2049999 1.056
18.027 5.2360001 1.05
18.028 5.296 1.051
17.679001 5.4910002 1.035
17.476999 5.487 1.024
17.385 5.5170002 1.0190001
17.301001 5.5489998 1.015
17.294001 5.6059999 1.015
17.424999 5.7080002 1.024
17.289 5.723 1.017
17.250999 5.7690001 1.015
17.236 5.8239999 1.015
8.0459995 4.0419998 0.49599999
7.8379998 3.9660001 0.48300001
7.77 3.96 0.47999999
7.7480001 3.977 0.479
7.73 3.9960001 0.47799999
7.717 4.0180001 0.47799999
7.7309999 4.053 0.47999999
7.7649999 4.0999999 0.48199999
7.7470002 4.119 0.48199999
7.7210002 4.1329999 0.48100001
7.6820002 4.1399999 0.479
7.6729999 4.1630001 0.479
7.6609998 4.1849999 0.479
7.6339998 4.198 0.47799999
7.5900002 4.2010002 0.47499999
7.5549998 4.2090001 0.47400001
7.5430002 4.23 0.47400001
7.533 4.2519999 0.47299999
7.5339999 4.2800002 0.47400001
7.573 4.329 0.477
7.6729999 4.414 0.484
11.376 6.6269999 0.72000003
11.17 6.5469999 0.708
11.125 6.5609999 0.70599997
11.064 6.5650001 0.70300001
11.046 6.5939999 0.70200002
11.014 6.6149998 0.70099998
11.004 6.6479998 0.70200002
10.972 6.6680002 0.69999999
10.957 6.698 0.69999999
10.958 6.737 0.70099998
10.957 6.776 0.70200002
11.003 6.8439999 0.70599997
12.034 -6.3499999 0.80500001
12.099 -6.349 0.81
11.989 -6.256 0.80199999
12.019 -6.2360001 0.80400002
11.985 -6.184 0.80199999
12.034 -6.1739998 0.80500001
12.032 -6.1370001 0.80500001
12.131 -6.152 0.81099999
12.076 -6.0890002 0.80699998
12.102 -6.066 0.80900002
12.131 -6.046 0.81099999
12.138 -6.013 0.81099999
12.182 -5.9990001 0.81400001
12.223 -5.9840002 0.81699997
12.217 -5.9450002 0.81599998
12.216 -5.908 0.81599998
12.251 -5.8889999 0.81800002
12.279 -5.8670001 0.81999999
12.325 -5.8520002 0.82300001
12.344 -5.8249998 0.824
12.35 -5.7919998 0.824
12.377 -5.7680001 0.82599998
12.394 -5.7389998 0.82700002
12.413 -5.7119999 0.82800001
12.432 -5.684 0.829
12.454 -5.6570001 0.83099997
12.504 -5.6430001 0.83399999
12.548 -5.6259999 0.83700001
12.565 -5.5970001 0.838
12.578 -5.566 0.838
12.633 -5.553 0.84200001
12.672 -5.533 0.84399998
12.734 -5.5229998 0.84799999
12.763 -5.4970002 0.85000002
12.786 -5.4699998 0.852
12.779 -5.4289999 0.85100001
12.916 -5.4499998 0.86000001
12.888 -5.3990002 0.85799998
12.854 -5.348 0.85600001
12.993 -5.3670001 0.86500001
13.05 -5.3140001 0.86799997
12.996 -5.2540002 0.86500001
13.109 -5.2610002 0.87199998
13.652 -5.0780001 0.90700001
13.658 -5.04 0.90700001
13.643 -4.994 0.90600002
13.701 -4.9749999 0.90899998
13.65 -4.9169998 0.90600002
13.658 -4.8800001 0.90600002
13.681 -4.848 0.90799999
13.695 -4.8130002 0.90799999
13.724 -4.783 0.91000003
13.75 -4.7519999 0.912
13.805 -4.73 0.91500002
13.801 -4.6880002 0.91500002
13.906 -4.6830001 0.92199999
13.913 -4.645 0.92199999
13.922 -4.6069999 0.92199999
14.049 -4.6079998 0.93099999
13.97 -4.46 0.92500001
13.976 -4.421 0.92500001
14.02 -4.3940001 0.92799997
14.037 -4.3579998 0.92900002
14.085 -4.3319998 0.93199998
14.335 -4.2410002 0.94800001
14.366 -4.2080002 0.94999999
14.551 -4.0500002 0.96100003
14.519 -3.9990001 0.95899999
14.669 -3.9549999 0.96799999
14.696 -3.9200001 0.97000003
10.947 -2.411 0.72000003
10.863 -2.3610001 0.71399999
10.855 -2.3280001 0.71399999
10.877 -2.3010001 0.71499997
10.955 -2.286 0.72000003
10.984 -2.069 0.72100002
10.903 -2.023 0.71499997
10.886 -1.988 0.71399999
10.9 -1.959 0.71499997
10.988 -1.943 0.72000003
12.979 -0.54000002 0.84200001
12.846 -0.498 0.833
12.719 -0.456 0.82499999
12.665 -0.41800001 0.82099998
12.649 -0.38100001 0.81999999
12.643 -0.345 0.81900001
12.627 -0.308 0.81800002
12.622 -0.27200001 0.81800002
12.632 -0.236 0.81800002
12.658 -0.2 0.81999999
12.657 -0.164 0.81900001
12.696 -0.12800001 0.82200003
12.774 -0.092 0.82599998
13.016 0.132 0.76800001
13.016 0.14399999 0.76700002
13.022 0.156 0.76700002
13.009 0.168 0.76599997
13.013 0.18000001 0.76599997
12.995 0.193 0.76499999
12.996 0.206 0.764
13.023 0.22 0.76599997
12.985 0.234 0.76300001
12.968 0.248 0.76200002
12.996 0.26300001 0.76300001
12.974 0.27700001 0.76200002
12.97 0.292 0.76099998
12.971 0.308 0.76099998
12.952 0.32300001 0.759
12.954 0.34 0.759
12.938 0.35600001 0.75800002
12.936 0.37200001 0.75800002
12.926 0.389 0.75700003
12.947 0.40700001 0.75800002
12.963 0.42500001 0.759
12.957 0.44299999 0.75800002
12.973 0.46200001 0.759
12.974 0.48100001 0.759
13.016 0.50099999 0.76099998
12.982 0.51899999 0.759
12.972 0.53899997 0.75800002
12.95 0.55800003 0.75700003
12.983 0.579 0.759
12.993 0.60000002 0.759
12.996 0.62099999 0.759
12.995 0.64200002 0.759
13.006 0.66399997 0.759
12.999 0.685 0.759
12.982 0.70599997 0.75800002
12.966 0.72799999 0.75700003
12.949 0.74900001 0.75599998
12.936 0.77100003 0.755
12.943 0.79500002 0.755
12.928 0.81699997 0.75400001
12.917 0.83999997 0.75400001
12.888 0.86199999 0.75199997
12.869 0.884 0.75099999
12.85 0.90700001 0.75
12.842 0.93099999 0.74900001
12.863 0.958 0.75099999
12.885 0.98400003 0.75199997
12.874 1.0089999 0.75099999
12.878 1.035 0.75199997
12.892 1.062 0.75300002
12.901 1.089 0.75300002
12.895 1.115 0.75300002
12.931 1.145 0.755
12.932 1.1720001 0.755
12.901 1.196 0.75300002
12.913 1.225 0.75400001
12.957 1.257 0.75700003
22.379 2.171 1.308
12.971 1.286 0.75800002
22.156 2.198 1.295
12.971 1.3150001 0.75800002
21.968 2.227 1.284
12.968 1.3430001 0.75800002
21.882 2.267 1.279
12.996 1.375 0.75999999
21.886 2.316 1.28
13.105 1.416 0.76599997
21.961 2.3729999 1.285
13.129 1.448 0.76800001
22.114 2.4400001 1.294
22.007 2.4779999 1.288
22.063 2.5350001 1.291
22.105 2.592 1.294
22.245001 2.6600001 1.303
22.205999 2.7079999 1.301
22.204 2.7609999 1.301
22.181999 2.8110001 1.3
22.127001 2.858 1.2970001
22.115999 2.9100001 1.2970001
22.07 2.9579999 1.295
22.042 3.0090001 1.294
22.059999 3.066 1.295
22.174 3.138 1.302
22.225 3.201 1.306
22.224001 3.2579999 1.306
22.215 3.313 1.306
22.239 3.3740001 1.308
22.334 3.447 1.314
22.388 3.5139999 1.318
22.476 3.5869999 1.324
22.632999 3.6719999 1.334
22.695999 3.743 1.3380001
22.716 3.8069999 1.34
22.68 3.862 1.3380001
22.448 3.8840001 1.325
22.388 3.9349999 1.323
22.362 3.9920001 1.322
22.348 4.0510001 1.322
22.364 4.1160002 1.323
22.599001 4.2870002 1.339
22.576 4.3470001 1.3380001
22.568001 4.4089999 1.3380001
22.597 4.48 1.341
22.625 4.5510001 1.3430001
22.656 4.6230001 1.346
22.737 4.7059999 1.352
17.488001 5.5250001 1.068
17.393999 5.5560002 1.064
17.356001 5.605 1.062
17.389 5.6760001 1.066
17.521999 5.7810001 1.075
17.334999 5.7810001 1.064
17.197001 5.796 1.057
17.205 5.8600001 1.059
7.8940001 3.95 0.51099998
7.8140001 3.9430001 0.50599998
7.7729998 3.9549999 0.505
7.7490001 3.9760001 0.50400001
7.7459998 4.0079999 0.50400001
7.7810001 4.059 0.50700003
7.7969999 4.1009998 0.509
7.7480001 4.1079998 0.50700003
7.7020001 4.1170001 0.50400001
7.6830001 4.1409998 0.50400001
7.6609998 4.1620002 0.50300002
7.6420002 4.1849999 0.50300002
7.6040001 4.198 0.50099999
11.367 6.2750001 0.74900001
7.5619998 4.2080002 0.49900001
11.27 6.2709999 0.74400002
7.5469999 4.2329998 0.49900001
11.229 6.2979999 0.74199998
7.539 4.2620001 0.49900001
11.191 6.3260002 0.741
7.5440001 4.2979999 0.5
11.16 6.3590002 0.74000001
7.5799999 4.3530002 0.50300002
11.153 6.4050002 0.741
7.7540002 4.487 0.51599997
11.143 6.4489999 0.741
11.143 6.4990001 0.74299997
11.308 6.6459999 0.755
10.931 -7.177 0.76899999
10.995 -7.1500001 0.773
11.041 -7.112 0.77600002
11.079 -7.0689998 0.778
11.138 -7.0380001 0.78100002
11.185 -7.0009999 0.78399998
11.187 -6.9349999 0.78299999
11.26 -6.914 0.78799999
11.297 -6.8709998 0.79000002
11.32 -6.8189998 0.79100001
11.362 -6.7789998 0.79299998
11.409 -6.7420001 0.796
11.45 -6.7010002 0.79799998
11.47 -6.6490002 0.79900002
11.518 -6.6129999 0.801
11.569 -6.5780001 0.80400002
11.637 -6.553 0.80900002
11.698 -6.5240002 0.81199998
11.751 -6.4910002 0.815
11.798 -6.454 0.81800002
11.815 -6.401 0.81900001
11.821 -6.342 0.81900001
11.871 -6.3070002 0.82099998
11.878 -6.25 0.82099998
11.902 -6.2020001 0.82300001
11.953 -6.1680002 0.82599998
12.003 -6.1329999 0.82800001
12.037 -6.0910001 0.82999998
12.074 -6.0500002 0.83200002
12.104 -6.0050001 0.83399999
12.135 -5.9619999 0.83600003
12.198 -5.934 0.83899999
12.224 -5.888 0.84100002
12.241 -5.8379998 0.84100002
12.315 -5.8150001 0.84600002
12.364 -5.7800002 0.84899998
12.404 -5.7420001 0.85100001
12.433 -5.697 0.85299999
12.476 -5.6599998 0.85500002
12.506 -5.6170001 0.85699999
12.563 -5.586 0.86000001
12.602 -5.5469999 0.86199999
12.669 -5.52 0.866
12.675 -5.467 0.866
12.79 -5.461 0.87400001
12.835 -5.4239998 0.87599999
12.866 -5.381 0.87800002
12.954 -5.3629999 0.884
13.75 -5.1810002 0.93400002
13.732 -5.1199999 0.93300003
13.725 -5.0630002 0.93199998
13.764 -5.0229998 0.93400002
13.725 -4.9559999 0.93099999
13.725 -4.902 0.93099999
13.776 -4.8670001 0.93400002
13.722 -4.796 0.93000001
13.789 -4.7670002 0.93400002
13.843 -4.7340002 0.93699998
13.893 -4.6989999 0.94
13.944 -4.664 0.94300002
14.083 -4.658 0.95200002
14.474 -4.2719998 0.97500002
14.557 -4.2459998 0.98100001
14.732 -4.2470002 0.99199998
14.673 -4.1799998 0.98799998
10.903 -2.48 0.73000002
10.849 -2.4349999 0.727
10.836 -2.4000001 0.72600001
10.871 -2.375 0.72799999
10.977 -2.3659999 0.73500001
11.039 -2.1889999 0.73799998
10.897 -2.1300001 0.72799999
10.882 -2.096 0.727
10.88 -2.066 0.727
10.914 -2.0420001 0.72899997
10.944 -2.0179999 0.73100001
11.135 -2.0220001 0.74400002
12.989 -0.421 0.86400002
12.978 -0.398 0.86400002
12.866 -0.373 0.85600001
12.774 -0.34900001 0.85000002
12.724 -0.32600001 0.847
12.7 -0.30500001 0.84500003
12.689 -0.28400001 0.84500003
12.684 -0.26300001 0.84399998
12.692 -0.242 0.84500003
12.693 -0.222 0.84500003
12.714 -0.20200001 0.847
12.729 -0.182 0.84799999
12.76 -0.163 0.85000002
12.813 -0.14399999 0.85299999
12.837 -0.124 0.85500002
12.916 -0.105 0.86000001
