# .PCD v0.7 - Point Cloud Data file format
VERSION 0.7
FIELDS x y z
SIZE 4 4 4
TYPE F F F
COUNT 1 1 1
WIDTH 1903
HEIGHT 1
VIEWPOINT 0 0 0 1 0 0 0
POINTS 1903
DATA ascii
14.448 5.7480001 -0.050999999
14.506 5.823 -0.050999999
14.555 5.8940001 -0.052000001
14.583 5.9580002 -0.052000001
14.593 6.0139999 -0.052999999
14.574 6.059 -0.052999999
14.581 6.1139998 -0.052999999
14.568 6.1609998 -0.054000001
14.565 6.2119999 -0.054000001
14.633 6.2940001 -0.055
14.765 6.4039998 -0.055
12.251 6.026 -0.050999999
12.226 6.0580001 -0.050999999
12.217 6.098 -0.050999999
12.194 6.131 -0.052000001
12.183 6.1700001 -0.052000001
12.247 6.2470002 -0.052999999
12.101 6.2179999 -0.052000001
12.105 6.263 -0.052999999
12.127 6.3189998 -0.052999999
12.114 6.3569999 -0.052999999
12.05 6.3670001 -0.052999999
12.06 6.4159999 -0.054000001
12.108 6.4860001 -0.054000001
12.113 6.533 -0.055
12.168 6.6069999 -0.055
12.231 6.6859999 -0.056000002
7.1300001 3.9489999 -0.033
7.0560002 3.934 -0.033
7.0120001 3.9349999 -0.033
6.9559999 3.9289999 -0.033
6.9289999 3.9389999 -0.033
6.921 3.9590001 -0.033
6.9190001 3.983 -0.033
6.9460001 4.0240002 -0.033
6.9559999 4.0539999 -0.034000002
6.9580002 4.0809999 -0.034000002
6.961 4.1069999 -0.034000002
6.9590001 4.132 -0.034000002
10.487 6.2259998 -0.052000001
6.961 4.158 -0.034000002
10.373 6.1950002 -0.050999999
6.9660001 4.1859999 -0.035
10.337 6.211 -0.052000001
6.9660001 4.21 -0.035
10.372 6.2690001 -0.052000001
6.9819999 4.2449999 -0.035
10.424 6.3379998 -0.052999999
7.04 4.3049998 -0.035999998
10.068 6.6490002 -0.055
9.8839998 6.5619998 -0.054000001
9.8409996 6.566 -0.055
9.8450003 6.6020002 -0.055
9.8999996 6.6719999 -0.055
7.6810002 -4.5229998 0.086000003
7.704 -4.5139999 0.086000003
7.7020001 -4.4920001 0.086999997
7.7220001 -4.4809999 0.086999997
7.73 -4.4640002 0.086999997
7.7290001 -4.441 0.086999997
7.737 -4.4239998 0.086999997
7.757 -4.414 0.086999997
7.7690001 -4.3979998 0.088
7.776 -4.3800001 0.088
7.8010001 -4.3720002 0.088
7.79 -4.3429999 0.088
7.8210001 -4.3379998 0.088
7.823 -4.3169999 0.088
7.8470001 -4.3080001 0.089000002
7.842 -4.283 0.089000002
7.848 -4.2639999 0.089000002
7.8660002 -4.2509999 0.089000002
7.8769999 -4.2340002 0.089000002
7.8920002 -4.2189999 0.089000002
7.8959999 -4.1989999 0.090000004
7.9130001 -4.1849999 0.090000004
7.9250002 -4.1690001 0.090000004
7.9429998 -4.1560001 0.090000004
7.9369998 -4.1300001 0.090000004
7.9559999 -4.1170001 0.090000004
7.9629998 -4.0970001 0.090999998
7.9699998 -4.0780001 0.090999998
7.9840002 -4.0619998 0.090999998
7.993 -4.0440001 0.090999998
8.0270004 -4.0380001 0.092
8.0360003 -4.0190001 0.092
8.0430002 -4 0.092
8.0609999 -3.9849999 0.092
8.0780001 -3.97 0.092
8.0930004 -3.954 0.093000002
8.0939999 -3.931 0.093000002
8.1149998 -3.918 0.093000002
8.1459999 -3.9100001 0.093000002
8.1470003 -3.8859999 0.093000002
8.1780005 -3.878 0.093999997
8.1660004 -3.848 0.093999997
8.184 -3.8329999 0.093999997
8.2040005 -3.8180001 0.093999997
8.2119999 -3.7980001 0.093999997
8.2370005 -3.786 0.094999999
8.2489996 -3.7679999 0.094999999
8.2510004 -3.7449999 0.094999999
8.276 -3.7320001 0.094999999
8.2790003 -3.71 0.094999999
8.3070002 -3.698 0.096000001
8.3269997 -3.6830001 0.096000001
8.323 -3.6570001 0.096000001
8.3540001 -3.6459999 0.096000001
8.3620005 -3.6259999 0.097000003
8.3649998 -3.6029999 0.097000003
8.3800001 -3.585 0.097000003
8.3859997 -3.563 0.097000003
8.4110003 -3.549 0.097000003
8.4309998 -3.5339999 0.097999997
8.4469995 -3.516 0.097999997
8.4680004 -3.5 0.097999997
8.4849997 -3.4820001 0.097999997
8.507 -3.467 0.098999999
8.5120001 -3.444 0.098999999
8.5179996 -3.4219999 0.098999999
8.5360003 -3.404 0.098999999
8.5439997 -3.3829999 0.098999999
8.5559998 -3.3629999 0.098999999
8.573 -3.3440001 0.1
8.5860004 -3.325 0.1
8.5860004 -3.3 0.1
8.6269999 -3.2909999 0.1
8.6529999 -3.2750001 0.101
8.6700001 -3.257 0.101
8.6890001 -3.2390001 0.101
8.698 -3.217 0.101
8.7229996 -3.201 0.102
8.7469997 -3.1849999 0.102
8.7449999 -3.158 0.102
8.7559996 -3.1370001 0.102
8.7799997 -3.1199999 0.103
8.7969999 -3.1010001 0.103
8.8190002 -3.0829999 0.103
8.8389997 -3.0639999 0.103
8.8640003 -3.0469999 0.104
8.8629999 -3.0220001 0.104
8.8900003 -3.0050001 0.104
8.8999996 -2.983 0.104
8.9209995 -2.964 0.105
8.9630003 -2.9519999 0.105
8.9849997 -2.9330001 0.105
9.0030003 -2.9130001 0.106
9.0480003 -2.902 0.106
9.0550003 -2.878 0.106
9.0769997 -2.859 0.107
9.099 -2.839 0.107
9.1409998 -2.826 0.108
9.1669998 -2.8069999 0.108
9.1610003 -2.779 0.108
9.2030001 -2.7650001 0.108
9.2220001 -2.744 0.109
9.2609997 -2.7290001 0.109
9.2659998 -2.704 0.109
9.2840004 -2.6830001 0.11
9.3210001 -2.6659999 0.11
9.3369999 -2.6440001 0.11
9.3470001 -2.6199999 0.11
9.3769999 -2.6010001 0.111
9.3999996 -2.5810001 0.111
9.3959999 -2.553 0.111
9.4399996 -2.5369999 0.112
9.4870005 -2.523 0.112
9.4879999 -2.4960001 0.112
9.5 -2.4719999 0.112
9.5970001 -2.4690001 0.114
9.5810003 -2.437 0.114
9.6020002 -2.415 0.114
9.6459999 -2.3989999 0.114
9.6389999 -2.369 0.114
9.6999998 -2.3559999 0.115
9.7299995 -2.336 0.116
9.7770004 -2.319 0.116
9.7950001 -2.2950001 0.116
9.8310003 -2.2750001 0.117
9.8509998 -2.2509999 0.117
9.868 -2.227 0.117
9.8999996 -2.2060001 0.118
9.9239998 -2.1830001 0.118
9.9490004 -2.1600001 0.118
9.9759998 -2.1370001 0.119
9.9879999 -2.1110001 0.119
10.031 -2.0910001 0.12
10.066 -2.0699999 0.12
10.082 -2.0439999 0.12
10.105 -2.02 0.121
10.106 -1.9910001 0.121
10.18 -1.976 0.122
10.206 -1.952 0.122
10.226 -1.927 0.122
10.264 -1.905 0.123
10.287 -1.88 0.123
10.321 -1.8559999 0.123
10.351 -1.832 0.124
10.379 -1.807 0.124
10.41 -1.783 0.125
10.43 -1.757 0.125
10.47 -1.733 0.125
10.523 -1.712 0.126
10.557 -1.687 0.127
10.604 -1.665 0.127
10.594 -1.633 0.127
10.622 -1.607 0.12800001
10.676 -1.584 0.12800001
10.716 -1.5599999 0.12899999
10.769 -1.5369999 0.12899999
10.8 -1.51 0.13
10.813 -1.4809999 0.13
10.83 -1.4529999 0.13
10.868 -1.427 0.131
10.894 -1.399 0.131
10.942 -1.374 0.132
10.969 -1.346 0.132
10.985 -1.317 0.132
11.043 -1.293 0.133
11.077 -1.265 0.134
11.115 -1.238 0.134
11.167 -1.212 0.13500001
11.188 -1.182 0.13500001
11.232 -1.155 0.13600001
11.265 -1.126 0.13600001
11.311 -1.098 0.13699999
11.373 -1.072 0.13699999
11.433 -1.045 0.138
11.527 -1.021 0.139
11.551 -0.99000001 0.14
11.647 -0.96499997 0.141
11.744 -0.94 0.142
11.717 -0.90399998 0.142
11.882 -0.88300002 0.14399999
11.967 -0.85600001 0.145
12.26 0.37599999 0.014
12.256 0.39300001 0.014
12.202 0.40900001 0.013
12.195 0.42699999 0.013
12.212 0.44600001 0.013
12.201 0.46399999 0.013
12.14 0.47999999 0.012
12.187 0.50099999 0.012
12.161 0.51899999 0.012
12.141 0.53799999 0.012
12.154 0.55800003 0.012
12.183 0.57999998 0.012
12.191 0.60100001 0.011
12.163 0.62 0.011
12.183 0.64200002 0.011
12.185 0.66299999 0.011
12.204 0.68599999 0.011
12.212 0.708 0.011
12.211 0.73000002 0.0099999998
12.206 0.75199997 0.0099999998
12.215 0.77499998 0.0099999998
12.195 0.79699999 0.0099999998
12.226 0.82200003 0.0099999998
12.23 0.84600002 0.0089999996
12.238 0.87 0.0089999996
12.237 0.89399999 0.0089999996
12.245 0.91799998 0.0089999996
12.266 0.94400001 0.0089999996
12.282 0.97000003 0.0089999996
12.28 0.995 0.0080000004
12.272 1.02 0.0080000004
12.291 1.0470001 0.0080000004
12.314 1.075 0.0080000004
12.34 1.103 0.0080000004
12.356 1.131 0.0080000004
12.332 1.155 0.0070000002
12.345 1.183 0.0070000002
12.354 1.211 0.0070000002
12.367 1.24 0.0070000002
12.371 1.268 0.0070000002
12.365 1.295 0.0060000001
12.374 1.324 0.0060000001
12.394 1.355 0.0060000001
12.433 1.388 0.0060000001
12.453 1.419 0.0060000001
12.438 1.446 0.0049999999
12.45 1.477 0.0049999999
12.459 1.508 0.0049999999
12.472 1.54 0.0049999999
12.514 1.575 0.0049999999
12.513 1.605 0.0040000002
12.529 1.638 0.0040000002
12.544 1.671 0.0040000002
12.56 1.705 0.0040000002
12.592 1.7410001 0.0040000002
12.604 1.774 0.003
12.598 1.806 0.003
12.608 1.839 0.003
12.621 1.874 0.003
12.64 1.91 0.003
12.65 1.944 0.0020000001
12.695 1.985 0.0020000001
12.708 2.02 0.0020000001
12.719 2.056 0.0020000001
12.729 2.092 0.0020000001
12.744 2.1289999 0.001
12.765 2.1670001 0.001
12.763 2.2019999 0.001
12.781 2.24 0.001
12.825 2.283 0.001
12.82 2.3180001 -0
12.812 2.3529999 -0
12.806 2.388 -0
12.843 2.431 -0
12.832 2.4660001 -0
12.865 2.5090001 -0
12.873 2.5480001 -0
12.908 2.592 -0
12.923 2.6329999 -0
12.905 2.6670001 -0.001
11.539 2.4189999 -0.001
11.437 2.4319999 -0.001
11.412 2.46 -0.001
11.397 2.4909999 -0.001
11.41 2.529 -0.001
11.449 2.572 -0.0020000001
11.559 2.632 -0.0020000001
11.717 2.704 -0.0020000001
13.053 3.053 -0.003
13.056 3.0940001 -0.003
13.079 3.1400001 -0.003
13.122 3.1919999 -0.003
13.139 3.237 -0.003
13.143 3.28 -0.0040000002
13.145 3.322 -0.0040000002
13.208 3.3800001 -0.0040000002
13.246 3.4319999 -0.0040000002
13.315 3.493 -0.0049999999
13.314 3.536 -0.0049999999
13.32 3.5810001 -0.0049999999
13.381 3.641 -0.0049999999
13.402 3.691 -0.0060000001
13.425 3.7420001 -0.0060000001
13.41 3.7820001 -0.0060000001
13.471 3.8440001 -0.0060000001
13.517 3.9030001 -0.0070000002
13.589 3.9690001 -0.0070000002
13.613 4.0219998 -0.0070000002
13.632 4.0739999 -0.0080000004
13.694 4.1399999 -0.0080000004
13.698 4.1880002 -0.0080000004
13.734 4.2459998 -0.0080000004
13.777 4.3070002 -0.0089999996
13.774 4.3540001 -0.0089999996
13.822 4.4169998 -0.0089999996
13.848 4.474 -0.0089999996
13.867 4.5289998 -0.0099999998
13.924 4.5970001 -0.0099999998
13.926 4.6469998 -0.0099999998
13.988 4.7179999 -0.011
14.019 4.7789998 -0.011
14.069 4.8460002 -0.011
14.13 4.9180002 -0.011
14.151 4.9770002 -0.012
14.191 5.0430002 -0.012
14.225 5.1069999 -0.012
14.385 5.217 -0.013
14.384 5.27 -0.013
14.539 5.3800001 -0.013
14.574 5.447 -0.014
14.606 5.5139999 -0.014
14.641 5.5819998 -0.014
14.637 5.6360002 -0.015
14.621 5.6849999 -0.015
14.68 5.7639999 -0.015
14.746 5.8449998 -0.016000001
14.735 5.8969998 -0.016000001
14.771 5.9689999 -0.016000001
14.794 6.0349998 -0.017000001
14.876 6.1259999 -0.017000001
14.823 6.1620002 -0.017000001
14.755 6.191 -0.017000001
14.743 6.244 -0.017999999
12.329 5.9169998 -0.017999999
12.314 5.961 -0.017999999
12.296 6.0029998 -0.018999999
12.18 5.9980001 -0.018999999
12.157 6.0370002 -0.018999999
12.2 6.1100001 -0.018999999
12.163 6.1430001 -0.02
12.254 6.2399998 -0.02
12.121 6.2249999 -0.02
12.149 6.2909999 -0.02
12.211 6.375 -0.021
12.103 6.3709998 -0.021
12.051 6.395 -0.021
12.074 6.46 -0.021
12.124 6.539 -0.022
12.139 6.5999999 -0.022
12.129 6.6479998 -0.022
7.132 3.9719999 -0.013
7.0349998 3.9489999 -0.013
6.9920001 3.9560001 -0.013
6.9380002 3.9560001 -0.013
6.9060001 3.9690001 -0.013
6.895 3.993 -0.013
6.8969998 4.0250001 -0.014
6.9070001 4.0619998 -0.014
6.927 4.105 -0.014
6.9260001 4.1360002 -0.014
6.914 4.1609998 -0.014
6.9229999 4.198 -0.014
10.528 6.3839998 -0.022
6.9169998 4.2249999 -0.014
10.516 6.4250002 -0.022
6.9200001 4.2600002 -0.015
6.927 4.2950001 -0.015
6.974 4.3569999 -0.015
9.8310003 6.7480001 -0.024
9.7250004 6.7220001 -0.024
9.6709995 6.7319999 -0.024
9.6440001 6.7600002 -0.025
9.651 6.8119998 -0.025
9.7069998 6.8990002 -0.025
9.7530003 6.9790001 -0.026000001
9.7349997 7.0149999 -0.026000001
7.3470001 -4.8410001 0.101
7.3920002 -4.8239999 0.102
7.415 -4.7930002 0.102
7.4450002 -4.7670002 0.102
7.4590001 -4.73 0.103
7.4990001 -4.71 0.103
7.5310001 -4.684 0.104
7.546 -4.6490002 0.104
7.5650001 -4.6160002 0.104
7.5949998 -4.5900002 0.104
7.605 -4.552 0.104
7.631 -4.5240002 0.105
7.651 -4.4920001 0.105
7.677 -4.4640002 0.105
7.698 -4.4330001 0.106
7.7249999 -4.4060001 0.106
7.75 -4.3779998 0.106
7.7550001 -4.3379998 0.106
7.7729998 -4.3070002 0.107
7.7940001 -4.276 0.107
7.8260002 -4.2519999 0.107
7.8470001 -4.2220001 0.108
7.8530002 -4.1849999 0.108
7.8429999 -4.138 0.107
7.8909998 -4.1230001 0.108
7.9419999 -4.1100001 0.109
7.9439998 -4.0700002 0.109
7.9809999 -4.0489998 0.109
8.0030003 -4.02 0.11
8.0240002 -3.9909999 0.11
8.0550003 -3.967 0.11
8.0679998 -3.9349999 0.111
8.099 -3.911 0.111
8.118 -3.881 0.111
8.1459999 -3.8559999 0.112
8.1820002 -3.8340001 0.112
8.1999998 -3.8050001 0.112
8.217 -3.7739999 0.113
8.2360001 -3.7449999 0.113
8.2650003 -3.721 0.113
8.2919998 -3.6949999 0.114
8.3009996 -3.6619999 0.114
8.3269997 -3.6359999 0.114
8.3739996 -3.6199999 0.115
8.382 -3.586 0.115
8.4060001 -3.5599999 0.115
8.4169998 -3.5280001 0.115
8.4460001 -3.5039999 0.116
8.4870005 -3.4849999 0.116
8.507 -3.457 0.116
8.5290003 -3.4300001 0.117
8.5719995 -3.411 0.117
8.5889997 -3.382 0.118
8.6090002 -3.355 0.118
8.6289997 -3.3269999 0.118
8.6490002 -3.3 0.118
8.6750002 -3.2750001 0.119
8.7259998 -3.2590001 0.119
8.7580004 -3.2360001 0.12
8.7799997 -3.21 0.12
8.8140001 -3.187 0.121
8.8240004 -3.1570001 0.121
8.8620005 -3.1359999 0.121
8.8859997 -3.1099999 0.122
8.9219999 -3.089 0.122
8.9619999 -3.069 0.123
8.9689999 -3.0369999 0.123
9.0100002 -3.017 0.123
9.0609999 -3.0009999 0.124
9.1190004 -2.987 0.125
9.1339998 -2.9579999 0.125
9.1800003 -2.9400001 0.126
9.2299995 -2.9219999 0.127
9.3400002 -2.9230001 0.12800001
9.3839998 -2.904 0.12899999
9.3360004 -2.8559999 0.12800001
9.3710003 -2.8329999 0.12899999
9.3979998 -2.809 0.12899999
9.441 -2.789 0.13
9.4759998 -2.767 0.13
9.5010004 -2.7409999 0.13
9.5439997 -2.721 0.131
9.573 -2.697 0.131
9.6009998 -2.6730001 0.132
9.6479998 -2.654 0.132
9.6809998 -2.631 0.133
9.75 -2.6170001 0.134
9.7729998 -2.5910001 0.134
9.816 -2.5710001 0.13500001
9.8280001 -2.5420001 0.13500001
9.8850002 -2.5250001 0.13600001
9.9040003 -2.4979999 0.13600001
9.915 -2.47 0.13600001
9.927 -2.441 0.13600001
9.993 -2.4260001 0.13699999
10.014 -2.4000001 0.138
10.027 -2.372 0.138
10.061 -2.3499999 0.138
10.05 -2.316 0.138
10.1 -2.2969999 0.139
10.135 -2.2750001 0.14
10.154 -2.2490001 0.14
10.213 -2.2309999 0.141
10.216 -2.2019999 0.141
10.257 -2.181 0.141
10.272 -2.154 0.142
10.299 -2.1289999 0.142
10.335 -2.1070001 0.142
10.384 -2.0869999 0.14300001
10.41 -2.063 0.14399999
10.437 -2.039 0.14399999
10.446 -2.0109999 0.14399999
10.469 -1.9859999 0.14399999
10.502 -1.964 0.145
10.537 -1.941 0.145
10.546 -1.914 0.146
10.592 -1.8940001 0.146
10.614 -1.869 0.147
10.655 -1.847 0.147
10.672 -1.822 0.147
10.682 -1.795 0.148
10.72 -1.773 0.148
10.764 -1.752 0.149
10.773 -1.726 0.149
10.816 -1.705 0.15000001
10.842 -1.681 0.15000001
10.867 -1.6569999 0.15000001
10.87 -1.63 0.15000001
10.946 -1.614 0.152
10.943 -1.586 0.152
10.969 -1.563 0.152
10.983 -1.5369999 0.152
11.003 -1.513 0.153
11.017 -1.488 0.153
11.024 -1.462 0.153
11.054 -1.4400001 0.153
11.085 -1.4170001 0.154
11.105 -1.3940001 0.154
11.148 -1.373 0.155
11.183 -1.351 0.155
11.22 -1.329 0.156
11.244 -1.306 0.156
11.271 -1.283 0.15700001
11.326 -1.263 0.15700001
11.327 -1.238 0.15800001
11.341 -1.214 0.15800001
11.4 -1.1950001 0.15899999
11.418 -1.171 0.15899999
11.448 -1.149 0.15899999
11.474 -1.126 0.16
11.483 -1.102 0.16
11.513 -1.08 0.16
11.58 -1.061 0.161
11.6 -1.039 0.162
11.65 -1.018 0.162
11.677 -0.99599999 0.163
11.777 -0.98000002 0.164
11.812 -0.958 0.16500001
11.84 -0.93599999 0.16500001
11.93 -0.91900003 0.167
12.038 -0.87800002 0.168
12.109 -0.85900003 0.169
11.955 0.155 0.048
11.989 0.177 0.048
12.033 0.199 0.048
12.045 0.222 0.048
12.036 0.244 0.048
12.068 0.26699999 0.048
12.062 0.28999999 0.048
12.084 0.31400001 0.048
12.07 0.33700001 0.046999998
12.074 0.361 0.046999998
12.094 0.38499999 0.046999998
12.099 0.41 0.046999998
12.096 0.43399999 0.046999998
12.105 0.45899999 0.046999998
12.106 0.484 0.046
12.105 0.509 0.046
12.095 0.53399998 0.046
12.144 0.56199998 0.046
12.138 0.588 0.046
12.17 0.616 0.046
12.152 0.64200002 0.045000002
12.169 0.66900003 0.045000002
12.171 0.69599998 0.045000002
12.164 0.72299999 0.045000002
12.185 0.75199997 0.045000002
12.198 0.77999997 0.045000002
12.207 0.80900002 0.044
12.238 0.83899999 0.044
12.226 0.86699998 0.044
12.246 0.89700001 0.044
12.252 0.92699999 0.044
12.254 0.95599997 0.044
12.294 0.98799998 0.044
12.294 1.018 0.043000001
12.316 1.05 0.043000001
12.351 1.0829999 0.043000001
12.355 1.114 0.043000001
12.376 1.147 0.043000001
12.4 1.1799999 0.043000001
12.412 1.212 0.043000001
12.423 1.245 0.043000001
12.409 1.275 0.041999999
12.415 1.307 0.041999999
12.426 1.341 0.041999999
12.461 1.377 0.041999999
12.469 1.41 0.041999999
12.522 1.449 0.041999999
12.546 1.485 0.041999999
12.527 1.516 0.041000001
12.543 1.552 0.041000001
12.557 1.587 0.041000001
12.609 1.628 0.041000001
12.61 1.6619999 0.041000001
12.634 1.7 0.041000001
12.682 1.7410001 0.041000001
12.704 1.779 0.039999999
12.723 1.817 0.039999999
12.715 1.851 0.039999999
12.739 1.891 0.039999999
12.741 1.927 0.039999999
12.77 1.967 0.039999999
12.798 2.0079999 0.039999999
12.824 2.049 0.039000001
12.831 2.0869999 0.039000001
12.849 2.1270001 0.039000001
12.876 2.168 0.039000001
12.867 2.204 0.039000001
12.911 2.25 0.039000001
12.93 2.2909999 0.039000001
12.957 2.3340001 0.037999999
12.958 2.372 0.037999999
12.982 2.415 0.037999999
13.031 2.4630001 0.037999999
13.037 2.5039999 0.037999999
13.042 2.5439999 0.037999999
13.085 2.592 0.037999999
13.078 2.6300001 0.037
13.11 2.677 0.037
11.634 2.411 0.033
11.469 2.4119999 0.032000002
11.421 2.437 0.032000002
11.401 2.4679999 0.030999999
11.409 2.5050001 0.030999999
11.427 2.5450001 0.030999999
11.503 2.5969999 0.030999999
11.652 2.668 0.030999999
11.778 2.734 0.032000002
13.402 3.1530001 0.035999998
13.417 3.1989999 0.035999998
13.427 3.244 0.035
13.475 3.299 0.035
13.5 3.348 0.035
13.516 3.3959999 0.035
13.577 3.4549999 0.035
13.621 3.51 0.035
13.666 3.566 0.035
13.701 3.6199999 0.035
13.709 3.6670001 0.034000002
13.745 3.721 0.034000002
13.769 3.773 0.034000002
13.809 3.829 0.034000002
13.864 3.8900001 0.034000002
13.908 3.9489999 0.034000002
13.956 4.0089998 0.034000002
13.981 4.0619998 0.033
13.976 4.1079998 0.033
14.004 4.1630001 0.033
14.049 4.223 0.033
14.085 4.2820001 0.033
14.115 4.3379998 0.033
14.186 4.408 0.032000002
14.221 4.467 0.032000002
14.285 4.5359998 0.032000002
14.316 4.5949998 0.032000002
14.333 4.6490002 0.032000002
14.364 4.7080002 0.032000002
14.4 4.7690001 0.030999999
14.433 4.8299999 0.030999999
14.458 4.888 0.030999999
14.507 4.9549999 0.030999999
14.609 5.04 0.030999999
14.68 5.1160002 0.030999999
14.716 5.1799998 0.030999999
14.748 5.2420001 0.029999999
14.825 5.3210001 0.029999999
14.823 5.3720002 0.029999999
14.857 5.4369998 0.029999999
14.93 5.5159998 0.029999999
15.158 5.6539998 0.029999999
15.216 5.7290001 0.029999999
15.271 5.803 0.029999999
15.229 5.8410001 0.028999999
15.238 5.8990002 0.028999999
15.24 5.9530001 0.028999999
15.263 6.0170002 0.028999999
15.324 6.0960002 0.028000001
15.387 6.1750002 0.028000001
15.393 6.2329998 0.028000001
15.42 6.2989998 0.028000001
15.43 6.3579998 0.028000001
15.458 6.4250002 0.027000001
12.308 6.0079999 0.017000001
12.169 5.9850001 0.017000001
12.063 5.9759998 0.016000001
11.986 5.9819999 0.016000001
11.926 5.9959998 0.016000001
11.98 6.066 0.016000001
12.152 6.198 0.016000001
12.151 6.2859998 0.015
12.189 6.3509998 0.015
12.147 6.4180002 0.014
12.036 6.4029999 0.014
12.133 6.4980001 0.014
7.119 3.9679999 0.0070000002
7.0240002 3.941 0.0070000002
6.987 3.9460001 0.0070000002
6.9419999 3.9460001 0.0070000002
6.9190001 3.9579999 0.0060000001
6.9029999 3.973 0.0060000001
6.9000001 3.9960001 0.0060000001
6.9039998 4.0240002 0.0060000001
6.9180002 4.0570002 0.0060000001
6.9250002 4.086 0.0060000001
6.9260001 4.1110001 0.0060000001
6.9260001 4.1360002 0.0060000001
6.9330001 4.165 0.0049999999
6.9400001 4.1939998 0.0049999999
6.9460001 4.223 0.0049999999
6.987 4.2719998 0.0049999999
7.1069999 4.3709998 0.0049999999
7.9029999 -4.6570001 0.126
7.9060001 -4.6370001 0.126
7.915 -4.6199999 0.126
7.9310002 -4.6059999 0.127
7.941 -4.5890002 0.127
7.9369998 -4.5650001 0.127
7.9590001 -4.5549998 0.127
7.9819999 -4.5450001 0.12800001
7.9899998 -4.527 0.12800001
7.9949999 -4.507 0.12800001
8.0179996 -4.4970002 0.12800001
8.0139999 -4.4720001 0.12800001
8.0319996 -4.4590001 0.12899999
8.033 -4.4359999 0.12899999
8.0450001 -4.4200001 0.12899999
8.0579996 -4.4039998 0.12899999
8.0810003 -4.3940001 0.13
8.0930004 -4.3769999 0.13
8.1009998 -4.3579998 0.13
8.1239996 -4.3470001 0.13
8.1330004 -4.3280001 0.131
8.1470003 -4.3119998 0.131
8.1730003 -4.302 0.131
8.1700001 -4.2779999 0.131
8.1739998 -4.256 0.131
8.1969995 -4.244 0.132
8.2040005 -4.224 0.132
8.2329998 -4.2150002 0.132
8.2510004 -4.2010002 0.133
8.2729998 -4.1880002 0.133
8.2670002 -4.1609998 0.133
8.2849998 -4.1459999 0.133
8.2939997 -4.1269999 0.134
8.309 -4.1100001 0.134
8.3210001 -4.092 0.134
8.3330002 -4.0739999 0.134
8.3509998 -4.059 0.13500001
8.3760004 -4.0469999 0.13500001
8.3809996 -4.0250001 0.13500001
8.3929996 -4.006 0.13500001
8.3959999 -3.983 0.13600001
8.4069996 -3.964 0.13600001
8.4420004 -3.9560001 0.13600001
8.4680004 -3.944 0.13699999
8.4799995 -3.925 0.13699999
8.4919996 -3.9059999 0.13699999
8.5120001 -3.891 0.138
8.5120001 -3.8659999 0.138
8.5509996 -3.859 0.138
8.559 -3.8380001 0.138
8.5719995 -3.819 0.139
8.5749998 -3.7950001 0.139
8.5909996 -3.777 0.139
8.6059999 -3.7590001 0.139
8.6239996 -3.7409999 0.14
8.6370001 -3.7219999 0.14
8.6630001 -3.7079999 0.14
8.6689997 -3.6860001 0.141
8.684 -3.6670001 0.141
8.7089996 -3.652 0.141
8.7209997 -3.632 0.142
8.7440004 -3.6159999 0.142
8.7530003 -3.5940001 0.142
8.7709999 -3.576 0.142
8.7869997 -3.5569999 0.14300001
8.8129997 -3.5420001 0.14300001
8.823 -3.5209999 0.14300001
8.8319998 -3.4979999 0.14399999
8.8319998 -3.473 0.14399999
8.8570004 -3.457 0.14399999
8.8959999 -3.447 0.145
8.8970003 -3.421 0.145
8.927 -3.4070001 0.145
8.9510002 -3.3900001 0.146
8.9469995 -3.3629999 0.146
8.9919996 -3.3540001 0.146
9.0050001 -3.332 0.147
9.0010004 -3.3050001 0.147
9.0150003 -3.2839999 0.147
9.0159998 -3.2579999 0.147
9.0430002 -3.2409999 0.147
9.0860004 -3.23 0.148
9.1029997 -3.21 0.148
9.1029997 -3.184 0.149
9.1520004 -3.175 0.149
9.2060003 -3.1659999 0.15000001
9.1949997 -3.1359999 0.15000001
9.2229996 -3.119 0.15099999
9.2299995 -3.095 0.15099999
9.2749996 -3.0829999 0.152
9.3199997 -3.0710001 0.152
9.3430004 -3.052 0.153
9.3699999 -3.033 0.153
9.3870001 -3.0109999 0.153
9.4300003 -2.9979999 0.154
9.5349998 -3.0039999 0.156
9.6020002 -2.997 0.15700001
9.6400003 -2.9809999 0.15800001
9.592 -2.9389999 0.15700001
9.5979996 -2.9130001 0.15700001
9.6219997 -2.892 0.15800001
9.6149998 -2.862 0.15700001
9.6470003 -2.8440001 0.15800001
9.6709995 -2.823 0.15800001
9.7139997 -2.8080001 0.15899999
9.7390003 -2.7869999 0.16
9.7550001 -2.763 0.16
9.7700005 -2.7390001 0.16
9.7869997 -2.7160001 0.161
9.8050003 -2.6930001 0.161
9.8310003 -2.671 0.161
9.8579998 -2.6500001 0.162
9.8850002 -2.6289999 0.162
9.9189997 -2.6099999 0.163
9.9429998 -2.5869999 0.163
9.9619999 -2.563 0.164
9.9390001 -2.529 0.163
10.007 -2.5179999 0.164
9.9989996 -2.487 0.164
10.061 -2.473 0.16500001
10.053 -2.4419999 0.16500001
10.045 -2.4119999 0.16500001
10.084 -2.392 0.16599999
10.128 -2.3729999 0.167
10.135 -2.346 0.167
10.171 -2.325 0.167
10.194 -2.3010001 0.168
10.217 -2.277 0.168
10.248 -2.2539999 0.169
10.265 -2.2290001 0.169
10.283 -2.2030001 0.169
10.331 -2.184 0.17
10.359 -2.1600001 0.171
10.396 -2.138 0.171
10.421 -2.1129999 0.17200001
10.447 -2.0880001 0.17200001
10.466 -2.062 0.17299999
10.521 -2.043 0.17299999
10.542 -2.017 0.17399999
10.562 -1.99 0.17399999
10.593 -1.966 0.175
10.613 -1.939 0.175
10.639 -1.913 0.176
10.665 -1.888 0.176
10.701 -1.863 0.177
10.74 -1.839 0.177
10.789 -1.817 0.178
10.812 -1.79 0.17900001
10.819 -1.76 0.17900001
10.889 -1.74 0.18000001
10.895 -1.71 0.18000001
10.955 -1.688 0.18099999
10.989 -1.6619999 0.182
11.014 -1.6339999 0.182
11.034 -1.6059999 0.182
11.074 -1.58 0.183
11.106 -1.553 0.184
11.128 -1.524 0.184
11.168 -1.498 0.185
11.225 -1.473 0.186
11.242 -1.443 0.186
11.304 -1.419 0.18700001
11.356 -1.393 0.18799999
11.351 -1.36 0.18799999
11.451 -1.34 0.19
11.505 -1.313 0.19
11.565 -1.2869999 0.192
11.572 -1.255 0.192
11.642 -1.229 0.193
11.689 -1.201 0.19400001
11.788 -1.177 0.19499999
11.828 -1.148 0.19599999
11.882 -1.119 0.197
12.001 -1.096 0.199
12.026 -1.064 0.199
12.106 -1.0369999 0.20100001
12.109 -1.003 0.20100001
12.208 -0.97600001 0.20200001
12.648 0.373 0.075999998
12.654 0.391 0.075999998
12.621 0.40700001 0.075999998
12.649 0.42699999 0.075999998
12.642 0.44499999 0.075999998
12.654 0.46399999 0.075000003
12.65 0.48300001 0.075000003
12.713 0.505 0.075000003
12.593 0.51999998 0.075000003
12.622 0.54100001 0.074000001
12.623 0.56099999 0.074000001
12.587 0.57999998 0.074000001
12.595 0.602 0.074000001
12.591 0.62199998 0.074000001
12.575 0.64300001 0.072999999
12.603 0.66600001 0.072999999
12.572 0.68599999 0.072999999
12.589 0.70899999 0.072999999
12.579 0.73100001 0.072999999
12.583 0.75400001 0.071999997
12.59 0.77700001 0.071999997
12.598 0.801 0.071999997
12.597 0.82499999 0.071999997
12.592 0.84799999 0.071999997
12.603 0.87300003 0.071999997
12.609 0.898 0.071999997
12.602 0.92199999 0.071000002
12.61 0.94700003 0.071000002
12.616 0.97299999 0.071000002
12.635 1 0.071000002
12.634 1.025 0.071000002
12.661 1.054 0.071000002
12.665 1.08 0.071000002
12.693 1.109 0.071000002
12.744 1.14 0.071000002
12.778 1.171 0.071000002
12.795 1.2 0.071000002
12.794 1.228 0.071000002
12.784 1.255 0.07
12.806 1.285 0.07
12.812 1.314 0.07
12.815 1.3430001 0.07
12.856 1.377 0.07
12.87 1.408 0.07
12.886 1.439 0.07
12.892 1.47 0.07
12.888 1.5 0.07
12.896 1.531 0.068999998
12.905 1.563 0.068999998
12.94 1.598 0.068999998
12.913 1.626 0.068999998
12.924 1.659 0.068999998
12.946 1.694 0.068999998
12.94 1.725 0.068999998
12.974 1.762 0.068999998
12.994 1.7970001 0.068999998
12.979 1.8279999 0.068000004
13.002 1.864 0.068000004
13.039 1.903 0.068000004
13.033 1.936 0.068000004
13.073 1.976 0.068000004
13.078 2.01 0.068000004
13.099 2.0480001 0.068000004
13.137 2.089 0.068000004
13.141 2.125 0.068000004
13.173 2.165 0.068000004
13.184 2.2030001 0.068000004
13.198 2.2409999 0.068000004
13.228 2.2820001 0.068000004
13.245 2.322 0.068000004
13.25 2.359 0.067000002
13.261 2.398 0.067000002
13.296 2.4419999 0.067000002
13.316 2.483 0.067000002
13.378 2.533 0.067000002
13.378 2.5710001 0.067000002
13.374 2.609 0.067000002
13.4 2.652 0.067000002
13.434 2.698 0.067000002
13.446 2.74 0.067000002
11.818 2.4430001 0.059
11.503 2.4119999 0.057
11.434 2.431 0.056000002
11.406 2.4590001 0.056000002
11.396 2.4909999 0.056000002
11.398 2.526 0.056000002
11.417 2.5650001 0.056000002
11.489 2.6159999 0.056000002
11.621 2.6819999 0.057
11.655 2.7260001 0.057
11.809 2.7980001 0.057
13.786 3.3099999 0.067000002
13.824 3.362 0.067000002
13.843 3.4100001 0.067000002
13.888 3.4649999 0.067000002
13.899 3.5120001 0.067000002
13.931 3.5650001 0.067000002
13.952 3.615 0.066
13.989 3.6700001 0.066
14.033 3.727 0.067000002
14.066 3.7809999 0.067000002
14.095 3.835 0.066
14.135 3.8929999 0.067000002
14.168 3.9489999 0.066
14.191 4.0019999 0.066
14.236 4.0619998 0.066
14.256 4.1160002 0.066
14.311 4.1799998 0.066
14.316 4.23 0.066
14.374 4.296 0.066
14.405 4.3540001 0.066
14.445 4.4159999 0.066
14.503 4.4829998 0.067000002
14.523 4.54 0.066
14.653 4.631 0.067000002
14.626 4.6739998 0.067000002
14.671 4.7389998 0.067000002
14.685 4.796 0.067000002
14.746 4.868 0.067000002
14.808 4.941 0.067000002
14.874 5.0159998 0.067000002
14.943 5.0929999 0.067000002
14.998 5.165 0.067000002
15.202 5.2909999 0.068000004
15.143 5.3249998 0.067000002
15.198 5.4000001 0.067000002
15.272 5.4819999 0.068000004
15.229 5.5219998 0.067000002
15.292 5.6009998 0.067000002
15.434 5.711 0.068000004
15.415 5.7610002 0.067000002
15.452 5.8319998 0.067000002
15.503 5.9099998 0.068000004
15.557 5.9889998 0.068000004
15.544 6.0430002 0.067000002
15.597 6.1220002 0.067000002
15.637 6.198 0.067000002
15.684 6.276 0.067000002
15.782 6.3759999 0.068000004
15.773 6.4330001 0.067000002
15.82 6.5139999 0.067000002
12.317 5.9619999 0.050000001
12.149 5.9310002 0.048999999
12.007 5.9109998 0.048
11.936 5.9260001 0.048
11.905 5.961 0.048
12.051 6.085 0.048
12.192 6.2080002 0.048999999
12.252 6.29 0.048999999
12.144 6.2870002 0.048
12.275 6.4070001 0.048
12.122 6.3800001 0.048
12.061 6.3990002 0.046999998
7.6430001 4.1209998 0.029999999
7.6259999 4.1459999 0.028999999
7.1630001 3.9879999 0.027000001
7.0430002 3.9530001 0.027000001
6.9920001 3.9549999 0.027000001
6.9369998 3.9549999 0.026000001
6.9060001 3.9679999 0.026000001
6.8870001 3.9879999 0.026000001
6.882 4.0159998 0.026000001
6.901 4.0580001 0.026000001
6.9169998 4.099 0.026000001
6.9099998 4.1259999 0.026000001
6.9070001 4.1550002 0.026000001
6.9109998 4.1890001 0.026000001
6.908 4.2189999 0.025
6.914 4.2550001 0.025
6.9499998 4.309 0.025
7.0609999 4.4109998 0.026000001
9.8780003 6.8270001 0.035
9.9300003 6.9109998 0.035
7.5430002 -4.9679999 0.14
7.5910001 -4.9520001 0.141
7.6059999 -4.915 0.141
7.638 -4.888 0.142
7.6739998 -4.8649998 0.142
7.698 -4.8330002 0.14300001
7.7290001 -4.8060002 0.14300001
7.7449999 -4.77 0.14300001
7.7600002 -4.7340002 0.14399999
7.8060002 -4.7160001 0.14399999
7.8179998 -4.678 0.14399999
7.8410001 -4.6469998 0.145
7.8569999 -4.6110001 0.145
7.8930001 -4.5879998 0.146
7.9109998 -4.5539999 0.146
7.948 -4.5320001 0.147
7.9619999 -4.4959998 0.147
7.993 -4.4699998 0.147
7.9980001 -4.4299998 0.147
8.04 -4.4099998 0.148
8.066 -4.381 0.149
8.0710001 -4.3410001 0.149
8.0699997 -4.2989998 0.149
8.1120005 -4.2789998 0.149
8.1680002 -4.2670002 0.15000001
8.1829996 -4.2329998 0.15000001
8.2130003 -4.2069998 0.15099999
8.2299995 -4.1739998 0.15099999
8.2519999 -4.1440001 0.152
8.276 -4.1160002 0.152
8.3140001 -4.0939999 0.153
8.3339996 -4.0630002 0.153
8.3540001 -4.033 0.153
8.3800001 -4.0050001 0.154
8.3920002 -3.971 0.154
8.4259996 -3.948 0.155
8.4490004 -3.9189999 0.155
8.5030003 -3.905 0.156
8.5249996 -3.8759999 0.156
8.5439997 -3.845 0.15700001
8.5810003 -3.823 0.15700001
8.6079998 -3.796 0.15800001
8.6110001 -3.7590001 0.15800001
8.6560001 -3.7409999 0.15899999
8.6750002 -3.711 0.15899999
8.6969995 -3.6819999 0.15899999
8.7360001 -3.661 0.16
8.7539997 -3.631 0.16
8.7740002 -3.6010001 0.161
8.8050003 -3.5769999 0.161
8.8549995 -3.5599999 0.162
8.8599997 -3.5250001 0.162
8.8920002 -3.5009999 0.163
8.9460001 -3.4849999 0.164
8.9549999 -3.4519999 0.164
8.9849997 -3.427 0.164
9.0100002 -3.4000001 0.16500001
9.033 -3.3729999 0.16500001
9.0869999 -3.3570001 0.16599999
9.1260004 -3.336 0.167
9.1549997 -3.3099999 0.167
9.1809998 -3.2839999 0.168
9.2209997 -3.2620001 0.168
9.2519999 -3.2379999 0.169
9.2729998 -3.21 0.169
9.3260002 -3.1930001 0.17
9.3780003 -3.175 0.171
9.3999996 -3.148 0.17200001
9.4549999 -3.131 0.17299999
9.5179996 -3.1170001 0.17399999
9.5419998 -3.0899999 0.17399999
9.5810003 -3.0669999 0.175
9.7089996 -3.073 0.177
9.7040005 -3.0369999 0.177
9.7119999 -3.0050001 0.177
9.7150002 -2.971 0.177
9.7449999 -2.9460001 0.178
9.7589998 -2.9170001 0.178
9.7840004 -2.8900001 0.17900001
9.8380003 -2.872 0.18000001
9.8500004 -2.842 0.18000001
9.882 -2.8169999 0.18000001
9.9250002 -2.796 0.18099999
9.9259996 -2.763 0.18099999
9.974 -2.743 0.182
9.9890003 -2.714 0.182
10.012 -2.687 0.183
10.043 -2.6630001 0.183
10.063 -2.635 0.184
10.097 -2.612 0.184
10.126 -2.586 0.185
10.144 -2.559 0.185
10.172 -2.5339999 0.186
10.214 -2.5120001 0.18700001
10.258 -2.4909999 0.18700001
10.273 -2.4619999 0.18799999
10.277 -2.4319999 0.18799999
10.323 -2.411 0.189
10.347 -2.385 0.189
10.368 -2.358 0.189
10.407 -2.336 0.19
10.416 -2.3069999 0.19
10.452 -2.2839999 0.191
10.492 -2.2609999 0.192
10.523 -2.237 0.192
10.554 -2.2130001 0.193
10.581 -2.188 0.193
10.628 -2.1670001 0.19400001
10.649 -2.141 0.19499999
10.652 -2.1110001 0.19499999
10.687 -2.0880001 0.19499999
10.751 -2.0699999 0.197
10.754 -2.0409999 0.197
10.796 -2.0190001 0.197
10.835 -1.9960001 0.198
10.824 -1.965 0.198
10.89 -1.947 0.199
10.899 -1.919 0.199
10.935 -1.896 0.2
10.961 -1.8710001 0.20100001
11.014 -1.851 0.20200001
11.031 -1.825 0.20200001
11.053 -1.8 0.20200001
11.122 -1.7819999 0.204
11.194 -1.765 0.205
11.185 -1.735 0.205
11.189 -1.707 0.205
11.186 -1.678 0.205
11.236 -1.6569999 0.206
11.275 -1.635 0.207
11.306 -1.6109999 0.207
11.345 -1.5880001 0.208
11.355 -1.562 0.208
11.418 -1.543 0.20900001
11.44 -1.518 0.20999999
11.485 -1.4960001 0.211
11.513 -1.473 0.211
11.525 -1.447 0.211
11.549 -1.4220001 0.212
11.606 -1.402 0.213
11.612 -1.376 0.213
11.654 -1.354 0.214
11.733 -1.336 0.215
11.75 -1.311 0.21600001
11.827 -1.293 0.21699999
11.855 -1.2690001 0.21799999
11.833 -1.24 0.21699999
11.857 -1.217 0.21799999
11.884 -1.193 0.21799999
11.952 -1.174 0.22
11.984 -1.151 0.22
12.025 -1.1289999 0.221
12.105 -1.11 0.223
12.155 -1.089 0.22400001
12.155 -1.063 0.22400001
12.171 -1.039 0.22400001
12.197 -1.016 0.22400001
12.26 -0.995 0.226
12.286 -0.972 0.226
12.307 -0.94800001 0.227
12.36 -0.92699999 0.228
12.404 0.162 0.111
12.428 0.185 0.111
12.465 0.208 0.111
12.487 0.23100001 0.111
12.491 0.255 0.111
12.519 0.27900001 0.111
12.556 0.303 0.111
12.545 0.32699999 0.111
12.571 0.352 0.111
12.567 0.377 0.111
12.579 0.40200001 0.111
12.62 0.42899999 0.111
12.633 0.45500001 0.111
12.621 0.47999999 0.111
12.64 0.50700003 0.111
12.645 0.53299999 0.11
12.65 0.56 0.11
12.658 0.58700001 0.11
12.642 0.61400002 0.11
12.652 0.64200002 0.11
12.656 0.66900003 0.11
12.668 0.69800001 0.11
12.657 0.72500002 0.109
12.677 0.755 0.109
12.666 0.78299999 0.109
12.688 0.81300002 0.109
12.694 0.84200001 0.109
12.677 0.87099999 0.109
12.688 0.90100002 0.108
12.677 0.93000001 0.108
12.665 0.95899999 0.108
12.63 0.986 0.107
12.622 1.016 0.107
12.629 1.0470001 0.107
12.631 1.0779999 0.107
12.638 1.109 0.107
12.665 1.143 0.107
12.739 1.181 0.107
12.857 1.224 0.108
12.912 1.262 0.108
12.91 1.294 0.108
12.907 1.327 0.108
12.913 1.3609999 0.108
12.903 1.393 0.108
12.926 1.429 0.108
12.959 1.466 0.108
12.99 1.5039999 0.108
12.989 1.538 0.108
13.016 1.576 0.108
13.003 1.609 0.107
13.018 1.646 0.107
13.044 1.684 0.107
13.054 1.721 0.107
13.07 1.7589999 0.107
13.093 1.798 0.107
13.127 1.839 0.107
13.115 1.873 0.107
13.142 1.914 0.107
13.155 1.9529999 0.107
13.203 1.997 0.107
13.225 2.0380001 0.107
13.267 2.082 0.108
13.31 2.1270001 0.108
13.319 2.1659999 0.108
13.343 2.2090001 0.108
13.333 2.2460001 0.107
13.363 2.29 0.107
13.418 2.3380001 0.108
13.453 2.3840001 0.108
13.469 2.4260001 0.108
13.487 2.4690001 0.108
13.533 2.5179999 0.108
13.535 2.559 0.108
13.58 2.608 0.108
13.64 2.661 0.108
13.638 2.701 0.108
13.646 2.744 0.108
13.713 2.8 0.108
11.558 2.395 0.090999998
11.446 2.4070001 0.090000004
11.399 2.4319999 0.090000004
11.402 2.4679999 0.090000004
11.405 2.5039999 0.089000002
11.424 2.5439999 0.089000002
11.54 2.6059999 0.090000004
11.62 2.6600001 0.090999998
11.676 2.71 0.090999998
14.07 3.3099999 0.11
14.103 3.362 0.11
14.126 3.4130001 0.11
14.127 3.4579999 0.11
14.145 3.5079999 0.11
14.167 3.559 0.11
14.21 3.6159999 0.11
14.24 3.6689999 0.11
14.319 3.7360001 0.11
14.415 3.8080001 0.111
14.511 3.881 0.111
14.49 3.9230001 0.111
14.516 3.977 0.111
14.552 4.0349998 0.111
14.549 4.0819998 0.111
14.607 4.1469998 0.111
14.688 4.2189999 0.112
14.711 4.2740002 0.112
14.764 4.3390002 0.112
14.787 4.395 0.112
14.831 4.4580002 0.112
14.903 4.5300002 0.112
14.946 4.5929999 0.113
14.979 4.6539998 0.113
15.047 4.7259998 0.113
15.08 4.7880001 0.113
15.103 4.8470001 0.113
15.192 4.927 0.114
15.191 4.9790001 0.113
15.264 5.0549998 0.114
15.315 5.125 0.114
15.362 5.1929998 0.114
15.474 5.2839999 0.115
15.509 5.3499999 0.115
15.554 5.4200001 0.115
15.579 5.4829998 0.115
15.655 5.5640001 0.116
15.673 5.625 0.115
15.732 5.7010002 0.116
15.749 5.7620001 0.116
15.784 5.8299999 0.116
15.824 5.901 0.116
15.858 5.9689999 0.116
15.942 6.0570002 0.116
15.98 6.1279998 0.117
16.037001 6.2069998 0.117
16.077999 6.2800002 0.117
16.113001 6.3509998 0.117
16.152 6.4239998 0.117
14.78 6.0359998 0.107
14.792 6.0939999 0.107
12.317 5.921 0.086000003
12.307 5.9619999 0.086000003
12.184 5.947 0.085000001
12.011 5.9060001 0.083999999
11.918 5.9039998 0.082999997
11.913 5.9450002 0.082999997
11.888 5.9749999 0.082000002
11.98 6.066 0.082999997
12.225 6.2340002 0.083999999
12.199 6.2659998 0.083999999
12.298 6.362 0.085000001
12.188 6.349 0.083999999
12.187 6.3930001 0.083999999
12.088 6.3850002 0.082999997
12.063 6.4159999 0.082999997
7.585 4.0619998 0.052000001
7.4970002 4.0419998 0.050999999
7.4699998 4.0549998 0.050999999
7.4860001 4.0910001 0.050999999
7.52 4.1370001 0.050999999
7.4130001 4.105 0.050000001
7.243 4.0370002 0.048999999
7.1059999 3.987 0.048
7.0370002 3.973 0.046999998
6.9959998 3.9749999 0.046999998
6.9549999 3.9779999 0.046999998
6.921 3.983 0.046
6.888 3.9890001 0.046
6.8759999 4.007 0.046
6.882 4.0349998 0.046
6.902 4.072 0.046
6.914 4.1040001 0.046
6.9109998 4.1269999 0.046
6.9089999 4.1500001 0.046
6.9169998 4.1789999 0.046
6.927 4.21 0.046
6.96 4.2550001 0.046
7.0120001 4.3119998 0.046
7.2049999 4.4559999 0.046999998
8.2080002 -4.8410001 0.17
8.2220001 -4.8260002 0.17
8.2270002 -4.8060002 0.17
8.243 -4.7919998 0.17
8.2589998 -4.777 0.171
8.2589998 -4.7529998 0.171
8.2919998 -4.7490001 0.171
8.2729998 -4.7140002 0.171
8.302 -4.7069998 0.17200001
8.3120003 -4.6890001 0.17200001
8.2980003 -4.658 0.17200001
8.3339996 -4.6539998 0.17299999
8.3450003 -4.6360002 0.17299999
8.3470001 -4.6129999 0.17299999
8.3699999 -4.6020002 0.17299999
8.3800001 -4.5830002 0.17399999
8.3979998 -4.5689998 0.17399999
8.3959999 -4.5440001 0.17399999
8.427 -4.5370002 0.175
8.4359999 -4.5170002 0.175
8.4490004 -4.5 0.175
8.4700003 -4.4860001 0.176
8.4829998 -4.4689999 0.176
8.4910002 -4.4489999 0.176
8.5369997 -4.448 0.177
8.5430002 -4.427 0.177
8.566 -4.414 0.178
8.5760002 -4.3940001 0.178
8.5620003 -4.362 0.178
8.5749998 -4.3439999 0.178
8.5880003 -4.3260002 0.178
8.5900002 -4.302 0.178
8.6230001 -4.2930002 0.17900001
8.6359997 -4.2750001 0.17900001
8.6520004 -4.2579999 0.18000001
8.6750002 -4.244 0.18000001
8.7040005 -4.2329998 0.18099999
8.6949997 -4.2030001 0.18099999
8.6800003 -4.171 0.18099999
8.7080002 -4.1589999 0.18099999
8.7110004 -4.1350002 0.18099999
8.7449999 -4.1259999 0.182
8.7679996 -4.112 0.182
8.7589998 -4.0819998 0.182
8.7880001 -4.0700002 0.183
8.8059998 -4.053 0.183
8.8210001 -4.0339999 0.184
8.8430004 -4.0190001 0.184
8.8610001 -4.0009999 0.185
8.868 -3.9779999 0.185
8.8800001 -3.9579999 0.185
8.8979998 -3.9400001 0.185
8.8979998 -3.914 0.185
8.9289999 -3.902 0.186
8.9519997 -3.8859999 0.18700001
8.9729996 -3.869 0.18700001
8.9790001 -3.845 0.18700001
9.0170002 -3.836 0.18799999
9.0430002 -3.8199999 0.189
9.0459995 -3.796 0.189
9.0670004 -3.7780001 0.189
9.0810003 -3.757 0.189
9.0939999 -3.7360001 0.19
9.1219997 -3.721 0.19
9.1499996 -3.7060001 0.191
9.1610003 -3.684 0.191
9.1829996 -3.6659999 0.192
9.1890001 -3.642 0.192
9.2270002 -3.6300001 0.193
9.2519999 -3.6129999 0.193
9.2670002 -3.592 0.19400001
9.276 -3.569 0.19400001
9.3129997 -3.556 0.19499999
9.3249998 -3.5339999 0.19499999
9.3479996 -3.5150001 0.19499999
9.3839998 -3.5009999 0.19599999
9.3929996 -3.4779999 0.19599999
9.4189997 -3.46 0.197
9.4370003 -3.4389999 0.197
9.4569998 -3.4189999 0.198
9.4750004 -3.398 0.198
9.5030003 -3.3800001 0.199
9.5120001 -3.3559999 0.199
9.5419998 -3.339 0.2
9.5710001 -3.3210001 0.2
9.5799999 -3.2969999 0.2
9.6120005 -3.28 0.20100001
9.6400003 -3.2609999 0.20200001
9.6520004 -3.237 0.20200001
9.6820002 -3.2190001 0.20299999
9.6960001 -3.1960001 0.20299999
9.7130003 -3.1730001 0.20299999
9.7480001 -3.1570001 0.204
9.79 -3.142 0.205
9.8100004 -3.1199999 0.205
9.8269997 -3.0969999 0.206
9.8290005 -3.069 0.206
9.8570004 -3.049 0.207
9.8800001 -3.0280001 0.207
9.8950005 -3.0039999 0.207
9.9069996 -2.9790001 0.208
9.9029999 -2.9489999 0.208
9.9300003 -2.9289999 0.208
9.941 -2.9030001 0.208
9.9639997 -2.881 0.20900001
9.9949999 -2.8610001 0.20999999
10.005 -2.835 0.20999999
10.029 -2.813 0.20999999
10.049 -2.79 0.211
10.065 -2.7650001 0.211
10.108 -2.747 0.212
10.12 -2.721 0.212
10.144 -2.6989999 0.213
10.172 -2.677 0.213
10.186 -2.651 0.214
10.207 -2.6270001 0.214
10.247 -2.608 0.215
10.271 -2.585 0.21600001
10.28 -2.5569999 0.21600001
10.313 -2.536 0.21600001
10.346 -2.5139999 0.21699999
10.362 -2.4879999 0.21799999
10.374 -2.461 0.21799999
10.384 -2.434 0.21799999
10.426 -2.414 0.219
10.448 -2.3889999 0.219
10.483 -2.3670001 0.22
10.507 -2.342 0.221
10.522 -2.3150001 0.221
10.57 -2.2950001 0.222
10.592 -2.2690001 0.222
10.618 -2.244 0.223
10.653 -2.221 0.22400001
10.686 -2.197 0.22499999
10.728 -2.175 0.22499999
10.728 -2.1440001 0.22499999
10.775 -2.1229999 0.226
10.821 -2.1010001 0.227
10.836 -2.073 0.228
10.871 -2.0480001 0.228
10.906 -2.0239999 0.229
10.947 -2 0.23
10.985 -1.975 0.23100001
11.018 -1.95 0.23199999
11.031 -1.921 0.23199999
11.058 -1.8940001 0.23199999
11.116 -1.872 0.234
11.139 -1.844 0.234
11.156 -1.8150001 0.235
11.268 -1.801 0.237
11.338 -1.779 0.23800001
11.305 -1.742 0.23800001
11.333 -1.714 0.23800001
11.403 -1.692 0.23999999
11.443 -1.665 0.241
11.476 -1.637 0.241
11.519 -1.61 0.242
11.6 -1.5880001 0.244
11.643 -1.561 0.245
11.632 -1.526 0.245
11.682 -1.499 0.24600001
11.73 -1.472 0.24699999
11.791 -1.446 0.248
11.869 -1.4220001 0.25
11.901 -1.392 0.25
11.93 -1.3609999 0.25099999
11.976 -1.332 0.252
11.996 -1.3 0.252
12.071 -1.274 0.25400001
12.128 -1.245 0.255
12.233 -1.221 0.257
12.291 -1.192 0.259
12.294 -1.1569999 0.259
12.33 -1.125 0.25999999
12.36 -1.0930001 0.25999999
12.386 -1.0599999 0.26100001
12.473 -1.0319999 0.26300001
13.315 0.47099999 0.14399999
13.18 0.486 0.14300001
13.196 0.50599998 0.14300001
13.166 0.52499998 0.142
13.126 0.54400003 0.142
13.119 0.565 0.141
13.128 0.58600003 0.141
13.096 0.60600001 0.141
13.098 0.62800002 0.141
13.122 0.65100002 0.141
13.084 0.671 0.14
13.13 0.69599998 0.14
13.117 0.71799999 0.14
13.114 0.741 0.14
13.121 0.76499999 0.14
13.098 0.787 0.139
13.122 0.81199998 0.14
13.111 0.83600003 0.139
13.094 0.85900003 0.139
12.81 0.86400002 0.13600001
12.691 0.88099998 0.134
12.645 0.90200001 0.134
12.599 0.92299998 0.133
12.567 0.94599998 0.133
12.57 0.97100002 0.132
12.571 0.99599999 0.132
12.602 1.024 0.132
12.63 1.052 0.133
12.701 1.085 0.133
12.787 1.119 0.134
13.234 1.186 0.138
13.22 1.2130001 0.138
13.175 1.237 0.138
13.142 1.262 0.13699999
13.142 1.291 0.13699999
13.02 1.308 0.13600001
12.937 1.3279999 0.134
12.918 1.355 0.134
12.967 1.39 0.13500001
13.066 1.4299999 0.13500001
13.203 1.476 0.13699999
13.247 1.512 0.13699999
13.279 1.546 0.13699999
13.305 1.581 0.13699999
13.321 1.614 0.13699999
13.335 1.648 0.13699999
13.367 1.684 0.138
13.382 1.719 0.138
13.422 1.757 0.138
13.411 1.789 0.138
13.434 1.825 0.138
13.468 1.864 0.138
13.495 1.901 0.138
13.504 1.937 0.138
13.525 1.975 0.138
13.538 2.0109999 0.138
13.55 2.0480001 0.138
13.578 2.0880001 0.138
13.597 2.1270001 0.138
13.604 2.164 0.138
13.607 2.201 0.138
13.663 2.2460001 0.139
13.684 2.2869999 0.139
13.713 2.329 0.139
13.75 2.3729999 0.139
13.806 2.421 0.14
13.829 2.4630001 0.14
13.893 2.513 0.14
13.892 2.552 0.14
13.863 2.585 0.14
13.891 2.6300001 0.14
13.924 2.6760001 0.14
13.952 2.721 0.14
13.994 2.77 0.141
14.057 2.823 0.141
14.087 2.8710001 0.141
14.135 2.9219999 0.142
11.49 2.4089999 0.115
11.424 2.4289999 0.114
11.388 2.4549999 0.114
11.381 2.4879999 0.114
11.397 2.526 0.114
11.408 2.563 0.114
11.508 2.6210001 0.115
11.571 2.6700001 0.115
11.61 2.7149999 0.116
11.707 2.7739999 0.116
14.523 3.487 0.145
14.461 3.517 0.14399999
14.468 3.5639999 0.14399999
14.513 3.6210001 0.14399999
14.606 3.691 0.145
14.745 3.773 0.146
14.736 3.8180001 0.146
14.762 3.872 0.146
14.822 3.9360001 0.147
14.837 3.9879999 0.147
14.891 4.052 0.147
14.896 4.1020002 0.147
14.937 4.1630001 0.147
15.001 4.23 0.148
15.01 4.283 0.148
15.043 4.3429999 0.148
15.112 4.4130001 0.149
15.194 4.4889998 0.15000001
15.256 4.559 0.15000001
15.248 4.6079998 0.15000001
15.35 4.6919999 0.15099999
15.406 4.7620001 0.15099999
15.438 4.8249998 0.152
15.491 4.895 0.152
15.564 4.973 0.153
15.614 5.0440001 0.153
15.717 5.132 0.154
15.718 5.1880002 0.154
15.744 5.2519999 0.154
15.777 5.3200002 0.154
15.794 5.382 0.154
15.847 5.4569998 0.155
15.957 5.553 0.156
15.959 5.6110001 0.156
15.994 5.6820002 0.156
16.069 5.7670002 0.15700001
16.124001 5.8460002 0.15700001
16.174999 5.9239998 0.15800001
16.167 5.9809999 0.15800001
16.216999 6.0599999 0.15800001
16.216 6.1199999 0.15800001
12.343 5.8709998 0.119
12.315 5.908 0.119
12.258 5.9320002 0.118
12.008 5.8610001 0.116
11.946 5.8800001 0.115
11.948 5.9310002 0.115
11.999 6.007 0.116
12.323 6.2220001 0.119
12.21 6.2160001 0.118
12.28 6.3039999 0.118
12.206 6.3179998 0.118
12.167 6.3499999 0.117
12.098 6.3660002 0.116
7.704 4.0869999 0.074000001
12.147 6.4439998 0.117
7.5050001 4.0139999 0.071999997
7.4619999 4.0240002 0.071999997
7.4699998 4.0599999 0.071999997
7.4819999 4.099 0.071999997
7.3870001 4.0799999 0.071000002
7.2270002 4.0229998 0.068999998
7.0939999 3.9809999 0.068000004
7.0209999 3.971 0.067000002
6.9790001 3.9779999 0.067000002
6.9390001 3.9860001 0.067000002
6.9050002 3.9979999 0.066
6.8660002 4.006 0.066
6.8660002 4.0370002 0.066
6.888 4.0809999 0.066
6.895 4.1160002 0.066
6.8889999 4.145 0.066
6.8959999 4.1799998 0.066
6.8940001 4.21 0.066
6.9109998 4.2519999 0.066
6.9299998 4.296 0.066
7.0170002 4.3829999 0.067000002
7.8150001 -5.145 0.182
7.868 -5.131 0.184
7.9200001 -5.1160002 0.185
7.9229999 -5.0689998 0.185
7.9569998 -5.0419998 0.185
7.9860001 -5.0120001 0.186
8.0010004 -4.973 0.186
8.0419998 -4.9510002 0.18700001
8.0740004 -4.9229999 0.18799999
8.1000004 -4.8920002 0.18799999
8.1269999 -4.8610001 0.189
8.1619997 -4.835 0.189
8.1809998 -4.8000002 0.19
8.2150002 -4.7740002 0.19
8.2379999 -4.7410002 0.191
8.2589998 -4.7069998 0.191
8.2950001 -4.6820002 0.192
8.3240004 -4.6529999 0.193
8.3389997 -4.6170001 0.193
8.3789997 -4.5939999 0.19400001
8.3990002 -4.5609999 0.19400001
8.4530001 -4.5450001 0.19499999
8.4989996 -4.526 0.19599999
8.5050001 -4.4850001 0.19599999
8.5089998 -4.4429998 0.19599999
8.54 -4.4159999 0.197
8.5579996 -4.382 0.197
8.5880003 -4.355 0.198
8.6049995 -4.3210001 0.198
8.6440001 -4.2969999 0.199
8.677 -4.2709999 0.2
8.6960001 -4.2389998 0.2
8.7159996 -4.2069998 0.2
8.7340002 -4.1739998 0.20100001
8.7530003 -4.1409998 0.20100001
8.8039999 -4.1240001 0.20200001
8.802 -4.0819998 0.20200001
8.8360004 -4.0560002 0.20299999
8.8590002 -4.026 0.20299999
8.8959999 -4.0029998 0.204
8.9280005 -3.9760001 0.205
8.941 -3.9419999 0.205
8.9689999 -3.915 0.206
9.0019999 -3.8889999 0.206
9.0279999 -3.8610001 0.207
9.0579996 -3.8340001 0.208
9.1049995 -3.8150001 0.20900001
9.1330004 -3.7869999 0.20900001
9.1610003 -3.7590001 0.20999999
9.1850004 -3.7309999 0.20999999
9.2139997 -3.7030001 0.211
9.224 -3.6689999 0.211
9.2600002 -3.645 0.212
9.3000002 -3.6229999 0.213
9.3400002 -3.5999999 0.214
9.3649998 -3.572 0.214
9.4099998 -3.5510001 0.215
9.4569998 -3.5309999 0.21600001
9.4879999 -3.5039999 0.21699999
9.5019999 -3.4719999 0.21699999
9.54 -3.4489999 0.21799999
9.5419998 -3.4119999 0.21799999
9.5710001 -3.3859999 0.219
9.6309996 -3.3699999 0.22
9.665 -3.345 0.221
9.6730003 -3.3110001 0.221
9.7159996 -3.289 0.222
9.7489996 -3.2639999 0.222
9.7550001 -3.23 0.223
9.7930002 -3.207 0.223
9.842 -3.1860001 0.22400001
9.9770002 -3.194 0.227
9.9729996 -3.1570001 0.227
9.927 -3.1059999 0.226
9.9530001 -3.079 0.227
9.9759998 -3.0510001 0.227
9.9960003 -3.0220001 0.228
10.023 -2.9949999 0.228
10.036 -2.964 0.229
10.053 -2.9349999 0.229
10.092 -2.911 0.23
10.127 -2.8870001 0.23100001
10.164 -2.8629999 0.23100001
10.176 -2.832 0.23199999
10.179 -2.799 0.23199999
10.24 -2.7820001 0.233
10.275 -2.7579999 0.234
10.298 -2.73 0.234
10.338 -2.707 0.235
10.381 -2.6849999 0.236
10.407 -2.658 0.237
10.417 -2.628 0.237
10.434 -2.599 0.237
10.441 -2.5680001 0.23800001
10.49 -2.5469999 0.23899999
10.529 -2.5239999 0.23999999
10.552 -2.497 0.23999999
10.57 -2.4690001 0.23999999
10.608 -2.4449999 0.241
10.623 -2.4159999 0.242
10.66 -2.392 0.243
10.713 -2.372 0.244
10.723 -2.3429999 0.244
10.755 -2.3180001 0.245
10.794 -2.2950001 0.24600001
10.824 -2.27 0.24600001
10.851 -2.244 0.24699999
10.866 -2.2160001 0.24699999
10.915 -2.194 0.248
10.939 -2.168 0.249
11.002 -2.1489999 0.25
11.051 -2.128 0.25099999
11.065 -2.0999999 0.252
11.11 -2.0780001 0.25299999
11.188 -2.062 0.255
11.155 -2.0250001 0.25400001
11.188 -2 0.255
11.232 -1.978 0.25600001
11.275 -1.955 0.257
11.297 -1.929 0.257
