# .PCD v0.7 - Point Cloud Data file format
VERSION 0.7
FIELDS x y z
SIZE 4 4 4
TYPE F F F
COUNT 1 1 1
WIDTH 1705
HEIGHT 1
VIEWPOINT 0 0 0 1 0 0 0
POINTS 1705
DATA ascii
6.6589999 -2.717 -0.271
6.6719999 -2.7030001 -0.27200001
6.6750002 -2.6860001 -0.27200001
6.6939998 -2.674 -0.27200001
6.691 -2.654 -0.27200001
6.7090001 -2.641 -0.273
6.711 -2.6229999 -0.273
6.7280002 -2.6099999 -0.273
6.7410002 -2.596 -0.27399999
6.7360001 -2.575 -0.273
6.756 -2.563 -0.27399999
6.7690001 -2.549 -0.27399999
6.783 -2.5350001 -0.27500001
6.7930002 -2.5190001 -0.27500001
6.8099999 -2.506 -0.27599999
6.8109999 -2.487 -0.27500001
6.8280001 -2.473 -0.27599999
6.8410001 -2.4590001 -0.27599999
6.8439999 -2.4400001 -0.27599999
6.8530002 -2.424 -0.27700001
6.8649998 -2.408 -0.27700001
6.8790002 -2.3940001 -0.27700001
6.8909998 -2.378 -0.278
6.888 -2.3570001 -0.27700001
6.8969998 -2.3410001 -0.278
6.9169998 -2.3280001 -0.278
6.915 -2.3069999 -0.278
6.9180002 -2.289 -0.278
6.9349999 -2.2739999 -0.27900001
6.9400001 -2.256 -0.27900001
6.9619999 -2.243 -0.27900001
6.9660001 -2.2249999 -0.27900001
6.987 -2.2119999 -0.28
6.9759998 -2.188 -0.28
6.9980001 -2.175 -0.28
7.0159998 -2.161 -0.28099999
7.0149999 -2.1400001 -0.28099999
7.0170002 -2.1210001 -0.28099999
7.04 -2.108 -0.28099999
7.0580001 -2.0929999 -0.28200001
7.0679998 -2.076 -0.28200001
7.0830002 -2.0599999 -0.28299999
7.079 -2.039 -0.28200001
7.085 -2.02 -0.28200001
7.1139998 -2.0079999 -0.28299999
7.1209998 -1.99 -0.28400001
7.138 -1.974 -0.28400001
7.158 -1.959 -0.285
7.158 -1.939 -0.285
7.1680002 -1.921 -0.285
7.1929998 -1.9069999 -0.28600001
7.2049999 -1.89 -0.28600001
7.1900001 -1.8660001 -0.285
7.2490001 -1.86 -0.28799999
7.2610002 -1.8430001 -0.28799999
7.27 -1.824 -0.28799999
7.2779999 -1.806 -0.28799999
7.296 -1.789 -0.289
7.302 -1.77 -0.289
7.3200002 -1.753 -0.289
7.3390002 -1.737 -0.28999999
7.3509998 -1.719 -0.28999999
7.3600001 -1.7 -0.29100001
7.369 -1.682 -0.29100001
7.3860002 -1.664 -0.29100001
7.4029999 -1.647 -0.292
7.4159999 -1.6289999 -0.292
7.4190001 -1.609 -0.292
7.4310002 -1.59 -0.292
7.4629998 -1.576 -0.294
7.467 -1.5549999 -0.294
7.4860001 -1.538 -0.294
7.5 -1.52 -0.29499999
7.5149999 -1.501 -0.29499999
7.5320001 -1.483 -0.29499999
7.5560002 -1.467 -0.296
7.5339999 -1.441 -0.29499999
7.5469999 -1.4220001 -0.296
7.5830002 -1.4069999 -0.29699999
7.6020002 -1.3890001 -0.29699999
7.6230001 -1.372 -0.29800001
7.6440001 -1.354 -0.29899999
7.651 -1.3329999 -0.29899999
7.6729999 -1.3150001 -0.30000001
7.6760001 -1.294 -0.29899999
7.6880002 -1.274 -0.30000001
7.7270002 -1.2589999 -0.301
7.724 -1.237 -0.301
7.7540002 -1.22 -0.30199999
7.7589998 -1.198 -0.30199999
7.7610002 -1.177 -0.30199999
7.7859998 -1.158 -0.303
7.8099999 -1.14 -0.303
7.8189998 -1.119 -0.30399999
7.8369999 -1.1 -0.30399999
7.8600001 -1.08 -0.30500001
7.8779998 -1.061 -0.30500001
7.8850002 -1.039 -0.30500001
7.8969998 -1.0190001 -0.30599999
7.9089999 -0.99800003 -0.30599999
7.9229999 -0.977 -0.30599999
7.9619999 -0.95999998 -0.308
7.9640002 -0.93699998 -0.308
8.0050001 -0.91900003 -0.30899999
8.007 -0.89700001 -0.30899999
8.0290003 -0.87699997 -0.31
8.0459995 -0.85600001 -0.31
8.0690002 -0.83600003 -0.31099999
8.0889997 -0.815 -0.31099999
8.1120005 -0.79400003 -0.31200001
8.1330004 -0.773 -0.31299999
8.1499996 -0.75199997 -0.31299999
8.1660004 -0.73000002 -0.31400001
8.1809998 -0.70899999 -0.31400001
8.2010002 -0.68699998 -0.315
8.217 -0.66500002 -0.315
8.2609997 -0.64600003 -0.317
8.2840004 -0.62400001 -0.317
8.3210001 -0.60299999 -0.31900001
8.3310003 -0.58099997 -0.31900001
8.3360004 -0.55800003 -0.31900001
8.3549995 -0.53500003 -0.31900001
8.375 -0.51300001 -0.31999999
8.4069996 -0.491 -0.32100001
8.4519997 -0.47 -0.32300001
8.4799995 -0.44800001 -0.324
8.5059996 -0.42500001 -0.324
8.5310001 -0.40200001 -0.32499999
8.5469999 -0.37900001 -0.32499999
8.6079998 -0.35699999 -0.32800001
8.665 -0.33500001 -0.33000001
8.7589998 -0.31400001 -0.333
8.448 0.148 -0.46399999
8.4300003 0.15800001 -0.463
8.3909998 0.169 -0.461
8.3739996 0.17900001 -0.46000001
8.349 0.19 -0.45899999
8.3509998 0.20100001 -0.45899999
8.3330002 0.213 -0.458
8.316 0.22400001 -0.45699999
8.3190002 0.236 -0.45699999
8.3050003 0.248 -0.45699999
8.3179998 0.25999999 -0.458
8.3190002 0.273 -0.458
8.2989998 0.285 -0.45699999
8.3240004 0.29899999 -0.458
8.3100004 0.31099999 -0.458
8.3039999 0.324 -0.458
8.309 0.338 -0.458
8.29 0.35100001 -0.45699999
8.3100004 0.36500001 -0.45899999
8.3149996 0.38 -0.45899999
8.3000002 0.39300001 -0.458
8.3140001 0.40799999 -0.45899999
8.3109999 0.42300001 -0.45899999
8.3070002 0.43700001 -0.45899999
8.3030005 0.45199999 -0.45899999
8.309 0.46700001 -0.46000001
8.3100004 0.48300001 -0.46000001
8.3120003 0.498 -0.461
8.3210001 0.51499999 -0.461
8.3339996 0.53100002 -0.46200001
8.3179998 0.546 -0.46200001
8.3299999 0.56300002 -0.463
8.3479996 0.58099997 -0.46399999
8.3570004 0.59799999 -0.465
8.3549995 0.61500001 -0.465
8.3789997 0.63300002 -0.46599999
8.3789997 0.65100002 -0.46700001
8.3900003 0.66900003 -0.46799999
8.3769999 0.685 -0.46700001
8.3879995 0.704 -0.46799999
8.3760004 0.72100002 -0.46799999
8.3850002 0.73900002 -0.46900001
8.3920002 0.75800002 -0.46900001
8.3809996 0.77499998 -0.46900001
8.401 0.796 -0.47099999
8.408 0.815 -0.47099999
8.3959999 0.833 -0.47099999
8.4209995 0.85399997 -0.47299999
8.4099998 0.87199998 -0.47299999
8.4180002 0.89300001 -0.47299999
8.4300003 0.91299999 -0.47400001
8.434 0.93400002 -0.47499999
8.4429998 0.95499998 -0.47600001
8.4449997 0.97500002 -0.47600001
8.4540005 0.99599999 -0.477
8.4580002 1.017 -0.47799999
8.4639997 1.038 -0.479
8.4650002 1.059 -0.479
8.4639997 1.08 -0.47999999
8.4820004 1.103 -0.48100001
8.5010004 1.127 -0.48300001
8.4980001 1.148 -0.48300001
8.507 1.171 -0.484
8.507 1.193 -0.484
8.5220003 1.217 -0.486
8.5270004 1.239 -0.486
8.5220003 1.261 -0.48699999
8.5319996 1.285 -0.48800001
8.5349998 1.308 -0.48800001
8.5319996 1.33 -0.48899999
8.5410004 1.354 -0.49000001
8.552 1.3789999 -0.491
8.5550003 1.403 -0.491
8.5710001 1.429 -0.493
8.559 1.45 -0.493
8.5749998 1.477 -0.49399999
8.5719995 1.5 -0.495
8.6049995 1.53 -0.49700001
8.6040001 1.554 -0.49700001
8.6120005 1.58 -0.49900001
8.6140003 1.605 -0.49900001
8.6169996 1.63 -0.5
8.6330004 1.658 -0.50099999
8.6379995 1.684 -0.50199997
8.6440001 1.71 -0.50300002
8.6540003 1.738 -0.50400001
8.6529999 1.763 -0.505
8.6479998 1.788 -0.505
8.6459999 1.813 -0.50599998
8.6780005 1.845 -0.50800002
8.6789999 1.872 -0.509
8.6870003 1.9 -0.50999999
8.7049999 1.9299999 -0.51200002
8.6890001 1.9529999 -0.51099998
8.6969995 1.982 -0.51300001
8.7119999 2.0120001 -0.514
8.7320004 2.0439999 -0.51599997
8.7469997 2.075 -0.51700002
8.7550001 2.1040001 -0.51899999
8.7589998 2.1329999 -0.51999998
8.7510004 2.1589999 -0.51999998
8.7790003 2.194 -0.52200001
8.7790003 2.221 -0.523
8.8009996 2.2550001 -0.52499998
8.8050003 2.2850001 -0.52600002
8.8070002 2.3139999 -0.52700001
8.8310003 2.349 -0.52899998
8.8269997 2.3770001 -0.52899998
8.8380003 2.4089999 -0.53100002
8.8610001 2.4449999 -0.53299999
8.8730001 2.4779999 -0.53399998
8.8710003 2.507 -0.53500003
8.8730001 2.5369999 -0.53600001
8.8850002 2.5710001 -0.537
8.8950005 2.6029999 -0.53899997
8.901 2.635 -0.54000002
8.9289999 2.674 -0.542
8.9399996 2.7079999 -0.54400003
8.941 2.7390001 -0.54500002
8.9610004 2.777 -0.54699999
8.9899998 2.8169999 -0.55000001
8.9809999 2.846 -0.55000001
8.9980001 2.882 -0.55199999
9.0050001 2.9159999 -0.55299997
9.0050001 2.948 -0.55400002
9.026 2.987 -0.55599999
9.0389996 3.0239999 -0.55800003
9.0600004 3.063 -0.56
9.0699997 3.099 -0.56099999
9.0749998 3.1340001 -0.56300002
9.0790005 3.168 -0.56400001
9.0900002 3.2049999 -0.565
9.0889997 3.2379999 -0.56599998
9.0979996 3.2750001 -0.56800002
9.1070004 3.312 -0.56900001
9.1120005 3.3469999 -0.56999999
9.1459999 3.3940001 -0.574
9.1470003 3.428 -0.57499999
9.1669998 3.47 -0.57700002
9.1820002 3.51 -0.579
9.2010002 3.553 -0.58099997
9.2030001 3.5880001 -0.58200002
9.2340002 3.6359999 -0.58499998
9.2469997 3.6760001 -0.58700001
9.2620001 3.717 -0.58899999
9.2799997 3.7609999 -0.59100002
9.3059998 3.8069999 -0.59399998
9.3140001 3.846 -0.59500003
9.3369999 3.892 -0.59799999
9.3710003 3.9430001 -0.60100001
9.3710003 3.98 -0.602
9.3909998 4.026 -0.60399997
9.3950005 4.0650001 -0.60600001
9.4099998 4.1090002 -0.60799998
9.4139996 4.1479998 -0.60900003
9.4549999 4.204 -0.61299998
9.4890003 4.257 -0.616
9.4989996 4.3000002 -0.61799997
9.526 4.3509998 -0.62099999
9.5080004 4.381 -0.62099999
9.5419998 4.4359999 -0.62400001
9.5459995 4.4770002 -0.62599999
9.5609999 4.5229998 -0.62800002
9.5710001 4.5669999 -0.63
9.6040001 4.6230001 -0.63300002
9.6120005 4.6669998 -0.63499999
9.6219997 4.7119999 -0.63700002
9.632 4.757 -0.639
9.6499996 4.8070002 -0.64099997
9.6709995 4.8579998 -0.64399999
9.6759996 4.902 -0.64600003
9.698 4.954 -0.648
9.71 5.0019999 -0.64999998
9.7089996 5.0430002 -0.65200001
9.7530003 5.1079998 -0.65600002
9.7440004 5.145 -0.65700001
9.757 5.1939998 -0.65899998
9.783 5.25 -0.662
9.8120003 5.3080001 -0.66500002
9.8050003 5.3470001 -0.66600001
9.8310003 5.4050002 -0.66900003
9.8339996 5.4499998 -0.671
9.8360004 5.494 -0.67199999
9.8409996 5.54 -0.67400002
9.8380003 5.5830002 -0.67500001
9.8380003 5.6259999 -0.67699999
9.8470001 5.6760001 -0.67900002
9.875 5.7360001 -0.68199998
9.8839998 5.7859998 -0.68400002
9.908 5.8449998 -0.68699998
9.9060001 5.8889999 -0.68800002
9.8909998 5.9250002 -0.68900001
9.9040003 5.9780002 -0.69099998
9.9189997 6.033 -0.69400001
9.9239998 6.0809999 -0.69599998
9.9130001 6.1199999 -0.69599998
9.8940001 6.1539998 -0.69599998
9.9180002 6.2150002 -0.69999999
9.9160004 6.2600002 -0.70099998
9.9230003 6.3109999 -0.70300001
9.9230003 6.3579998 -0.70499998
9.927 6.4070001 -0.70700002
9.9390001 6.461 -0.70899999
9.9379997 6.5079999 -0.70999998
5.152 3.398 -0.36899999
9.9860001 6.5869999 -0.71499997
4.993 3.3169999 -0.35800001
4.9369998 3.3039999 -0.35499999
4.8920002 3.296 -0.35299999
4.869 3.3050001 -0.352
4.8559999 3.319 -0.352
4.8249998 3.3210001 -0.34999999
4.8140001 3.3369999 -0.34999999
4.803 3.352 -0.34999999
4.7919998 3.369 -0.34999999
4.7729998 3.378 -0.34999999
4.7600002 3.392 -0.34900001
4.7319999 3.3959999 -0.34799999
4.7259998 3.415 -0.34799999
5.8169999 -3.8540001 -0.234
5.849 -3.8380001 -0.235
5.869 -3.8139999 -0.235
5.8850002 -3.7880001 -0.235
5.9070001 -3.766 -0.236
5.9239998 -3.74 -0.236
5.9400001 -3.714 -0.237
5.9629998 -3.6919999 -0.237
5.9780002 -3.6670001 -0.23800001
6 -3.6440001 -0.23800001
6.0120001 -3.6170001 -0.23899999
6.0219998 -3.5880001 -0.23899999
6.04 -3.5639999 -0.23899999
6.0630002 -3.543 -0.23999999
6.0580001 -3.506 -0.23899999
6.0869999 -3.4890001 -0.23999999
6.1240001 -3.4749999 -0.241
6.158 -3.461 -0.242
6.171 -3.434 -0.243
6.1799998 -3.4059999 -0.243
6.1989999 -3.3829999 -0.243
6.2210002 -3.362 -0.244
6.2329998 -3.336 -0.244
6.25 -3.313 -0.244
6.2670002 -3.289 -0.245
6.3010001 -3.2739999 -0.24600001
6.3130002 -3.2490001 -0.24600001
6.3189998 -3.22 -0.24600001
6.3400002 -3.198 -0.24699999
6.3569999 -3.175 -0.24699999
6.3790002 -3.155 -0.248
6.395 -3.132 -0.248
6.4190001 -3.112 -0.249
6.4180002 -3.0810001 -0.248
6.4369998 -3.059 -0.249
6.4580002 -3.0380001 -0.249
6.4829998 -3.02 -0.25
6.506 -3 -0.25099999
6.5159998 -2.974 -0.25099999
6.5339999 -2.9519999 -0.25099999
6.5450001 -2.927 -0.252
6.5609999 -2.905 -0.252
6.5939999 -2.8900001 -0.25299999
6.5970001 -2.862 -0.25299999
6.6149998 -2.8399999 -0.25299999
6.6350002 -2.819 -0.25400001
6.6479998 -2.796 -0.25400001
6.6729999 -2.7780001 -0.255
6.677 -2.75 -0.255
6.6989999 -2.7309999 -0.25600001
6.7189999 -2.71 -0.25600001
6.7199998 -2.6830001 -0.25600001
6.7350001 -2.661 -0.25600001
6.7490001 -2.638 -0.257
6.7610002 -2.615 -0.257
6.7800002 -2.595 -0.257
6.789 -2.5699999 -0.25799999
6.8150001 -2.553 -0.25799999
6.8299999 -2.5309999 -0.259
6.8390002 -2.507 -0.259
6.8569999 -2.4860001 -0.259
6.8839998 -2.4690001 -0.25999999
6.8990002 -2.448 -0.25999999
6.9109998 -2.425 -0.26100001
6.9289999 -2.405 -0.26100001
6.9349999 -2.3800001 -0.26100001
6.9369998 -2.355 -0.26100001
6.9590001 -2.336 -0.26199999
6.9759998 -2.316 -0.26199999
6.9949999 -2.296 -0.26300001
6.9879999 -2.2679999 -0.26199999
7.0040002 -2.2479999 -0.26300001
7.02 -2.227 -0.26300001
7.033 -2.2060001 -0.26300001
7.04 -2.1830001 -0.264
7.059 -2.1630001 -0.264
7.0739999 -2.1429999 -0.264
7.1009998 -2.1259999 -0.26499999
7.1059999 -2.1029999 -0.26499999
7.1230001 -2.0829999 -0.266
7.1279998 -2.0599999 -0.266
7.1620002 -2.0450001 -0.26699999
7.1630001 -2.0209999 -0.26699999
7.1960001 -2.006 -0.26800001
7.217 -1.988 -0.26800001
7.2199998 -1.964 -0.26800001
7.243 -1.946 -0.26899999
7.2610002 -1.927 -0.26899999
7.276 -1.908 -0.27000001
7.2950001 -1.8890001 -0.27000001
7.2989998 -1.8660001 -0.27000001
7.3119998 -1.846 -0.271
7.3390002 -1.829 -0.27200001
7.3429999 -1.807 -0.27200001
7.3699999 -1.791 -0.27200001
7.3769999 -1.7690001 -0.273
7.4029999 -1.752 -0.273
7.421 -1.734 -0.27399999
7.4250002 -1.712 -0.27399999
7.4510002 -1.6950001 -0.27500001
7.4549999 -1.673 -0.27500001
7.4749999 -1.655 -0.27500001
7.48 -1.6339999 -0.27500001
7.4990001 -1.6160001 -0.27599999
7.5029998 -1.595 -0.27599999
7.5409999 -1.58 -0.27700001
7.5619998 -1.563 -0.278
7.573 -1.543 -0.278
7.585 -1.524 -0.278
7.6100001 -1.507 -0.27900001
7.618 -1.487 -0.27900001
7.6100001 -1.464 -0.27900001
7.6339998 -1.447 -0.27900001
7.6399999 -1.427 -0.28
7.6849999 -1.414 -0.28099999
7.6750002 -1.391 -0.28099999
7.6999998 -1.374 -0.28099999
7.711 -1.355 -0.28200001
7.7150002 -1.335 -0.28200001
7.7389998 -1.319 -0.28200001
7.7420001 -1.299 -0.28200001
7.7519999 -1.28 -0.28299999
7.7690001 -1.262 -0.28299999
7.7789998 -1.243 -0.28299999
7.803 -1.227 -0.28400001
7.8200002 -1.209 -0.285
7.8169999 -1.189 -0.28400001
7.842 -1.1720001 -0.285
7.8449998 -1.153 -0.285
7.875 -1.138 -0.28600001
7.9070001 -1.122 -0.287
7.902 -1.102 -0.287
7.9099998 -1.084 -0.287
7.9390001 -1.068 -0.28799999
7.9530001 -1.051 -0.28799999
7.9619999 -1.0319999 -0.28799999
7.9650002 -1.0140001 -0.289
7.994 -0.99800003 -0.289
8.0039997 -0.98100001 -0.28999999
8.0139999 -0.963 -0.28999999
8.0299997 -0.94599998 -0.28999999
8.0179996 -0.926 -0.28999999
8.0550003 -0.91100001 -0.29100001
8.0480003 -0.89200002 -0.29100001
8.0679998 -0.87599999 -0.29100001
8.1059999 -0.86199999 -0.29300001
8.099 -0.84299999 -0.292
8.1149998 -0.82599998 -0.29300001
8.1389999 -0.81099999 -0.294
8.1560001 -0.79400003 -0.294
8.1709995 -0.778 -0.294
8.1879997 -0.76200002 -0.29499999
8.1920004 -0.74400002 -0.29499999
8.2069998 -0.72799999 -0.29499999
8.2340002 -0.713 -0.296
8.2510004 -0.69700003 -0.29699999
8.2650003 -0.68099999 -0.29699999
8.2749996 -0.66399997 -0.29800001
8.2880001 -0.648 -0.29800001
8.3070002 -0.63200003 -0.29899999
8.3330002 -0.61699998 -0.29899999
8.3430004 -0.60100001 -0.30000001
8.3509998 -0.58499998 -0.30000001
8.3520002 -0.56800002 -0.30000001
8.3889999 -0.55400002 -0.301
8.4110003 -0.53899997 -0.30199999
8.427 -0.523 -0.30199999
8.4420004 -0.50800002 -0.303
8.4379997 -0.491 -0.303
8.4809999 -0.477 -0.30399999
8.4949999 -0.46200001 -0.30399999
8.5030003 -0.44600001 -0.30500001
8.5190001 -0.43099999 -0.30500001
8.5430002 -0.41600001 -0.30599999
8.5629997 -0.40099999 -0.30700001
8.5950003 -0.38699999 -0.308
8.6230001 -0.373 -0.30899999
8.6429996 -0.35800001 -0.30899999
8.651 -0.34299999 -0.30899999
8.6660004 -0.32800001 -0.31
8.7200003 -0.31400001 -0.31200001
8.7390003 -0.30000001 -0.31200001
8.7530003 -0.285 -0.31299999
8.7959995 -0.271 -0.31400001
8.283 0.093000002 -0.433
8.2950001 0.109 -0.43399999
8.309 0.124 -0.43399999
8.316 0.14 -0.435
8.309 0.155 -0.435
8.3269997 0.17200001 -0.43599999
8.3140001 0.18700001 -0.435
8.3290005 0.204 -0.43599999
8.323 0.22 -0.43599999
8.3280001 0.237 -0.43700001
8.3479996 0.25400001 -0.43799999
8.342 0.271 -0.43799999
8.3389997 0.28799999 -0.43799999
8.3470001 0.30599999 -0.43799999
8.3439999 0.32300001 -0.43799999
8.3579998 0.34099999 -0.43900001
8.3590002 0.359 -0.44
8.349 0.377 -0.43900001
8.3520002 0.39500001 -0.44
8.3690004 0.414 -0.44100001
8.368 0.433 -0.44100001
8.368 0.45100001 -0.44100001
8.3719997 0.47 -0.442
8.375 0.48899999 -0.442
8.3699999 0.50800002 -0.442
8.375 0.528 -0.44299999
8.3730001 0.54699999 -0.44299999
8.3870001 0.56800002 -0.44400001
8.3950005 0.588 -0.44499999
8.4180002 0.61000001 -0.44600001
8.4370003 0.63099998 -0.44800001
8.4300003 0.65100002 -0.447
8.434 0.67199999 -0.44800001
8.4399996 0.69300002 -0.449
8.4709997 0.71600002 -0.45100001
8.4759998 0.73799998 -0.45100001
8.4860001 0.759 -0.45199999
8.4849997 0.78100002 -0.45199999
8.4919996 0.80299997 -0.45300001
8.4940004 0.82499999 -0.454
8.4989996 0.847 -0.454
8.5089998 0.87 -0.45500001
8.4940004 0.88999999 -0.45500001
8.5039997 0.91299999 -0.45500001
8.5170002 0.93699998 -0.45699999
8.5229998 0.95999998 -0.45699999
8.533 0.98400003 -0.458
8.5500002 1.0089999 -0.45899999
8.5570002 1.0319999 -0.46000001
8.559 1.056 -0.461
8.5649996 1.08 -0.461
8.5679998 1.103 -0.46200001
8.5690002 1.127 -0.463
8.5810003 1.152 -0.46399999
8.5839996 1.176 -0.46399999
8.5889997 1.201 -0.465
8.6020002 1.227 -0.46599999
8.6120005 1.252 -0.46700001
8.6239996 1.278 -0.46799999
8.6260004 1.303 -0.46900001
8.6309996 1.329 -0.46900001
8.6359997 1.354 -0.47
8.6420002 1.38 -0.47099999
8.6499996 1.406 -0.472
8.6540003 1.432 -0.47299999
8.6590004 1.4579999 -0.47299999
8.6689997 1.485 -0.47400001
8.6829996 1.513 -0.47600001
8.7030001 1.5420001 -0.477
8.698 1.567 -0.477
8.7189999 1.597 -0.479
8.724 1.624 -0.47999999
8.7399998 1.653 -0.48100001
8.75 1.682 -0.48199999
8.7559996 1.709 -0.48300001
8.757 1.7359999 -0.484
8.7639999 1.7640001 -0.48500001
8.7740002 1.793 -0.486
8.7629995 1.818 -0.486
8.7690001 1.846 -0.48699999
8.7980003 1.88 -0.48899999
8.8129997 1.91 -0.49000001
8.7989998 1.9349999 -0.49000001
8.8070002 1.964 -0.491
8.8280001 1.997 -0.493
8.8439999 2.0280001 -0.49399999
8.8389997 2.0550001 -0.495
8.868 2.0899999 -0.49700001
8.8780003 2.1210001 -0.498
8.8830004 2.1500001 -0.49900001
8.8809996 2.178 -0.5
8.8959999 2.211 -0.50099999
8.9040003 2.2409999 -0.50199997
8.9239998 2.2750001 -0.50400001
8.9280005 2.3050001 -0.505
8.9219999 2.3329999 -0.505
8.9399996 2.3670001 -0.50700003
8.9589996 2.401 -0.509
8.9540005 2.4289999 -0.509
8.9840002 2.467 -0.51099998
8.9910002 2.4990001 -0.51200002
8.9940004 2.53 -0.51300001
8.9989996 2.5610001 -0.514
9.0050001 2.5929999 -0.51499999
9.0159998 2.6259999 -0.51700002
9.0469999 2.665 -0.51899999
9.0450001 2.6949999 -0.51999998
9.0699997 2.733 -0.52200001
9.0699997 2.7639999 -0.523
9.0649996 2.793 -0.523
9.1000004 2.835 -0.52600002
9.0979996 2.865 -0.52600002
9.1289997 2.9059999 -0.52899998
9.1289997 2.937 -0.52999997
9.1309996 2.9690001 -0.53100002
9.1619997 3.0109999 -0.53299999
9.1730003 3.046 -0.53500003
9.1940002 3.085 -0.537
9.2010002 3.119 -0.53799999
9.2069998 3.1530001 -0.53899997
9.191 3.1800001 -0.53899997
9.1949997 3.2130001 -0.54000002
9.2010002 3.247 -0.54100001
9.2119999 3.283 -0.54299998
9.2180004 3.3180001 -0.54400003
9.2329998 3.3559999 -0.54500002
9.243 3.392 -0.54699999
9.2770004 3.437 -0.55000001
9.2740002 3.4679999 -0.55000001
9.2880001 3.507 -0.55199999
9.3050003 3.546 -0.55400002
9.3109999 3.5810001 -0.55500001
9.3310003 3.622 -0.55699998
9.3730001 3.6719999 -0.56099999
9.3839998 3.71 -0.56199998
9.3900003 3.7460001 -0.56400001
9.4289999 3.7950001 -0.56699997
9.4630003 3.842 -0.56999999
9.4440002 3.869 -0.56900001
9.4639997 3.911 -0.57200003
9.4890003 3.9549999 -0.574
9.5010004 3.994 -0.57599998
9.5089998 4.0320001 -0.57700002
9.5270004 4.0739999 -0.579
9.5279999 4.1090002 -0.57999998
9.5609999 4.158 -0.583
9.5790005 4.2010002 -0.58499998
9.6040001 4.2459998 -0.588
9.6350002 4.2950001 -0.59100002
9.6630001 4.342 -0.59299999
9.6750002 4.3829999 -0.59500003
9.6780005 4.4200001 -0.59600002
9.698 4.4640002 -0.59899998
9.6870003 4.494 -0.59899998
9.7089996 4.54 -0.60100001
9.7360001 4.5879998 -0.60399997
9.7379999 4.625 -0.60500002
9.7650003 4.6729999 -0.60799998
9.776 4.7140002 -0.61000001
9.7919998 4.757 -0.61199999
9.8059998 4.8000002 -0.61400002
9.8190002 4.842 -0.616
9.835 4.8860002 -0.61799997
9.8649998 4.9380002 -0.62099999
9.8599997 4.9710002 -0.62099999
9.8789997 5.0170002 -0.62400001
9.9029999 5.0650001 -0.62599999
9.9219999 5.1110001 -0.62900001
9.9329996 5.1529999 -0.63
9.9499998 5.1989999 -0.63300002
9.9639997 5.243 -0.63499999
9.9940004 5.2950001 -0.63800001
10.004 5.336 -0.63999999
10.004 5.3730001 -0.64099997
10.042 5.4299998 -0.64399999
10.042 5.467 -0.64499998
10.055 5.5110002 -0.64700001
10.072 5.5570002 -0.64999998
10.08 5.598 -0.65100002
10.09 5.6399999 -0.653
10.11 5.6880002 -0.65600002
10.096 5.717 -0.65600002
10.109 5.7610002 -0.65799999
10.103 5.7940001 -0.65899998
10.111 5.835 -0.66100001
10.134 5.8860002 -0.66299999
10.129 5.9190001 -0.66399997
10.162 5.9749999 -0.66799998
10.195 6.0310001 -0.671
10.219 6.0819998 -0.67400002
10.214 6.1160002 -0.67500001
10.249 6.1739998 -0.67900002
10.258 6.2150002 -0.68000001
10.281 6.2659998 -0.68300003
10.289 6.3080001 -0.685
10.302 6.3520002 -0.68699998
10.32 6.4000001 -0.69
10.337 6.447 -0.69199997
10.354 6.494 -0.69499999
10.392 6.5549998 -0.69800001
10.386 6.5869999 -0.699
10.404 6.6350002 -0.70200002
10.395 6.6659999 -0.70300001
10.434 6.7270002 -0.70700002
5.2030001 3.372 -0.35299999
10.51 6.8130002 -0.713
5.0339999 3.28 -0.34200001
4.9790001 3.2609999 -0.33899999
4.928 3.2449999 -0.336
4.9070001 3.2479999 -0.33500001
4.8899999 3.2539999 -0.33500001
4.8779998 3.2620001 -0.33500001
4.8629999 3.2679999 -0.33399999
4.8439999 3.2720001 -0.33399999
4.8369999 3.283 -0.33399999
4.8239999 3.2909999 -0.333
4.822 3.306 -0.33399999
4.8099999 3.313 -0.33399999
4.7950001 3.319 -0.333
4.8049998 3.3410001 -0.33500001
4.7880001 3.345 -0.33399999
4.7800002 3.355 -0.33399999
4.7859998 3.3740001 -0.33500001
4.7709999 3.3789999 -0.33500001
4.7639999 3.3889999 -0.33500001
4.7670002 3.4059999 -0.336
4.7659998 3.421 -0.336
4.7519999 3.4260001 -0.336
4.7620001 3.448 -0.33700001
4.7719998 3.4690001 -0.33899999
4.777 3.4879999 -0.34
6.1669998 -3.6029999 -0.228
6.1880002 -3.5969999 -0.229
6.1939998 -3.5840001 -0.229
6.191 -3.5650001 -0.229
6.2090001 -3.5580001 -0.229
6.211 -3.5409999 -0.229
6.2280002 -3.5339999 -0.23
6.2329998 -3.5190001 -0.23
6.2379999 -3.5050001 -0.23
6.2589998 -3.4990001 -0.23100001
6.2480001 -3.4749999 -0.23
6.2680001 -3.4690001 -0.23100001
6.2750001 -3.4549999 -0.23100001
6.2800002 -3.4400001 -0.23100001
6.2849998 -3.425 -0.23100001
6.2919998 -3.411 -0.23100001
6.309 -3.402 -0.23199999
6.3189998 -3.3900001 -0.23199999
6.323 -3.375 -0.23199999
6.3460002 -3.369 -0.233
6.3540001 -3.355 -0.233
6.3850002 -3.3540001 -0.234
6.395 -3.3399999 -0.234
6.382 -3.3150001 -0.233
6.3969998 -3.3050001 -0.234
6.3959999 -3.2869999 -0.234
6.408 -3.2750001 -0.234
6.4320002 -3.2679999 -0.235
6.4390001 -3.2539999 -0.235
6.4390001 -3.2360001 -0.235
6.4520001 -3.224 -0.235
6.4590001 -3.2090001 -0.235
6.4749999 -3.198 -0.236
6.4860001 -3.1849999 -0.236
6.4949999 -3.171 -0.236
6.5019999 -3.1559999 -0.236
6.513 -3.1429999 -0.237
6.5159998 -3.1259999 -0.237
6.527 -3.1129999 -0.237
6.5440001 -3.102 -0.237
6.5580001 -3.0899999 -0.23800001
6.5409999 -3.063 -0.237
6.5799999 -3.063 -0.23800001
6.599 -3.053 -0.23899999
6.5939999 -3.0320001 -0.23899999
6.6129999 -3.0209999 -0.23899999
6.6269999 -3.0090001 -0.23999999
6.6339998 -2.993 -0.23999999
6.6399999 -2.977 -0.23999999
6.6490002 -2.9619999 -0.23999999
6.6539998 -2.9449999 -0.23999999
6.6659999 -2.931 -0.23999999
6.6750002 -2.9159999 -0.241
6.6929998 -2.905 -0.241
6.7030001 -2.8900001 -0.241
6.7150002 -2.8759999 -0.242
6.723 -2.8599999 -0.242
6.737 -2.8469999 -0.242
6.743 -2.8299999 -0.242
6.7509999 -2.8139999 -0.242
6.7639999 -2.8 -0.243
6.7789998 -2.7869999 -0.243
6.7839999 -2.7690001 -0.243
6.7880001 -2.7520001 -0.243
6.7969999 -2.7360001 -0.244
6.8179998 -2.7249999 -0.244
6.8239999 -2.7079999 -0.244
6.8309999 -2.691 -0.244
6.8410001 -2.675 -0.245
6.8499999 -2.6589999 -0.245
6.8709998 -2.648 -0.245
6.8540001 -2.6210001 -0.245
6.8839998 -2.6129999 -0.24600001
6.882 -2.5929999 -0.245
6.9029999 -2.5810001 -0.24600001
6.9169998 -2.566 -0.24600001
6.9320002 -2.552 -0.24699999
6.9429998 -2.536 -0.24699999
6.947 -2.5179999 -0.24699999
6.9559999 -2.5009999 -0.24699999
6.9749999 -2.4879999 -0.248
6.973 -2.467 -0.248
6.9959998 -2.4549999 -0.248
7.0019999 -2.437 -0.248
7.007 -2.4189999 -0.248
7.0310001 -2.4070001 -0.249
7.0349998 -2.388 -0.249
7.04 -2.3699999 -0.249
7.0549998 -2.355 -0.25
7.059 -2.336 -0.25
7.0650001 -2.3180001 -0.25
7.0840001 -2.3039999 -0.25
7.0900002 -2.2850001 -0.25
7.0929999 -2.266 -0.25
7.1079998 -2.2509999 -0.25099999
7.1139998 -2.2320001 -0.25099999
7.1230001 -2.2149999 -0.25099999
7.1399999 -2.2 -0.25099999
7.1560001 -2.184 -0.252
7.165 -2.1659999 -0.252
7.1799998 -2.1500001 -0.252
7.177 -2.1289999 -0.252
7.2030001 -2.1159999 -0.25299999
7.217 -2.0999999 -0.25299999
7.2340002 -2.0840001 -0.25400001
7.2340002 -2.063 -0.25299999
7.2480001 -2.046 -0.25400001
7.256 -2.0280001 -0.25400001
7.2659998 -2.01 -0.25400001
7.289 -1.9960001 -0.255
7.309 -1.98 -0.255
7.3260002 -1.964 -0.25600001
7.3390002 -1.947 -0.25600001
7.3280001 -1.923 -0.25600001
7.329 -1.902 -0.25600001
7.375 -1.893 -0.257
7.3860002 -1.875 -0.257
7.3920002 -1.855 -0.257
7.4130001 -1.839 -0.25799999
7.4239998 -1.821 -0.25799999
7.427 -1.801 -0.25799999
7.454 -1.786 -0.259
7.4590001 -1.766 -0.259
7.4790001 -1.749 -0.25999999
7.4889998 -1.73 -0.25999999
7.5 -1.712 -0.25999999
7.5040002 -1.691 -0.25999999
7.5229998 -1.674 -0.25999999
7.546 -1.658 -0.26100001
7.5469999 -1.636 -0.26100001
7.566 -1.619 -0.26199999
7.5679998 -1.598 -0.26100001
7.6020002 -1.584 -0.26199999
7.618 -1.5650001 -0.26300001
7.6459999 -1.549 -0.264
7.6659999 -1.5319999 -0.264
7.677 -1.512 -0.264
7.684 -1.492 -0.26499999
7.691 -1.471 -0.26499999
7.6859999 -1.448 -0.264
7.6960001 -1.428 -0.26499999
7.723 -1.411 -0.26499999
7.7620001 -1.397 -0.26699999
7.763 -1.375 -0.266
7.7620001 -1.353 -0.266
7.7969999 -1.337 -0.26699999
7.79 -1.313 -0.26699999
7.8080001 -1.294 -0.26699999
7.8239999 -1.275 -0.26800001
7.8429999 -1.256 -0.26800001
7.8670001 -1.237 -0.26899999
7.8730001 -1.216 -0.26899999
7.882 -1.1950001 -0.26899999
7.9060001 -1.176 -0.27000001
7.9310002 -1.1569999 -0.27000001
7.9450002 -1.137 -0.271
7.9749999 -1.119 -0.27200001
8.0109997 -1.101 -0.273
8.0200005 -1.079 -0.273
8.0319996 -1.058 -0.273
8.0640001 -1.04 -0.27399999
8.0670004 -1.017 -0.27399999
8.1110001 -1 -0.27500001
8.1169996 -0.97799999 -0.27500001
8.1169996 -0.95499998 -0.27500001
8.1370001 -0.93400002 -0.27599999
8.165 -0.91399997 -0.27700001
8.1809998 -0.89300001 -0.27700001
8.2080002 -0.87300003 -0.278
8.2290001 -0.852 -0.278
8.2480001 -0.82999998 -0.27900001
8.2749996 -0.81 -0.27900001
8.2939997 -0.78799999 -0.28
8.3070002 -0.76599997 -0.28
8.3260002 -0.74400002 -0.28099999
8.3570004 -0.72299999 -0.28200001
8.3809996 -0.70200002 -0.28200001
8.3950005 -0.67900002 -0.28299999
8.4359999 -0.65899998 -0.28400001
8.4650002 -0.63700002 -0.285
8.4829998 -0.61400002 -0.285
8.5129995 -0.59299999 -0.28600001
8.5179996 -0.56900001 -0.28600001
8.5299997 -0.546 -0.28600001
8.5719995 -0.52399999 -0.287
8.6020002 -0.50199997 -0.28799999
8.6309996 -0.479 -0.289
8.6549997 -0.456 -0.28999999
8.6940002 -0.433 -0.29100001
8.7139997 -0.41 -0.29100001
8.7950001 -0.389 -0.294
8.7810001 -0.36399999 -0.29300001
8.8669996 -0.34200001 -0.296
8.698 0.177 -0.43099999
8.7119999 0.189 -0.43200001
8.6899996 0.2 -0.43099999
8.6289997 0.20999999 -0.428
8.6059999 0.221 -0.42699999
8.6479998 0.235 -0.42899999
8.592 0.24600001 -0.42699999
8.6129999 0.259 -0.428
8.5930004 0.271 -0.42699999
8.5939999 0.28400001 -0.42699999
8.585 0.29699999 -0.42699999
8.5819998 0.31 -0.42699999
8.5909996 0.324 -0.428
8.5900002 0.33700001 -0.428
8.5799999 0.35100001 -0.42699999
8.5679998 0.36399999 -0.42699999
8.585 0.37900001 -0.428
8.5810003 0.39300001 -0.428
8.5740004 0.40799999 -0.428
8.5699997 0.42199999 -0.428
8.559 0.43700001 -0.428
8.5550003 0.45199999 -0.428
8.5570002 0.46700001 -0.428
8.5500002 0.48199999 -0.428
8.5539999 0.498 -0.428
8.5679998 0.51499999 -0.42899999
8.5740004 0.53200001 -0.43000001
8.573 0.54799998 -0.43000001
8.5690002 0.56400001 -0.43000001
8.5790005 0.58099997 -0.43099999
8.5909996 0.59899998 -0.43200001
8.5889997 0.616 -0.43200001
8.6079998 0.634 -0.433
8.6110001 0.65200001 -0.433
8.6149998 0.67000002 -0.43399999
8.625 0.68900001 -0.435
8.6379995 0.708 -0.43599999
8.6479998 0.727 -0.43599999
8.6450005 0.745 -0.43700001
8.6569996 0.764 -0.43799999
8.6700001 0.78399998 -0.43900001
8.6829996 0.80400002 -0.44
8.6929998 0.824 -0.44
8.6969995 0.84399998 -0.44100001
8.6960001 0.86299998 -0.44100001
8.6879997 0.88200003 -0.44100001
8.6969995 0.903 -0.442
8.6969995 0.92299998 -0.442
8.7040005 0.94400001 -0.44299999
8.7080002 0.96499997 -0.44400001
8.7040005 0.98500001 -0.44400001
8.7189999 1.007 -0.44499999
8.7200003 1.028 -0.44499999
8.7250004 1.05 -0.44600001
8.7399998 1.073 -0.447
8.7390003 1.094 -0.44800001
8.757 1.118 -0.449
8.7539997 1.1390001 -0.449
8.7530003 1.161 -0.44999999
8.7720003 1.186 -0.45100001
8.7720003 1.2079999 -0.45100001
8.7720003 1.23 -0.45199999
8.7930002 1.256 -0.45300001
8.7889996 1.278 -0.454
8.7980003 1.302 -0.454
8.8030005 1.326 -0.45500001
8.7910004 1.347 -0.45500001
8.8100004 1.374 -0.45699999
8.8009996 1.396 -0.45699999
8.8330002 1.425 -0.45899999
8.8260002 1.448 -0.45899999
8.8380003 1.474 -0.46000001
8.8509998 1.5 -0.461
8.8559999 1.525 -0.46200001
8.8629999 1.551 -0.463
8.8859997 1.58 -0.46399999
8.8850002 1.605 -0.465
8.8889999 1.631 -0.46599999
8.8870001 1.656 -0.46599999
8.9029999 1.684 -0.46799999
8.8959999 1.7079999 -0.46799999
8.8940001 1.734 -0.46799999
8.9139996 1.7640001 -0.47
8.9160004 1.79 -0.47
8.9099998 1.8150001 -0.47099999
8.9110003 1.842 -0.47099999
8.927 1.872 -0.47299999
8.941 1.901 -0.47400001
8.948 1.9299999 -0.47499999
8.948 1.957 -0.47600001
8.9510002 1.985 -0.47600001
8.9709997 2.017 -0.47799999
8.9910002 2.049 -0.47999999
8.9820004 2.0739999 -0.47999999
9.0050001 2.108 -0.48199999
8.9989996 2.1340001 -0.48199999
9.0109997 2.165 -0.48300001
9.0120001 2.194 -0.484
9.0290003 2.227 -0.486
9.0380001 2.2579999 -0.48699999
9.033 2.2850001 -0.48699999
9.0670004 2.323 -0.49000001
9.0649996 2.352 -0.49000001
9.059 2.3800001 -0.491
9.0690002 2.4119999 -0.49200001
9.0819998 2.4449999 -0.493
9.0799999 2.4749999 -0.49399999
9.0939999 2.5079999 -0.495
9.1049995 2.5420001 -0.49700001
9.1210003 2.5769999 -0.498
9.1350002 2.6110001 -0.5
9.1499996 2.6459999 -0.50099999
9.1569996 2.6789999 -0.50300002
9.1709995 2.7149999 -0.50400001
9.1750002 2.747 -0.505
9.1759996 2.779 -0.50599998
9.1850004 2.813 -0.50700003
9.2110004 2.8529999 -0.509
9.2279997 2.891 -0.51099998
9.2489996 2.9289999 -0.51300001
9.2620001 2.9660001 -0.51499999
9.2770004 3.003 -0.51599997
9.2810001 3.0380001 -0.51700002
9.2880001 3.073 -0.51899999
9.3000002 3.1099999 -0.51999998
9.316 3.1489999 -0.52200001
9.3039999 3.178 -0.52200001
9.3210001 3.2179999 -0.52399999
9.3070002 3.247 -0.52399999
9.3120003 3.2820001 -0.52499998
9.335 3.325 -0.52700001
9.368 3.3710001 -0.52999997
9.3830004 3.411 -0.53200001
9.3830004 3.4449999 -0.53299999
9.4130001 3.4920001 -0.53500003
9.3990002 3.5220001 -0.53500003
9.4099998 3.5610001 -0.537
9.4329996 3.605 -0.53899997
9.4610004 3.651 -0.542
9.5030003 3.704 -0.54500002
9.5360003 3.753 -0.54799998
9.5439997 3.793 -0.54900002
9.5629997 3.8369999 -0.551
9.585 3.8829999 -0.55400002
9.6079998 3.9289999 -0.55599999
9.6049995 3.9649999 -0.55699998
9.6339998 4.0149999 -0.55900002
9.6540003 4.0609999 -0.56199998
9.6789999 4.1100001 -0.56400001
9.684 4.1500001 -0.565
9.7119999 4.1999998 -0.56800002
9.7360001 4.25 -0.57099998
9.7790003 4.3070002 -0.574
9.7939997 4.3530002 -0.57599998
9.8039999 4.3969998 -0.57800001
9.8269997 4.447 -0.57999998
9.835 4.4910002 -0.58200002
9.8559999 4.54 -0.58399999
9.8669996 4.586 -0.58600003
9.8900003 4.6370001 -0.588
9.9040003 4.684 -0.58999997
9.9099998 4.7280002 -0.59200001
9.9160004 4.7719998 -0.59299999
9.9399996 4.8249998 -0.59600002
9.9530001 4.8720002 -0.59799999
9.9689999 4.9219999 -0.60000002
9.9949999 4.9770002 -0.60299999
10.018 5.0300002 -0.60500002
10.02 5.0739999 -0.60699999
10.042 5.1279998 -0.60900003
10.06 5.1799998 -0.61199999
10.103 5.2449999 -0.61500001
10.126 5.3010001 -0.61799997
10.134 5.348 -0.62
10.148 5.4000001 -0.62199998
10.151 5.4450002 -0.62300003
10.17 5.5 -0.62599999
10.17 5.5440001 -0.62699997
10.167 5.5869999 -0.62800002
10.163 5.6300001 -0.62900001
10.182 5.6849999 -0.63200003
10.203 5.7420001 -0.634
10.208 5.7909999 -0.63599998
10.222 5.8439999 -0.63800001
10.207 5.881 -0.639
10.216 5.9320002 -0.64099997
10.23 5.9860001 -0.64300001
10.243 6.0409999 -0.64499998
10.261 6.0970001 -0.648
10.293 6.1630001 -0.65100002
10.289 6.2080002 -0.65200001
10.33 6.2800002 -0.65600002
10.321 6.322 -0.65700001
10.359 6.3930001 -0.66100001
10.368 6.4460001 -0.66299999
10.356 6.487 -0.66399997
10.357 6.5359998 -0.66500002
10.392 6.6069999 -0.66900003
10.377 6.6459999 -0.66900003
10.369 6.6890001 -0.67000002
10.399 6.7579999 -0.67400002
10.383 6.7969999 -0.67400002
10.388 6.849 -0.676
10.383 6.895 -0.67699999
5.1209998 3.425 -0.33500001
10.413 6.9650002 -0.68099999
4.9860001 3.359 -0.32600001
4.9159999 3.335 -0.32300001
4.8779998 3.3329999 -0.32100001
4.849 3.336 -0.31999999
4.8280001 3.345 -0.31900001
4.8179998 3.362 -0.31900001
4.7969999 3.3710001 -0.31799999
4.7740002 3.378 -0.31799999
4.7550001 3.388 -0.317
4.73 3.3929999 -0.31600001
4.7059999 3.3989999 -0.315
5.9039998 -3.9089999 -0.207
5.9429998 -3.8970001 -0.208
5.954 -3.8670001 -0.20900001
5.9819999 -3.848 -0.20900001
6.0149999 -3.832 -0.20999999
6.0180001 -3.7969999 -0.20999999
6.0380001 -3.773 -0.20999999
6.0609999 -3.7509999 -0.211
6.085 -3.73 -0.212
6.1040001 -3.7060001 -0.212
6.1240001 -3.6819999 -0.212
6.131 -3.6500001 -0.212
6.1399999 -3.6210001 -0.212
6.1680002 -3.602 -0.213
6.1890001 -3.579 -0.214
6.21 -3.5569999 -0.214
6.2309999 -3.5350001 -0.215
6.257 -3.5150001 -0.215
6.2740002 -3.49 -0.21600001
6.3130002 -3.4779999 -0.21699999
6.3140001 -3.444 -0.21600001
6.322 -3.4159999 -0.21600001
6.3470001 -3.395 -0.21699999
6.362 -3.3699999 -0.21699999
6.3730001 -3.3429999 -0.21799999
6.4089999 -3.329 -0.21799999
6.4159999 -3.3 -0.219
6.441 -3.28 -0.219
6.454 -3.2539999 -0.219
6.48 -3.2360001 -0.22
6.493 -3.21 -0.22
6.5110002 -3.187 -0.221
6.527 -3.1630001 -0.221
6.5440001 -3.1400001 -0.221
6.5570002 -3.115 -0.221
6.5679998 -3.089 -0.222
6.592 -3.069 -0.222
6.6079998 -3.046 -0.223
6.6279998 -3.0239999 -0.223
6.6360002 -2.997 -0.223
6.6570001 -2.9760001 -0.22400001
6.6750002 -2.954 -0.22400001
6.684 -2.928 -0.22400001
6.7090001 -2.9089999 -0.22499999
6.7220001 -2.885 -0.22499999
6.7519999 -2.868 -0.226
6.757 -2.8410001 -0.226
6.7680001 -2.816 -0.226
6.776 -2.79 -0.226
6.7969999 -2.77 -0.226
6.823 -2.7520001 -0.227
6.8470001 -2.7320001 -0.228
6.855 -2.707 -0.228
6.8730001 -2.6849999 -0.228
6.8740001 -2.658 -0.228
6.8990002 -2.6389999 -0.229
6.914 -2.6170001 -0.229
6.9190001 -2.5910001 -0.229
6.9390001 -2.5699999 -0.229
6.9640002 -2.552 -0.23
6.9840002 -2.5320001 -0.23100001
6.993 -2.5079999 -0.23100001
7.0139999 -2.4879999 -0.23100001
7.0359998 -2.4690001 -0.23199999
7.0479999 -2.4449999 -0.23199999
7.0669999 -2.425 -0.23199999
7.0689998 -2.3989999 -0.23199999
7.086 -2.378 -0.233
7.119 -2.3629999 -0.234
7.1129999 -2.3340001 -0.233
7.1350002 -2.3150001 -0.234
7.1420002 -2.2909999 -0.234
7.1729999 -2.2750001 -0.235
7.177 -2.2509999 -0.235
7.2020001 -2.2320001 -0.235
7.2179999 -2.2119999 -0.236
7.2270002 -2.1889999 -0.236
7.2399998 -2.1670001 -0.236
7.2680001 -2.1500001 -0.237
7.2800002 -2.1289999 -0.237
7.3010001 -2.1099999 -0.237
7.309 -2.0869999 -0.23800001
7.3429999 -2.072 -0.23800001
7.342 -2.046 -0.23800001
7.3670001 -2.029 -0.23899999
7.3889999 -2.01 -0.23899999
7.4029999 -1.989 -0.23999999
7.415 -1.9680001 -0.23999999
7.4419999 -1.951 -0.241
7.4619999 -1.932 -0.241
7.467 -1.909 -0.241
7.48 -1.888 -0.242
7.4990001 -1.869 -0.242
7.5339999 -1.854 -0.243
7.54 -1.832 -0.243
7.559 -1.813 -0.243
7.5650001 -1.791 -0.244
7.5760002 -1.77 -0.244
7.5949998 -1.751 -0.244
7.6059999 -1.73 -0.244
7.612 -1.709 -0.244
7.6290002 -1.689 -0.245
7.6440001 -1.67 -0.245
7.6820002 -1.655 -0.24600001
7.6989999 -1.636 -0.24699999
7.7199998 -1.618 -0.24699999
7.724 -1.597 -0.24699999
7.7399998 -1.577 -0.248
7.7600002 -1.559 -0.248
7.7610002 -1.5369999 -0.248
7.7690001 -1.517 -0.248
7.776 -1.4960001 -0.248
7.8099999 -1.4809999 -0.249
7.816 -1.46 -0.249
7.868 -1.448 -0.25099999
7.8720002 -1.427 -0.25099999
7.8779998 -1.406 -0.25099999
7.888 -1.387 -0.25099999
7.8979998 -1.367 -0.25099999
7.9089999 -1.348 -0.25099999
7.9190001 -1.3279999 -0.252
7.9429998 -1.311 -0.252
7.9549999 -1.2920001 -0.25299999
7.9580002 -1.272 -0.25299999
7.9819999 -1.255 -0.25299999
7.9850001 -1.235 -0.25299999
7.9780002 -1.2130001 -0.25299999
8.0279999 -1.201 -0.25400001
8.0150003 -1.178 -0.25400001
8.0579996 -1.164 -0.255
8.0690002 -1.146 -0.255
8.0799999 -1.127 -0.255
8.0959997 -1.11 -0.25600001
8.1149998 -1.092 -0.25600001
8.1280003 -1.074 -0.257
8.1330004 -1.0549999 -0.257
8.165 -1.04 -0.25799999
8.165 -1.02 -0.25799999
8.184 -1.003 -0.25799999
8.2139997 -0.98699999 -0.259
8.2299995 -0.97000003 -0.259
8.2329998 -0.95099998 -0.259
8.257 -0.935 -0.25999999
8.2440004 -0.91500002 -0.259
8.2749996 -0.89899999 -0.25999999
8.2840004 -0.88099998 -0.25999999
8.2959995 -0.86400002 -0.26100001
8.302 -0.84600002 -0.26100001
8.3330002 -0.83099997 -0.26199999
8.335 -0.81199998 -0.26199999
8.3640003 -0.79699999 -0.26199999
8.3769999 -0.77999997 -0.26300001
8.3859997 -0.76300001 -0.26300001
8.4110003 -0.74699998 -0.264
8.4130001 -0.72899997 -0.264
8.4309998 -0.713 -0.264
8.4370003 -0.69599998 -0.264
8.4399996 -0.67799997 -0.264
8.4619999 -0.662 -0.26499999
8.4790001 -0.64600003 -0.26499999
8.4949999 -0.63 -0.266
8.5120001 -0.61400002 -0.266
8.5059996 -0.597 -0.266
8.5550003 -0.583 -0.26699999
8.5699997 -0.56699997 -0.26800001
8.5790005 -0.55000001 -0.26800001
8.6070004 -0.53500003 -0.26899999
8.6230001 -0.51999998 -0.26899999
8.6459999 -0.50400001 -0.27000001
8.6499996 -0.48800001 -0.27000001
8.6619997 -0.472 -0.27000001
8.691 -0.45699999 -0.271
8.6850004 -0.44100001 -0.271
8.6920004 -0.42500001 -0.271
8.724 -0.41 -0.27200001
8.7510004 -0.39500001 -0.273
8.8120003 -0.382 -0.27399999
8.8030005 -0.366 -0.27399999
8.8389997 -0.35100001 -0.27500001
8.8170004 -0.33500001 -0.27399999
8.8529997 -0.31999999 -0.27500001
8.8859997 -0.30599999 -0.27599999
8.9259996 -0.292 -0.278
9.0640001 -0.28099999 -0.28200001
8.4560003 0.097000003 -0.39700001
8.467 0.112 -0.39700001
8.4770002 0.12800001 -0.398
8.4910002 0.14399999 -0.39899999
8.4949999 0.16 -0.39899999
8.5059996 0.177 -0.40000001
8.5209999 0.193 -0.40099999
8.5039997 0.20900001 -0.40000001
8.4949999 0.226 -0.40000001
8.5279999 0.244 -0.40099999
8.5240002 0.26100001 -0.40200001
8.5179996 0.278 -0.40099999
8.526 0.296 -0.40200001
8.5380001 0.31400001 -0.403
8.5369997 0.33199999 -0.403
8.5480003 0.34999999 -0.40400001
8.5360003 0.368 -0.403
8.5139999 0.38499999 -0.403
8.5389996 0.405 -0.40400001
8.533 0.42300001 -0.40400001
8.5380001 0.442 -0.40400001
8.5310001 0.461 -0.40400001
8.5319996 0.47999999 -0.405
8.5439997 0.5 -0.405
8.5419998 0.51899999 -0.40599999
8.5780001 0.54100001 -0.40700001
8.5790005 0.56099999 -0.40799999
8.5889997 0.58200002 -0.40900001
8.5909996 0.602 -0.40900001
8.6020002 0.62400001 -0.41
8.6090002 0.64499998 -0.41
8.6199999 0.66600001 -0.41100001
8.6370001 0.68800002 -0.412
8.6490002 0.70999998 -0.41299999
8.6549997 0.73199999 -0.414
8.6560001 0.75400001 -0.414
8.665 0.77600002 -0.41499999
8.6759996 0.79900002 -0.41600001
8.6789999 0.82099998 -0.41600001
8.6929998 0.84399998 -0.417
8.717 0.86900002 -0.419
8.7150002 0.89099997 -0.419
8.7189999 0.91399997 -0.419
8.7130003 0.93599999 -0.41999999
8.7349997 0.96100003 -0.421
8.7349997 0.98400003 -0.421
8.7440004 1.008 -0.42199999
8.7379999 1.031 -0.42199999
8.7410002 1.0549999 -0.42300001
8.7690001 1.082 -0.42399999
8.7749996 1.1059999 -0.42500001
8.7959995 1.133 -0.42699999
8.8070002 1.158 -0.428
8.8030005 1.182 -0.428
8.8280001 1.21 -0.42899999
8.823 1.234 -0.43000001
8.835 1.26 -0.43099999
8.8579998 1.288 -0.43200001
8.8669996 1.3150001 -0.433
8.8719997 1.34 -0.43399999
8.8739996 1.3660001 -0.43399999
8.8760004 1.392 -0.435
8.8870001 1.419 -0.43599999
8.8979998 1.446 -0.43700001
8.9119997 1.475 -0.43799999
8.934 1.5039999 -0.43900001
8.9429998 1.5319999 -0.44
8.9510002 1.5599999 -0.44100001
8.9469995 1.585 -0.442
8.9650002 1.615 -0.44299999
8.9910002 1.647 -0.44499999
9.0010004 1.675 -0.44600001
8.9980001 1.702 -0.44600001
9.0050001 1.73 -0.447
8.9890003 1.755 -0.447
9.0089998 1.786 -0.44800001
9.0419998 1.8200001 -0.44999999
9.0200005 1.8430001 -0.44999999
9.0439997 1.876 -0.45100001
9.0489998 1.905 -0.45199999
9.0620003 1.936 -0.45300001
9.0810003 1.9680001 -0.45500001
9.0909996 1.999 -0.456
9.0959997 2.0280001 -0.45699999
9.1160002 2.0610001 -0.458
9.1239996 2.092 -0.45899999
9.1420002 2.125 -0.461
9.1569996 2.158 -0.46200001
9.1680002 2.1889999 -0.463
9.1879997 2.223 -0.465
9.1949997 2.2550001 -0.46599999
9.1999998 2.286 -0.46700001
9.2069998 2.3169999 -0.46799999
9.2209997 2.3499999 -0.46900001
9.243 2.3859999 -0.47099999
9.2639999 2.4219999 -0.472
9.2589998 2.451 -0.47299999
9.2770004 2.4860001 -0.47400001
9.2559996 2.5109999 -0.47400001
9.276 2.5469999 -0.47600001
9.2869997 2.5799999 -0.477
9.3050003 2.6159999 -0.47799999
9.342 2.658 -0.48100001
9.3540001 2.6919999 -0.48199999
9.3599997 2.7249999 -0.48300001
9.3780003 2.7620001 -0.48500001
9.3739996 2.7920001 -0.48500001
9.3769999 2.825 -0.486
9.415 2.868 -0.48899999
9.4280005 2.904 -0.49000001
9.4370003 2.9389999 -0.491
9.4540005 2.9760001 -0.493
9.4549999 3.0090001 -0.49399999
9.4659996 3.0450001 -0.495
9.4989996 3.0880001 -0.498
9.4659996 3.1099999 -0.49700001
9.4890003 3.1500001 -0.49900001
9.5039997 3.188 -0.5
9.5080004 3.2219999 -0.50099999
9.4980001 3.2520001 -0.50099999
9.5340004 3.2969999 -0.50400001
9.5550003 3.3380001 -0.50599998
9.5419998 3.3659999 -0.50599998
9.5710001 3.4100001 -0.50800002
9.5860004 3.4489999 -0.50999999
9.5979996 3.487 -0.51099998
9.6110001 3.526 -0.51300001
9.6409998 3.5699999 -0.51499999
9.6520004 3.609 -0.51700002
9.6459999 3.641 -0.51700002
9.6820002 3.6889999 -0.51999998
9.6990004 3.7290001 -0.52200001
9.7259998 3.7739999 -0.52399999
9.7670002 3.825 -0.52700001
9.7659998 3.859 -0.528
9.7819996 3.901 -0.52999997
9.8070002 3.9460001 -0.53200001
9.8059998 3.98 -0.53299999
9.8199997 4.0209999 -0.53399998
9.8280001 4.0599999 -0.53600001
9.8319998 4.0970001 -0.537
9.8699999 4.1479998 -0.54000002
9.8809996 4.1880002 -0.54100001
9.9259996 4.243 -0.54500002
9.9329996 4.2820001 -0.546
9.9499998 4.3249998 -0.54799998
9.9840002 4.3769999 -0.551
9.9870005 4.414 -0.55199999
10.009 4.46 -0.55400002
10.048 4.5139999 -0.55699998
10.059 4.5549998 -0.55900002
10.072 4.598 -0.56
10.071 4.6339998 -0.56099999
10.101 4.6849999 -0.56400001
10.114 4.7270002 -0.565
10.13 4.7719998 -0.56699997
10.175 4.8299999 -0.57099998
10.199 4.8790002 -0.57300001
10.233 4.9330001 -0.57599998
10.25 4.9780002 -0.57800001
10.244 5.013 -0.579
10.261 5.059 -0.58099997
10.287 5.1090002 -0.583
10.309 5.158 -0.58600003
10.322 5.2020001 -0.58700001
10.352 5.2550001 -0.58999997
10.379 5.3070002 -0.59299999
10.387 5.349 -0.59399998
10.422 5.4050002 -0.59799999
10.417 5.441 -0.59799999
10.437 5.4889998 -0.60100001
10.433 5.5250001 -0.60100001
10.447 5.5710001 -0.60299999
10.468 5.6209998 -0.60600001
10.452 5.6500001 -0.60600001
10.463 5.6939998 -0.60799998
10.491 5.7480001 -0.61000001
10.483 5.7820001 -0.611
10.501 5.8299999 -0.61299998
10.537 5.888 -0.61699998
10.549 5.9330001 -0.61799997
10.584 5.9910002 -0.62199998
10.6 6.039 -0.62400001
10.649 6.105 -0.62800002
10.633 6.1339998 -0.62800002
10.597 6.152 -0.62699997
10.629 6.2090001 -0.63
10.668 6.27 -0.634
10.689 6.3210001 -0.63599998
10.719 6.3779998 -0.639
10.714 6.4130001 -0.63999999
10.719 6.454 -0.64200002
10.738 6.5040002 -0.64399999
10.768 6.5609999 -0.64700001
10.751 6.5890002 -0.64700001
10.77 6.6389999 -0.64999998
10.777 6.6810002 -0.65100002
10.794 6.73 -0.65399998
10.803 6.7740002 -0.65499997
10.832 6.8299999 -0.65799999
10.832 6.868 -0.66000003
10.838 6.9099998 -0.66100001
10.835 6.9460001 -0.662
10.913 7.0339999 -0.66799998
5.073 3.2869999 -0.31099999
4.9910002 3.2509999 -0.30700001
4.9499998 3.2409999 -0.30500001
4.9239998 3.2420001 -0.30399999
4.9099998 3.2490001 -0.303
4.881 3.247 -0.30199999
4.8720002 3.257 -0.30199999
4.8610001 3.266 -0.30199999
4.8460002 3.2720001 -0.30199999
4.8390002 3.2839999 -0.30199999
4.8309999 3.2950001 -0.30199999
4.8169999 3.3010001 -0.30199999
4.8109999 3.313 -0.30199999
4.7969999 3.319 -0.30199999
4.8070002 3.342 -0.303
4.8010001 3.3529999 -0.303
4.7870002 3.359 -0.303
4.79 3.3759999 -0.30399999
4.7940001 3.395 -0.30399999
4.7880001 3.405 -0.30500001
4.8140001 3.4389999 -0.30700001
4.8200002 3.4590001 -0.308
4.8540001 3.4979999 -0.31099999
4.888 3.5380001 -0.31299999
4.9629998 3.6070001 -0.31900001
6.3010001 -3.684 -0.20200001
6.323 -3.6789999 -0.20299999
6.329 -3.665 -0.20299999
6.3379998 -3.652 -0.20299999
6.3520002 -3.6429999 -0.20299999
6.3470001 -3.622 -0.20299999
6.3730001 -3.619 -0.204
6.375 -3.602 -0.204
6.382 -3.5880001 -0.204
6.3870001 -3.573 -0.204
6.3899999 -3.5569999 -0.204
6.3979998 -3.543 -0.204
6.4190001 -3.5369999 -0.204
6.4260001 -3.523 -0.205
6.4369998 -3.51 -0.205
6.4349999 -3.4909999 -0.205
6.4310002 -3.471 -0.204
6.4510002 -3.4630001 -0.205
6.4660001 -3.4530001 -0.205
6.4710002 -3.438 -0.205
6.48 -3.424 -0.206
6.5 -3.4159999 -0.206
6.513 -3.405 -0.206
6.5159998 -3.3870001 -0.206
6.5359998 -3.3789999 -0.207
6.5310001 -3.358 -0.207
6.5380001 -3.3429999 -0.207
6.5640001 -3.3380001 -0.207
6.5739999 -3.3239999 -0.208
6.5819998 -3.3099999 -0.208
6.5869999 -3.293 -0.208
6.6020002 -3.2820001 -0.208
6.6059999 -3.2650001 -0.208
6.6170001 -3.2520001 -0.208
6.6199999 -3.234 -0.208
6.631 -3.221 -0.20900001
6.652 -3.2119999 -0.20900001
6.6550002 -3.1949999 -0.20900001
6.6599998 -3.178 -0.20900001
6.684 -3.1700001 -0.20999999
6.7010002 -3.1589999 -0.20999999
6.7010002 -3.1400001 -0.20999999
6.7140002 -3.1270001 -0.20999999
6.7290001 -3.115 -0.211
6.723 -3.0929999 -0.20999999
6.743 -3.0829999 -0.211
6.7509999 -3.0669999 -0.211
6.7659998 -3.0539999 -0.211
6.7789998 -3.0409999 -0.212
6.7779999 -3.0209999 -0.212
6.7989998 -3.0109999 -0.212
6.7870002 -2.9860001 -0.212
6.8179998 -2.98 -0.213
6.8260002 -2.964 -0.213
6.835 -2.9489999 -0.213
6.849 -2.9349999 -0.213
6.8499999 -2.9159999 -0.213
6.855 -2.898 -0.213
6.869 -2.885 -0.213
6.868 -2.8640001 -0.213
6.8899999 -2.8540001 -0.214
6.8969998 -2.8369999 -0.214
6.901 -2.819 -0.214
6.9099998 -2.803 -0.214
6.928 -2.79 -0.215
6.9369998 -2.7739999 -0.215
6.9310002 -2.7520001 -0.214
6.9590001 -2.743 -0.215
6.9590001 -2.723 -0.215
6.967 -2.7060001 -0.215
6.9860001 -2.6930001 -0.21600001
7 -2.6789999 -0.21600001
7.0009999 -2.6589999 -0.21600001
7.0250001 -2.648 -0.21600001
7.0120001 -2.6229999 -0.21600001
7.0380001 -2.612 -0.21699999
7.046 -2.595 -0.21699999
7.0549998 -2.5780001 -0.21699999
7.072 -2.5639999 -0.21699999
7.0679998 -2.5420001 -0.21699999
7.0910001 -2.5309999 -0.21799999
7.0840001 -2.507 -0.21699999
7.1090002 -2.4960001 -0.21799999
7.1240001 -2.4809999 -0.21799999
7.131 -2.4630001 -0.21799999
7.131 -2.4419999 -0.21799999
7.1570001 -2.431 -0.219
7.1500001 -2.408 -0.219
7.1830001 -2.3989999 -0.219
7.1789999 -2.3770001 -0.219
7.2010002 -2.3629999 -0.22
7.2080002 -2.345 -0.22
7.2059999 -2.3239999 -0.22
7.2350001 -2.312 -0.22
7.2319999 -2.2909999 -0.22
7.2379999 -2.2720001 -0.22
7.2519999 -2.2550001 -0.22
7.2670002 -2.2390001 -0.221
7.2779999 -2.2219999 -0.221
7.29 -2.2049999 -0.221
7.309 -2.1900001 -0.222
7.3150001 -2.171 -0.222
7.3299999 -2.154 -0.222
7.3410001 -2.1359999 -0.222
7.3499999 -2.118 -0.222
7.3590002 -2.099 -0.223
7.3839998 -2.086 -0.223
7.3889999 -2.066 -0.223
7.4089999 -2.05 -0.22400001
7.4029999 -2.0280001 -0.223
7.4260001 -2.013 -0.22400001
7.4460001 -1.997 -0.22400001
7.4720001 -1.982 -0.22499999
7.4619999 -1.959 -0.22499999
7.4850001 -1.943 -0.22499999
7.5209999 -1.931 -0.226
