# .PCD v0.7 - Point Cloud Data file format
VERSION 0.7
FIELDS x y z
SIZE 4 4 4
TYPE F F F
COUNT 1 1 1
WIDTH 1937
HEIGHT 1
VIEWPOINT 0 0 0 1 0 0 0
POINTS 1937
DATA ascii
11.007 -1.3200001 0.133
11.066 -1.295 0.133
11.089 -1.266 0.134
11.143 -1.2410001 0.134
11.167 -1.212 0.13500001
11.173 -1.181 0.13500001
11.218 -1.153 0.13500001
11.263 -1.126 0.13600001
11.302 -1.098 0.13600001
11.395 -1.074 0.138
11.442 -1.046 0.138
11.55 -1.023 0.14
11.556 -0.991 0.14
11.637 -0.96399999 0.141
11.669 -0.93400002 0.141
11.754 -0.90700001 0.142
12.218 0.375 0.014
12.276 0.39399999 0.014
12.23 0.41 0.013
12.222 0.428 0.013
12.198 0.44499999 0.013
12.228 0.465 0.013
12.158 0.48100001 0.013
12.15 0.5 0.012
12.149 0.51899999 0.012
12.158 0.53899997 0.012
12.142 0.55800003 0.012
12.181 0.57999998 0.012
12.174 0.60000002 0.011
12.187 0.62099999 0.011
12.184 0.64200002 0.011
12.205 0.66399997 0.011
12.19 0.685 0.011
12.189 0.70700002 0.011
12.187 0.72899997 0.0099999998
12.201 0.75199997 0.0099999998
12.209 0.77499998 0.0099999998
12.197 0.79699999 0.0099999998
12.229 0.82200003 0.0099999998
12.221 0.84500003 0.0089999996
12.233 0.86900002 0.0089999996
12.23 0.89300001 0.0089999996
12.245 0.91799998 0.0089999996
12.26 0.94400001 0.0089999996
12.265 0.96899998 0.0089999996
12.277 0.995 0.0080000004
12.282 1.021 0.0080000004
12.294 1.0470001 0.0080000004
12.298 1.073 0.0080000004
12.322 1.101 0.0080000004
12.348 1.13 0.0070000002
12.359 1.158 0.0070000002
12.357 1.184 0.0070000002
12.354 1.211 0.0070000002
12.379 1.2410001 0.0070000002
12.376 1.268 0.0070000002
12.373 1.296 0.0060000001
12.377 1.325 0.0060000001
12.407 1.3559999 0.0060000001
12.43 1.387 0.0060000001
12.457 1.419 0.0060000001
12.453 1.448 0.0049999999
12.461 1.479 0.0049999999
12.47 1.5089999 0.0049999999
12.484 1.541 0.0049999999
12.519 1.576 0.0049999999
12.501 1.604 0.0040000002
12.532 1.6390001 0.0040000002
12.543 1.671 0.0040000002
12.571 1.706 0.0040000002
12.594 1.7410001 0.0040000002
12.616 1.776 0.0040000002
12.616 1.808 0.003
12.628 1.842 0.003
12.642 1.877 0.003
12.637 1.909 0.003
12.649 1.944 0.0020000001
12.682 1.983 0.0020000001
12.711 2.0209999 0.0020000001
12.725 2.0569999 0.0020000001
12.732 2.092 0.0020000001
12.741 2.128 0.001
12.762 2.1659999 0.001
12.787 2.2060001 0.001
12.791 2.2420001 0.001
12.813 2.2809999 0.001
12.802 2.3150001 -0
12.833 2.3559999 -0
12.839 2.3940001 -0
12.853 2.4330001 -0
12.858 2.471 -0
12.865 2.5090001 -0
12.887 2.5510001 -0
12.89 2.589 -0
12.911 2.631 -0
12.899 2.6659999 -0.001
12.922 2.7090001 -0.001
12.956 2.7550001 -0.001
12.966 2.796 -0.001
12.978 2.8369999 -0.001
12.984 2.878 -0.0020000001
13.006 2.9219999 -0.0020000001
13.001 2.96 -0.0020000001
13.011 3.003 -0.0020000001
13.056 3.053 -0.003
13.067 3.096 -0.003
13.073 3.1389999 -0.003
13.141 3.1960001 -0.003
13.171 3.2449999 -0.003
13.169 3.286 -0.0040000002
13.157 3.325 -0.0040000002
13.221 3.3829999 -0.0040000002
13.241 3.431 -0.0040000002
13.286 3.4860001 -0.0049999999
13.301 3.533 -0.0049999999
13.323 3.582 -0.0049999999
13.393 3.645 -0.0049999999
13.426 3.698 -0.0060000001
13.433 3.744 -0.0060000001
13.428 3.7869999 -0.0060000001
13.476 3.846 -0.0060000001
13.549 3.9119999 -0.0070000002
13.589 3.9690001 -0.0070000002
13.63 4.027 -0.0070000002
13.669 4.085 -0.0080000004
13.7 4.1409998 -0.0080000004
13.719 4.1939998 -0.0080000004
13.734 4.2459998 -0.0080000004
13.78 4.3080001 -0.0089999996
13.822 4.369 -0.0089999996
13.854 4.428 -0.0089999996
13.851 4.4749999 -0.0089999996
13.873 4.5310001 -0.0099999998
13.907 4.5910001 -0.0099999998
13.913 4.6430001 -0.0099999998
13.997 4.7210002 -0.011
14.039 4.7849998 -0.011
14.119 4.8629999 -0.011
14.107 4.9099998 -0.011
14.136 4.9710002 -0.012
14.213 5.0500002 -0.012
14.273 5.1240001 -0.012
14.385 5.217 -0.013
14.46 5.2969999 -0.013
14.466 5.3530002 -0.013
14.549 5.4380002 -0.014
14.654 5.5320001 -0.014
14.616 5.573 -0.014
14.638 5.6360002 -0.015
14.664 5.7010002 -0.015
14.732 5.7839999 -0.015
14.745 5.8449998 -0.016000001
14.763 5.9089999 -0.016000001
14.791 5.9770002 -0.016000001
14.816 6.0440001 -0.017000001
14.89 6.132 -0.017000001
14.82 6.1609998 -0.017000001
14.75 6.1890001 -0.017000001
14.773 6.257 -0.017999999
12.277 5.994 -0.018999999
12.145 5.98 -0.018999999
12.159 6.0380001 -0.018999999
12.201 6.1100001 -0.018999999
12.161 6.1420002 -0.02
12.114 6.2210002 -0.02
12.167 6.3000002 -0.02
12.251 6.3959999 -0.021
12.116 6.3779998 -0.021
12.042 6.3899999 -0.021
12.086 6.4660001 -0.021
12.116 6.5349998 -0.021
12.125 6.5929999 -0.022
12.134 6.651 -0.022
12.225 6.7540002 -0.022
10.661 6.27 -0.021
10.482 6.2119999 -0.021
10.41 6.217 -0.021
10.384 6.2490001 -0.022
10.386 6.2979999 -0.022
10.411 6.3600001 -0.022
10.487 6.4549999 -0.022
9.8179998 6.7389998 -0.024
9.7340002 6.7280002 -0.024
9.6739998 6.7329998 -0.025
9.6520004 6.7649999 -0.025
9.6689997 6.8239999 -0.025
9.724 6.9109998 -0.025
9.7729998 6.993 -0.026000001
9.7609997 7.033 -0.026000001
7.3579998 -4.848 0.101
7.4029999 -4.8319998 0.102
7.4169998 -4.7940001 0.102
7.4510002 -4.77 0.103
7.4710002 -4.7379999 0.103
7.5040002 -4.7129998 0.103
7.5279999 -4.6830001 0.104
7.553 -4.6539998 0.104
7.5700002 -4.619 0.104
7.5949998 -4.5900002 0.104
7.6149998 -4.5580001 0.105
7.6469998 -4.533 0.105
7.6550002 -4.494 0.105
7.6789999 -4.4650002 0.105
7.71 -4.4400001 0.106
7.7270002 -4.4070001 0.106
7.7579999 -4.382 0.106
7.756 -4.3390002 0.106
7.783 -4.3119998 0.107
7.8060002 -4.283 0.107
7.8369999 -4.2579999 0.107
7.8569999 -4.2270002 0.108
7.8520002 -4.184 0.108
7.868 -4.151 0.108
7.9070001 -4.132 0.108
7.927 -4.1020002 0.109
7.9569998 -4.0770001 0.109
7.9790001 -4.0479999 0.109
8.0080004 -4.0229998 0.11
8.0290003 -3.994 0.11
8.0579996 -3.9690001 0.11
8.0790005 -3.9400001 0.111
8.1020002 -3.9119999 0.111
8.118 -3.881 0.111
8.1599998 -3.862 0.112
8.1660004 -3.8269999 0.112
8.2130003 -3.8099999 0.112
8.2279997 -3.779 0.113
8.2419996 -3.7479999 0.113
8.2700005 -3.723 0.113
8.2840004 -3.6919999 0.113
8.323 -3.671 0.114
8.3520002 -3.6470001 0.114
8.3640003 -3.615 0.114
8.3909998 -3.5899999 0.115
8.4040003 -3.559 0.115
8.4359999 -3.536 0.115
8.4469995 -3.5039999 0.116
8.4949999 -3.4879999 0.116
8.5349998 -3.4679999 0.117
8.5530005 -3.4389999 0.117
8.5880003 -3.4170001 0.118
8.6000004 -3.3870001 0.118
8.6099997 -3.355 0.118
8.6359997 -3.3299999 0.118
8.6610003 -3.3039999 0.119
8.6920004 -3.2809999 0.119
8.7229996 -3.2579999 0.119
8.7690001 -3.24 0.12
8.783 -3.211 0.12
8.8129997 -3.187 0.121
8.8360004 -3.161 0.121
8.8509998 -3.132 0.121
8.8900003 -3.112 0.122
8.9259996 -3.0899999 0.122
8.9720001 -3.072 0.123
8.9770002 -3.04 0.123
9.0129995 -3.0190001 0.124
9.0620003 -3.0020001 0.124
9.0959997 -2.9790001 0.125
9.1339998 -2.9579999 0.125
9.1719999 -2.937 0.126
9.2189999 -2.9189999 0.126
9.3450003 -2.925 0.12800001
9.4040003 -2.9100001 0.12899999
9.3710003 -2.8670001 0.12899999
9.3970003 -2.842 0.12899999
9.4510002 -2.825 0.13
9.4949999 -2.8050001 0.13
9.5509996 -2.7880001 0.131
8.5489998 -2.467 0.117
8.335 -2.3770001 0.114
8.3129997 -2.342 0.114
8.323 -2.3169999 0.114
8.3710003 -2.302 0.115
8.6129999 -2.3399999 0.118
9.7399998 -2.6140001 0.134
9.7770004 -2.592 0.134
9.8050003 -2.5680001 0.13500001
9.8299999 -2.543 0.13500001
9.8970003 -2.5280001 0.13600001
9.8979998 -2.497 0.13600001
9.9119997 -2.4690001 0.13600001
9.9379997 -2.444 0.13699999
9.9829998 -2.424 0.13699999
10.003 -2.398 0.138
10.036 -2.375 0.138
10.072 -2.352 0.139
10.079 -2.323 0.139
8.8719997 -2.0179999 0.122
8.7290001 -1.959 0.12
8.7080002 -1.928 0.12
8.7200003 -1.905 0.12
8.7810001 -1.892 0.121
10.314 -2.1930001 0.142
10.278 -2.155 0.142
10.297 -2.1289999 0.142
10.346 -2.109 0.14300001
10.351 -2.0810001 0.14300001
10.414 -2.0639999 0.14399999
10.434 -2.0380001 0.14399999
10.446 -2.0109999 0.14399999
10.474 -1.987 0.145
10.52 -1.967 0.145
10.555 -1.944 0.146
10.552 -1.915 0.146
10.574 -1.89 0.146
10.591 -1.865 0.146
10.646 -1.846 0.147
10.662 -1.8200001 0.147
10.695 -1.7970001 0.148
10.73 -1.775 0.148
10.761 -1.752 0.149
10.786 -1.728 0.149
10.792 -1.701 0.149
10.838 -1.6799999 0.15000001
10.849 -1.654 0.15000001
10.883 -1.632 0.15099999
10.942 -1.613 0.152
10.944 -1.586 0.152
10.965 -1.562 0.152
10.978 -1.5369999 0.152
10.994 -1.512 0.152
11.026 -1.489 0.153
11.039 -1.464 0.153
11.052 -1.4400001 0.153
11.093 -1.418 0.154
11.117 -1.395 0.154
11.126 -1.37 0.154
11.166 -1.349 0.155
11.219 -1.329 0.156
11.234 -1.3049999 0.156
11.274 -1.283 0.15700001
11.302 -1.261 0.15700001
11.32 -1.237 0.15700001
11.361 -1.216 0.15800001
11.4 -1.1950001 0.15899999
11.432 -1.173 0.15899999
11.444 -1.148 0.15899999
11.464 -1.125 0.16
11.509 -1.105 0.16
11.533 -1.082 0.161
11.571 -1.061 0.161
11.637 -1.0420001 0.162
11.659 -1.0190001 0.163
11.698 -0.99800003 0.163
11.756 -0.97799999 0.164
11.782 -0.95599997 0.164
11.925 -0.94300002 0.167
12.056 -0.88 0.169
11.998 -0.85100001 0.168
11.947 0.155 0.048
11.998 0.177 0.048
12.051 0.199 0.048
12.071 0.222 0.048
12.057 0.244 0.048
12.083 0.26699999 0.048
12.089 0.28999999 0.048
12.094 0.31400001 0.048
12.109 0.338 0.048
12.095 0.361 0.046999998
12.092 0.38499999 0.046999998
12.099 0.41 0.046999998
12.118 0.435 0.046999998
12.104 0.45899999 0.046999998
12.118 0.48500001 0.046
12.109 0.509 0.046
12.125 0.53600001 0.046
12.133 0.56199998 0.046
12.153 0.58899999 0.046
12.167 0.616 0.046
12.177 0.64300001 0.045000002
12.19 0.67000002 0.045000002
12.174 0.69700003 0.045000002
12.194 0.72500002 0.045000002
12.198 0.75300002 0.045000002
12.223 0.78200001 0.045000002
12.23 0.81 0.045000002
12.247 0.83999997 0.044
12.247 0.86799997 0.044
12.258 0.898 0.044
12.268 0.92799997 0.044
12.28 0.958 0.044
12.293 0.98799998 0.044
12.315 1.02 0.044
12.34 1.052 0.043000001
12.351 1.0829999 0.043000001
12.37 1.115 0.043000001
12.4 1.149 0.043000001
12.384 1.178 0.043000001
12.429 1.214 0.043000001
12.432 1.2460001 0.043000001
12.441 1.278 0.041999999
12.414 1.307 0.041999999
12.456 1.344 0.041999999
12.461 1.377 0.041999999
12.505 1.414 0.041999999
12.546 1.452 0.041999999
12.549 1.485 0.041999999
12.556 1.52 0.041000001
12.555 1.553 0.041000001
12.572 1.589 0.041000001
12.595 1.626 0.041000001
12.617 1.663 0.041000001
12.651 1.702 0.041000001
12.696 1.743 0.041000001
12.71 1.78 0.041000001
12.707 1.8150001 0.039999999
12.735 1.854 0.039999999
12.736 1.89 0.039999999
12.758 1.929 0.039999999
12.793 1.971 0.039999999
12.78 2.0050001 0.039999999
12.822 2.0480001 0.039000001
12.831 2.0869999 0.039000001
12.858 2.128 0.039000001
12.885 2.1700001 0.039000001
12.893 2.2090001 0.039000001
12.914 2.25 0.039000001
12.925 2.29 0.039000001
12.96 2.3340001 0.037999999
12.968 2.3740001 0.037999999
12.976 2.414 0.037999999
13.054 2.4679999 0.037999999
13.032 2.503 0.037999999
13.066 2.549 0.037999999
13.07 2.589 0.037
13.091 2.6329999 0.037
13.096 2.674 0.037
13.143 2.724 0.037
13.173 2.77 0.037
13.213 2.819 0.037
13.225 2.8629999 0.037
13.242 2.908 0.035999998
13.272 2.9560001 0.035999998
13.292 3.0009999 0.035999998
13.324 3.0510001 0.035999998
13.339 3.096 0.035999998
13.402 3.1530001 0.035999998
13.394 3.194 0.035999998
13.477 3.256 0.035999998
13.511 3.3080001 0.035
13.492 3.346 0.035
13.519 3.3959999 0.035
13.573 3.454 0.035
13.627 3.5120001 0.035
13.686 3.5710001 0.035
13.727 3.6270001 0.035
13.73 3.6719999 0.034000002
13.746 3.721 0.034000002
13.785 3.777 0.034000002
13.809 3.829 0.034000002
13.848 3.8859999 0.034000002
13.899 3.9460001 0.034000002
13.944 4.0050001 0.034000002
13.974 4.0609999 0.033
14 4.1149998 0.033
14.015 4.1659999 0.033
14.026 4.2160001 0.033
14.07 4.277 0.033
14.106 4.336 0.033
14.223 4.4200001 0.033
14.218 4.4660001 0.032000002
14.273 4.5320001 0.032000002
14.303 4.5900002 0.032000002
14.308 4.6409998 0.032000002
14.32 4.6939998 0.032000002
14.356 4.7550001 0.030999999
14.419 4.8249998 0.030999999
14.437 4.881 0.030999999
14.488 4.948 0.030999999
14.601 5.0370002 0.030999999
14.707 5.125 0.030999999
14.671 5.164 0.030999999
14.739 5.2389998 0.029999999
14.813 5.3169999 0.029999999
14.822 5.3720002 0.029999999
14.831 5.427 0.029999999
14.928 5.5149999 0.029999999
15.046 5.612 0.029999999
15.174 5.7129998 0.029999999
15.175 5.7670002 0.029999999
15.329 5.8800001 0.029999999
15.201 5.8839998 0.028999999
15.23 5.9499998 0.028999999
15.249 6.0110002 0.028999999
15.283 6.079 0.028000001
15.353 6.1620002 0.028000001
15.391 6.2319999 0.028000001
15.41 6.2950001 0.028000001
15.403 6.3470001 0.028000001
15.46 6.4260001 0.027000001
12.164 5.9819999 0.017000001
12.063 5.9759998 0.016000001
11.996 5.987 0.016000001
11.937 6.0009999 0.016000001
12.01 6.0819998 0.016000001
12.198 6.2220001 0.016000001
12.242 6.2880001 0.015
12.172 6.2969999 0.015
12.198 6.355 0.015
12.129 6.408 0.014
12.028 6.3990002 0.014
12.13 6.4970002 0.014
7.8990002 -4.6550002 0.126
7.9089999 -4.638 0.126
7.9120002 -4.618 0.126
7.928 -4.605 0.127
7.9330001 -4.585 0.127
7.9390001 -4.566 0.127
7.9580002 -4.5539999 0.127
7.9910002 -4.5500002 0.12800001
7.9899998 -4.527 0.12800001
8.0050001 -4.513 0.12800001
8.0089998 -4.4920001 0.12800001
8.0080004 -4.4679999 0.12800001
8.0270004 -4.4559999 0.12800001
8.0489998 -4.4450002 0.12899999
8.0489998 -4.4219999 0.12899999
8.0640001 -4.4070001 0.12899999
8.0679998 -4.3860002 0.12899999
8.0830002 -4.3709998 0.13
8.1059999 -4.3600001 0.13
8.1230001 -4.3460002 0.13
8.1190004 -4.3210001 0.13
8.1420002 -4.3099999 0.131
8.165 -4.2979999 0.131
8.1680002 -4.276 0.131
8.1639996 -4.2509999 0.131
8.1829996 -4.237 0.132
8.1899996 -4.217 0.132
8.2139997 -4.2059999 0.132
8.2480001 -4.1989999 0.133
8.2629995 -4.1830001 0.133
8.2810001 -4.1680002 0.133
8.257 -4.132 0.133
8.2889996 -4.1240001 0.133
8.3059998 -4.1090002 0.134
8.3310003 -4.0970001 0.134
8.3360004 -4.0760002 0.134
8.3620005 -4.0640001 0.13500001
8.3710003 -4.0440001 0.13500001
8.3830004 -4.026 0.13500001
8.3979998 -4.0079999 0.13600001
8.3940001 -3.9820001 0.13500001
8.4169998 -3.9690001 0.13600001
8.4460001 -3.9579999 0.13600001
8.4549999 -3.938 0.13699999
8.4580002 -3.915 0.13699999
8.4820004 -3.901 0.13699999
8.5080004 -3.888 0.138
8.5310001 -3.8740001 0.138
8.5469999 -3.8570001 0.138
8.5620003 -3.839 0.139
8.5839996 -3.8239999 0.139
8.5869999 -3.8 0.139
8.5909996 -3.777 0.139
8.6049995 -3.7579999 0.139
8.6280003 -3.743 0.14
8.6429996 -3.7249999 0.14
8.6520004 -3.7030001 0.14
8.6590004 -3.681 0.14
8.6949997 -3.671 0.141
8.7010002 -3.6489999 0.141
8.7279997 -3.635 0.142
8.7440004 -3.6159999 0.142
8.757 -3.596 0.142
8.7819996 -3.5810001 0.14300001
8.7849998 -3.556 0.14300001
8.8199997 -3.5450001 0.14300001
8.8140001 -3.517 0.14300001
8.8290005 -3.497 0.14399999
8.8430004 -3.477 0.14399999
8.8540001 -3.4560001 0.14399999
8.8830004 -3.4419999 0.14399999
8.9060001 -3.424 0.145
8.9230003 -3.405 0.145
8.9370003 -3.385 0.145
8.948 -3.3629999 0.146
8.9809999 -3.349 0.146
8.9949999 -3.329 0.147
9.0100002 -3.3080001 0.147
9.026 -3.2880001 0.147
9.0410004 -3.267 0.147
9.0679998 -3.25 0.148
9.0830002 -3.2290001 0.148
9.099 -3.2090001 0.148
9.1280003 -3.1930001 0.149
9.1499996 -3.174 0.149
9.1920004 -3.1619999 0.15000001
9.2139997 -3.1429999 0.15000001
9.2220001 -3.119 0.15099999
9.25 -3.1010001 0.15099999
9.2650003 -3.079 0.15099999
9.316 -3.069 0.152
9.3369999 -3.049 0.153
9.3909998 -3.04 0.154
9.4180002 -3.0220001 0.154
9.4259996 -2.997 0.154
9.5740004 -3.016 0.15700001
9.6400003 -3.0090001 0.15800001
9.6269999 -2.977 0.15800001
9.5950003 -2.9400001 0.15700001
9.5860004 -2.9089999 0.15700001
9.6219997 -2.892 0.15800001
9.6470003 -2.872 0.15800001
9.6739998 -2.852 0.15800001
9.6820002 -2.826 0.15899999
9.7229996 -2.8099999 0.15899999
9.7510004 -2.79 0.16
9.8000002 -2.776 0.161
8.3950005 -2.3540001 0.138
8.3249998 -2.3099999 0.13600001
8.2980003 -2.279 0.13600001
8.3140001 -2.2590001 0.13600001
8.3570004 -2.247 0.13699999
8.4390001 -2.2449999 0.138
9.9189997 -2.6099999 0.163
9.9390001 -2.586 0.163
9.9610004 -2.563 0.164
9.9680004 -2.5369999 0.164
10.001 -2.516 0.164
10.001 -2.487 0.164
10.049 -2.47 0.16500001
10.059 -2.444 0.16500001
10.057 -2.415 0.16500001
10.105 -2.3970001 0.16599999
10.119 -2.3710001 0.16599999
10.146 -2.348 0.167
10.158 -2.322 0.167
10.18 -2.2980001 0.168
10.209 -2.2750001 0.168
8.8280001 -1.942 0.145
8.7340002 -1.896 0.14399999
8.7130003 -1.8660001 0.14300001
8.7379999 -1.847 0.14399999
8.7989998 -1.834 0.145
10.436 -2.1459999 0.17200001
10.431 -2.115 0.17200001
10.448 -2.089 0.17200001
10.472 -2.063 0.17299999
10.507 -2.04 0.17299999
10.551 -2.0179999 0.17399999
10.573 -1.992 0.17399999
10.605 -1.9680001 0.175
10.611 -1.939 0.175
10.628 -1.911 0.175
10.679 -1.89 0.176
10.711 -1.865 0.177
10.746 -1.84 0.177
10.779 -1.8150001 0.178
10.809 -1.789 0.178
10.826 -1.761 0.17900001
10.928 -1.747 0.18099999
10.894 -1.71 0.18000001
10.946 -1.687 0.18099999
10.977 -1.66 0.18099999
11.024 -1.636 0.182
11.058 -1.609 0.183
11.071 -1.58 0.183
11.103 -1.552 0.184
11.127 -1.524 0.184
11.161 -1.497 0.185
11.223 -1.473 0.186
11.254 -1.4450001 0.186
11.308 -1.42 0.18700001
11.342 -1.392 0.18799999
11.378 -1.364 0.18799999
11.441 -1.3380001 0.189
11.512 -1.314 0.191
11.583 -1.289 0.192
11.557 -1.253 0.191
11.627 -1.228 0.193
11.672 -1.199 0.193
11.768 -1.176 0.19499999
11.836 -1.149 0.19599999
11.894 -1.12 0.197
11.978 -1.094 0.199
12.002 -1.062 0.199
12.13 -1.039 0.20100001
12.734 0.39300001 0.077
12.707 0.41 0.075999998
12.626 0.426 0.075999998
12.678 0.44600001 0.075999998
12.651 0.46399999 0.075000003
12.717 0.486 0.075999998
12.676 0.50400001 0.075000003
12.654 0.523 0.075000003
12.621 0.54100001 0.074000001
12.605 0.56099999 0.074000001
12.625 0.58200002 0.074000001
12.601 0.602 0.074000001
12.575 0.62199998 0.072999999
12.587 0.64399999 0.072999999
12.607 0.66600001 0.072999999
12.599 0.68800002 0.072999999
12.597 0.70999998 0.072999999
12.582 0.73100001 0.072999999
12.61 0.75599998 0.072999999
12.608 0.77899998 0.071999997
12.611 0.80199999 0.071999997
12.638 0.82700002 0.071999997
12.623 0.85000002 0.071999997
12.621 0.87400001 0.071999997
12.627 0.89899999 0.071999997
12.652 0.92500001 0.071999997
12.676 0.95200002 0.071999997
12.682 0.97799999 0.071000002
12.701 1.005 0.071000002
12.726 1.033 0.071000002
12.744 1.0599999 0.071000002
12.749 1.087 0.071000002
12.759 1.115 0.071000002
12.785 1.1440001 0.071000002
12.796 1.1720001 0.071000002
12.792 1.2 0.071000002
12.817 1.23 0.071000002
12.809 1.257 0.07
12.794 1.284 0.07
12.823 1.3150001 0.07
12.809 1.3430001 0.07
12.868 1.378 0.07
12.873 1.408 0.07
12.906 1.442 0.07
12.903 1.471 0.07
12.885 1.499 0.07
12.894 1.531 0.068999998
12.909 1.563 0.068999998
12.928 1.597 0.068999998
12.904 1.625 0.068999998
12.933 1.66 0.068999998
12.949 1.694 0.068999998
12.949 1.726 0.068999998
12.982 1.763 0.068999998
13.004 1.799 0.068999998
12.979 1.8279999 0.068000004
13.007 1.865 0.068000004
13.012 1.899 0.068000004
13.06 1.9400001 0.068000004
13.068 1.975 0.068000004
13.087 2.0120001 0.068000004
13.119 2.0510001 0.068000004
13.119 2.086 0.068000004
13.153 2.1270001 0.068000004
13.174 2.1659999 0.068000004
13.184 2.2030001 0.068000004
13.206 2.2420001 0.068000004
13.219 2.2809999 0.068000004
13.244 2.322 0.068000004
13.26 2.3610001 0.068000004
13.274 2.401 0.067000002
13.308 2.444 0.067000002
13.322 2.484 0.067000002
13.365 2.53 0.067000002
13.368 2.569 0.067000002
13.393 2.612 0.067000002
13.418 2.6559999 0.067000002
13.407 2.6930001 0.067000002
13.453 2.7409999 0.067000002
13.47 2.7839999 0.067000002
13.523 2.835 0.067000002
13.527 2.8759999 0.067000002
13.579 2.928 0.067000002
13.589 2.971 0.067000002
13.589 3.0120001 0.067000002
13.628 3.062 0.067000002
13.667 3.112 0.067000002
13.676 3.1559999 0.067000002
13.705 3.2049999 0.067000002
13.736 3.2550001 0.067000002
13.786 3.3099999 0.067000002
13.796 3.355 0.067000002
13.853 3.4130001 0.067000002
13.854 3.457 0.067000002
13.896 3.5120001 0.067000002
13.944 3.5680001 0.067000002
13.955 3.6159999 0.066
13.99 3.6700001 0.066
14.024 3.724 0.066
14.072 3.783 0.067000002
14.101 3.8369999 0.067000002
14.114 3.8870001 0.066
14.169 3.9489999 0.067000002
14.208 4.007 0.067000002
14.214 4.0560002 0.066
14.238 4.1100001 0.066
14.303 4.177 0.066
14.321 4.2309999 0.066
14.374 4.296 0.066
14.386 4.348 0.066
14.437 4.4130001 0.066
14.489 4.4790001 0.066
14.54 4.5450001 0.067000002
14.603 4.6160002 0.067000002
14.652 4.6820002 0.067000002
14.62 4.723 0.066
14.719 4.8070002 0.067000002
14.749 4.869 0.067000002
14.85 4.9549999 0.067000002
14.88 5.0180001 0.067000002
14.935 5.0900002 0.067000002
14.995 5.164 0.067000002
15.12 5.2620001 0.067000002
15.097 5.309 0.067000002
15.083 5.3590002 0.067000002
15.247 5.473 0.067000002
15.205 5.5139999 0.067000002
15.222 5.5760002 0.067000002
15.406 5.6999998 0.068000004
15.45 5.7740002 0.068000004
15.477 5.842 0.068000004
15.469 5.8969998 0.067000002
15.539 5.9819999 0.068000004
15.557 6.0479999 0.067000002
15.632 6.1360002 0.068000004
15.667 6.21 0.068000004
15.719 6.29 0.068000004
15.722 6.3520002 0.067000002
15.777 6.4349999 0.067000002
15.789 6.5009999 0.067000002
12.277 5.9419999 0.050000001
12.135 5.9239998 0.048999999
12.011 5.9130001 0.048
11.948 5.9320002 0.048
11.914 5.9660001 0.048
12.06 6.0900002 0.048
12.228 6.2259998 0.048999999
12.23 6.2800002 0.048999999
12.186 6.309 0.048
12.285 6.4130001 0.048
12.111 6.3740001 0.048
12.058 6.3979998 0.046999998
7.5440001 -4.9689999 0.14
7.5830002 -4.947 0.141
7.6170001 -4.9219999 0.141
7.6409998 -4.8899999 0.142
7.6719999 -4.8629999 0.142
7.6929998 -4.8299999 0.142
7.717 -4.7989998 0.14300001
7.7529998 -4.7750001 0.14300001
7.7709999 -4.7399998 0.14399999
7.7989998 -4.711 0.14399999
7.8179998 -4.678 0.14399999
7.848 -4.651 0.145
7.8779998 -4.6240001 0.145
7.895 -4.5890002 0.146
7.9089999 -4.553 0.146
7.9429998 -4.5289998 0.147
7.9650002 -4.4980001 0.147
7.9840002 -4.4650002 0.147
8.0190001 -4.441 0.148
8.0380001 -4.4089999 0.148
8.0629997 -4.3800001 0.148
8.0760002 -4.3439999 0.149
8.0649996 -4.296 0.148
8.1160002 -4.2810001 0.149
8.1709995 -4.2680001 0.15000001
8.1990004 -4.2410002 0.15099999
8.2119999 -4.2069998 0.15099999
8.2419996 -4.1810002 0.15099999
8.2559996 -4.1469998 0.152
8.2729998 -4.1139998 0.152
8.3079996 -4.0910001 0.153
8.3509998 -4.072 0.153
8.3610001 -4.0359998 0.153
8.3830004 -4.007 0.154
8.4119997 -3.9809999 0.154
8.4219999 -3.9460001 0.154
8.4549999 -3.9219999 0.155
8.4980001 -3.902 0.156
8.5290003 -3.8770001 0.156
8.5509996 -3.848 0.15700001
8.5780001 -3.822 0.15700001
8.6059999 -3.796 0.15800001
8.6230001 -3.7650001 0.15800001
8.6540003 -3.74 0.15800001
8.6800003 -3.7130001 0.15899999
8.7130003 -3.6889999 0.16
8.7209997 -3.655 0.16
8.7510004 -3.6300001 0.16
8.7869997 -3.6070001 0.161
8.8059998 -3.5769999 0.161
8.8579998 -3.5610001 0.162
8.8529997 -3.5220001 0.162
8.8889999 -3.5 0.163
8.9289999 -3.4790001 0.163
8.9630003 -3.4549999 0.164
8.9949999 -3.431 0.164
9.033 -3.4089999 0.16500001
9.0310001 -3.372 0.16500001
9.0780001 -3.3540001 0.16599999
9.1359997 -3.339 0.167
9.1610003 -3.312 0.167
9.1780005 -3.283 0.168
9.1969995 -3.2539999 0.168
9.2539997 -3.2379999 0.169
9.2799997 -3.2119999 0.17
9.3319998 -3.1949999 0.17
9.3690004 -3.1719999 0.171
9.3959999 -3.1459999 0.17200001
9.4639997 -3.1340001 0.17299999
9.5030003 -3.112 0.17399999
9.5550003 -3.0940001 0.175
9.592 -3.0710001 0.175
9.7229996 -3.0780001 0.178
9.7410002 -3.049 0.178
9.717 -3.007 0.177
9.7379999 -2.9779999 0.178
9.7370005 -2.944 0.178
9.7589998 -2.9170001 0.178
9.7860003 -2.891 0.17900001
9.8319998 -2.8699999 0.18000001
9.868 -2.8469999 0.18000001
8.5690002 -2.4430001 0.156
8.3570004 -2.3540001 0.152
8.3070002 -2.312 0.152
8.309 -2.2850001 0.152
8.3640003 -2.2720001 0.153
8.5500002 -2.2950001 0.156
10.054 -2.6659999 0.184
10.077 -2.6389999 0.184
10.096 -2.6110001 0.184
10.133 -2.5880001 0.185
10.154 -2.5610001 0.185
10.176 -2.5350001 0.186
10.197 -2.5079999 0.186
10.248 -2.4879999 0.18700001
10.268 -2.461 0.18799999
10.289 -2.434 0.18799999
10.338 -2.414 0.189
10.345 -2.3840001 0.189
8.8360004 -2.01 0.161
8.7220001 -1.9579999 0.15899999
8.7080002 -1.928 0.15899999
8.7189999 -1.905 0.15899999
8.7919998 -1.895 0.161
10.566 -2.2460001 0.193
10.548 -2.2119999 0.193
10.598 -2.1919999 0.19400001
10.616 -2.165 0.19400001
10.631 -2.1370001 0.19400001
10.681 -2.1170001 0.19499999
10.707 -2.092 0.19599999
10.733 -2.0669999 0.19599999
10.758 -2.0409999 0.197
10.795 -2.0190001 0.197
10.827 -1.995 0.198
10.841 -1.9680001 0.198
10.888 -1.947 0.199
10.905 -1.92 0.199
10.927 -1.895 0.2
10.98 -1.875 0.20100001
10.992 -1.848 0.20100001
11.012 -1.822 0.20100001
11.055 -1.8 0.20200001
11.134 -1.784 0.204
11.174 -1.761 0.205
11.167 -1.732 0.204
11.174 -1.704 0.205
11.199 -1.6799999 0.205
11.236 -1.6569999 0.206
11.279 -1.635 0.207
11.271 -1.6059999 0.206
11.315 -1.584 0.207
11.367 -1.564 0.208
11.404 -1.541 0.20900001
11.446 -1.5190001 0.20999999
11.491 -1.497 0.211
11.496 -1.47 0.211
11.517 -1.446 0.211
11.552 -1.423 0.212
11.592 -1.401 0.213
11.609 -1.376 0.213
11.655 -1.354 0.214
11.744 -1.337 0.21600001
11.754 -1.312 0.21600001
11.806 -1.291 0.21699999
11.821 -1.266 0.21699999
11.827 -1.24 0.21699999
11.857 -1.217 0.21799999
11.904 -1.1950001 0.219
11.976 -1.176 0.22
12.004 -1.153 0.221
12.025 -1.1289999 0.221
12.112 -1.1109999 0.223
12.137 -1.087 0.223
12.124 -1.0599999 0.223
12.169 -1.039 0.22400001
12.222 -1.018 0.22499999
12.323 -1 0.227
12.296 -0.97299999 0.226
12.249 -0.94400001 0.226
12.35 -0.92699999 0.227
12.388 0.162 0.111
12.431 0.185 0.111
12.472 0.208 0.111
12.478 0.23100001 0.111
12.498 0.255 0.111
12.545 0.27900001 0.111
12.551 0.303 0.111
12.55 0.32699999 0.111
12.556 0.352 0.111
12.57 0.377 0.111
12.593 0.403 0.111
12.602 0.428 0.111
12.615 0.454 0.111
12.663 0.48199999 0.111
12.64 0.50700003 0.111
12.631 0.53299999 0.11
12.618 0.55900002 0.11
12.654 0.58700001 0.11
12.633 0.61299998 0.11
12.656 0.64200002 0.11
12.681 0.671 0.11
12.667 0.69800001 0.11
12.663 0.72600001 0.109
12.673 0.755 0.109
12.689 0.78399998 0.109
12.7 0.81400001 0.109
12.676 0.84100002 0.109
12.71 0.87300003 0.109
12.75 0.90499997 0.109
12.733 0.93400002 0.109
12.772 0.96700001 0.109
12.782 0.99800003 0.109
12.793 1.03 0.109
12.811 1.062 0.109
12.856 1.097 0.109
12.895 1.132 0.109
12.889 1.163 0.109
12.905 1.197 0.109
12.907 1.229 0.109
12.915 1.262 0.108
12.904 1.294 0.108
12.903 1.327 0.108
12.915 1.3609999 0.108
12.937 1.397 0.108
12.947 1.431 0.108
12.97 1.4680001 0.108
12.993 1.5039999 0.108
12.989 1.538 0.108
12.995 1.573 0.108
13.015 1.61 0.108
13.024 1.647 0.107
13.023 1.682 0.107
13.055 1.721 0.107
13.058 1.757 0.107
13.093 1.798 0.107
13.102 1.835 0.107
13.124 1.875 0.107
13.145 1.914 0.107
13.155 1.9529999 0.107
13.194 1.9960001 0.107
13.243 2.04 0.108
13.266 2.082 0.108
13.279 2.122 0.107
13.317 2.1659999 0.108
13.346 2.2090001 0.108
13.343 2.247 0.107
13.369 2.2909999 0.108
13.431 2.3399999 0.108
13.453 2.3840001 0.108
13.45 2.4230001 0.108
13.484 2.4690001 0.108
13.503 2.513 0.108
13.562 2.5639999 0.108
13.595 2.6110001 0.108
13.614 2.6559999 0.108
13.633 2.7 0.108
13.659 2.747 0.108
13.696 2.796 0.108
13.723 2.8440001 0.108
13.774 2.8959999 0.109
13.827 2.95 0.109
13.832 2.994 0.109
13.834 3.0380001 0.109
13.893 3.0940001 0.109
13.928 3.145 0.109
13.951 3.194 0.109
13.988 3.247 0.109
14.036 3.302 0.109
14.1 3.362 0.11
14.143 3.4170001 0.11
14.129 3.4590001 0.11
14.139 3.506 0.109
14.158 3.5569999 0.109
14.214 3.6170001 0.11
14.255 3.6730001 0.11
14.337 3.7409999 0.11
14.412 3.8069999 0.111
14.487 3.8740001 0.111
14.481 3.9200001 0.111
14.548 3.9860001 0.111
14.549 4.0339999 0.111
14.575 4.0890002 0.111
14.574 4.1370001 0.111
14.646 4.2059999 0.111
14.704 4.2719998 0.112
14.758 4.3369999 0.112
14.792 4.3969998 0.112
14.816 4.4530001 0.112
14.888 4.5250001 0.112
14.964 4.599 0.113
14.973 4.652 0.113
15.033 4.7220001 0.113
15.104 4.7950001 0.113
15.155 4.8629999 0.114
15.254 4.947 0.114
15.199 4.9809999 0.113
15.288 5.0630002 0.114
15.311 5.1230001 0.114
15.388 5.2020001 0.114
15.46 5.2800002 0.115
15.492 5.3439999 0.115
15.54 5.415 0.115
15.617 5.4959998 0.115
15.731 5.5910001 0.116
15.685 5.6290002 0.116
15.692 5.6869998 0.115
15.766 5.7690001 0.116
15.829 5.8470001 0.116
15.836 5.9050002 0.116
15.888 5.9809999 0.116
15.96 6.0640001 0.117
16.025 6.1459999 0.117
16.004999 6.1950002 0.117
16.089001 6.2839999 0.117
16.112 6.3499999 0.117
14.809 6.0479999 0.107
14.796 6.0960002 0.107
12.345 5.9349999 0.086000003
12.275 5.9460001 0.086000003
12.221 5.9650002 0.085000001
12.024 5.9120002 0.083999999
11.929 5.9089999 0.082999997
11.916 5.9460001 0.082999997
11.907 5.9850001 0.082999997
11.976 6.0630002 0.082999997
12.224 6.2340002 0.083999999
12.211 6.2719998 0.083999999
12.227 6.369 0.083999999
12.175 6.3870001 0.083999999
12.078 6.3800001 0.082999997
12.054 6.4109998 0.082999997
12.215 6.5409999 0.083999999
8.2049999 -4.8390002 0.169
8.2250004 -4.8280001 0.17
8.2270002 -4.8060002 0.17
8.2480001 -4.7940001 0.17
8.2580004 -4.777 0.171
8.2580004 -4.7529998 0.171
8.2790003 -4.7420001 0.171
8.2959995 -4.7280002 0.17200001
8.2989998 -4.7059999 0.17200001
8.3170004 -4.6919999 0.17200001
8.3269997 -4.6739998 0.17200001
8.3299999 -4.652 0.17200001
8.3400002 -4.6329999 0.17299999
8.3500004 -4.6149998 0.17299999
8.3699999 -4.6020002 0.17299999
8.3839998 -4.585 0.17399999
8.4069996 -4.5739999 0.17399999
8.4219999 -4.5580001 0.175
8.4189997 -4.5320001 0.175
8.4239998 -4.5110002 0.175
8.441 -4.4949999 0.175
8.4630003 -4.4829998 0.176
8.4729996 -4.4640002 0.176
8.4829998 -4.4439998 0.176
8.5480003 -4.454 0.177
8.5609999 -4.4359999 0.178
8.5819998 -4.4219999 0.178
8.5679998 -4.3899999 0.178
8.5649996 -4.3639998 0.178
8.5860004 -4.349 0.178
8.5839996 -4.3239999 0.178
8.5939999 -4.3039999 0.17900001
8.618 -4.2909999 0.17900001
8.6409998 -4.277 0.18000001
8.6680002 -4.2659998 0.18000001
8.6800003 -4.2459998 0.18000001
8.6899996 -4.2259998 0.18099999
8.6940002 -4.2030001 0.18099999
8.6859999 -4.1739998 0.18099999
8.7229996 -4.1659999 0.18099999
8.7290001 -4.1440001 0.182
8.7309999 -4.119 0.182
8.7810001 -4.118 0.183
8.7889996 -4.0960002 0.183
8.8009996 -4.0760002 0.183
8.8030005 -4.0510001 0.183
8.8199997 -4.0339999 0.184
8.8549995 -4.0240002 0.184
8.8529997 -3.997 0.184
8.882 -3.9849999 0.185
8.8719997 -3.954 0.185
8.901 -3.941 0.185
8.9219999 -3.925 0.186
8.9280005 -3.902 0.186
8.9469995 -3.8840001 0.18700001
8.9720001 -3.869 0.18700001
9.0019999 -3.855 0.18799999
9.0170002 -3.836 0.18799999
9.04 -3.819 0.189
9.0539999 -3.799 0.189
9.0719995 -3.78 0.189
9.0810003 -3.757 0.189
9.1110001 -3.743 0.19
9.1359997 -3.727 0.191
9.1479998 -3.7049999 0.191
9.158 -3.6830001 0.191
9.1669998 -3.6600001 0.191
9.2030001 -3.6470001 0.192
9.2150002 -3.625 0.192
9.2460003 -3.6110001 0.193
9.2639999 -3.5910001 0.19400001
9.2919998 -3.575 0.19400001
9.316 -3.5569999 0.19499999
9.323 -3.5320001 0.19499999
9.3590002 -3.5190001 0.19599999
9.382 -3.5 0.19599999
9.4099998 -3.484 0.197
9.4399996 -3.467 0.197
9.4320002 -3.437 0.197
9.4630003 -3.421 0.198
9.493 -3.404 0.199
9.5 -3.3789999 0.199
9.5229998 -3.3599999 0.199
9.5489998 -3.3410001 0.2
9.5719995 -3.322 0.2
9.5749998 -3.2950001 0.2
9.5979996 -3.2750001 0.20100001
9.6260004 -3.257 0.20100001
9.651 -3.237 0.20200001
9.6920004 -3.223 0.20299999
9.6940002 -3.1949999 0.20299999
9.7229996 -3.177 0.204
9.7440004 -3.155 0.204
9.7869997 -3.141 0.205
9.8240004 -3.125 0.206
9.8369999 -3.0999999 0.206
9.8319998 -3.0699999 0.206
9.8599997 -3.05 0.207
9.8620005 -3.0220001 0.207
9.8839998 -3.0009999 0.207
9.8920002 -2.974 0.207
9.9060001 -2.95 0.208
9.9280005 -2.928 0.208
9.9420004 -2.9030001 0.208
9.9790001 -2.885 0.20900001
9.9849997 -2.858 0.20900001
10.013 -2.8369999 0.20999999
8.5240002 -2.391 0.17900001
8.3640003 -2.322 0.175
8.3100004 -2.283 0.17399999
8.309 -2.2579999 0.17399999
8.3269997 -2.2390001 0.175
8.368 -2.2260001 0.175
8.526 -2.244 0.17900001
10.202 -2.655 0.214
10.238 -2.635 0.215
10.232 -2.6040001 0.215
10.28 -2.5869999 0.21600001
10.277 -2.556 0.21600001
10.302 -2.533 0.21600001
10.329 -2.51 0.21699999
10.339 -2.483 0.21699999
10.398 -2.467 0.21799999
10.404 -2.438 0.21799999
10.412 -2.4100001 0.219
10.459 -2.391 0.22
10.468 -2.3629999 0.22
8.9069996 -1.985 0.18700001
8.7440004 -1.924 0.184
8.7139997 -1.892 0.183
8.7180004 -1.868 0.183
8.7670002 -1.853 0.184
8.9890003 -1.874 0.189
10.721 -2.2049999 0.22499999
10.727 -2.175 0.22499999
10.75 -2.1489999 0.226
10.772 -2.122 0.226
10.798 -2.0969999 0.227
10.827 -2.0710001 0.228
10.856 -2.046 0.228
10.909 -2.0239999 0.229
10.941 -1.999 0.23
10.976 -1.974 0.23100001
11.003 -1.947 0.23100001
11.05 -1.924 0.23199999
11.055 -1.893 0.23199999
11.114 -1.8710001 0.234
11.13 -1.842 0.234
11.164 -1.816 0.235
11.274 -1.801 0.237
11.364 -1.783 0.23899999
11.328 -1.745 0.23800001
11.317 -1.711 0.23800001
11.399 -1.691 0.23999999
11.438 -1.664 0.241
11.473 -1.636 0.241
11.533 -1.612 0.243
11.582 -1.586 0.244
11.635 -1.5599999 0.245
11.647 -1.528 0.245
11.694 -1.501 0.24600001
11.727 -1.472 0.24699999
11.794 -1.446 0.248
11.876 -1.423 0.25
11.888 -1.39 0.25
11.928 -1.3609999 0.25099999
11.961 -1.33 0.252
11.969 -1.2970001 0.252
12.056 -1.272 0.25400001
12.139 -1.2460001 0.255
12.203 -1.2180001 0.257
12.267 -1.189 0.25799999
12.278 -1.156 0.25799999
12.365 -1.128 0.25999999
12.345 -1.091 0.25999999
12.416 -1.062 0.26100001
12.447 -1.029 0.26199999
13.296 0.47 0.14399999
13.26 0.48899999 0.14399999
13.131 0.50400001 0.142
13.141 0.52399999 0.142
13.129 0.54400003 0.142
13.095 0.56400001 0.141
13.106 0.58499998 0.141
13.12 0.60699999 0.141
13.12 0.62900001 0.141
13.118 0.65100002 0.141
13.116 0.67299998 0.14
13.13 0.69599998 0.14
13.121 0.71799999 0.14
13.126 0.741 0.14
13.124 0.76499999 0.14
13.104 0.787 0.139
13.13 0.81300002 0.14
13.108 0.83499998 0.139
13.113 0.86000001 0.139
13.119 0.88499999 0.139
13.13 0.91100001 0.139
13.11 0.935 0.139
13.111 0.96100003 0.138
13.112 0.98699999 0.138
13.12 1.013 0.138
13.124 1.04 0.138
13.145 1.068 0.138
13.205 1.1 0.139
13.251 1.132 0.139
13.246 1.159 0.139
13.231 1.1849999 0.138
13.202 1.211 0.138
13.182 1.237 0.138
13.176 1.266 0.13699999
13.193 1.296 0.13699999
13.212 1.327 0.138
13.221 1.357 0.13699999
13.245 1.39 0.138
13.263 1.4220001 0.138
13.283 1.454 0.138
13.294 1.4859999 0.138
13.308 1.5190001 0.138
13.302 1.549 0.13699999
13.314 1.582 0.13699999
13.322 1.615 0.13699999
13.326 1.647 0.13699999
13.356 1.683 0.13699999
13.379 1.7180001 0.138
13.407 1.755 0.138
13.426 1.791 0.138
13.433 1.825 0.138
13.457 1.862 0.138
13.476 1.899 0.138
13.489 1.9349999 0.138
13.51 1.972 0.138
13.531 2.01 0.138
13.547 2.0480001 0.138
13.562 2.086 0.138
13.57 2.1229999 0.138
13.589 2.1619999 0.138
13.613 2.2019999 0.138
13.647 2.244 0.139
13.666 2.2839999 0.139
13.693 2.326 0.139
13.746 2.372 0.139
13.795 2.4189999 0.14
13.826 2.4619999 0.14
13.877 2.51 0.14
13.87 2.5480001 0.14
13.873 2.5869999 0.14
13.908 2.6329999 0.14
13.916 2.675 0.14
13.975 2.7260001 0.141
13.994 2.77 0.141
14.066 2.825 0.141
14.078 2.869 0.141
14.123 2.9189999 0.142
14.135 2.964 0.142
14.166 3.0120001 0.142
14.225 3.0669999 0.142
14.242 3.1140001 0.142
14.313 3.1719999 0.14300001
14.342 3.2219999 0.14300001
14.368 3.2720001 0.14300001
14.43 3.3299999 0.14399999
14.5 3.391 0.14399999
14.473 3.4300001 0.14399999
14.494 3.48 0.14399999
14.499 3.526 0.14399999
14.483 3.5680001 0.14399999
14.516 3.622 0.14399999
14.617 3.694 0.145
14.782 3.783 0.147
14.721 3.8139999 0.146
14.747 3.868 0.146
14.817 3.9349999 0.147
14.851 3.9920001 0.147
14.868 4.0450001 0.147
14.896 4.1020002 0.147
14.941 4.164 0.148
14.946 4.2150002 0.147
15.002 4.2810001 0.148
15.043 4.3429999 0.148
15.081 4.4039998 0.149
15.183 4.4850001 0.149
15.268 4.5619998 0.15000001
15.244 4.6069999 0.15000001
15.362 4.6960001 0.15099999
15.361 4.7480001 0.15099999
15.43 4.823 0.152
15.514 4.9029999 0.152
15.646 4.9990001 0.153
15.613 5.0430002 0.153
15.672 5.118 0.154
15.727 5.191 0.154
15.794 5.2690001 0.155
15.799 5.3270001 0.155
15.811 5.388 0.155
15.818 5.447 0.155
15.9 5.533 0.155
15.965 5.6129999 0.156
16.017 5.6900001 0.156
16.082001 5.7719998 0.15700001
16.152 5.8559999 0.15800001
16.146999 5.914 0.15700001
16.191 5.9899998 0.15800001
16.26 6.0760002 0.15800001
16.250999 6.1329999 0.15800001
12.384 5.8909998 0.12
12.302 5.902 0.119
12.265 5.9349999 0.118
12.006 5.8600001 0.116
11.954 5.8839998 0.115
11.965 5.9400001 0.115
11.995 6.0050001 0.116
12.247 6.1830001 0.118
12.238 6.2309999 0.118
12.254 6.2909999 0.118
12.212 6.3210001 0.118
12.19 6.362 0.117
12.101 6.3670001 0.117
12.109 6.4239998 0.117
12.242 6.5469999 0.118
7.8200002 -5.1490002 0.182
7.862 -5.1269999 0.183
7.9029999 -5.105 0.184
7.9169998 -5.0650001 0.184
7.96 -5.0440001 0.185
7.9840002 -5.0110002 0.186
8.0019999 -4.974 0.186
8.0389996 -4.9489999 0.18700001
8.066 -4.9180002 0.18700001
8.0909996 -4.8870001 0.18799999
8.1330004 -4.8639998 0.189
8.1450005 -4.8249998 0.189
8.1730003 -4.796 0.19
8.2250004 -4.7789998 0.191
8.2370005 -4.7399998 0.191
8.2639999 -4.71 0.191
8.2939997 -4.6820002 0.192
8.3109999 -4.6459999 0.192
8.3219995 -4.6069999 0.192
8.3649998 -4.586 0.193
8.3889999 -4.5549998 0.19400001
8.4519997 -4.5450001 0.19499999
8.4969997 -4.5250001 0.19599999
8.4960003 -4.48 0.19599999
8.5089998 -4.4429998 0.19599999
8.5120001 -4.402 0.19599999
8.552 -4.3790002 0.197
8.5869999 -4.3540001 0.198
8.6219997 -4.329 0.199
8.6470003 -4.2989998 0.199
8.6619997 -4.2639999 0.199
8.684 -4.2329998 0.2
8.7220001 -4.2090001 0.20100001
8.7320004 -4.1719999 0.20100001
8.743 -4.1360002 0.20100001
8.783 -4.1139998 0.20200001
8.7910004 -4.0770001 0.20200001
8.8269997 -4.053 0.20299999
8.8599997 -4.027 0.20299999
8.882 -3.997 0.204
8.9040003 -3.9660001 0.204
8.9370003 -3.941 0.205
8.9720001 -3.9159999 0.206
9.0159998 -3.895 0.207
9.0480003 -3.869 0.207
9.0620003 -3.836 0.208
9.1029997 -3.8139999 0.20900001
9.1370001 -3.789 0.20900001
9.1639996 -3.7609999 0.20999999
9.1809998 -3.7290001 0.20999999
9.2130003 -3.7030001 0.211
9.2510004 -3.6800001 0.212
9.2639999 -3.6470001 0.212
9.3030005 -3.6240001 0.213
9.3290005 -3.596 0.213
9.3889999 -3.5810001 0.215
9.4200001 -3.5539999 0.215
9.448 -3.527 0.21600001
9.4809999 -3.5020001 0.21699999
9.5159998 -3.477 0.21699999
9.5450001 -3.45 0.21799999
9.5760002 -3.424 0.219
9.5819998 -3.3900001 0.219
9.6260004 -3.368 0.22
9.6730003 -3.348 0.221
9.6820002 -3.3139999 0.221
9.7220001 -3.2909999 0.222
9.7550001 -3.266 0.223
9.757 -3.2309999 0.223
9.7889996 -3.2049999 0.223
9.8389997 -3.1860001 0.22400001
9.967 -3.191 0.227
9.9230003 -3.141 0.226
9.9239998 -3.1059999 0.226
9.9399996 -3.075 0.227
9.9659996 -3.0480001 0.227
9.9960003 -3.0220001 0.228
10.034 -2.9979999 0.229
10.042 -2.9660001 0.229
10.072 -2.9400001 0.229
10.088 -2.9100001 0.23
10.124 -2.8859999 0.23100001
8.4239998 -2.3729999 0.192
8.3210001 -2.316 0.189
8.2910004 -2.28 0.189
8.316 -2.2590001 0.189
8.3959999 -2.253 0.191
10.318 -2.7360001 0.235
10.338 -2.707 0.235
10.375 -2.6830001 0.236
10.409 -2.6589999 0.237
10.428 -2.6300001 0.237
10.443 -2.6010001 0.23800001
10.471 -2.575 0.23800001
10.506 -2.5510001 0.23899999
10.524 -2.5220001 0.23899999
10.534 -2.4920001 0.23999999
10.574 -2.4690001 0.241
10.616 -2.447 0.242
8.7720003 -1.995 0.199
8.7080002 -1.954 0.198
8.7060003 -1.928 0.198
8.7209997 -1.905 0.198
8.8500004 -1.9069999 0.20100001
10.832 -2.303 0.24600001
10.838 -2.2720001 0.24699999
10.847 -2.243 0.24699999
10.898 -2.2219999 0.248
10.946 -2.201 0.249
10.952 -2.171 0.249
11.001 -2.1489999 0.25
11.059 -2.1300001 0.252
11.09 -2.105 0.252
11.151 -2.085 0.25400001
11.204 -2.0639999 0.255
11.192 -2.0320001 0.255
11.197 -2.0020001 0.255
11.235 -1.978 0.25600001
11.28 -1.956 0.257
11.304 -1.9299999 0.257
11.337 -1.906 0.25799999
11.363 -1.88 0.259
11.434 -1.862 0.25999999
11.472 -1.8380001 0.26100001
11.491 -1.812 0.26100001
11.523 -1.7869999 0.26199999
11.547 -1.762 0.26300001
11.609 -1.742 0.264
11.65 -1.7180001 0.26499999
11.703 -1.697 0.266
11.743 -1.674 0.26699999
11.773 -1.649 0.26800001
11.794 -1.623 0.26899999
11.822 -1.598 0.26899999
11.87 -1.576 0.27000001
11.881 -1.548 0.271
11.892 -1.521 0.271
11.926 -1.497 0.27200001
11.957 -1.473 0.27200001
12.014 -1.452 0.27399999
12.028 -1.426 0.27399999
12.052 -1.401 0.27500001
12.104 -1.3789999 0.27599999
12.107 -1.352 0.27599999
12.163 -1.33 0.27700001
12.2 -1.307 0.278
12.245 -1.284 0.27900001
12.254 -1.258 0.27900001
12.28 -1.234 0.28
12.331 -1.212 0.28099999
12.348 -1.186 0.28200001
12.479 -1.1720001 0.285
12.503 -1.147 0.285
12.592 -1.049 0.287
12.704 -1.0319999 0.28999999
12.901 0.171 0.17900001
12.924 0.19400001 0.17900001
12.969 0.21799999 0.17900001
12.989 0.243 0.17900001
13.023 0.26699999 0.18000001
13.001 0.29100001 0.17900001
13.061 0.317 0.18000001
13.082 0.34299999 0.18000001
13.081 0.368 0.18000001
13.028 0.39199999 0.17900001
13.059 0.419 0.17900001
13.045 0.44499999 0.178
13.044 0.47099999 0.178
13.043 0.498 0.178
13.069 0.52600002 0.178
13.074 0.55299997 0.178
13.081 0.58099997 0.178
13.078 0.60799998 0.178
13.104 0.63800001 0.178
13.102 0.66600001 0.178
13.11 0.69499999 0.178
13.126 0.72399998 0.178
13.127 0.75400001 0.178
13.125 0.78299999 0.177
13.136 0.81300002 0.177
13.134 0.84299999 0.177
13.132 0.87300003 0.177
13.144 0.90399998 0.177
13.128 0.93300003 0.177
13.14 0.96499997 0.177
13.144 0.99599999 0.177
13.148 1.028 0.176
13.139 1.058 0.176
13.17 1.0930001 0.176
13.229 1.13 0.177
13.29 1.168 0.178
13.298 1.201 0.178
13.274 1.232 0.177
13.244 1.262 0.177
13.232 1.294 0.176
13.259 1.33 0.176
13.268 1.365 0.176
13.301 1.402 0.177
13.309 1.437 0.177
13.347 1.476 0.177
13.358 1.512 0.177
13.369 1.549 0.177
13.382 1.585 0.177
13.396 1.623 0.177
13.413 1.66 0.177
13.443 1.7 0.177
13.498 1.744 0.178
13.514 1.7819999 0.178
13.522 1.8200001 0.178
13.577 1.865 0.17900001
13.587 1.904 0.17900001
13.609 1.9450001 0.17900001
13.63 1.9859999 0.17900001
13.665 2.029 0.17900001
13.657 2.066 0.17900001
13.675 2.1070001 0.17900001
13.708 2.152 0.17900001
13.75 2.197 0.18000001
13.784 2.2420001 0.18000001
13.835 2.29 0.18099999
13.866 2.336 0.18099999
13.908 2.3829999 0.18099999
13.966 2.434 0.182
14.012 2.483 0.183
14.079 2.536 0.183
14.092 2.5799999 0.183
14.117 2.6270001 0.184
14.151 2.675 0.184
14.196 2.7260001 0.184
14.25 2.78 0.185
14.274 2.8269999 0.185
14.331 2.882 0.186
14.37 2.934 0.186
14.435 2.9909999 0.18700001
14.48 3.0450001 0.18700001
14.592 3.1129999 0.189
14.613 3.1630001 0.189
14.674 3.2219999 0.19
14.681 3.2690001 0.189
14.738 3.3280001 0.19
14.794 3.3870001 0.191
14.799 3.4349999 0.191
14.855 3.494 0.191
14.87 3.5450001 0.191
14.971 3.6170001 0.193
14.987 3.668 0.193
15.016 3.724 0.193
15.031 3.776 0.193
15.097 3.8410001 0.19400001
15.159 3.9059999 0.19400001
15.175 3.9590001 0.19499999
15.21 4.0170002 0.19499999
15.235 4.0739999 0.19499999
15.322 4.1469998 0.19599999
15.436 4.2290001 0.198
15.426 4.277 0.197
15.506 4.3499999 0.198
15.518 4.4050002 0.198
15.557 4.4679999 0.199
15.616 4.5359998 0.199
15.687 4.6090002 0.2
15.731 4.6750002 0.20100001
15.802 4.7490001 0.20100001
15.863 4.8210001 0.20200001
15.98 4.9099998 0.204
16.01 4.974 0.204
16.079 5.0500002 0.205
16.117001 5.1170001 0.205
16.155001 5.1830001 0.205
16.225 5.2610002 0.206
16.235001 5.3200002 0.206
16.271999 5.388 0.207
16.341 5.467 0.207
16.346001 5.5250001 0.207
16.382 5.5939999 0.208
16.423 5.665 0.208
16.473 5.7389998 0.20900001
16.496 5.8039999 0.20900001
16.511 5.8670001 0.20900001
16.549999 5.9390001 0.20900001
16.599001 6.0139999 0.20999999
16.681999 6.1030002 0.211
16.718 6.1750002 0.211
13.098 5.5840001 0.16500001
12.889 5.5409999 0.162
12.725 5.5159998 0.16
12.621 5.5170002 0.15899999
12.791 5.6370001 0.161
12.305 5.915 0.154
12.318 5.9660001 0.154
12.167 6.026 0.152
12.13 6.052 0.152
12.131 6.0970001 0.152
12.268 6.3000002 0.153
12.226 6.323 0.153
12.225 6.3670001 0.153
8.566 -5.0560002 0.21699999
8.5769997 -5.039 0.21699999
8.5690002 -5.0089998 0.21699999
8.5939999 -4.9990001 0.21799999
8.5979996 -4.9770002 0.21799999
8.6149998 -4.9619999 0.219
8.6129999 -4.9359999 0.21799999
8.6149998 -4.9130001 0.219
8.6459999 -4.9060001 0.219
8.6569996 -4.8870001 0.22
8.6680002 -4.869 0.22
8.6859999 -4.8540001 0.22
8.6940002 -4.8340001 0.221
8.6999998 -4.8119998 0.221
8.7049999 -4.79 0.221
8.7209997 -4.7729998 0.221
8.7390003 -4.7579999 0.222
8.7539997 -4.7410002 0.222
8.7600002 -4.7189999 0.223
8.7629995 -4.6960001 0.223
8.757 -4.6669998 0.222
8.7889996 -4.6589999 0.223
8.8050003 -4.6420002 0.22400001
8.8240004 -4.6259999 0.22400001
8.8470001 -4.6129999 0.22499999
8.8870001 -4.6079998 0.226
8.8789997 -4.5780001 0.226
8.868 -4.5469999 0.22499999
8.8699999 -4.5219998 0.226
8.8640003 -4.493 0.22499999
8.8850002 -4.4780002 0.226
8.901 -4.46 0.226
8.9200001 -4.4439998 0.227
8.941 -4.4289999 0.227
8.9729996 -4.4190001 0.228
8.9720001 -4.3920002 0.228
8.9840002 -4.3720002 0.229
8.9949999 -4.3509998 0.229
9.0059996 -4.3299999 0.229
9.0100002 -4.3060002 0.229
9.0579996 -4.303 0.23100001
9.0810003 -4.2880001 0.23100001
9.092 -4.2659998 0.23100001
9.0970001 -4.2420001 0.23199999
9.1239996 -4.2280002 0.23199999
9.1339998 -4.2059999 0.233
9.1370001 -4.1810002 0.233
9.151 -4.1609998 0.233
9.1709995 -4.1430001 0.234
9.184 -4.1220002 0.234
9.217 -4.1100001 0.235
9.2270002 -4.0879998 0.235
9.2360001 -4.0650001 0.235
9.2720003 -4.0539999 0.236
9.2810001 -4.0310001 0.236
9.3109999 -4.0170002 0.237
9.335 -4 0.23800001
9.3360004 -3.974 0.23800001
9.3540001 -3.954 0.23800001
9.3769999 -3.9360001 0.23899999
9.3950005 -3.9170001 0.23899999
9.3830004 -3.885 0.23899999
9.4259996 -3.875 0.23999999
9.441 -3.8540001 0.241
9.4499998 -3.8299999 0.241
9.474 -3.812 0.242
9.4980001 -3.7939999 0.242
9.5120001 -3.7720001 0.243
9.5500002 -3.7590001 0.244
9.5780001 -3.7420001 0.244
9.5749998 -3.7130001 0.244
9.5909996 -3.6919999 0.245
9.6090002 -3.671 0.245
9.6239996 -3.648 0.245
9.6639996 -3.6359999 0.24600001
9.6719999 -3.6099999 0.24699999
9.691 -3.589 0.24699999
9.7010002 -3.5650001 0.24699999
9.7159996 -3.5420001 0.248
9.7390003 -3.5220001 0.248
9.7399998 -3.494 0.248
9.757 -3.4719999 0.249
9.7989998 -3.4590001 0.25
9.8140001 -3.4360001 0.25
9.8450003 -3.418 0.25099999
9.8199997 -3.3800001 0.25099999
9.8690004 -3.369 0.252
9.8780003 -3.3429999 0.252
9.9119997 -3.326 0.25299999
9.9350004 -3.3050001 0.25400001
9.9440002 -3.279 0.25400001
9.9659996 -3.2579999 0.25400001
10.034 -3.2509999 0.25600001
10.079 -3.2360001 0.257
10.06 -3.201 0.257
10.069 -3.174 0.257
10.097 -3.154 0.25799999
10.099 -3.125 0.25799999
10.107 -3.099 0.25799999
10.128 -3.076 0.25799999
10.153 -3.0539999 0.259
10.171 -3.03 0.25999999
10.214 -3.013 0.26100001
10.202 -2.98 0.25999999
10.227 -2.9579999 0.26100001
10.259 -2.937 0.26199999
10.26 -2.908 0.26199999
10.3 -2.8900001 0.26300001
8.3699999 -2.3239999 0.214
8.3290005 -2.289 0.213
8.3050003 -2.2579999 0.212
8.3070002 -2.234 0.212
8.335 -2.2179999 0.213
8.4289999 -2.2190001 0.215
10.495 -2.7320001 0.26800001
10.535 -2.7119999 0.26899999
10.556 -2.687 0.27000001
10.565 -2.6589999 0.27000001
10.6 -2.6370001 0.271
10.604 -2.608 0.271
10.62 -2.5810001 0.271
10.634 -2.5539999 0.271
10.646 -2.526 0.27200001
10.697 -2.507 0.273
10.715 -2.4809999 0.27399999
10.754 -2.4590001 0.27500001
8.9429998 -2.0190001 0.228
8.7379999 -1.948 0.223
8.7010002 -1.914 0.222
8.7060003 -1.89 0.222
8.7309999 -1.8710001 0.223
8.8850002 -1.878 0.227
11.02 -2.2980001 0.28099999
11.017 -2.266 0.28099999
11.034 -2.2379999 0.28200001
11.067 -2.2119999 0.28299999
11.124 -2.1919999 0.28400001
11.17 -2.1689999 0.285
11.223 -2.1470001 0.287
11.248 -2.119 0.287
11.309 -2.098 0.289
11.329 -2.0699999 0.289
11.375 -2.046 0.28999999
11.416 -2.02 0.29100001
11.465 -1.9960001 0.29300001
11.487 -1.967 0.29300001
11.497 -1.936 0.29300001
11.561 -1.913 0.29499999
11.576 -1.883 0.29499999
11.569 -1.848 0.29499999
11.575 -1.816 0.29499999
11.588 -1.785 0.296
11.629 -1.758 0.29699999
11.726 -1.739 0.29899999
11.859 -1.725 0.303
11.905 -1.698 0.30399999
11.959 -1.671 0.30500001
11.992 -1.641 0.30599999
12.008 -1.609 0.30599999
12.019 -1.576 0.30700001
12.077 -1.549 0.308
12.117 -1.52 0.30899999
12.17 -1.492 0.31099999
12.224 -1.464 0.31200001
12.285 -1.436 0.31299999
12.285 -1.401 0.31299999
12.385 -1.377 0.31600001
12.391 -1.342 0.31600001
12.466 -1.3150001 0.31799999
12.54 -1.286 0.31999999
13.604 0.44400001 0.214
13.623 0.46399999 0.214
13.568 0.48199999 0.213
13.514 0.50099999 0.212
13.526 0.52100003 0.212
13.47 0.54000002 0.211
13.469 0.56099999 0.211
