# .PCD v0.7 - Point Cloud Data file format
VERSION 0.7
FIELDS x y z
SIZE 4 4 4
TYPE F F F
COUNT 1 1 1
WIDTH 1944
HEIGHT 1
VIEWPOINT 0 0 0 1 0 0 0
POINTS 1944
DATA ascii
12.036 4.277 -0.0099999998
11.819 4.243 -0.0099999998
11.764 4.2659998 -0.0099999998
11.792 4.3200002 -0.011
14.586 5.3979998 -0.014
14.546 5.4369998 -0.014
14.603 5.513 -0.014
14.642 5.5830002 -0.014
14.641 5.6370001 -0.015
14.633 5.6890001 -0.015
14.708 5.7750001 -0.015
14.739 5.8429999 -0.016000001
14.797 5.9219999 -0.016000001
14.758 5.9629998 -0.016000001
14.848 6.0570002 -0.017000001
14.886 6.1300001 -0.017000001
14.844 6.1700001 -0.017000001
14.752 6.1900001 -0.017000001
14.748 6.2459998 -0.017999999
12.277 5.994 -0.018999999
12.177 5.9959998 -0.018999999
12.189 6.053 -0.018999999
12.197 6.1090002 -0.018999999
12.193 6.158 -0.02
12.246 6.2360001 -0.02
12.125 6.2259998 -0.02
12.175 6.3039999 -0.02
12.245 6.3930001 -0.021
12.1 6.369 -0.021
12.058 6.3990002 -0.021
12.099 6.473 -0.021
12.145 6.5510001 -0.022
12.133 6.5970001 -0.022
12.164 6.6669998 -0.022
12.293 6.7919998 -0.023
10.652 6.2649999 -0.021
10.462 6.1999998 -0.021
10.41 6.217 -0.021
10.387 6.25 -0.022
10.403 6.3080001 -0.022
10.444 6.381 -0.022
10.5 6.4629998 -0.022
9.8330002 6.7490001 -0.024
9.7279997 6.724 -0.024
9.6809998 6.7379999 -0.025
9.6479998 6.763 -0.025
9.6639996 6.8210001 -0.025
9.6999998 6.8940001 -0.025
9.7460003 6.974 -0.026000001
9.7299995 7.0110002 -0.026000001
7.3600001 -4.849 0.101
7.3940001 -4.8260002 0.102
7.4180002 -4.7950001 0.102
7.454 -4.7719998 0.103
7.4819999 -4.7449999 0.103
7.5079999 -4.7150002 0.103
7.533 -4.6859999 0.104
7.546 -4.6490002 0.104
7.5799999 -4.625 0.104
7.5929999 -4.5890002 0.104
7.6170001 -4.559 0.105
7.638 -4.5279999 0.105
7.671 -4.5040002 0.105
7.6820002 -4.467 0.105
7.6999998 -4.434 0.106
7.7319999 -4.4099998 0.106
7.75 -4.3779998 0.106
7.776 -4.3499999 0.107
7.7800002 -4.3099999 0.107
7.8070002 -4.283 0.107
7.823 -4.2509999 0.107
7.8709998 -4.2350001 0.108
7.8590002 -4.1869998 0.108
7.8649998 -4.1500001 0.108
7.908 -4.132 0.108
7.9380002 -4.1069999 0.109
7.96 -4.0780001 0.109
7.9759998 -4.0469999 0.109
8.0050001 -4.0219998 0.11
8.0509996 -4.0050001 0.11
8.0640001 -3.9719999 0.11
8.0839996 -3.9419999 0.111
8.1020002 -3.9119999 0.111
8.1280003 -3.8859999 0.111
8.1610003 -3.8629999 0.112
8.1689997 -3.8280001 0.112
8.21 -3.809 0.112
8.2159996 -3.7739999 0.112
8.2399998 -3.747 0.113
8.2690001 -3.723 0.113
8.2919998 -3.6949999 0.114
8.3059998 -3.664 0.114
8.3439999 -3.6440001 0.114
8.368 -3.6170001 0.115
8.4040003 -3.596 0.115
8.4069996 -3.5599999 0.115
8.427 -3.5320001 0.115
8.4510002 -3.506 0.116
8.4790001 -3.4809999 0.116
8.5209999 -3.4619999 0.117
8.5469999 -3.437 0.117
8.5819998 -3.415 0.117
8.5939999 -3.3840001 0.118
8.6210003 -3.359 0.118
8.6440001 -3.3329999 0.118
8.6630001 -3.3050001 0.119
8.6899996 -3.28 0.119
8.7180004 -3.256 0.119
8.7600002 -3.237 0.12
8.7910004 -3.2130001 0.12
8.8199997 -3.1889999 0.121
8.8210001 -3.1559999 0.121
8.8559999 -3.1340001 0.121
8.8940001 -3.1129999 0.122
8.9230003 -3.089 0.122
8.9549999 -3.066 0.123
8.9820004 -3.0420001 0.123
9.0100002 -3.017 0.123
9.0679998 -3.003 0.124
9.1120005 -2.984 0.125
9.1280003 -2.9560001 0.125
9.1780005 -2.9389999 0.126
9.2159996 -2.918 0.126
9.3769999 -2.9349999 0.12899999
9.4289999 -2.918 0.12899999
9.3540001 -2.8610001 0.12800001
9.3800001 -2.836 0.12899999
9.4029999 -2.8110001 0.12899999
9.4499998 -2.7920001 0.13
9.4960003 -2.7720001 0.13
9.5159998 -2.7460001 0.131
9.5480003 -2.7219999 0.131
9.5699997 -2.6960001 0.131
9.6300001 -2.681 0.132
9.6800003 -2.6619999 0.133
9.7019997 -2.6359999 0.133
9.7449999 -2.6159999 0.134
9.7679996 -2.5899999 0.134
9.809 -2.569 0.13500001
9.8500004 -2.5480001 0.13500001
9.8870001 -2.526 0.13600001
9.9189997 -2.5020001 0.13600001
9.9259996 -2.473 0.13600001
9.9569998 -2.4489999 0.13699999
10.001 -2.428 0.138
10.006 -2.398 0.138
10.027 -2.372 0.138
10.087 -2.3559999 0.139
10.069 -2.3210001 0.139
10.102 -2.2980001 0.139
10.132 -2.2739999 0.139
10.149 -2.247 0.14
10.207 -2.23 0.141
10.24 -2.207 0.141
10.261 -2.181 0.141
10.29 -2.1570001 0.142
10.311 -2.132 0.142
10.355 -2.1110001 0.14300001
10.376 -2.086 0.14300001
10.417 -2.0639999 0.14399999
10.437 -2.039 0.14399999
10.449 -2.0120001 0.14399999
10.477 -1.988 0.145
10.488 -1.961 0.145
10.528 -1.9400001 0.145
10.548 -1.914 0.146
10.572 -1.89 0.146
10.621 -1.87 0.147
10.641 -1.845 0.147
10.681 -1.823 0.148
10.698 -1.798 0.148
10.721 -1.773 0.148
10.781 -1.755 0.149
10.776 -1.726 0.149
10.793 -1.701 0.149
10.862 -1.684 0.15000001
10.869 -1.6569999 0.15000001
10.891 -1.633 0.15099999
10.946 -1.614 0.152
10.953 -1.5880001 0.152
10.962 -1.562 0.152
10.99 -1.538 0.152
11.009 -1.5140001 0.153
11.014 -1.488 0.153
11.046 -1.465 0.153
11.078 -1.443 0.154
11.096 -1.419 0.154
11.115 -1.395 0.154
11.139 -1.372 0.155
11.174 -1.35 0.155
11.222 -1.329 0.156
11.252 -1.307 0.156
11.27 -1.283 0.15700001
11.323 -1.263 0.15700001
11.338 -1.239 0.15800001
11.377 -1.2180001 0.15800001
11.392 -1.194 0.15899999
11.409 -1.17 0.15899999
11.465 -1.151 0.16
11.465 -1.125 0.16
11.498 -1.104 0.16
11.536 -1.082 0.161
11.593 -1.063 0.162
11.622 -1.04 0.162
11.672 -1.02 0.163
11.709 -0.99900001 0.163
11.73 -0.97600001 0.164
11.818 -0.95899999 0.16500001
11.98 0.155 0.048999999
12.027 0.177 0.048999999
12.066 0.2 0.048
12.06 0.222 0.048
12.093 0.245 0.048
12.08 0.26699999 0.048
12.074 0.28999999 0.048
12.087 0.31400001 0.048
12.078 0.33700001 0.046999998
12.089 0.361 0.046999998
12.089 0.38499999 0.046999998
12.111 0.41 0.046999998
12.105 0.43399999 0.046999998
12.114 0.45899999 0.046999998
12.124 0.48500001 0.046
12.138 0.51099998 0.046
12.15 0.537 0.046
12.162 0.56300002 0.046
12.191 0.59100002 0.046
10.754 0.54400003 0.039999999
10.648 0.56199998 0.039999999
10.607 0.583 0.039000001
10.603 0.60699999 0.039000001
10.605 0.63 0.039000001
10.633 0.65600002 0.039000001
10.756 0.68800002 0.039000001
12.248 0.81199998 0.045000002
12.246 0.83999997 0.044
12.236 0.86799997 0.044
12.247 0.89700001 0.044
12.262 0.92699999 0.044
12.275 0.958 0.044
12.279 0.98699999 0.044
12.305 1.0190001 0.043000001
12.324 1.051 0.043000001
12.333 1.082 0.043000001
12.373 1.1160001 0.043000001
10.715 0.99299997 0.037
10.522 1.001 0.035999998
10.475 1.023 0.035999998
10.453 1.0470001 0.035999998
10.447 1.073 0.035999998
10.499 1.1059999 0.035999998
10.624 1.146 0.035999998
12.47 1.378 0.041999999
12.506 1.414 0.041999999
12.569 1.455 0.041999999
12.539 1.484 0.041999999
12.542 1.518 0.041000001
12.544 1.552 0.041000001
12.58 1.59 0.041000001
12.562 1.622 0.041000001
12.608 1.6619999 0.041000001
12.636 1.7 0.041000001
12.676 1.74 0.041000001
12.703 1.779 0.039999999
12.728 1.818 0.039999999
12.745 1.8559999 0.039999999
12.733 1.89 0.039999999
12.746 1.928 0.039999999
12.765 1.966 0.039999999
12.803 2.0090001 0.039999999
12.818 2.0480001 0.039000001
12.821 2.085 0.039000001
12.85 2.1270001 0.039000001
12.854 2.165 0.039000001
12.887 2.2079999 0.039000001
12.91 2.2490001 0.039000001
12.936 2.2920001 0.039000001
12.951 2.3329999 0.037999999
12.955 2.372 0.037999999
12.964 2.4119999 0.037999999
13.006 2.4590001 0.037999999
13.056 2.507 0.037999999
13.043 2.5439999 0.037999999
13.081 2.5910001 0.037
13.078 2.6300001 0.037
13.107 2.6760001 0.037
13.152 2.7249999 0.037
13.186 2.773 0.037
13.194 2.8150001 0.037
13.209 2.859 0.037
13.228 2.905 0.035999998
13.269 2.9549999 0.035999998
13.272 2.997 0.035999998
13.313 3.0480001 0.035999998
13.327 3.0929999 0.035999998
13.367 3.145 0.035999998
13.399 3.1949999 0.035999998
13.46 3.2520001 0.035999998
13.453 3.293 0.035
13.494 3.3469999 0.035
13.511 3.3940001 0.035
13.567 3.4519999 0.035
13.638 3.5139999 0.035
13.651 3.562 0.035
13.683 3.615 0.035
13.719 3.6689999 0.034000002
13.746 3.721 0.034000002
13.777 3.7750001 0.034000002
13.837 3.8369999 0.034000002
13.854 3.888 0.034000002
13.919 3.9519999 0.034000002
13.944 4.0050001 0.034000002
13.974 4.0609999 0.033
14.008 4.1170001 0.033
14.007 4.164 0.033
14.041 4.2210002 0.033
14.061 4.2740002 0.033
14.079 4.3270001 0.032000002
14.175 4.4050002 0.032000002
14.238 4.473 0.032000002
14.31 4.5440001 0.032000002
14.299 4.5890002 0.032000002
12.256 3.9749999 0.027000001
12.195 3.997 0.027000001
12.212 4.0450001 0.027000001
12.354 4.1339998 0.027000001
14.452 4.8860002 0.030999999
14.496 4.9510002 0.030999999
14.614 5.0419998 0.030999999
14.723 5.131 0.030999999
14.752 5.1919999 0.030999999
14.768 5.2490001 0.030999999
11.891 4.2680001 0.024
11.789 4.2729998 0.024
11.768 4.3060002 0.024
11.802 4.3600001 0.023
15.237 5.6830001 0.029999999
15.179 5.7150002 0.029999999
15.237 5.7909999 0.029999999
15.31 5.8720002 0.029999999
15.25 5.9029999 0.028999999
15.228 5.9489999 0.028999999
15.269 6.0190001 0.028999999
15.302 6.0869999 0.028000001
15.379 6.1719999 0.028000001
15.411 6.2399998 0.028000001
15.406 6.2930002 0.028000001
15.5 6.3870001 0.028000001
15.569 6.4710002 0.028000001
12.164 5.9819999 0.017000001
12.058 5.974 0.016000001
11.976 5.9770002 0.016000001
11.941 6.0029998 0.016000001
12.02 6.0869999 0.016000001
12.205 6.2249999 0.016000001
12.183 6.303 0.015
12.21 6.362 0.015
12.118 6.402 0.014
12.049 6.4099998 0.014
12.174 6.5209999 0.014
7.9039998 -4.658 0.126
7.9060001 -4.6370001 0.126
7.9239998 -4.625 0.126
7.9260001 -4.6030002 0.126
7.948 -4.5929999 0.127
7.9569998 -4.5760002 0.127
7.9679999 -4.5599999 0.127
7.9879999 -4.5489998 0.12800001
8 -4.5320001 0.12800001
7.9970002 -4.5079999 0.12800001
8.0310001 -4.5040002 0.12800001
8.0220003 -4.4759998 0.12800001
8.0450001 -4.4660001 0.12899999
8.0620003 -4.4520001 0.12899999
8.0740004 -4.4359999 0.12899999
8.0790005 -4.4159999 0.12899999
8.0860004 -4.3959999 0.13
8.0930004 -4.3769999 0.13
8.092 -4.3530002 0.13
8.1309996 -4.3499999 0.13
8.1350002 -4.329 0.131
8.151 -4.3140001 0.131
8.1689997 -4.3000002 0.131
8.1719999 -4.2779999 0.131
8.1870003 -4.263 0.132
8.1990004 -4.2459998 0.132
8.2010002 -4.223 0.132
8.257 -4.2280002 0.133
8.2709999 -4.211 0.133
8.276 -4.1900001 0.133
8.2819996 -4.1690001 0.133
8.2869997 -4.1479998 0.133
8.3039999 -4.132 0.134
8.3240004 -4.118 0.134
8.335 -4.099 0.134
8.349 -4.0819998 0.13500001
8.3730001 -4.0689998 0.13500001
8.3739996 -4.046 0.13500001
8.3909998 -4.0300002 0.13500001
8.4040003 -4.0110002 0.13600001
8.4029999 -3.9860001 0.13600001
8.4200001 -3.97 0.13600001
8.4540005 -3.9619999 0.13699999
8.4650002 -3.9430001 0.13699999
8.4750004 -3.9219999 0.13699999
8.4960003 -3.908 0.13699999
8.5190001 -3.8929999 0.138
8.5340004 -3.875 0.138
8.5509996 -3.859 0.138
8.566 -3.8399999 0.139
8.5790005 -3.8210001 0.139
8.5909996 -3.802 0.139
8.6049995 -3.783 0.139
8.6160002 -3.763 0.14
8.6389999 -3.7479999 0.14
8.6470003 -3.7260001 0.14
8.6560001 -3.7049999 0.14
8.6800003 -3.6900001 0.141
8.6879997 -3.668 0.141
8.7180004 -3.6559999 0.141
8.7410002 -3.6400001 0.142
8.7340002 -3.612 0.142
8.7539997 -3.595 0.142
8.7659998 -3.5739999 0.142
8.7819996 -3.5550001 0.14300001
8.8100004 -3.5409999 0.14300001
8.8330002 -3.5250001 0.14399999
8.8470001 -3.5050001 0.14399999
8.8430004 -3.477 0.14399999
8.8649998 -3.46 0.14399999
8.9160004 -3.454 0.145
8.908 -3.4260001 0.145
8.9239998 -3.4059999 0.145
8.9530001 -3.391 0.146
8.9540005 -3.365 0.146
8.9890003 -3.352 0.146
9.0190001 -3.3369999 0.147
9.033 -3.316 0.147
9.0290003 -3.289 0.147
9.0459995 -3.2690001 0.147
9.0649996 -3.2490001 0.148
9.0939999 -3.233 0.148
9.0959997 -3.2079999 0.148
9.1049995 -3.1849999 0.149
9.1470003 -3.1730001 0.149
9.2069998 -3.1670001 0.15000001
9.217 -3.1440001 0.15000001
9.2279997 -3.1210001 0.15099999
9.2480001 -3.1010001 0.15099999
9.2810001 -3.085 0.152
9.3299999 -3.0739999 0.152
9.3520002 -3.0539999 0.153
9.3889999 -3.039 0.153
9.3959999 -3.0150001 0.154
9.4300003 -2.9979999 0.154
9.5640001 -3.013 0.156
9.6260004 -3.0050001 0.15800001
9.6110001 -2.9719999 0.15700001
9.6129999 -2.9449999 0.15700001
9.6169996 -2.9189999 0.15700001
9.6450005 -2.8989999 0.15800001
9.6350002 -2.868 0.15800001
9.6549997 -2.8469999 0.15800001
9.6789999 -2.826 0.15899999
9.7390003 -2.8150001 0.16
9.7309999 -2.7839999 0.15899999
9.7349997 -2.7579999 0.16
9.7670002 -2.7390001 0.16
9.7980003 -2.7190001 0.161
9.8170004 -2.6960001 0.161
9.8330002 -2.6719999 0.161
9.8570004 -2.6500001 0.162
9.8990002 -2.6329999 0.162
9.9180002 -2.609 0.163
9.9250002 -2.5829999 0.163
9.941 -2.5580001 0.163
9.9619999 -2.5350001 0.164
10.01 -2.5179999 0.164
9.993 -2.4849999 0.164
10.053 -2.471 0.16500001
10.058 -2.444 0.16500001
10.069 -2.4170001 0.16599999
10.101 -2.3959999 0.16599999
10.136 -2.375 0.167
10.158 -2.3510001 0.167
10.177 -2.326 0.167
10.183 -2.2980001 0.168
10.215 -2.276 0.168
10.238 -2.2520001 0.169
10.26 -2.227 0.169
10.298 -2.2060001 0.17
10.34 -2.1849999 0.17
10.371 -2.1619999 0.171
10.381 -2.135 0.171
10.416 -2.112 0.17200001
10.453 -2.089 0.17200001
10.483 -2.066 0.17299999
10.522 -2.043 0.17299999
10.55 -2.0179999 0.17399999
10.559 -1.99 0.17399999
10.599 -1.967 0.175
10.629 -1.942 0.175
10.642 -1.914 0.176
10.676 -1.8890001 0.176
10.708 -1.864 0.177
10.745 -1.84 0.177
10.792 -1.817 0.178
10.814 -1.79 0.17900001
10.82 -1.76 0.17900001
10.912 -1.744 0.18000001
10.9 -1.711 0.18000001
10.955 -1.688 0.18099999
10.975 -1.66 0.18099999
11.014 -1.6339999 0.182
11.055 -1.609 0.183
11.093 -1.5829999 0.183
11.123 -1.5549999 0.184
11.13 -1.524 0.184
11.165 -1.497 0.185
11.217 -1.472 0.186
11.262 -1.446 0.186
11.296 -1.418 0.18700001
11.35 -1.393 0.18799999
11.381 -1.364 0.18799999
11.423 -1.336 0.189
11.509 -1.314 0.191
11.592 -1.29 0.192
11.569 -1.255 0.192
11.65 -1.23 0.193
11.695 -1.202 0.19400001
11.765 -1.175 0.19499999
11.852 -1.15 0.19599999
11.969 -1.127 0.198
12.023 -1.098 0.199
12.043 -1.066 0.2
12.092 -1.036 0.2
12.248 -1.0140001 0.20299999
12.738 0.375 0.077
12.69 0.39199999 0.075999998
12.65 0.40799999 0.075999998
12.662 0.42699999 0.075999998
12.631 0.44499999 0.075000003
12.64 0.46399999 0.075000003
12.639 0.48300001 0.075000003
12.664 0.50300002 0.075000003
12.643 0.52200001 0.075000003
12.63 0.542 0.075000003
12.642 0.56199998 0.074000001
12.622 0.58200002 0.074000001
12.604 0.602 0.074000001
12.627 0.62400001 0.074000001
10.937 0.55900002 0.064000003
10.7 0.565 0.061999999
10.622 0.57999998 0.061999999
10.615 0.59799999 0.061000001
10.599 0.616 0.061000001
10.598 0.63499999 0.061000001
10.635 0.65700001 0.061000001
10.7 0.68000001 0.061000001
12.639 0.82700002 0.071999997
12.628 0.85100001 0.071999997
12.636 0.875 0.071999997
12.651 0.90100002 0.071999997
12.662 0.926 0.071999997
12.667 0.95099998 0.071999997
12.671 0.977 0.071000002
12.684 1.0039999 0.071000002
12.713 1.0319999 0.071000002
12.753 1.061 0.071000002
12.754 1.0880001 0.071000002
12.791 1.118 0.071000002
10.568 0.94599998 0.059
10.485 0.96100003 0.057999998
10.448 0.98000002 0.057999998
10.452 1.003 0.057999998
10.443 1.025 0.057
10.49 1.053 0.057999998
10.633 1.091 0.057999998
12.832 1.345 0.07
12.869 1.378 0.07
12.9 1.411 0.07
12.92 1.443 0.07
12.888 1.47 0.07
12.893 1.5 0.07
12.903 1.5319999 0.068999998
12.912 1.564 0.068999998
12.923 1.596 0.068999998
12.907 1.625 0.068999998
12.926 1.659 0.068999998
12.958 1.6950001 0.068999998
12.957 1.727 0.068999998
12.985 1.763 0.068999998
12.993 1.7970001 0.068999998
12.995 1.83 0.068000004
13.019 1.867 0.068000004
13.024 1.901 0.068000004
13.039 1.937 0.068000004
13.073 1.976 0.068000004
13.091 2.013 0.068000004
13.122 2.052 0.068000004
13.14 2.0899999 0.068000004
13.164 2.1289999 0.068000004
13.18 2.1670001 0.068000004
13.191 2.204 0.068000004
13.204 2.2420001 0.068000004
13.236 2.2839999 0.068000004
13.26 2.3239999 0.068000004
13.271 2.3629999 0.068000004
13.312 2.408 0.068000004
13.317 2.4460001 0.067000002
13.34 2.4879999 0.067000002
13.369 2.5309999 0.067000002
13.379 2.5710001 0.067000002
13.404 2.6140001 0.067000002
13.411 2.654 0.067000002
13.442 2.7 0.067000002
13.463 2.743 0.067000002
13.483 2.7869999 0.067000002
13.537 2.8380001 0.067000002
13.55 2.881 0.067000002
13.589 2.9300001 0.067000002
13.616 2.977 0.067000002
13.624 3.0190001 0.067000002
13.645 3.066 0.067000002
13.674 3.1140001 0.067000002
13.702 3.1619999 0.067000002
13.742 3.214 0.067000002
13.756 3.26 0.067000002
13.811 3.316 0.067000002
13.814 3.3599999 0.067000002
13.847 3.411 0.067000002
13.888 3.4649999 0.067000002
13.923 3.5179999 0.067000002
13.952 3.5699999 0.067000002
13.95 3.6140001 0.066
14.003 3.674 0.067000002
14.048 3.7309999 0.067000002
14.089 3.7880001 0.067000002
14.146 3.849 0.067000002
14.149 3.8959999 0.067000002
14.195 3.9560001 0.067000002
14.2 4.0050001 0.066
14.291 4.0780001 0.067000002
14.295 4.1269999 0.067000002
14.294 4.1750002 0.066
14.333 4.2350001 0.066
14.378 4.2969999 0.066
14.421 4.3590002 0.066
14.468 4.4229999 0.067000002
14.521 4.4889998 0.067000002
14.584 4.559 0.067000002
14.627 4.6230001 0.067000002
14.675 4.6890001 0.067000002
12.455 4.0240002 0.056000002
12.202 3.9849999 0.055
12.169 4.0170002 0.055
12.226 4.079 0.055
14.923 5.0320001 0.067000002
14.911 5.0819998 0.067000002
15.027 5.1750002 0.067000002
15.111 5.2589998 0.067000002
15.142 5.3249998 0.067000002
15.208 5.4029999 0.067000002
11.859 4.257 0.052000001
11.778 4.2709999 0.052000001
11.758 4.3070002 0.052000001
11.857 4.3870001 0.052000001
15.432 5.7670002 0.068000004
15.49 5.8470001 0.068000004
15.498 5.908 0.067000002
15.571 5.994 0.068000004
15.608 6.0679998 0.068000004
15.597 6.1220002 0.067000002
15.656 6.2049999 0.067000002
15.779 6.3140001 0.068000004
15.744 6.3610001 0.067000002
15.814 6.4499998 0.068000004
15.812 6.5110002 0.067000002
12.32 5.9629998 0.050000001
12.16 5.9359999 0.048999999
12.021 5.9180002 0.048
11.958 5.9380002 0.048
11.898 5.9580002 0.048
12.017 6.0679998 0.048
12.235 6.23 0.048999999
12.273 6.3010001 0.048999999
12.174 6.302 0.048
12.243 6.3899999 0.048
12.163 6.401 0.048
12.055 6.3959999 0.046999998
12.177 6.5139999 0.048
9.9069996 6.8470001 0.035
9.849 6.8540001 0.035
7.553 -4.9749999 0.14
7.592 -4.9530001 0.141
7.6199999 -4.9239998 0.141
7.6440001 -4.8920002 0.142
7.6750002 -4.8649998 0.142
7.6999998 -4.8340001 0.14300001
7.7189999 -4.8000002 0.14300001
7.7550001 -4.776 0.14399999
7.7719998 -4.7410002 0.14399999
7.8049998 -4.7150002 0.14399999
7.8119998 -4.6750002 0.14399999
7.8460002 -4.6500001 0.145
7.8730001 -4.6209998 0.145
7.9000001 -4.592 0.146
7.9200001 -4.559 0.146
7.9460001 -4.5310001 0.147
7.967 -4.4990001 0.147
7.9860001 -4.4660001 0.147
8.0190001 -4.441 0.148
8.0430002 -4.4109998 0.148
8.0670004 -4.382 0.149
8.0790005 -4.3460002 0.149
8.0889997 -4.309 0.149
8.1219997 -4.2849998 0.149
8.1630001 -4.2639999 0.15000001
8.2040005 -4.243 0.15099999
8.2200003 -4.211 0.15099999
8.2449999 -4.1820002 0.152
8.2629995 -4.1500001 0.152
8.2969999 -4.1259999 0.152
8.3079996 -4.0910001 0.153
8.3430004 -4.0679998 0.153
8.3769999 -4.0440001 0.154
8.3769999 -4.0040002 0.154
8.3950005 -3.9719999 0.154
8.4259996 -3.948 0.155
8.467 -3.927 0.155
8.4840002 -3.8959999 0.156
8.54 -3.882 0.15700001
8.5550003 -3.8499999 0.15700001
8.5970001 -3.8299999 0.15800001
8.6029997 -3.7939999 0.15800001
8.6230001 -3.7650001 0.15800001
8.6479998 -3.737 0.15800001
8.6639996 -3.7060001 0.15899999
8.7030001 -3.6849999 0.15899999
8.7279997 -3.6570001 0.16
8.7709999 -3.638 0.161
8.7819996 -3.605 0.161
8.8030005 -3.576 0.161
8.8500004 -3.5580001 0.162
8.8500004 -3.5209999 0.162
8.9020004 -3.5050001 0.163
8.9390001 -3.483 0.163
8.967 -3.457 0.164
8.9899998 -3.4289999 0.164
9.0159998 -3.4030001 0.16500001
9.0500002 -3.3789999 0.16500001
9.0869999 -3.3570001 0.16599999
9.1190004 -3.3329999 0.167
9.1660004 -3.3139999 0.168
9.1750002 -3.2820001 0.168
9.2279997 -3.2650001 0.169
9.2489996 -3.237 0.169
9.2770004 -3.211 0.169
9.3430004 -3.1989999 0.171
9.3800001 -3.1760001 0.171
9.4110003 -3.151 0.17200001
9.4610004 -3.1329999 0.17299999
9.5139999 -3.115 0.17399999
9.5410004 -3.089 0.17399999
9.5880003 -3.0699999 0.175
9.6789999 -3.0639999 0.177
9.7159996 -3.0409999 0.177
9.7139997 -3.0050001 0.177
9.7209997 -2.973 0.178
9.7609997 -2.951 0.178
9.7690001 -2.9189999 0.178
9.7889996 -2.891 0.17900001
9.8439999 -2.8740001 0.18000001
9.8649998 -2.846 0.18000001
9.882 -2.8169999 0.18000001
9.9110003 -2.7920001 0.18099999
9.9250002 -2.763 0.18099999
9.9630003 -2.74 0.182
9.9890003 -2.714 0.182
10.02 -2.6889999 0.183
10.043 -2.6630001 0.183
10.069 -2.6370001 0.184
10.108 -2.6140001 0.185
10.134 -2.589 0.185
10.157 -2.562 0.185
10.179 -2.5350001 0.186
10.204 -2.5090001 0.186
10.243 -2.487 0.18700001
10.27 -2.4619999 0.18799999
10.286 -2.434 0.18799999
10.326 -2.411 0.189
10.356 -2.3870001 0.189
10.369 -2.358 0.189
10.401 -2.3340001 0.19
10.416 -2.3069999 0.19
10.458 -2.2850001 0.191
10.488 -2.26 0.192
10.513 -2.2349999 0.192
10.548 -2.2119999 0.193
10.577 -2.187 0.193
10.607 -2.1630001 0.19400001
10.653 -2.142 0.19499999
10.669 -2.115 0.19499999
10.693 -2.089 0.19499999
10.736 -2.0669999 0.19599999
10.784 -2.0469999 0.197
10.812 -2.0220001 0.198
10.838 -1.997 0.198
10.847 -1.969 0.198
10.89 -1.947 0.199
10.905 -1.92 0.199
10.936 -1.896 0.2
10.968 -1.873 0.20100001
11.001 -1.849 0.20100001
11.022 -1.824 0.20200001
11.079 -1.804 0.20299999
11.142 -1.785 0.204
11.148 -1.757 0.204
11.158 -1.73 0.204
11.183 -1.706 0.205
11.202 -1.6799999 0.205
11.233 -1.6569999 0.206
11.267 -1.633 0.206
11.282 -1.607 0.207
11.345 -1.5880001 0.208
11.384 -1.566 0.20900001
11.406 -1.541 0.20900001
11.443 -1.5190001 0.20999999
11.501 -1.499 0.211
11.529 -1.475 0.211
11.519 -1.446 0.211
11.559 -1.424 0.212
11.588 -1.4 0.213
11.639 -1.3789999 0.214
11.67 -1.3559999 0.214
11.709 -1.3329999 0.215
11.736 -1.3099999 0.215
11.845 -1.295 0.21699999
11.833 -1.267 0.21699999
11.839 -1.2410001 0.21699999
11.856 -1.217 0.21799999
11.884 -1.193 0.21799999
11.966 -1.175 0.22
11.984 -1.151 0.22
12.016 -1.128 0.221
12.121 -1.112 0.223
12.131 -1.087 0.223
12.185 -1.066 0.22400001
12.222 -1.043 0.22499999
12.2 -1.016 0.22400001
12.239 -0.99400002 0.22499999
12.286 -0.972 0.226
12.273 -0.94599998 0.226
12.421 0.163 0.111
12.445 0.185 0.111
12.468 0.208 0.111
12.52 0.23199999 0.112
12.516 0.255 0.111
12.527 0.27900001 0.111
12.554 0.303 0.111
12.545 0.32699999 0.111
12.565 0.352 0.111
12.581 0.377 0.111
12.581 0.40200001 0.111
12.622 0.42899999 0.111
12.661 0.456 0.111
12.657 0.48100001 0.111
12.673 0.50800002 0.111
12.672 0.53500003 0.111
12.651 0.56 0.11
12.63 0.58600003 0.11
12.678 0.616 0.11
12.688 0.64300001 0.11
10.827 0.57300001 0.093999997
10.658 0.58700001 0.092
10.614 0.60799998 0.092
10.592 0.63099998 0.090999998
10.59 0.65399998 0.090999998
10.601 0.67900002 0.090999998
10.636 0.70599997 0.090999998
10.762 0.73900002 0.092
12.753 0.90499997 0.109
12.758 0.93599999 0.109
12.781 0.96799999 0.109
12.807 1 0.109
12.811 1.031 0.109
12.84 1.064 0.109
12.855 1.097 0.109
12.886 1.131 0.109
12.919 1.166 0.109
10.727 0.995 0.090000004
10.523 1.002 0.088
10.447 1.021 0.088
10.421 1.045 0.086999997
10.435 1.073 0.086999997
10.471 1.103 0.086999997
10.657 1.15 0.089000002
12.953 1.432 0.108
12.98 1.469 0.108
12.999 1.505 0.108
12.998 1.539 0.108
13.004 1.574 0.108
13.014 1.61 0.108
13.028 1.647 0.107
13.032 1.683 0.107
13.058 1.722 0.107
13.074 1.7589999 0.107
13.089 1.7970001 0.107
13.121 1.8380001 0.107
13.133 1.876 0.107
13.161 1.9170001 0.107
13.162 1.954 0.107
13.221 2 0.108
13.249 2.0409999 0.108
13.272 2.0829999 0.108
13.29 2.1240001 0.108
13.344 2.1700001 0.108
13.357 2.211 0.108
13.348 2.2479999 0.108
13.38 2.2920001 0.108
13.453 2.3440001 0.108
13.458 2.385 0.108
13.454 2.424 0.108
13.484 2.4690001 0.108
13.531 2.5179999 0.108
13.571 2.566 0.108
13.578 2.608 0.108
13.631 2.6589999 0.108
13.653 2.704 0.108
13.658 2.747 0.108
13.711 2.799 0.108
13.755 2.8499999 0.109
13.794 2.901 0.109
13.802 2.9449999 0.109
13.821 2.9920001 0.109
13.864 3.0439999 0.109
13.9 3.095 0.109
13.939 3.148 0.109
13.948 3.1930001 0.109
13.982 3.2449999 0.109
14.081 3.313 0.11
14.126 3.368 0.11
14.102 3.4070001 0.11
14.129 3.4590001 0.11
14.147 3.5090001 0.11
14.16 3.5569999 0.109
14.214 3.6170001 0.11
14.257 3.674 0.11
14.353 3.7449999 0.11
14.439 3.8139999 0.111
14.473 3.8710001 0.111
14.51 3.928 0.111
14.528 3.98 0.111
14.578 4.0419998 0.111
14.558 4.085 0.111
14.627 4.152 0.111
14.669 4.2129998 0.112
14.702 4.2709999 0.112
14.752 4.335 0.112
14.781 4.3930001 0.112
14.826 4.4559999 0.112
14.883 4.5229998 0.112
14.938 4.5910001 0.113
15.001 4.6609998 0.113
15.096 4.7410002 0.113
15.196 4.8249998 0.114
12.285 3.9419999 0.092
12.191 3.954 0.090999998
12.181 3.9920001 0.090999998
12.274 4.0640001 0.090999998
15.339 5.1329999 0.114
15.365 5.1939998 0.114
15.474 5.2849998 0.115
15.483 5.3410001 0.115
15.541 5.415 0.115
15.691 5.5219998 0.116
11.897 4.2280002 0.088
11.806 4.237 0.086999997
11.775 4.2670002 0.086999997
11.807 4.3200002 0.086999997
12.011 4.4369998 0.088
15.885 5.868 0.117
15.819 5.8990002 0.116
15.879 5.9780002 0.116
15.968 6.0669999 0.117
16.002001 6.1370001 0.117
16.076 6.2220001 0.117
16.093 6.2859998 0.117
16.155001 6.368 0.117
16.16 6.427 0.117
14.755 6.026 0.106
14.795 6.0949998 0.107
12.279 5.948 0.086000003
12.281 5.994 0.086000003
12.039 5.9200001 0.083999999
11.931 5.9099998 0.082999997
11.906 5.941 0.082999997
11.896 5.98 0.082000002
11.943 6.0469999 0.082999997
12.219 6.2309999 0.083999999
12.195 6.2639999 0.083999999
12.251 6.382 0.083999999
12.184 6.3920002 0.083999999
12.091 6.3870001 0.082999997
12.05 6.4089999 0.082000002
12.138 6.5 0.082999997
8.21 -4.842 0.17
8.2250004 -4.8280001 0.17
8.2410002 -4.8140001 0.17
8.2510004 -4.796 0.171
8.2629995 -4.7800002 0.171
8.2770004 -4.7639999 0.171
8.2860003 -4.7459998 0.171
8.2989998 -4.7290001 0.17200001
8.3100004 -4.7119999 0.17200001
8.3059998 -4.6859999 0.17200001
8.3009996 -4.6589999 0.17200001
8.3269997 -4.6500001 0.17200001
8.3380003 -4.632 0.17299999
8.3579998 -4.619 0.17299999
8.3699999 -4.6020002 0.17299999
8.3800001 -4.5830002 0.17399999
8.4029999 -4.572 0.17399999
8.4139996 -4.553 0.17399999
8.4219999 -4.5339999 0.175
8.4209995 -4.5089998 0.175
8.4320002 -4.4899998 0.175
8.4630003 -4.4829998 0.176
8.4759998 -4.4650002 0.176
8.4879999 -4.447 0.176
8.5600004 -4.46 0.178
8.5559998 -4.4330001 0.178
8.5819998 -4.4219999 0.178
8.5780001 -4.395 0.178
8.5799999 -4.3709998 0.178
8.5719995 -4.3429999 0.178
8.5839996 -4.3239999 0.178
8.618 -4.316 0.17900001
8.6210003 -4.2930002 0.17900001
8.6339998 -4.2740002 0.17900001
8.6540003 -4.2589998 0.18000001
8.6719999 -4.243 0.18000001
8.6990004 -4.23 0.18099999
8.6890001 -4.2010002 0.18099999
8.6859999 -4.1739998 0.18099999
8.7089996 -4.1599998 0.18099999
8.7150002 -4.1370001 0.18099999
8.7530003 -4.1300001 0.182
8.7779999 -4.1160002 0.183
8.7860003 -4.0949998 0.183
8.7910004 -4.0710001 0.183
8.8059998 -4.053 0.183
8.8290005 -4.0380001 0.184
8.8599997 -4.026 0.185
8.8610001 -4.0009999 0.185
8.8769999 -3.9820001 0.185
8.8900003 -3.9619999 0.185
8.9160004 -3.948 0.186
8.9200001 -3.924 0.186
8.9209995 -3.898 0.186
8.96 -3.8889999 0.18700001
8.9650002 -3.8659999 0.18700001
8.9960003 -3.8529999 0.18799999
9.0279999 -3.8399999 0.18799999
9.0450001 -3.8210001 0.189
9.052 -3.7980001 0.189
9.0690002 -3.779 0.189
9.0810003 -3.757 0.189
9.1210003 -3.747 0.19
9.1280003 -3.724 0.191
9.1450005 -3.704 0.191
9.151 -3.6800001 0.191
9.177 -3.664 0.192
9.2069998 -3.6489999 0.192
9.2159996 -3.6259999 0.192
9.2379999 -3.608 0.193
9.2609997 -3.5899999 0.193
9.2869997 -3.573 0.19400001
9.3129997 -3.556 0.19499999
9.3269997 -3.5339999 0.19499999
9.3570004 -3.5179999 0.19599999
9.3730001 -3.497 0.19599999
9.4110003 -3.484 0.197
9.4300003 -3.464 0.197
9.4540005 -3.4449999 0.198
9.4680004 -3.4230001 0.198
9.4890003 -3.4030001 0.198
9.5 -3.3789999 0.199
9.5279999 -3.3610001 0.199
9.5629997 -3.346 0.2
9.5780001 -3.3239999 0.2
9.5749998 -3.2950001 0.2
9.6090002 -3.279 0.20100001
9.6309996 -3.2579999 0.20200001
9.6350002 -3.2320001 0.20200001
9.6820002 -3.2190001 0.20299999
9.71 -3.201 0.20299999
9.7309999 -3.1789999 0.204
9.7539997 -3.1589999 0.204
9.7819996 -3.1389999 0.205
9.8459997 -3.132 0.206
9.8319998 -3.098 0.206
9.8439999 -3.0739999 0.206
9.8629999 -3.0510001 0.207
9.8540001 -3.02 0.206
9.8990002 -3.0050001 0.207
9.9090004 -2.98 0.208
9.9200001 -2.954 0.208
9.9300003 -2.9289999 0.208
9.9359999 -2.902 0.208
9.9729996 -2.8829999 0.20900001
9.9969997 -2.862 0.20999999
10.016 -2.8380001 0.20999999
10.03 -2.813 0.20999999
10.069 -2.7950001 0.211
10.073 -2.767 0.211
10.101 -2.7460001 0.212
10.137 -2.7260001 0.213
10.144 -2.6989999 0.213
10.164 -2.675 0.213
10.199 -2.655 0.214
10.241 -2.6359999 0.215
10.223 -2.602 0.215
10.297 -2.5910001 0.21600001
10.283 -2.5580001 0.21600001
10.325 -2.539 0.21699999
10.332 -2.5109999 0.21699999
10.373 -2.4909999 0.21799999
10.381 -2.4630001 0.21799999
10.388 -2.4349999 0.21799999
10.437 -2.4159999 0.219
10.455 -2.3900001 0.22
10.489 -2.368 0.22
10.51 -2.342 0.221
10.525 -2.316 0.221
10.567 -2.2939999 0.222
10.585 -2.2679999 0.222
10.618 -2.2449999 0.223
10.662 -2.223 0.22400001
10.694 -2.1989999 0.22499999
10.73 -2.1760001 0.22499999
10.73 -2.145 0.22499999
10.778 -2.1240001 0.226
10.81 -2.099 0.227
10.842 -2.0739999 0.228
10.885 -2.0510001 0.229
10.912 -2.0250001 0.229
10.941 -1.999 0.23
10.992 -1.977 0.23100001
11.035 -1.9529999 0.23199999
11.047 -1.923 0.23199999
11.057 -1.893 0.23199999
11.113 -1.8710001 0.234
11.16 -1.847 0.235
11.179 -1.818 0.235
11.271 -1.801 0.237
11.388 -1.7869999 0.23899999
11.325 -1.745 0.23800001
11.357 -1.717 0.23899999
11.414 -1.693 0.23999999
11.456 -1.6670001 0.241
11.482 -1.638 0.242
11.515 -1.61 0.242
11.598 -1.5880001 0.244
11.649 -1.562 0.245
11.657 -1.529 0.245
11.682 -1.499 0.24600001
11.758 -1.476 0.24699999
11.791 -1.446 0.248
11.878 -1.423 0.25
11.891 -1.39 0.25
11.949 -1.363 0.25099999
11.979 -1.332 0.252
11.993 -1.3 0.252
12.088 -1.275 0.25400001
12.13 -1.245 0.255
12.231 -1.221 0.257
12.227 -1.186 0.257
12.353 -1.163 0.25999999
12.327 -1.125 0.259
12.366 -1.0930001 0.25999999
12.444 -1.0650001 0.26199999
12.465 -1.031 0.26199999
13.216 0.48699999 0.14300001
13.173 0.50599998 0.14300001
13.139 0.52399999 0.142
13.126 0.54400003 0.142
13.174 0.56699997 0.142
13.13 0.58600003 0.141
13.15 0.60799998 0.141
13.143 0.63 0.141
13.148 0.65200001 0.141
13.185 0.676 0.141
10.884 0.57700002 0.116
10.693 0.58499998 0.114
10.629 0.60000002 0.113
10.592 0.61699998 0.113
10.58 0.63499999 0.113
10.588 0.65499997 0.112
10.601 0.676 0.112
10.656 0.699 0.113
10.871 0.73400003 0.115
13.148 0.912 0.139
13.142 0.93699998 0.139
13.126 0.96200001 0.139
13.128 0.98799998 0.138
13.143 1.015 0.138
13.153 1.0420001 0.138
13.184 1.071 0.139
13.227 1.102 0.139
13.292 1.135 0.139
13.296 1.163 0.139
10.649 0.954 0.111
10.492 0.96200001 0.11
10.444 0.98000002 0.109
10.427 1.001 0.109
10.423 1.024 0.108
10.447 1.049 0.109
10.508 1.079 0.109
10.728 1.126 0.111
13.287 1.424 0.138
13.315 1.4579999 0.138
13.343 1.4910001 0.138
13.318 1.52 0.138
13.308 1.55 0.138
13.293 1.579 0.13699999
13.327 1.615 0.13699999
13.344 1.649 0.13699999
13.379 1.686 0.138
13.394 1.72 0.138
13.412 1.756 0.138
13.438 1.7920001 0.138
13.425 1.824 0.138
13.454 1.8609999 0.138
13.49 1.901 0.138
13.506 1.937 0.138
13.521 1.974 0.138
13.541 2.0120001 0.138
13.538 2.0469999 0.138
13.567 2.086 0.138
13.579 2.1240001 0.138
13.615 2.1659999 0.138
13.613 2.2019999 0.138
13.668 2.247 0.139
13.663 2.283 0.139
13.683 2.3239999 0.139
13.719 2.3670001 0.139
13.788 2.4170001 0.14
13.806 2.4590001 0.14
13.858 2.507 0.14
13.89 2.5510001 0.14
13.856 2.5840001 0.14
13.891 2.6300001 0.14
13.94 2.6789999 0.14
13.953 2.7219999 0.14
13.983 2.7679999 0.141
14.037 2.819 0.141
14.062 2.865 0.141
14.118 2.918 0.142
14.13 2.9630001 0.142
14.161 3.0109999 0.142
14.201 3.062 0.142
14.222 3.109 0.142
14.28 3.165 0.14300001
14.312 3.2149999 0.14300001
14.371 3.273 0.14300001
14.414 3.3269999 0.14399999
14.439 3.3770001 0.14399999
14.454 3.425 0.14399999
14.497 3.48 0.14399999
14.455 3.516 0.14399999
14.471 3.5650001 0.14399999
14.472 3.6110001 0.14399999
14.629 3.697 0.145
14.738 3.7709999 0.146
14.739 3.819 0.146
14.709 3.858 0.146
14.791 3.928 0.146
14.784 3.974 0.146
14.845 4.039 0.147
14.867 4.0939999 0.147
14.932 4.1609998 0.147
14.937 4.2119999 0.147
14.999 4.2800002 0.148
15.015 4.3340001 0.148
15.086 4.4060001 0.149
15.148 4.4749999 0.149
15.163 4.5310001 0.149
15.287 4.6199999 0.15000001
15.281 4.671 0.15000001
15.329 4.7379999 0.15099999
15.391 4.8109999 0.15099999
15.526 4.9070001 0.152
15.624 4.9920001 0.153
12.324 3.9809999 0.121
12.157 3.97 0.119
12.144 4.0079999 0.119
12.244 4.085 0.12
15.782 5.3210001 0.154
15.767 5.3730001 0.154
15.815 5.4460001 0.155
15.911 5.5370002 0.155
15.976 5.6170001 0.156
11.954 4.2459998 0.117
11.811 4.2389998 0.115
11.78 4.2709999 0.115
11.803 4.323 0.115
16.209 5.9970002 0.15800001
16.238001 6.0679998 0.15800001
16.218 6.1209998 0.15800001
16.329 6.224 0.15899999
12.41 5.9029999 0.12
12.342 5.921 0.119
12.235 5.921 0.118
11.995 5.855 0.116
11.945 5.8800001 0.115
11.958 5.9369998 0.115
12.02 6.0180001 0.116
12.261 6.2420001 0.118
12.273 6.3000002 0.118
12.222 6.3260002 0.118
12.16 6.3470001 0.117
12.086 6.3600001 0.116
12.134 6.4369998 0.117
12.283 6.5700002 0.118
7.8210001 -5.1500001 0.183
7.875 -5.1360002 0.184
7.9130001 -5.1110001 0.184
7.9429998 -5.0819998 0.185
7.9770002 -5.0549998 0.186
7.9910002 -5.0149999 0.186
8.033 -4.993 0.18700001
8.0450001 -4.9530001 0.18700001
8.0819998 -4.928 0.18799999
8.092 -4.8870001 0.18799999
8.1350002 -4.8660002 0.189
8.1560001 -4.8319998 0.189
8.1949997 -4.8080001 0.19
8.2150002 -4.7740002 0.19
8.25 -4.7480001 0.191
8.2720003 -4.7150002 0.192
8.2919998 -4.6810002 0.192
8.3290005 -4.6560001 0.193
8.3260002 -4.6090002 0.193
8.3789997 -4.5939999 0.19400001
8.3990002 -4.5609999 0.19400001
8.4689999 -4.5539999 0.19599999
8.5129995 -4.533 0.197
8.507 -4.4860001 0.19599999
8.5200005 -4.4489999 0.197
8.5459995 -4.4190001 0.197
8.566 -4.3860002 0.197
8.5880003 -4.355 0.198
8.6190004 -4.3270001 0.199
8.6479998 -4.2989998 0.199
8.6859999 -4.276 0.2
8.6879997 -4.2350001 0.2
8.724 -4.21 0.20100001
8.7349997 -4.1739998 0.20100001
8.7620001 -4.145 0.20100001
8.8070002 -4.125 0.20200001
8.802 -4.0819998 0.20200001
8.842 -4.059 0.20299999
8.8780003 -4.0349998 0.204
8.9130001 -4.0100002 0.205
8.9469995 -3.9849999 0.205
8.9490004 -3.9460001 0.205
8.9860001 -3.9219999 0.206
9.0059996 -3.891 0.206
9.0310001 -3.862 0.207
9.0799999 -3.8429999 0.208
9.1140003 -3.8180001 0.20900001
9.1339998 -3.7869999 0.20900001
9.1619997 -3.76 0.20999999
9.1940002 -3.734 0.20999999
9.2209997 -3.7060001 0.211
9.2410002 -3.6760001 0.211
9.2749996 -3.651 0.212
9.3140001 -3.628 0.213
9.3470001 -3.6029999 0.214
9.3649998 -3.572 0.214
9.4189997 -3.5539999 0.215
9.4589996 -3.5320001 0.21600001
9.4960003 -3.507 0.21699999
9.5209999 -3.4790001 0.21699999
9.5500002 -3.4519999 0.21799999
9.566 -3.421 0.21799999
9.5790005 -3.3889999 0.219
9.6110001 -3.3629999 0.219
9.6730003 -3.348 0.221
9.6820002 -3.3139999 0.221
9.7250004 -3.2920001 0.222
9.7629995 -3.2690001 0.223
9.7670002 -3.234 0.223
9.7819996 -3.2030001 0.223
9.835 -3.184 0.22400001
9.9429998 -3.1830001 0.227
9.9449997 -3.148 0.227
9.9359999 -3.109 0.226
9.96 -3.0810001 0.227
9.967 -3.0480001 0.227
9.9879999 -3.02 0.228
10.021 -2.994 0.228
10.054 -2.9690001 0.229
10.056 -2.9349999 0.229
10.097 -2.9130001 0.23
10.122 -2.885 0.23100001
10.153 -2.8599999 0.23100001
10.167 -2.8299999 0.23199999
10.194 -2.803 0.23199999
10.243 -2.783 0.233
10.281 -2.7590001 0.234
10.309 -2.733 0.235
10.334 -2.7060001 0.235
10.384 -2.6860001 0.236
10.418 -2.661 0.237
10.423 -2.6289999 0.237
10.459 -2.605 0.23800001
10.471 -2.575 0.23800001
10.507 -2.5510001 0.23899999
10.533 -2.5250001 0.23999999
10.555 -2.497 0.23999999
10.568 -2.4679999 0.23999999
10.619 -2.448 0.242
10.631 -2.418 0.242
10.674 -2.3959999 0.243
10.71 -2.372 0.244
10.731 -2.3440001 0.244
10.744 -2.316 0.244
10.794 -2.2950001 0.24600001
10.829 -2.2709999 0.24600001
10.854 -2.244 0.24699999
10.89 -2.22 0.248
10.922 -2.1960001 0.248
10.949 -2.1700001 0.249
11.016 -2.152 0.25099999
11.057 -2.1289999 0.252
11.086 -2.1040001 0.252
11.136 -2.082 0.25299999
11.194 -2.063 0.255
11.167 -2.027 0.25400001
11.199 -2.0020001 0.255
11.225 -1.977 0.255
11.281 -1.956 0.257
11.306 -1.931 0.257
11.361 -1.91 0.259
11.372 -1.882 0.259
11.44 -1.863 0.25999999
11.495 -1.842 0.26199999
11.535 -1.819 0.26300001
11.534 -1.789 0.26199999
11.526 -1.758 0.26199999
11.631 -1.745 0.26499999
11.674 -1.722 0.266
11.718 -1.699 0.26699999
11.777 -1.678 0.26800001
11.761 -1.647 0.26800001
11.788 -1.622 0.26800001
11.835 -1.6 0.26899999
11.849 -1.573 0.27000001
11.869 -1.5470001 0.27000001
11.884 -1.52 0.271
11.924 -1.497 0.27200001
11.981 -1.476 0.273
12.016 -1.452 0.27399999
12.011 -1.424 0.27399999
12.062 -1.402 0.27500001
12.112 -1.38 0.27599999
12.125 -1.354 0.27599999
12.157 -1.33 0.27700001
12.208 -1.308 0.278
12.256 -1.285 0.27900001
12.257 -1.258 0.27900001
12.279 -1.233 0.28
12.3 -1.209 0.28099999
12.353 -1.187 0.28200001
12.435 -1.168 0.28400001
12.558 -1.126 0.287
12.566 -1.1 0.287
12.892 0.171 0.17900001
12.921 0.19400001 0.17900001
12.96 0.21799999 0.17900001
12.983 0.242 0.17900001
12.984 0.26699999 0.17900001
13.019 0.292 0.17900001
13.054 0.317 0.18000001
13.034 0.34200001 0.17900001
13.071 0.368 0.17900001
13.049 0.39300001 0.17900001
13.058 0.419 0.17900001
13.052 0.44499999 0.17900001
13.053 0.47099999 0.178
13.041 0.498 0.178
13.072 0.52600002 0.178
13.074 0.55299997 0.178
13.075 0.58099997 0.178
13.068 0.60799998 0.178
13.092 0.63700002 0.178
13.126 0.667 0.178
10.717 0.56800002 0.145
10.636 0.58700001 0.14399999
10.608 0.60900003 0.14300001
10.592 0.63200003 0.14300001
10.575 0.65399998 0.14300001
10.594 0.68000001 0.14300001
10.655 0.708 0.14399999
10.895 0.74900001 0.147
13.124 0.93300003 0.177
13.128 0.96399999 0.176
13.118 0.99400002 0.176
13.129 1.026 0.176
13.134 1.058 0.176
13.178 1.0930001 0.176
13.233 1.13 0.177
13.295 1.168 0.178
13.346 1.205 0.178
10.579 0.98199999 0.141
10.451 0.99599999 0.139
10.423 1.0190001 0.139
10.419 1.045 0.139
10.431 1.073 0.139
10.482 1.105 0.139
10.716 1.1569999 0.142
13.344 1.476 0.177
13.361 1.513 0.177
13.387 1.551 0.177
13.368 1.584 0.177
13.373 1.62 0.177
13.398 1.659 0.177
13.434 1.699 0.177
13.475 1.7410001 0.178
13.491 1.779 0.178
13.521 1.8200001 0.178
13.547 1.8609999 0.178
13.565 1.901 0.178
13.593 1.942 0.17900001
13.612 1.983 0.17900001
13.642 2.0250001 0.17900001
13.663 2.0669999 0.17900001
13.655 2.1040001 0.17900001
13.699 2.1500001 0.17900001
13.717 2.1919999 0.17900001
13.766 2.2390001 0.18000001
13.804 2.2850001 0.18000001
13.846 2.332 0.18099999
13.901 2.382 0.18099999
13.954 2.4319999 0.182
13.991 2.4790001 0.182
14.046 2.53 0.183
14.068 2.576 0.183
14.113 2.6259999 0.184
14.121 2.6700001 0.184
14.196 2.7260001 0.184
14.223 2.7750001 0.185
14.286 2.8299999 0.185
14.316 2.8789999 0.186
14.372 2.934 0.186
14.411 2.9860001 0.18700001
14.469 3.043 0.18700001
14.571 3.109 0.18799999
14.603 3.161 0.189
14.671 3.221 0.189
14.678 3.2679999 0.189
14.694 3.3180001 0.19
14.773 3.382 0.19
14.799 3.4349999 0.191
14.838 3.4909999 0.191
14.915 3.556 0.192
14.989 3.6210001 0.193
14.962 3.6630001 0.192
14.944 3.7060001 0.192
15.039 3.7780001 0.193
15.089 3.839 0.19400001
15.132 3.8989999 0.19400001
15.19 3.9630001 0.19499999
15.228 4.0219998 0.19499999
15.273 4.0840001 0.19599999
15.296 4.1399999 0.19599999
15.388 4.2160001 0.197
15.439 4.2800002 0.197
15.501 4.349 0.198
15.565 4.4180002 0.199
15.578 4.474 0.199
15.639 4.5430002 0.2
15.648 4.598 0.2
15.719 4.671 0.2
15.842 4.7610002 0.20200001
15.895 4.8309999 0.20299999
15.954 4.902 0.20299999
16.017 4.9759998 0.204
16.049 5.04 0.204
16.174999 5.1350002 0.206
16.243 5.2119999 0.207
12.192 3.954 0.155
12.12 3.9719999 0.154
12.116 4.0120001 0.154
12.243 4.0960002 0.155
16.375 5.5349998 0.208
16.385 5.5949998 0.208
16.426001 5.6659999 0.208
16.499001 5.7480001 0.20900001
16.49 5.802 0.20900001
11.96 4.25 0.15099999
11.819 4.2410002 0.149
11.78 4.2680001 0.149
11.784 4.3109999 0.149
11.895 4.3930001 0.15000001
13.099 5.5840001 0.16500001
12.891 5.5419998 0.162
12.709 5.5089998 0.16
12.624 5.5180001 0.15899999
12.299 5.9120002 0.154
12.296 5.9559999 0.154
12.184 6.0349998 0.152
12.155 6.0650001 0.152
12.151 6.1069999 0.152
12.29 6.3119998 0.154
12.215 6.3179998 0.153
12.257 6.3839998 0.153
12.238 6.4190001 0.153
8.5450001 -5.0440001 0.21699999
8.5559998 -5.026 0.21699999
8.5670004 -5.0079999 0.21699999
8.5900002 -4.9970002 0.21799999
8.5830002 -4.9679999 0.21799999
8.6009998 -4.954 0.21799999
8.6280003 -4.9450002 0.219
8.6300001 -4.9219999 0.219
8.6429996 -4.9050002 0.219
8.6540003 -4.8860002 0.22
8.6549997 -4.862 0.22
8.6920004 -4.8569999 0.221
8.6960001 -4.835 0.221
8.6969995 -4.8099999 0.221
8.7119999 -4.7940001 0.221
8.7159996 -4.7709999 0.221
8.7329998 -4.7550001 0.222
8.7250004 -4.7259998 0.222
8.7419996 -4.7090001 0.222
8.7749996 -4.7020001 0.223
8.7779999 -4.678 0.223
8.7939997 -4.6609998 0.223
8.7919998 -4.6350002 0.223
8.8260002 -4.6269999 0.22400001
8.842 -4.6100001 0.22499999
8.8940001 -4.612 0.226
8.8889999 -4.5830002 0.226
8.8599997 -4.5430002 0.22499999
8.8669996 -4.5209999 0.22499999
8.8879995 -4.506 0.226
8.8940001 -4.4829998 0.226
8.8900003 -4.4549999 0.226
8.9200001 -4.4439998 0.227
8.9300003 -4.4239998 0.227
8.9530001 -4.4089999 0.228
8.9630003 -4.388 0.228
8.9870005 -4.3740001 0.229
8.9809999 -4.3449998 0.229
9.0209999 -4.3379998 0.23
9.0319996 -4.3169999 0.23
9.0530005 -4.3010001 0.23
9.0710001 -4.283 0.23100001
9.0869999 -4.2639999 0.23100001
9.0970001 -4.2420001 0.23199999
9.1199999 -4.2259998 0.23199999
9.1330004 -4.2059999 0.233
9.1459999 -4.1849999 0.233
9.1689997 -4.1690001 0.234
9.1739998 -4.145 0.234
9.1809998 -4.1209998 0.234
9.21 -4.1079998 0.235
9.217 -4.0840001 0.235
9.2250004 -4.0609999 0.235
9.2629995 -4.0500002 0.236
9.2889996 -4.0349998 0.237
9.2919998 -4.0089998 0.237
9.3339996 -4 0.23800001
9.3409996 -3.9760001 0.23800001
9.3380003 -3.947 0.23800001
9.3879995 -3.941 0.23899999
9.3929996 -3.9159999 0.23899999
9.4040003 -3.8929999 0.23999999
9.4309998 -3.8770001 0.23999999
9.4519997 -3.858 0.241
9.4729996 -3.839 0.241
9.4720001 -3.8110001 0.241
9.4969997 -3.7939999 0.242
9.5059996 -3.77 0.242
9.559 -3.763 0.244
9.5679998 -3.7379999 0.244
9.5579996 -3.707 0.244
9.5939999 -3.6930001 0.245
9.618 -3.674 0.245
9.6129999 -3.6440001 0.245
9.6560001 -3.632 0.24600001
9.6569996 -3.605 0.24600001
9.6800003 -3.585 0.24699999
9.71 -3.5680001 0.248
9.7399998 -3.5510001 0.248
9.7440004 -3.5239999 0.249
9.7510004 -3.4979999 0.249
9.7729998 -3.4779999 0.249
9.8109999 -3.4630001 0.25
9.8310003 -3.4419999 0.25099999
9.8369999 -3.415 0.25099999
9.8409996 -3.388 0.25099999
9.8649998 -3.368 0.252
9.8660002 -3.339 0.252
9.9029999 -3.323 0.25299999
9.9460001 -3.309 0.25400001
9.9510002 -3.2809999 0.25400001
9.9750004 -3.26 0.255
10.011 -3.243 0.255
10.089 -3.2390001 0.257
10.079 -3.207 0.257
10.103 -3.1849999 0.25799999
10.109 -3.158 0.25799999
10.08 -3.119 0.257
10.104 -3.098 0.25799999
10.13 -3.076 0.259
10.163 -3.0569999 0.259
10.183 -3.033 0.25999999
10.197 -3.0079999 0.25999999
10.219 -2.9849999 0.26100001
10.251 -2.9649999 0.26199999
10.255 -2.9360001 0.26199999
10.275 -2.9119999 0.26199999
10.3 -2.8900001 0.26300001
10.327 -2.868 0.264
10.358 -2.846 0.264
10.384 -2.823 0.26499999
10.4 -2.7980001 0.266
10.443 -2.779 0.26699999
10.468 -2.7550001 0.26699999
10.487 -2.73 0.26800001
10.53 -2.711 0.26899999
10.572 -2.691 0.27000001
10.576 -2.6619999 0.27000001
10.595 -2.6359999 0.27000001
10.616 -2.6110001 0.271
10.632 -2.5840001 0.271
10.631 -2.553 0.271
10.678 -2.5339999 0.273
10.706 -2.51 0.273
10.741 -2.487 0.27399999
10.769 -2.4619999 0.27500001
10.775 -2.4330001 0.27500001
10.829 -2.414 0.27599999
10.865 -2.391 0.27700001
10.88 -2.3629999 0.278
10.906 -2.3369999 0.278
10.948 -2.3139999 0.28
10.99 -2.2920001 0.28099999
11.01 -2.2639999 0.28099999
11.043 -2.2390001 0.28200001
11.07 -2.2130001 0.28299999
11.132 -2.1930001 0.28400001
11.164 -2.168 0.285
11.229 -2.148 0.287
11.242 -2.118 0.287
11.315 -2.0999999 0.289
11.341 -2.072 0.28999999
11.399 -2.05 0.29100001
11.413 -2.02 0.29100001
11.437 -1.9910001 0.292
11.515 -1.972 0.294
11.565 -1.947 0.29499999
11.558 -1.913 0.29499999
11.639 -1.893 0.29699999
11.643 -1.86 0.29699999
11.744 -1.8430001 0.30000001
11.773 -1.813 0.30000001
11.803 -1.784 0.301
11.841 -1.756 0.30199999
11.858 -1.725 0.303
11.913 -1.699 0.30399999
11.951 -1.67 0.30500001
11.947 -1.635 0.30500001
12.007 -1.609 0.30599999
12.022 -1.577 0.30700001
12.077 -1.549 0.308
12.125 -1.521 0.30899999
12.176 -1.493 0.31099999
12.227 -1.464 0.31200001
12.272 -1.434 0.31299999
12.334 -1.406 0.315
12.351 -1.373 0.315
12.415 -1.345 0.317
12.467 -1.3150001 0.31799999
12.562 -1.289 0.31999999
12.627 -1.2589999 0.322
12.698 -1.23 0.324
12.735 -1.198 0.32499999
13.594 0.463 0.214
13.758 0.48899999 0.21600001
13.571 0.50300002 0.213
13.535 0.52200001 0.212
13.501 0.54100001 0.211
13.47 0.56099999 0.211
13.49 0.583 0.211
13.503 0.60500002 0.211
13.482 0.62599999 0.20999999
13.45 0.64700001 0.20999999
13.446 0.66900003 0.20900001
13.434 0.69099998 0.20900001
13.463 0.71600002 0.20900001
10.82 0.59399998 0.168
10.68 0.60500002 0.16599999
10.619 0.62 0.16500001
10.597 0.63800001 0.164
10.586 0.65700001 0.164
10.595 0.67699999 0.164
10.626 0.69800001 0.164
10.708 0.72399998 0.16500001
13.458 0.93599999 0.208
13.435 0.95999998 0.207
13.478 0.98900002 0.208
13.492 1.017 0.208
13.502 1.044 0.208
13.478 1.0700001 0.207
13.521 1.1 0.208
13.596 1.1339999 0.20900001
13.691 1.171 0.20999999
10.685 0.93599999 0.164
13.753 1.205 0.211
10.501 0.94199997 0.161
10.439 0.95899999 0.16
10.405 0.97799999 0.15899999
10.42 1.002 0.15899999
10.437 1.026 0.16
10.485 1.054 0.16
13.914 1.399 0.213
10.71 1.101 0.164
13.737 1.4119999 0.20999999
13.76 1.4450001 0.20999999
13.799 1.48 0.211
13.771 1.5089999 0.20999999
13.78 1.541 0.20999999
13.777 1.573 0.20999999
13.818 1.61 0.211
13.818 1.643 0.20999999
13.861 1.681 0.211
13.895 1.7180001 0.211
13.9 1.752 0.211
13.911 1.788 0.212
13.934 1.825 0.212
13.956 1.862 0.212
14.014 1.905 0.213
14.042 1.944 0.213
14.058 1.9809999 0.213
14.088 2.0209999 0.214
14.107 2.0599999 0.214
14.14 2.102 0.214
14.19 2.1459999 0.215
14.215 2.187 0.215
14.248 2.2290001 0.21600001
14.27 2.2709999 0.21600001
14.318 2.316 0.21699999
14.402 2.369 0.21799999
14.429 2.4119999 0.21799999
14.484 2.461 0.219
14.517 2.506 0.219
14.522 2.5469999 0.219
14.56 2.5929999 0.22
14.555 2.6329999 0.22
14.58 2.6789999 0.22
14.635 2.73 0.221
14.733 2.79 0.222
14.778 2.8410001 0.223
14.839 2.895 0.22400001
14.846 2.9389999 0.22400001
14.864 2.9860001 0.22400001
14.908 3.0380001 0.22499999
14.941 3.089 0.22499999
14.992 3.1429999 0.226
15.012 3.1919999 0.226
15.034 3.2420001 0.226
15.084 3.2980001 0.227
15.173 3.3629999 0.228
15.202 3.415 0.229
15.231 3.4679999 0.229
15.256 3.5209999 0.229
15.271 3.5710001 0.23
15.273 3.619 0.23
15.481 3.717 0.233
15.477 3.7639999 0.233
15.479 3.813 0.233
15.515 3.8710001 0.233
15.505 3.918 0.233
15.561 3.9820001 0.234
15.639 4.052 0.235
15.681 4.1129999 0.236
15.707 4.171 0.236
15.783 4.243 0.237
15.837 4.309 0.23800001
15.868 4.369 0.23800001
15.907 4.4330001 0.23899999
16.014999 4.5159998 0.241
16.061001 4.5819998 0.241
16.114 4.651 0.242
16.093 4.6999998 0.242
16.216 4.79 0.244
16.291 4.868 0.245
16.257 4.9130001 0.244
16.339001 4.994 0.24600001
16.358 5.0560002 0.24600001
16.408001 5.1279998 0.24699999
16.417999 5.1880002 0.24699999
16.518999 5.2779999 0.248
12.266 3.9619999 0.184
12.114 3.9549999 0.182
12.098 3.993 0.182
12.134 4.0479999 0.182
16.761 5.651 0.252
16.790001 5.7210002 0.25299999
16.896999 5.8179998 0.25400001
16.847 5.862 0.25400001
16.937 5.954 0.255
11.923 4.2350001 0.17900001
11.818 4.2410002 0.178
11.786 4.2719998 0.177
11.804 4.323 0.178
13.1 5.494 0.198
12.944 5.4790001 0.19599999
12.813 5.474 0.19400001
12.657 5.4569998 0.192
12.557 5.4640002 0.19
12.693 5.5739999 0.192
12.217 6.323 0.18700001
12.203 6.368 0.18700001
12.168 6.402 0.186
12.226 6.4850001 0.18700001
8.1639996 -5.3730001 0.229
8.2069998 -5.3499999 0.23
8.2530003 -5.329 0.23199999
8.2810001 -5.296 0.23199999
8.3000002 -5.257 0.233
8.3339996 -5.2290001 0.233
8.3719997 -5.2020001 0.234
8.408 -5.1750002 0.235
8.4350004 -5.1420002 0.236
8.467 -5.112 0.237
8.493 -5.0780001 0.237
8.507 -5.0380001 0.237
