# .PCD v0.7 - Point Cloud Data file format
VERSION 0.7
FIELDS x y z
SIZE 4 4 4
TYPE F F F
COUNT 1 1 1
WIDTH 1951
HEIGHT 1
VIEWPOINT 0 0 0 1 0 0 0
POINTS 1951
DATA ascii
22.355 3.5090001 1.316
22.502001 3.5910001 1.326
22.603001 3.6670001 1.332
22.653 3.7349999 1.336
22.707001 3.8050001 1.339
22.697001 3.865 1.339
22.483999 3.8900001 1.3279999
22.399 3.9360001 1.323
22.367001 3.993 1.322
22.357 4.053 1.322
22.372 4.118 1.324
22.533001 4.211 1.334
22.632 4.2930002 1.341
22.549999 4.342 1.337
22.579 4.4120002 1.339
22.601 4.4809999 1.341
22.625 4.5510001 1.3430001
22.642 4.6199999 1.345
22.723 4.7030001 1.351
14.197 3.4549999 0.85100001
14.126 3.4820001 0.847
14.085 3.516 0.84500003
14.064 3.5550001 0.84500003
14.071 3.602 0.84600002
14.07 3.6459999 0.847
14.073 3.6919999 0.847
14.076 3.7390001 0.84799999
14.064 3.7809999 0.84799999
14.071 3.829 0.84899998
14.155 3.898 0.85500002
17.493 5.527 1.069
17.388 5.5539999 1.063
17.361 5.6059999 1.063
17.378 5.6729999 1.0650001
17.532 5.7849998 1.075
17.344 5.7839999 1.0650001
17.188 5.7940001 1.056
17.193001 5.8569999 1.058
11.353 6.2670002 0.74800003
11.258 6.2649999 0.74299997
11.217 6.2909999 0.74199998
11.187 6.3239999 0.741
11.167 6.362 0.741
11.149 6.4029999 0.741
11.144 6.4499998 0.741
11.143 6.4990001 0.74299997
10.91 -7.1630001 0.76800001
10.979 -7.1399999 0.77200001
11.04 -7.1110001 0.77600002
11.082 -7.0700002 0.778
11.132 -7.0339999 0.78100002
11.15 -6.9790001 0.78100002
11.203 -6.9450002 0.78399998
11.258 -6.9130001 0.78799999
11.294 -6.869 0.78899997
11.339 -6.8299999 0.792
11.358 -6.776 0.79299998
11.389 -6.73 0.79400003
11.444 -6.698 0.79799998
11.478 -6.6529999 0.79900002
11.524 -6.6160002 0.80199999
11.572 -6.5799999 0.80500001
11.627 -6.5479999 0.80800003
11.672 -6.5100002 0.81
11.72 -6.473 0.81300002
11.767 -6.4369998 0.81599998
11.778 -6.381 0.81599998
11.796 -6.329 0.81699997
11.852 -6.2969999 0.81999999
11.867 -6.244 0.82099998
11.902 -6.2020001 0.82300001
11.944 -6.1630001 0.82499999
11.996 -6.1300001 0.82800001
12.021 -6.0830002 0.829
12.068 -6.0469999 0.83200002
12.101 -6.0040002 0.83399999
12.151 -5.9699998 0.83700001
12.19 -5.9299998 0.83899999
12.224 -5.888 0.84100002
12.219 -5.8270001 0.83999997
12.31 -5.8130002 0.84600002
12.32 -5.7600002 0.84600002
12.402 -5.7399998 0.85100001
12.432 -5.697 0.85299999
12.472 -5.658 0.85500002
12.505 -5.6170001 0.85699999
12.526 -5.5700002 0.85799998
12.605 -5.5479999 0.86299998
12.659 -5.5159998 0.866
12.698 -5.4770002 0.86799997
12.757 -5.4460001 0.87199998
12.815 -5.415 0.875
12.868 -5.3829999 0.87800002
13.003 -5.3829999 0.88700002
13.755 -5.1279998 0.93400002
13.702 -5.0549998 0.93000001
13.744 -5.0159998 0.93300003
13.719 -4.9530001 0.93099999
13.727 -4.9029999 0.93099999
13.747 -4.8569999 0.93199998
13.746 -4.8039999 0.93099999
13.772 -4.7610002 0.93300003
13.843 -4.7340002 0.93699998
13.874 -4.6919999 0.93900001
13.952 -4.6669998 0.94400001
14.073 -4.6550002 0.95200002
14.477 -4.2729998 0.97600001
14.577 -4.2519999 0.98199999
14.683 -4.2329998 0.98900002
11.084 -0.83499998 0.73699999
11.008 -0.80699998 0.73199999
10.983 -0.78399998 0.73000002
10.967 -0.76099998 0.72899997
10.965 -0.73900002 0.72899997
10.969 -0.71700001 0.72899997
10.986 -0.69700003 0.73100001
11.062 -0.68099999 0.736
11.138 -0.66399997 0.741
11.144 -0.64300001 0.741
11.132 -0.62099999 0.74000001
11.117 -0.59899998 0.73900002
11.11 -0.57800001 0.73900002
11.104 -0.55699998 0.73900002
11.15 -0.53899997 0.74199998
11.2 -0.52100003 0.745
12.976 -0.41999999 0.86299998
12.971 -0.398 0.86299998
12.86 -0.373 0.85600001
12.764 -0.34900001 0.85000002
12.718 -0.32600001 0.847
12.689 -0.30399999 0.84500003
12.688 -0.28400001 0.84500003
12.687 -0.26300001 0.84500003
12.692 -0.242 0.84500003
12.698 -0.222 0.84600002
12.706 -0.20200001 0.84600002
12.726 -0.182 0.847
12.76 -0.163 0.85000002
12.807 -0.14399999 0.85299999
12.832 -0.124 0.85500002
12.904 -0.105 0.86000001
12.857 0.189 0.792
12.886 0.213 0.79299998
12.886 0.236 0.79299998
12.9 0.259 0.79400003
12.896 0.28299999 0.79299998
12.925 0.30700001 0.79500002
12.928 0.33199999 0.79500002
12.937 0.35600001 0.79500002
12.95 0.382 0.796
12.956 0.40700001 0.796
12.968 0.433 0.79699999
12.974 0.45899999 0.79699999
12.994 0.48500001 0.79799998
13.022 0.51300001 0.80000001
13.01 0.53899997 0.79900002
13.03 0.56599998 0.80000001
13.081 0.59600002 0.80299997
13.117 0.625 0.80500001
12.037 0.75700003 0.73900002
11.786 0.76800001 0.72299999
11.671 0.787 0.71600002
11.622 0.81 0.713
11.599 0.83499998 0.71200001
11.588 0.861 0.71100003
11.589 0.88800001 0.71100003
11.59 0.91600001 0.71100003
11.605 0.94499999 0.71200001
11.643 0.97600001 0.71499997
11.769 1.015 0.72299999
13.009 1.153 0.79900002
13.068 1.1900001 0.80199999
13.104 1.226 0.80500001
13.045 1.253 0.801
13.084 1.289 0.80400002
22.229 2.191 1.3660001
13.119 1.326 0.80599999
22.190001 2.2420001 1.364
13.172 1.364 0.80900002
22.176001 2.2969999 1.363
13.114 1.392 0.80599999
22.132 2.349 1.3609999
13.153 1.429 0.80900002
22.048 2.3959999 1.3559999
22.028999 2.451 1.355
22.125 2.5190001 1.3609999
22.214001 2.5869999 1.367
16.493 1.964 1.015
16.382999 1.994 1.008
16.344999 2.033 1.006
16.375 2.0799999 1.008
16.48 2.138 1.015
16.552999 2.1919999 1.02
16.596001 2.243 1.023
22.177999 3.0580001 1.367
22.146999 3.1140001 1.3660001
22.17 3.1789999 1.367
22.222 3.247 1.3710001
22.283001 3.3180001 1.375
22.298 3.3829999 1.377
22.33 3.451 1.3789999
22.347 3.517 1.381
22.422001 3.592 1.386
22.672001 3.697 1.402
22.788 3.7809999 1.409
22.799999 3.849 1.411
22.816 3.918 1.4119999
22.594 3.9449999 1.399
22.448 3.9849999 1.391
22.448 4.0510001 1.391
22.489 4.125 1.3940001
22.572001 4.2069998 1.4
22.66 4.2909999 1.406
22.589001 4.3439999 1.402
22.615999 4.4180002 1.405
22.643 4.4910002 1.4069999
22.662001 4.5630002 1.409
22.76 4.652 1.416
14.18 3.382 0.88700002
14.102 3.408 0.88300002
14.088 3.45 0.88300002
14.075 3.4909999 0.88200003
14.057 3.5320001 0.88200003
14.043 3.5739999 0.88099998
14.049 3.6199999 0.88200003
14.05 3.6659999 0.88300002
14.056 3.7130001 0.884
14.085 3.767 0.88599998
14.102 3.8169999 0.88800001
14.334 3.927 0.903
17.277 5.7779999 1.104
17.219 5.8179998 1.101
17.348 5.9219999 1.11
12.401 -6.6209998 0.88700002
12.366 -6.566 0.884
12.414 -6.5549998 0.88800001
12.462 -6.5440001 0.89099997
12.692 -6.4039998 0.90600002
12.732 -6.3870001 0.90899998
12.728 -6.3470001 0.90899998
12.716 -6.3039999 0.90799999
12.731 -6.2740002 0.90899998
12.812 -6.276 0.91399997
12.76 -6.2129998 0.91100001
12.885 -6.2360001 0.91900003
13.887 -5.4949999 0.986
13.806 -5.4219999 0.98000002
13.845 -5.3959999 0.98299998
13.855 -5.3600001 0.98299998
13.905 -5.3379998 0.98699999
13.863 -5.2810001 0.98400003
13.835 -5.23 0.98100001
13.863 -5.1999998 0.98299998
13.865 -5.1599998 0.98299998
13.867 -5.1199999 0.98299998
13.86 -5.0760002 0.98299998
13.892 -5.0469999 0.98500001
13.914 -5.0149999 0.986
13.949 -4.9860001 0.98799998
13.926 -4.9369998 0.98699999
13.953 -4.9060001 0.98799998
13.979 -4.8740001 0.99000001
13.98 -4.8330002 0.99000001
14.056 -4.8179998 0.995
14.108 -4.7950001 0.99900001
14.287 -4.8140001 1.011
14.397 -4.809 1.0190001
11.02 -0.93199998 0.76599997
10.945 -0.89399999 0.75999999
10.954 -0.86400002 0.76099998
10.959 -0.83200002 0.76099998
10.986 -0.80299997 0.76200002
11.093 -0.77899998 0.76999998
11.106 -0.74800003 0.76999998
11.082 -0.71399999 0.76899999
11.104 -0.68400002 0.76999998
11.14 -0.65399998 0.77200001
13.036 -0.54100001 0.90200001
12.958 -0.5 0.89700001
12.864 -0.46000001 0.88999999
12.781 -0.41999999 0.884
12.746 -0.382 0.88099998
12.739 -0.34599999 0.88099998
12.767 -0.31 0.88200003
12.777 -0.273 0.88300002
12.82 -0.23800001 0.88599998
12.901 -0.20200001 0.89099997
12.975 -0.16599999 0.89600003
11.912 0.75400001 0.75099999
11.734 0.764 0.74000001
11.65 0.77999997 0.73500001
11.622 0.80000001 0.73299998
11.593 0.81999999 0.73100001
11.592 0.84200001 0.73100001
11.587 0.86400002 0.73100001
11.588 0.88599998 0.73100001
11.599 0.91000003 0.73199999
11.626 0.935 0.73299998
11.693 0.96399999 0.73799998
11.879 1.0039999 0.74900001
12.134 1.05 0.76599997
22.551001 2.046 1.424
22.400999 2.079 1.414
22.355 2.1229999 1.4119999
22.356001 2.171 1.4119999
22.358999 2.22 1.413
22.358 2.2690001 1.413
22.367001 2.319 1.414
22.414 2.3740001 1.4170001
22.532 2.437 1.425
16.487 1.896 1.043
16.399 1.924 1.038
16.358 1.957 1.036
16.34 1.994 1.035
16.409 2.0409999 1.039
16.509001 2.0929999 1.046
16.551001 2.1389999 1.049
16.587 2.184 1.052
16.781 2.25 1.064
22.412001 3.006 1.4220001
22.316999 3.0480001 1.416
22.296 3.1010001 1.416
22.341999 3.1630001 1.419
22.365 3.223 1.421
22.396999 3.2839999 1.424
22.496 3.3570001 1.431
22.502001 3.415 1.431
22.568001 3.484 1.436
22.681999 3.5610001 1.444
23.120001 3.691 1.473
22.716999 3.994 1.452
22.642 4.0430002 1.448
22.656 4.1079998 1.449
22.848 4.2709999 1.4630001
22.798 4.3260002 1.461
22.738001 4.3790002 1.4579999
22.757999 4.448 1.46
22.855 4.5320001 1.467
14.29 3.3889999 0.92500001
14.096 3.3859999 0.91299999
14.052 3.4200001 0.91100001
14.082 3.471 0.91399997
14.059 3.51 0.91299999
14.05 3.552 0.91299999
14.033 3.592 0.91299999
14.007 3.6300001 0.912
14.022 3.6789999 0.91399997
14.038 3.7290001 0.91600001
14.072 3.7839999 0.91900003
14.118 3.842 0.92199999
14.352 3.9530001 0.93900001
11.39 -7.4770002 0.85399997
11.437 -7.4359999 0.85699999
11.495 -7.4029999 0.861
11.542 -7.362 0.86400002
11.601 -7.3299999 0.86699998
11.651 -7.2909999 0.87
11.702 -7.2529998 0.87300003
11.754 -7.2160001 0.87699997
11.79 -7.1690001 0.87900001
11.82 -7.119 0.88
11.868 -7.079 0.88300002
11.902 -7.0320001 0.88499999
11.917 -6.973 0.88499999
11.978 -6.9419999 0.889
12.037 -6.9089999 0.89300001
12.081 -6.868 0.89499998
12.132 -6.8309999 0.89899999
12.205 -6.8060002 0.903
12.211 -6.744 0.903
12.225 -6.6859999 0.90399998
12.268 -6.645 0.90600002
12.279 -6.5869999 0.90600002
12.295 -6.5320001 0.90700001
12.369 -6.5079999 0.912
12.411 -6.4660001 0.91399997
12.465 -6.4310002 0.91799998
12.501 -6.3870001 0.92000002
12.562 -6.355 0.92400002
12.599 -6.3119998 0.926
12.654 -6.2779999 0.92900002
12.705 -6.2410002 0.93199998
12.757 -6.2049999 0.93599999
12.866 -6.1960001 0.94300002
12.972 -6.1859999 0.94999999
13.076 -6.1739998 0.95700002
13.234 -6.1859999 0.96799999
13.925 -5.5879998 1.011
13.979 -5.552 1.015
13.875 -5.3959999 1.006
13.916 -5.3559999 1.0089999
14.008 -5.3340001 1.015
14.079 -5.2490001 1.0190001
14.027 -5.1739998 1.015
14.008 -5.112 1.013
14.056 -5.0749998 1.016
14.138 -5.0489998 1.022
14.178 -4.9549999 1.024
14.22 -4.9159999 1.026
11.018 -0.82999998 0.77999997
10.992 -0.80599999 0.77899998
10.976 -0.78299999 0.77700001
10.946 -0.759 0.77499998
10.938 -0.73699999 0.77499998
10.951 -0.71600002 0.77600002
10.974 -0.69599998 0.77700001
11.026 -0.67799997 0.78100002
11.081 -0.66000003 0.78500003
11.088 -0.63999999 0.78500003
11.088 -0.61900002 0.78500003
11.111 -0.59899998 0.787
11.113 -0.57800001 0.787
11.102 -0.55699998 0.78600001
11.17 -0.54000002 0.79100001
11.246 -0.523 0.79699999
12.992 -0.35499999 0.921
12.96 -0.33199999 0.91900003
12.953 -0.31099999 0.91799998
12.942 -0.289 0.917
12.909 -0.26699999 0.91500002
12.914 -0.24699999 0.91600001
12.941 -0.226 0.91799998
13.1 -0.208 0.92900002
13.017 -0.16599999 0.92299998
13.053 -0.146 0.926
11.854 0.74699998 0.78299999
11.691 0.76300001 0.773
11.629 0.78500003 0.76800001
11.604 0.81 0.76700002
11.583 0.83499998 0.76599997
11.575 0.861 0.76499999
11.582 0.889 0.76599997
11.59 0.917 0.76599997
11.606 0.94599998 0.76700002
11.681 0.98000002 0.77200001
11.854 1.023 0.78399998
12.063 1.0700001 0.79799998
12.229 1.115 0.80900002
22.462999 2.1040001 1.4859999
22.356001 2.1489999 1.479
22.351 2.204 1.479
22.399 2.2650001 1.483
22.408001 2.323 1.484
22.368999 2.3759999 1.4809999
22.448999 2.4419999 1.487
23.075001 2.569 1.529
16.576 1.932 1.098
16.417 1.956 1.0880001
16.355 1.992 1.084
16.347 2.0339999 1.084
16.392 2.0840001 1.087
16.497 2.141 1.095
16.532 2.1900001 1.097
16.608999 2.2460001 1.103
22.358999 3.0840001 1.485
22.299 3.1370001 1.4809999
22.353001 3.2060001 1.485
22.417999 3.2780001 1.49
22.422001 3.3410001 1.4910001
23.372999 4.7069998 1.566
23.282 4.7589998 1.561
23.403 4.8559999 1.5700001
14.104 3.365 0.95200002
14.068 3.4000001 0.94999999
14.081 3.448 0.95099998
14.047 3.4849999 0.949
14.041 3.5280001 0.94999999
14.02 3.5680001 0.949
14.008 3.6099999 0.949
14.011 3.6559999 0.94999999
14.035 3.7079999 0.95200002
14.066 3.7620001 0.95499998
14.121 3.823 0.95899999
14.349 3.931 0.97500002
13.336 -6.4190001 1.012
13.348 -6.3860002 1.013
13.356 -6.3499999 1.013
13.381 -6.323 1.015
13.483 -6.3309999 1.023
13.572 -6.3330002 1.029
13.661 -6.3340001 1.036
13.783 -6.3499999 1.045
13.855 -6.342 1.05
13.852 -6.3000002 1.05
14.181 -6.0310001 1.073
14.11 -5.96 1.067
14.236 -5.803 1.076
14.248 -5.7659998 1.077
14.264 -5.73 1.0779999
14.306 -5.7049999 1.081
14.339 -5.6760001 1.0829999
14.354 -5.6399999 1.084
14.485 -5.4780002 1.0930001
14.498 -5.4400001 1.094
14.565 -5.4229999 1.098
14.717 -5.177 1.108
14.687 -5.1230001 1.1059999
10.987 -0.92799997 0.81099999
10.933 -0.89200002 0.80699998
10.921 -0.86000001 0.80599999
10.931 -0.829 0.80699998
10.961 -0.80000001 0.80800003
11.062 -0.77600002 0.81599998
11.055 -0.74299997 0.815
11.075 -0.713 0.81599998
11.103 -0.68300003 0.81800002
11.159 -0.65399998 0.82200003
13.107 -0.354 0.963
13.068 -0.315 0.95999998
11.951 0.73699999 0.81
11.747 0.745 0.796
11.659 0.76099998 0.79000002
11.617 0.77899998 0.787
11.605 0.80000001 0.78600001
11.584 0.82099998 0.78500003
11.587 0.84299999 0.78500003
11.595 0.866 0.78600001
11.609 0.889 0.787
11.637 0.91399997 0.78899997
11.676 0.94099998 0.79100001
11.726 0.96799999 0.79500002
11.843 1.002 0.80299997
11.966 1.0369999 0.81099999
12.054 1.069 0.81699997
12.249 1.112 0.83099997
16.601999 1.872 1.1289999
16.433001 1.891 1.118
16.364 1.921 1.113
16.35 1.9579999 1.113
16.361 1.998 1.114
16.424 2.0439999 1.118
16.486 2.092 1.123
16.507999 2.1340001 1.125
16.541 2.1789999 1.128
16.657 2.2349999 1.136
23.336 3.483 1.595
23.254 3.5309999 1.591
23.226999 3.5869999 1.589
23.184999 3.641 1.587
23.188 3.7030001 1.5880001
23.212999 3.7679999 1.591
23.179001 3.825 1.589
23.184999 3.888 1.59
23.153999 3.9449999 1.589
23.150999 4.0079999 1.59
23.167 4.0739999 1.592
23.136999 4.132 1.591
23.131001 4.1950002 1.591
23.153999 4.2639999 1.594
23.364 4.7020001 1.614
23.280001 4.7519999 1.609
23.221001 4.8080001 1.6059999
23.243 4.881 1.609
14.153 3.401 0.98699999
14.078 3.4260001 0.98199999
14.088 3.473 0.98400003
14.07 3.513 0.98299998
14.044 3.5510001 0.98199999
14.02 3.589 0.98100001
14 3.6289999 0.98100001
13.997 3.6730001 0.98199999
14.006 3.721 0.98299998
14.051 3.7780001 0.98699999
14.085 3.8340001 0.99000001
14.215 3.915 1
11.861 -7.7849998 0.94499999
11.915 -7.7459998 0.94800001
11.991 -7.7210002 0.954
12.06 -7.6919999 0.958
12.082 -7.632 0.95899999
12.167 -7.612 0.96499997
12.143 -7.5250001 0.96200001
12.21 -7.4949999 0.96700001
12.209 -7.4229999 0.96600002
12.214 -7.355 0.96600002
12.24 -7.3000002 0.96700001
12.258 -7.2410002 0.96799999
12.283 -7.1869998 0.96899998
12.29 -7.1220002 0.96899998
12.308 -7.0640001 0.97000003
12.319 -7.0019999 0.97000003
12.372 -6.9650002 0.97299999
12.406 -6.9169998 0.97500002
12.439 -6.869 0.977
12.448 -6.8070002 0.977
12.546 -6.7950001 0.98400003
12.691 -6.8070002 0.995
13.117 -6.9000001 1.027
13.077 -6.8119998 1.023
13.125 -6.7709999 1.026
13.211 -6.7490001 1.0319999
13.259 -6.7069998 1.035
13.22 -6.6230001 1.031
13.301 -6.598 1.0369999
13.504 -6.6329999 1.052
13.282 -6.3959999 1.034
13.296 -6.3400002 1.034
13.358 -6.3060002 1.038
13.408 -6.2670002 1.0420001
13.506 -6.25 1.049
13.614 -6.237 1.057
13.689 -6.2090001 1.062
13.861 -6.224 1.075
13.922 -6.1890001 1.079
14.109 -6.2090001 1.0930001
14.1 -6.1420002 1.091
14.089 -6.0749998 1.09
14.158 -6.0430002 1.095
14.274 -6.0310001 1.103
14.155 -5.9200001 1.0930001
14.238 -5.8930001 1.099
14.278 -5.8499999 1.102
14.268 -5.7849998 1.1
14.27 -5.7259998 1.1
14.299 -5.678 1.102
14.374 -5.6490002 1.107
14.458 -5.6230001 1.113
14.382 -5.5349998 1.107
14.459 -5.506 1.112
14.551 -5.4819999 1.119
14.558 -5.427 1.119
14.594 -5.3829999 1.1210001
14.615 -5.3330002 1.122
14.758 -5.1009998 1.131
14.848 -5.0770001 1.137
14.84 -5.0180001 1.136
11.162 -0.86400002 0.83899999
10.988 -0.82800001 0.82599998
10.936 -0.80199999 0.82200003
10.926 -0.77899998 0.82099998
10.912 -0.75700003 0.81999999
10.92 -0.736 0.82099998
10.93 -0.71499997 0.82099998
10.955 -0.69499999 0.82300001
10.998 -0.67699999 0.82700002
11.063 -0.65899998 0.83099997
11.067 -0.63800001 0.83200002
11.071 -0.61799997 0.83200002
11.092 -0.59799999 0.83399999
11.105 -0.57800001 0.83499998
11.113 -0.55800003 0.83499998
11.204 -0.542 0.84200001
13.038 0.19599999 0.926
13.047 0.219 0.926
13.054 0.243 0.926
13.043 0.266 0.92500001
13.062 0.28999999 0.92699999
13.05 0.31400001 0.92500001
13.064 0.33899999 0.926
13.059 0.36300001 0.926
13.066 0.389 0.926
13.111 0.41499999 0.92900002
13.101 0.44100001 0.92799997
13.087 0.46599999 0.92699999
13.114 0.493 0.92900002
13.1 0.51899999 0.92799997
13.118 0.546 0.92900002
13.098 0.57300001 0.92799997
13.079 0.59899998 0.926
13.144 0.62900001 0.93099999
12.008 0.65200001 0.85000002
11.989 0.67699999 0.84899998
11.973 0.755 0.84799999
11.72 0.76599997 0.82999998
11.661 0.78799999 0.82599998
11.597 0.81099999 0.82099998
11.579 0.83600003 0.81999999
11.581 0.86299998 0.81999999
11.575 0.88999999 0.81999999
11.592 0.91799998 0.82099998
11.62 0.94800001 0.82300001
11.643 0.97799999 0.82499999
11.695 1.01 0.82800001
11.826 1.05 0.838
11.953 1.091 0.847
12.051 1.1289999 0.85399997
16.615 1.937 1.1799999
16.419001 1.9579999 1.166
16.351999 1.993 1.1619999
16.332001 2.0339999 1.161
16.374001 2.082 1.164
16.450001 2.1359999 1.17
16.483 2.1849999 1.1720001
16.513 2.234 1.175
16.591999 2.29 1.181
23.177 3.2620001 1.65
23.146999 3.322 1.649
23.191 3.392 1.652
23.139999 3.5139999 1.65
23.094 3.572 1.647
23.080999 3.635 1.647
23.086 3.701 1.648
23.087999 3.767 1.649
23.083 3.8329999 1.649
23.059999 3.895 1.648
23.082001 3.9660001 1.651
23.073999 4.0310001 1.651
23.076 4.099 1.652
23.084999 4.1680002 1.653
23.087999 4.237 1.654
23.153 4.3169999 1.659
23.304001 4.6240001 1.674
23.364 4.7059999 1.679
23.240999 4.7519999 1.671
23.23 4.8210001 1.671
23.396 4.927 1.684
14.132 3.372 1.022
14.114 3.4119999 1.022
14.1 3.4530001 1.021
14.066 3.49 1.02
14.036 3.5280001 1.018
14.025 3.5699999 1.018
14.009 3.6110001 1.018
14.021 3.6589999 1.0190001
14.049 3.7119999 1.022
14.107 3.773 1.027
14.206 3.846 1.035
14.564 3.9909999 1.062
14.219 -6.5549998 1.142
14.208 -6.5079999 1.141
14.161 -6.4450002 1.137
14.183 -6.4130001 1.1390001
14.242 -6.3969998 1.143
14.327 -6.3930001 1.15
14.378 -6.3730001 1.154
14.425 -6.3520002 1.158
14.394 -6.296 1.155
14.475 -6.1599998 1.161
14.424 -6.0960002 1.156
14.473 -6.0739999 1.16
14.497 -6.0409999 1.1619999
14.57 -6.0289998 1.1670001
14.554 -5.9790001 1.166
14.548 -5.9330001 1.165
14.626 -5.9219999 1.171
14.656 -5.848 1.173
14.625 -5.7930002 1.171
14.732 -5.7909999 1.179
14.867 -5.6690001 1.189
14.813 -5.605 1.184
14.96 -5.6170001 1.196
14.977 -5.579 1.197
10.968 -0.926 0.85799998
10.908 -0.889 0.85299999
10.897 -0.85699999 0.852
10.896 -0.82599998 0.85100001
10.918 -0.796 0.85299999
10.995 -0.76999998 0.85900003
11.042 -0.741 0.86199999
11.057 -0.70999998 0.86299998
11.077 -0.68000001 0.86400002
11.144 -0.65200001 0.86900002
13.102 0.51099998 0.94999999
13.165 0.53299999 0.95499998
11.891 0.63200003 0.86199999
11.902 0.65200001 0.86199999
11.945 0.67500001 0.86500001
12.108 0.70499998 0.87699997
12.011 0.72100002 0.87
11.816 0.73000002 0.85600001
11.737 0.74599999 0.85000002
11.677 0.76300001 0.84600002
11.646 0.78299999 0.84399998
11.622 0.80299997 0.84200001
11.606 0.82300001 0.84100002
11.607 0.84600002 0.84100002
11.598 0.86699998 0.83999997
11.577 0.88800001 0.83899999
11.591 0.912 0.83999997
11.61 0.93699998 0.84200001
11.632 0.96200001 0.84299999
11.713 0.99199998 0.84899998
11.801 1.024 0.85600001
11.954 1.062 0.86699998
12.082 1.098 0.87599999
23.122999 2.151 1.678
23.115 2.1989999 1.678
23.080999 2.2460001 1.676
23.167999 2.3039999 1.682
23.097 2.5539999 1.679
16.584999 1.872 1.206
23.132 2.6110001 1.682
16.431999 1.892 1.1950001
16.377001 1.924 1.192
16.353001 1.959 1.1900001
16.365 1.999 1.192
16.417999 2.0450001 1.196
16.444 2.0869999 1.198
16.461 2.1289999 1.2
16.476 2.171 1.201
16.518 2.217 1.205
16.687 2.2809999 1.2180001
23.061001 3.1530001 1.683
23.011999 3.2030001 1.6799999
23.014 3.2609999 1.681
23.035 3.322 1.683
23.098 3.3900001 1.689
23.042 3.441 1.6849999
23.006001 3.4949999 1.683
23.011 3.5550001 1.6849999
23.003 3.6140001 1.6849999
23.018 3.677 1.687
23.031 3.74 1.689
23.021999 3.8 1.689
23.030001 3.8629999 1.6900001
23.021999 3.924 1.691
23.023001 3.987 1.692
23.035999 4.052 1.694
23.042999 4.1170001 1.6950001
23.061001 4.184 1.697
23.056 4.2470002 1.698
23.099001 4.3200002 1.702
23.367001 4.6360002 1.726
23.333 4.6960001 1.725
23.358 4.7690001 1.728
23.332001 4.8319998 1.727
14.142 3.398 1.0549999
14.112 3.4349999 1.054
14.131 3.484 1.056
14.076 3.5150001 1.053
14.04 3.55 1.051
14.027 3.592 1.051
14.001 3.6300001 1.05
14.016 3.6789999 1.052
14.019 3.7249999 1.053
14.089 3.789 1.0599999
14.169 3.8570001 1.066
14.302 3.9400001 1.077
12.63 -8.2880001 1.0650001
12.683 -8.2440004 1.068
12.735 -8.1990004 1.072
12.816 -8.1730003 1.0779999
12.876 -8.132 1.082
12.923 -8.085 1.085
12.992 -8.0500002 1.09
13.051 -8.0100002 1.094
13.06 -7.9390001 1.094
13.131 -7.9060001 1.099
13.202 -7.8730001 1.104
13.331 -7.8740001 1.114
13.305 -7.783 1.1109999
13.518 -7.8330002 1.128
13.59 -7.3600001 1.128
13.641 -7.316 1.131
13.706 -7.2800002 1.136
13.781 -7.2480001 1.141
13.87 -7.2249999 1.148
14.293 -6.4829998 1.173
14.212 -6.381 1.166
14.251 -6.335 1.168
14.311 -6.2969999 1.173
14.392 -6.2690001 1.179
14.497 -6.2509999 1.187
14.506 -6.191 1.187
14.55 -6.1469998 1.1900001
14.553 -6.086 1.189
14.515 -6.0079999 1.186
14.561 -5.9650002 1.189
14.585 -5.9130001 1.1900001
14.659 -5.882 1.196
14.7 -5.8379998 1.198
14.75 -5.796 1.202
14.82 -5.763 1.207
14.795 -5.6929998 1.204
14.827 -5.6459999 1.206
15.012 -5.6560001 1.221
10.991 -0.82800001 0.87400001
10.929 -0.80199999 0.86900002
10.912 -0.778 0.86699998
10.875 -0.75400001 0.86400002
10.889 -0.73400003 0.86500001
10.899 -0.713 0.866
10.913 -0.69199997 0.86699998
10.931 -0.67199999 0.86900002
10.987 -0.65499997 0.87300003
11.05 -0.63700002 0.87800002
11.075 -0.61799997 0.88
11.1 -0.59799999 0.88200003
11.11 -0.57800001 0.88300002
11.165 -0.56 0.88700002
11.248 -0.54400003 0.89399999
12.906 0.19599999 0.977
12.925 0.219 0.97799999
12.942 0.242 0.97899997
12.954 0.266 0.98000002
12.944 0.289 0.97899997
12.956 0.31400001 0.98000002
12.998 0.33899999 0.98299998
12.972 0.36300001 0.98100001
13.009 0.389 0.98299998
13.02 0.414 0.98400003
13.03 0.44 0.98400003
13.023 0.465 0.98400003
13.056 0.493 0.986
13.034 0.51800001 0.98400003
13.074 0.546 0.98699999
13.059 0.57200003 0.986
13.089 0.60100001 0.98799998
11.936 0.59799999 0.90100002
11.856 0.61900002 0.89499998
11.879 0.64600003 0.89700001
11.958 0.67699999 0.903
11.959 0.70300001 0.903
11.8 0.72000003 0.89099997
11.729 0.741 0.88499999
11.652 0.76300001 0.88
11.633 0.78799999 0.87800002
11.611 0.81300002 0.87699997
11.594 0.838 0.87599999
11.586 0.86500001 0.875
11.577 0.89099997 0.87400001
11.573 0.91799998 0.87400001
11.586 0.94599998 0.875
11.613 0.97600001 0.87699997
11.676 1.01 0.88200003
11.802 1.049 0.89200002
11.942 1.091 0.903
12.124 1.137 0.917
23.079 2.1659999 1.745
23.044001 2.2190001 1.743
23.063999 2.279 1.745
23.052 2.335 1.744
23.198999 2.5869999 1.757
23.021 2.6259999 1.744
16.482 1.923 1.249
23.135 2.7 1.753
16.375999 1.954 1.2410001
16.347 1.993 1.239
16.341999 2.036 1.239
16.384001 2.085 1.242
16.419001 2.1329999 1.2460001
16.436001 2.1800001 1.247
16.48 2.23 1.251
16.547001 2.2850001 1.257
23.087999 3.188 1.753
22.983999 3.2360001 1.7460001
22.975 3.2980001 1.7460001
22.993999 3.365 1.748
23.058001 3.438 1.7539999
23.007999 3.4949999 1.75
22.988001 3.5569999 1.75
22.983999 3.6210001 1.75
22.996 3.688 1.752
23.007999 3.756 1.753
22.992001 3.819 1.753
22.996 3.8859999 1.7539999
23.003 3.9530001 1.755
23.01 4.0209999 1.757
23.024 4.0910001 1.758
23.028 4.1589999 1.76
23.028 4.2270002 1.76
23.041 4.2979999 1.762
23.25 4.4060001 1.779
23.327 4.6999998 1.789
23.354 4.776 1.7920001
23.361 4.849 1.793
14.119 3.369 1.09
14.108 3.411 1.09
14.135 3.4630001 1.0930001
14.084 3.4949999 1.09
14.043 3.53 1.087
14.029 3.5710001 1.087
14.032 3.6170001 1.0880001
14.032 3.6630001 1.089
14.044 3.711 1.091
14.098 3.7709999 1.096
14.181 3.8399999 1.103
14.304 3.9200001 1.113
14.599 -6.9070001 1.24
14.641 -6.8839998 1.243
14.608 -6.8249998 1.24
14.72 -6.79 1.249
14.655 -6.717 1.244
14.702 -6.6950002 1.247
14.704 -6.652 1.247
14.666 -6.592 1.244
14.69 -6.559 1.2460001
14.703 -6.5209999 1.247
14.805 -6.5229998 1.255
14.823 -6.487 1.256
14.852 -6.368 1.258
14.82 -6.3099999 1.255
14.924 -6.3099999 1.2640001
10.994 -0.92699999 0.90799999
10.899 -0.88800001 0.89899999
10.872 -0.85399997 0.89700001
10.868 -0.82200003 0.89600003
10.868 -0.79100001 0.89600003
10.921 -0.76300001 0.89999998
10.982 -0.736 0.90499997
11.046 -0.70899999 0.91000003
11.084 -0.67900002 0.91299999
11.177 -0.653 0.92000002
11.906 0.61400002 0.91900003
11.836 0.63 0.91299999
11.844 0.65100002 0.91399997
11.908 0.67400002 0.91900003
12 0.69999999 0.926
11.825 0.71100003 0.912
11.773 0.72899997 0.90799999
11.722 0.74599999 0.90399998
11.667 0.764 0.89999998
11.63 0.78299999 0.89700001
11.607 0.80299997 0.89499998
11.597 0.824 0.89499998
11.588 0.84500003 0.89399999
11.564 0.866 0.89200002
11.562 0.88800001 0.89200002
11.577 0.912 0.89399999
11.596 0.93699998 0.89499998
11.654 0.96499997 0.89999998
11.704 0.99199998 0.90399998
11.803 1.025 0.91100001
11.926 1.0599999 0.921
12.201 1.11 0.94300002
23.018 2.095 1.779
22.99 2.141 1.777
23.049999 2.1949999 1.7819999
23.108999 2.5050001 1.789
16.67 1.845 1.291
23.014 2.5469999 1.7819999
16.461 1.859 1.275
16.389 1.8890001 1.27
16.372999 1.925 1.2690001
16.343 1.959 1.267
16.358 2 1.2690001
16.382999 2.0420001 1.271
16.396 2.0829999 1.272
16.433001 2.1270001 1.276
16.468 2.171 1.279
16.518 2.2190001 1.283
23.153 3.1099999 1.799
16.711 2.286 1.299
22.976 3.1429999 1.786
22.959999 3.198 1.786
22.961 3.2550001 1.7869999
23.014 3.3210001 1.791
23.042 3.3840001 1.794
22.976999 3.4330001 1.79
22.981001 3.4920001 1.791
22.974001 3.5510001 1.7920001
23.007 3.6159999 1.795
23.003 3.6760001 1.796
23 3.7360001 1.7970001
22.992001 3.796 1.7970001
23.000999 3.8599999 1.799
23.004999 3.9219999 1.8
23.000999 3.984 1.801
23.004 4.0479999 1.802
23.007999 4.112 1.803
23.018 4.177 1.8049999
23.023001 4.2420001 1.807
23.070999 4.316 1.812
23.267 4.4180002 1.8279999
19.898001 4.6599998 1.58
14.304 3.3940001 1.137
19.881001 4.717 1.58
14.102 3.3889999 1.122
14.104 3.434 1.123
14.116 3.4809999 1.125
14.069 3.5139999 1.122
14.041 3.5510001 1.12
14.021 3.5899999 1.12
14.036 3.6389999 1.122
14.049 3.688 1.124
14.015 3.724 1.122
14.012 3.7690001 1.123
14.078 3.8329999 1.1289999
14.265 3.9300001 1.145
13.233 -8.6829996 1.177
13.316 -8.6540003 1.184
13.414 -8.6350002 1.191
13.464 -8.5839996 1.1950001
13.494 -8.5220003 1.196
13.591 -8.5019999 1.204
13.622 -8.4390001 1.206
13.663 -8.3850002 1.2079999
13.701 -8.3280001 1.211
13.744 -8.2740002 1.2130001
13.799 -8.2279997 1.217
13.823 -8.1630001 1.2180001
13.912 -8.1370001 1.225
14.077 -7.9229999 1.2359999
14.027 -7.8189998 1.2309999
14.15 -7.8119998 1.2410001
14.155 -7.7389998 1.24
14.229 -7.7049999 1.2460001
14.24 -7.5619998 1.245
14.297 -7.5190001 1.249
14.375 -7.414 1.2539999
14.345 -7.3270001 1.251
14.348 -7.257 1.25
14.4 -7.2119999 1.2539999
14.463 -7.1729999 1.2589999
14.502 -7.1220002 1.261
14.469 -7.0359998 1.258
14.527 -6.994 1.262
14.559 -6.941 1.2640001
14.591 -6.8870001 1.266
14.72 -6.8790002 1.277
14.662 -6.7839999 1.271
14.63 -6.7020001 1.267
14.677 -6.6560001 1.271
14.759 -6.6259999 1.277
14.751 -6.5560002 1.276
14.78 -6.5029998 1.277
14.81 -6.4510002 1.279
14.915 -6.3660002 1.2869999
14.971 -6.3249998 1.291
15.009 -6.276 1.294
15 -6.2080002 1.2920001
10.972 -0.82700002 0.92000002
10.916 -0.801 0.91500002
10.919 -0.77899998 0.91500002
10.875 -0.75400001 0.91100001
10.871 -0.73199999 0.91100001
10.869 -0.71100003 0.91100001
10.88 -0.69 0.912
10.89 -0.67000002 0.91299999
10.939 -0.65200001 0.917
10.999 -0.634 0.92199999
11.071 -0.61699998 0.92799997
11.13 -0.60000002 0.93300003
11.124 -0.579 0.93199998
10.98 -0.551 0.92000002
12.886 0.198 1.036
12.902 0.22 1.0369999
12.917 0.244 1.038
12.936 0.26699999 1.039
12.954 0.29100001 1.04
12.957 0.315 1.04
13.002 0.34099999 1.044
12.996 0.36500001 1.043
13.019 0.391 1.045
13.021 0.41600001 1.045
13.046 0.442 1.0470001
13.037 0.46799999 1.046
13.071 0.495 1.049
13.026 0.51899999 1.045
13.027 0.546 1.045
13.092 0.57499999 1.05
13.101 0.60299999 1.051
11.882 0.597 0.95300001
11.794 0.61799997 0.94599998
11.809 0.64399999 0.94700003
11.881 0.67400002 0.95300001
11.913 0.70099998 0.95499998
11.802 0.72100002 0.94599998
11.73 0.74299997 0.94099998
11.679 0.76599997 0.93699998
11.635 0.78899997 0.93300003
11.613 0.81400001 0.93099999
11.598 0.83999997 0.93000001
11.575 0.86500001 0.92900002
11.561 0.89099997 0.92799997
11.559 0.91799998 0.92799997
11.579 0.94700003 0.92900002
11.597 0.97600001 0.93099999
11.651 1.0089999 0.935
11.753 1.046 0.94400001
11.858 1.084 0.95200002
12.03 1.13 0.96600002
23.02 2.1619999 1.849
22.962 2.2130001 1.845
23.073 2.2820001 1.854
23.184999 2.5869999 1.865
16.614 1.897 1.337
22.997 2.625 1.851
16.422001 1.9170001 1.322
16.364 1.9529999 1.317
16.347 1.994 1.317
16.337999 2.0369999 1.316
16.351 2.082 1.318
16.381001 2.1300001 1.3200001
16.407 2.177 1.323
16.462 2.2290001 1.3279999
16.524 2.283 1.3329999
23.108999 3.1919999 1.865
16.832001 2.3710001 1.359
22.962 3.2349999 1.854
22.937 3.2939999 1.852
22.962 3.3610001 1.855
22.99 3.4300001 1.858
22.966999 3.49 1.857
22.955999 3.553 1.857
22.968 3.6199999 1.859
22.987 3.688 1.8609999
22.98 3.7520001 1.8609999
22.996 3.8210001 1.863
22.978001 3.8840001 1.863
22.986 3.9519999 1.864
22.988001 4.0190001 1.865
22.995001 4.0869999 1.867
23 4.1560001 1.868
23.01 4.2249999 1.87
23.018 4.2940001 1.8710001
23.096001 4.3779998 1.8789999
14.266 3.3599999 1.171
14.101 3.365 1.158
14.1 3.4100001 1.159
14.107 3.4560001 1.16
14.068 3.4920001 1.158
14.035 3.5280001 1.156
14.024 3.5710001 1.155
14.038 3.619 1.1569999
14.027 3.6619999 1.1569999
13.985 3.6960001 1.155
13.999 3.7449999 1.1569999
14.081 3.813 1.164
14.307 3.9219999 1.184
10.987 -0.92500001 0.95499998
10.88 -0.88499999 0.94499999
10.871 -0.85299999 0.94400001
10.856 -0.81999999 0.94300002
10.855 -0.78899997 0.94199997
10.889 -0.75999999 0.94499999
10.934 -0.73199999 0.949
11.052 -0.708 0.95899999
10.967 -0.671 0.95099998
10.864 -0.63300002 0.94199997
13.097 -0.34799999 1.132
13.053 -0.31 1.128
13.023 -0.271 1.125
13.115 -0.235 1.133
12.954 0.177 1.115
12.922 0.213 1.112
13.09 0.25400001 1.126
13.076 0.22 1.076
13.121 0.234 1.079
13.097 0.26199999 1.077
13.103 0.27700001 1.077
13.115 0.292 1.077
13.088 0.30599999 1.075
13.122 0.32300001 1.077
13.036 0.336 1.0700001
13.068 0.35299999 1.072
13.002 0.368 1.067
13.02 0.38499999 1.068
13.064 0.40400001 1.071
11.956 0.61799997 0.97799999
11.805 0.63 0.96600002
11.761 0.648 0.96200001
11.778 0.66900003 0.96399999
11.81 0.69099998 0.96600002
11.803 0.71100003 0.96600002
11.746 0.72799999 0.96100003
11.697 0.74599999 0.95700002
11.655 0.76499999 0.954
11.636 0.78500003 0.95200002
11.606 0.80400002 0.94999999
11.583 0.824 0.94800001
11.572 0.84600002 0.94700003
11.561 0.86699998 0.94599998
11.558 0.889 0.94599998
11.57 0.91299999 0.94700003
11.584 0.93699998 0.949
11.62 0.963 0.95200002
11.68 0.99199998 0.95700002
11.747 1.021 0.96200001
11.834 1.053 0.97000003
11.955 1.089 0.98000002
23.077 2.503 1.896
16.618999 1.84 1.365
23.014999 2.549 1.891
16.459999 1.86 1.353
16.408001 1.892 1.349
16.379999 1.927 1.347
16.344999 1.961 1.345
16.347 2 1.345
16.341999 2.0380001 1.345
16.351 2.0780001 1.347
16.371 2.1199999 1.349
16.406 2.165 1.352
16.452999 2.211 1.357
16.556999 2.266 1.3660001
23.038 3.1530001 1.901
22.954 3.198 1.8940001
22.941999 3.2539999 1.8940001
22.955 3.3139999 1.896
22.993999 3.378 1.9
22.974001 3.434 1.9
22.936001 3.487 1.897
22.955999 3.55 1.9
22.962 3.6110001 1.901
22.969999 3.6719999 1.903
22.969 3.733 1.904
22.969 3.7939999 1.905
22.973 3.8559999 1.9069999
22.966 3.9170001 1.9069999
22.976 3.9809999 1.909
22.981001 4.0450001 1.911
22.985001 4.1090002 1.9119999
22.986 4.1719999 1.913
22.992001 4.2379999 1.915
22.993999 4.302 1.916
23.006001 4.3699999 1.919
23.052999 4.4439998 1.924
23.181 4.5349998 1.936
14.158 3.4030001 1.1950001
14.087 3.4300001 1.1900001
14.093 3.4760001 1.192
14.071 3.5150001 1.191
14.041 3.552 1.1900001
14.03 3.5929999 1.1900001
13.996 3.6289999 1.188
13.996 3.674 1.189
13.994 3.7190001 1.1900001
14.009 3.7690001 1.192
14.05 3.825 1.197
14.199 3.9119999 1.211
14.449 4.0289998 1.233
11.039 6.8979998 1.062
10.922 6.875 1.053
10.947 6.9419999 1.057
27.627001 19.783001 2.7539999
27.431 19.778 2.74
14.005 -8.8430004 1.306
14.031 -8.776 1.308
14.064 -8.7119999 1.3099999
14.083 -8.6409998 1.3099999
14.15 -8.6000004 1.3150001
14.213 -8.5550003 1.3200001
14.259 -8.5010004 1.323
14.337 -8.4659996 1.33
14.427 -8.4379997 1.337
11.166 -0.86400002 0.98400003
10.95 -0.82499999 0.96499997
10.892 -0.79900002 0.95999998
10.872 -0.77499998 0.958
10.864 -0.75300002 0.95700002
10.861 -0.73100001 0.95700002
10.847 -0.70899999 0.95599997
10.857 -0.68900001 0.95700002
10.879 -0.66900003 0.95899999
10.89 -0.64899999 0.95999998
10.927 -0.63 0.963
10.948 -0.61000001 0.96499997
10.992 -0.59200001 0.96899998
10.814 -0.56199998 0.95300001
10.802 -0.542 0.95200002
10.902 -0.52700001 0.96100003
12.962 -0.35299999 1.143
12.927 -0.33000001 1.14
12.867 -0.30700001 1.1339999
12.812 -0.285 1.1289999
12.77 -0.26300001 1.126
12.75 -0.242 1.124
12.752 -0.222 1.124
12.734 -0.20100001 1.123
12.763 -0.18099999 1.126
12.784 -0.162 1.127
12.811 -0.142 1.13
12.883 -0.123 1.136
13.125 -0.105 1.158
12.864 0.199 1.094
12.884 0.222 1.096
12.89 0.245 1.096
12.886 0.26800001 1.096
12.889 0.292 1.096
12.895 0.31600001 1.096
12.948 0.34099999 1.1
13.011 0.36700001 1.1059999
13.069 0.39399999 1.11
13.092 0.52399999 1.112
13.062 0.54900002 1.109
13.049 0.57499999 1.108
13.065 0.60299999 1.109
13.135 0.634 1.115
12.058 0.60699999 1.024
11.814 0.62 1.003
11.745 0.64200002 0.99699998
11.739 0.667 0.99699998
11.744 0.69300002 0.99699998
11.764 0.72000003 0.99900001
11.715 0.74299997 0.995
11.671 0.76599997 0.991
11.645 0.79100001 0.98900002
11.608 0.815 0.986
11.579 0.83999997 0.98299998
11.565 0.86500001 0.98199999
11.557 0.89200002 0.98199999
11.555 0.91900003 0.98199999
11.559 0.94599998 0.98199999
11.577 0.97600001 0.98400003
11.622 1.007 0.98799998
11.695 1.0420001 0.99400002
11.782 1.0779999 1.002
11.892 1.118 1.011
12.174 1.174 1.035
23.049999 2.5739999 1.964
16.65 1.902 1.419
22.954 2.622 1.956
16.445 1.921 1.402
16.386999 1.9579999 1.397
16.368999 1.998 1.396
16.35 2.039 1.395
16.323 2.0799999 1.393
16.333 2.125 1.3940001
16.347 2.1700001 1.396
16.378 2.2190001 1.399
16.459 2.2750001 1.406
16.642 2.345 1.423
22.938 3.233 1.961
22.908001 3.2920001 1.959
22.922001 3.3570001 1.961
22.951 3.425 1.964
22.937 3.487 1.964
22.917999 3.549 1.9630001
22.926001 3.615 1.965
22.940001 3.6819999 1.967
22.944 3.7479999 1.9680001
22.947001 3.8139999 1.969
22.961 3.8829999 1.971
22.962 3.9489999 1.972
22.954 4.0139999 1.973
22.952999 4.0809999 1.973
22.959999 4.1500001 1.975
22.959 4.217 1.976
22.974001 4.2880001 1.978
22.982 4.3569999 1.98
23.01 4.4310002 1.983
23.07 4.5120001 1.99
23.167 4.5999999 1.999
14.171 3.3829999 1.233
14.081 3.4059999 1.226
14.087 3.4519999 1.227
14.062 3.4909999 1.226
14.032 3.5280001 1.224
14.015 3.569 1.223
14.015 3.6140001 1.224
13.995 3.654 1.224
13.999 3.701 1.225
14.04 3.757 1.229
14.132 3.8280001 1.238
14.254 3.9070001 1.25
11.373 6.7950001 1.104
11.239 6.7550001 1.0930001
11.186 6.763 1.089
11.152 6.783 1.087
11.166 6.8309999 1.09
11.155 6.8639998 1.091
10.9 7.1669998 1.084
10.805 7.1420002 1.076
10.901 -0.917 0.995
10.861 -0.88200003 0.991
10.863 -0.85100001 0.991
10.839 -0.81800002 0.98799998
10.832 -0.78600001 0.98699999
10.87 -0.75800002 0.991
10.893 -0.72799999 0.99199998
10.881 -0.69599998 0.991
10.794 -0.65899998 0.98299998
10.846 -0.63099998 0.98699999
13.029 -0.45699999 1.183
12.901 -0.41600001 1.1720001
12.817 -0.37599999 1.164
12.741 -0.33700001 1.156
12.719 -0.30000001 1.154
12.707 -0.26300001 1.153
12.711 -0.226 1.153
12.721 -0.19 1.153
12.744 -0.153 1.155
12.816 -0.117 1.161
12.955 -0.081 1.173
13.141 0.32499999 1.141
13.024 0.338 1.13
12.97 0.35299999 1.125
12.93 0.368 1.1210001
12.873 0.38299999 1.1160001
12.848 0.39899999 1.114
12.863 0.417 1.115
12.898 0.435 1.118
12.964 0.45500001 1.123
11.82 0.65200001 1.023
11.708 0.66600001 1.013
11.662 0.68300003 1.0089999
11.664 0.704 1.0089999
11.66 0.72399998 1.0089999
11.685 0.74699998 1.011
11.658 0.76599997 1.0089999
11.627 0.78500003 1.006
11.609 0.80599999 1.005
11.572 0.82499999 1.001
11.567 0.84600002 1.001
11.555 0.86799997 1
11.547 0.889 1
11.542 0.912 0.99900001
11.564 0.93599999 1.001
11.597 0.96200001 1.0039999
11.641 0.98900002 1.008
11.698 1.018 1.013
11.788 1.05 1.021
11.866 1.082 1.028
12.049 1.124 1.045
23.048 2.451 2.0020001
22.895 2.4860001 1.989
16.690001 1.85 1.45
22.915001 2.54 1.9910001
16.487 1.865 1.433
16.427999 1.896 1.428
16.389999 1.929 1.425
16.356001 1.9630001 1.423
16.339001 2 1.4220001
16.330999 2.0380001 1.4220001
16.330999 2.0769999 1.4220001
16.337 2.1170001 1.424
16.379 2.1619999 1.428
16.441 2.211 1.434
16.642 2.279 1.452
22.948999 3.142 2.0020001
22.9 3.1919999 1.999
22.91 3.2509999 2.0009999
22.917 3.3099999 2.0020001
22.943001 3.372 2.006
22.938 3.4300001 2.006
22.910999 3.4849999 2.0050001
22.921 3.546 2.007
22.938 3.608 2.0090001
22.955999 3.671 2.0120001
22.955 3.7320001 2.013
22.947001 3.7920001 2.013
22.943001 3.8529999 2.0139999
22.933001 3.9130001 2.0139999
22.945999 3.977 2.017
22.965 4.0430002 2.02
22.975 4.1079998 2.0220001
22.972 4.171 2.023
22.965 4.2340002 2.023
22.98 4.3010001 2.026
22.976999 4.3649998 2.027
22.993 4.434 2.03
22.982 4.4970002 2.03
23.025 4.5710001 2.0350001
23.052 4.6430001 2.039
23.058001 4.711 2.0409999
23.076 4.7820001 2.0439999
23.082001 4.8520002 2.046
23.098 4.9229999 2.049
14.166 3.4059999 1.266
14.092 3.4319999 1.26
14.071 3.471 1.2589999
14.055 3.5109999 1.2589999
14.035 3.5510001 1.258
13.995 3.585 1.256
13.975 3.625 1.255
13.977 3.6700001 1.256
13.985 3.717 1.258
14.006 3.7679999 1.261
14.082 3.8340001 1.2690001
14.161 3.9030001 1.278
14.247 3.973 1.2869999
11.365 6.3779998 1.131
11.269 6.375 1.123
11.205 6.3889999 1.118
11.182 6.4260001 1.118
11.163 6.4650002 1.118
11.19 6.5310001 1.123
28.177999 19.628 2.954
28.000999 19.641001 2.941
27.906 19.712 2.9360001
27.789 19.766001 2.9300001
27.615 19.778999 2.9170001
27.438999 19.788 2.904
11.015 -0.852 1.018
10.928 -0.82300001 1.01
10.912 -0.80000001 1.0089999
10.881 -0.77600002 1.006
10.854 -0.75199997 1.003
10.854 -0.73100001 1.003
10.851 -0.70899999 1.003
10.855 -0.68800002 1.003
10.861 -0.66799998 1.0039999
10.874 -0.64700001 1.005
10.907 -0.62900001 1.008
10.9 -0.60699999 1.007
10.826 -0.583 1.001
10.795 -0.56099999 0.99800003
13.002 -0.375 1.202
12.883 -0.34999999 1.191
12.833 -0.32699999 1.187
12.752 -0.30399999 1.179
12.719 -0.28200001 1.176
12.688 -0.26100001 1.173
12.693 -0.241 1.174
12.684 -0.22 1.173
12.68 -0.2 1.173
12.698 -0.18000001 1.175
12.701 -0.16 1.175
12.73 -0.141 1.178
12.77 -0.121 1.182
12.866 -0.102 1.191
13.079 -0.083999999 1.21
12.868 0.20100001 1.155
12.871 0.22400001 1.155
12.843 0.24600001 1.152
12.843 0.26899999 1.152
12.816 0.292 1.15
12.83 0.31600001 1.151
12.841 0.34 1.152
12.868 0.36500001 1.154
12.967 0.39300001 1.1619999
13.186 0.42500001 1.182
13.119 0.52600002 1.176
13.106 0.55199999 1.174
11.737 0.64300001 1.052
11.661 0.66399997 1.045
11.626 0.68699998 1.0420001
11.631 0.713 1.0420001
11.632 0.73900002 1.0420001
11.651 0.76599997 1.044
11.622 0.79100001 1.0420001
11.597 0.815 1.039
11.568 0.83999997 1.0369999
11.54 0.86500001 1.034
11.532 0.89099997 1.034
11.532 0.91799998 1.034
11.547 0.94700003 1.036
11.57 0.97600001 1.038
11.62 1.008 1.0420001
11.696 1.043 1.049
11.761 1.0779999 1.0549999
11.866 1.1160001 1.0650001
12.139 1.1720001 1.09
22.955 2.506 2.0639999
22.864 2.5550001 2.056
16.618999 1.9 1.495
22.886999 2.6170001 2.059
16.462 1.925 1.4809999
16.388 1.959 1.475
16.360001 1.999 1.473
16.337 2.039 1.471
16.32 2.0799999 1.47
16.316 2.1240001 1.47
16.312 2.1670001 1.47
16.358999 2.2179999 1.475
16.461 2.276 1.485
23.007 3.1819999 2.076
22.907 3.23 2.0669999
22.865 3.2869999 2.0639999
22.893 3.355 2.0680001
22.93 3.424 2.072
22.914 3.4849999 2.0710001
22.9 3.5480001 2.0710001
22.916 3.615 2.073
22.923 3.681 2.075
22.927999 3.747 2.076
22.923 3.812 2.0769999
22.927 3.878 2.0780001
22.927999 3.9449999 2.079
22.927999 4.0110002 2.0799999
22.945999 4.0809999 2.0829999
22.964001 4.152 2.086
22.976999 4.2220001 2.0880001
22.962 4.2870002 2.0880001
22.966999 4.3559999 2.089
22.978001 4.4260001 2.0910001
22.968 4.493 2.092
22.993 4.5669999 2.095
23.004999 4.6389999 2.098
23 4.7080002 2.098
23.016001 4.7810001 2.1010001
23.034 4.855 2.1040001
23.08 4.9359999 2.1099999
14.197 3.3900001 1.304
14.082 3.4070001 1.295
14.04 3.441 1.2920001
14.042 3.487 1.293
14.019 3.526 1.2920001
13.982 3.5610001 1.289
13.992 3.609 1.291
13.967 3.648 1.29
13.993 3.7 1.293
14.01 3.75 1.296
14.042 3.8039999 1.3
14.134 3.875 1.309
14.229 3.948 1.319
11.27 6.6529999 1.154
11.099 6.592 1.138
11.038 6.5960002 1.133
11.014 6.6209998 1.132
10.983 6.6409998 1.131
10.96 6.6669998 1.13
10.959 6.7059999 1.132
10.967 6.75 1.1339999
10.985 6.8000002 1.138
11.03 -0.95899999 1.0549999
10.911 -0.917 1.043
10.871 -0.88200003 1.039
10.857 -0.85000002 1.0369999
10.846 -0.81699997 1.036
10.835 -0.78500003 1.035
10.873 -0.75700003 1.038
10.839 -0.72299999 1.035
10.778 -0.68800002 1.028
12.926 -0.45199999 1.23
12.845 -0.412 1.222
12.739 -0.37200001 1.212
12.7 -0.33399999 1.2079999
12.701 -0.29800001 1.207
12.705 -0.26100001 1.207
12.702 -0.22400001 1.207
12.731 -0.18799999 1.209
12.748 -0.152 1.21
12.86 -0.116 1.221
11.728 0.66799998 1.0700001
11.628 0.68300003 1.061
11.602 0.70200002 1.058
11.571 0.72000003 1.0549999
11.588 0.74199998 1.057
11.608 0.764 1.059
11.598 0.78500003 1.058
11.587 0.80500001 1.057
11.568 0.82599998 1.0549999
11.54 0.84600002 1.053
11.538 0.86799997 1.053
11.518 0.88800001 1.051
11.543 0.91299999 1.054
11.56 0.93699998 1.0549999
11.584 0.96200001 1.058
11.639 0.99000001 1.063
11.69 1.0190001 1.068
11.756 1.049 1.074
11.843 1.081 1.082
11.981 1.119 1.095
23.076 2.303 2.1110001
22.912001 2.3369999 2.0969999
22.854 2.381 2.092
22.857 2.4319999 2.0929999
22.885 2.487 2.096
16.582001 1.839 1.5190001
16.483 1.865 1.511
16.429001 1.897 1.506
16.378 1.929 1.502
16.368999 1.966 1.502
16.341 2.0009999 1.5
16.325001 2.0380001 1.499
16.311001 2.075 1.498
16.313 2.115 1.499
16.337 2.158 1.502
16.396 2.2060001 1.508
16.579 2.2709999 1.525
22.924999 3.141 2.109
22.893999 3.1930001 2.108
22.903 3.2520001 2.109
22.919001 3.312 2.112
22.948999 3.3740001 2.1159999
22.931999 3.431 2.115
22.919001 3.4879999 2.115
22.907 3.5450001 2.115
22.905001 3.605 2.1159999
22.941999 3.671 2.1210001
22.927 3.7290001 2.1199999
22.937 3.7920001 2.122
22.948999 3.855 2.125
22.933001 3.914 2.125
22.941999 3.9779999 2.1270001
22.947001 4.0419998 2.128
22.957001 4.1059999 2.131
22.954 4.1690001 2.132
22.962999 4.2350001 2.1340001
22.958 4.2979999 2.135
22.972 4.3660002 2.138
22.989 4.434 2.141
22.988001 4.4990001 2.142
22.992001 4.566 2.1440001
22.989 4.632 2.145
23.003 4.7010002 2.148
23.002001 4.7680001 2.1489999
23.011999 4.8379998 2.152
23.028999 4.9099998 2.155
23.065001 4.9860001 2.1600001
23.077999 5.0570002 2.1630001
23.16 5.145 2.1719999
14.361 3.454 1.354
14.103 3.4349999 1.33
14.01 3.457 1.323
14.002 3.4990001 1.323
14.011 3.5450001 1.325
13.996 3.586 1.325
13.955 3.6199999 1.322
13.95 3.664 1.323
13.956 3.71 1.325
13.991 3.7650001 1.329
14.002 3.8139999 1.332
14.055 3.8740001 1.3380001
14.134 3.9419999 1.347
11.364 6.329 1.192
11.241 6.3099999 1.181
11.191 6.3319998 1.177
11.187 6.3800001 1.179
11.177 6.4239998 1.1799999
11.197 6.4850001 1.184
11.324 6.6110001 1.2
27.990999 19.639 3.105
27.895 19.709 3.0999999
27.745001 19.74 3.0899999
27.6 19.773001 3.0799999
27.416 19.777 3.0650001
22.4 -3.142 2.174
22.327 -3.0769999 2.1659999
22.393999 -3.0320001 2.1730001
22.41 -2.98 2.174
22.459 -2.9319999 2.178
11.029 -0.85299999 1.067
10.938 -0.824 1.059
10.919 -0.80000001 1.057
10.897 -0.77700001 1.054
10.863 -0.75300002 1.051
10.86 -0.73100001 1.051
10.847 -0.70899999 1.049
10.855 -0.68800002 1.05
10.862 -0.667 1.051
10.857 -0.64600003 1.05
10.837 -0.62400001 1.048
10.797 -0.60100001 1.045
10.869 -0.58499998 1.052
13.076 -0.35499999 1.265
12.948 -0.33000001 1.253
12.855 -0.30599999 1.244
12.799 -0.28400001 1.239
12.759 -0.26199999 1.235
12.757 -0.241 1.235
12.775 -0.221 1.237
12.781 -0.20100001 1.237
12.817 -0.18099999 1.2410001
12.857 -0.161 1.245
12.901 -0.142 1.249
12.986 -0.123 1.258
12.916 0.204 1.22
12.955 0.227 1.224
12.936 0.25 1.222
12.97 0.27399999 1.225
12.984 0.29800001 1.226
13.001 0.322 1.227
13.061 0.34799999 1.233
13.086 0.373 1.235
11.765 0.671 1.109
11.634 0.68900001 1.097
11.584 0.71100003 1.092
11.549 0.73500001 1.089
11.568 0.76200002 1.091
11.581 0.78899997 1.092
11.575 0.815 1.092
11.56 0.84100002 1.091
11.541 0.866 1.089
11.52 0.89099997 1.087
11.51 0.917 1.086
11.525 0.94599998 1.0880001
11.541 0.97500002 1.09
11.589 1.007 1.094
11.651 1.04 1.1
11.721 1.075 1.107
11.784 1.11 1.113
11.89 1.149 1.124
23.002001 2.3380001 2.175
22.898001 2.385 2.1659999
22.827999 2.4360001 2.1600001
22.813999 2.493 2.1589999
22.851999 2.556 2.1630001
16.596001 1.899 1.571
16.485001 1.929 1.561
16.413 1.9630001 1.5549999
16.368 2.0009999 1.551
16.344999 2.0409999 1.55
16.319 2.082 1.548
16.312 2.1240001 1.5470001
16.294001 2.1659999 1.546
16.325001 2.214 1.55
16.406 2.27 1.558
23.150999 3.2030001 2.1989999
16.663 2.3510001 1.5829999
22.899 3.2309999 2.1760001
22.888 3.2920001 2.1760001
22.882 3.355 2.1760001
22.912001 3.4230001 2.1800001
22.924999 3.4890001 2.1819999
22.889999 3.5480001 2.1800001
22.896999 3.6129999 2.181
22.902 3.6789999 2.1830001
22.909 3.7449999 2.184
22.914 3.812 2.1860001
22.926001 3.8800001 2.188
22.945 3.9489999 2.191
22.948 4.0159998 2.1919999
22.938999 4.0819998 2.1930001
22.948999 4.151 2.1949999
22.952 4.2189999 2.1960001
22.966 4.289 2.1989999
22.966999 4.3569999 2.2
22.982 4.4289999 2.2030001
22.993 4.5 2.2049999
22.988001 4.5679998 2.2060001
23.013 4.6420002 2.21
23.021999 4.7140002 2.2119999
23.031 4.7859998 2.214
23.038 4.8569999 2.2160001
23.049999 4.9299998 2.2179999
23.08 5.0079999 2.223
23.122 5.0879998 2.2279999
14.333 3.4230001 1.387
14.089 3.4089999 1.364
14.026 3.4389999 1.359
14.003 3.4779999 1.358
13.999 3.5220001 1.358
13.976 3.5610001 1.357
13.949 3.599 1.3559999
13.954 3.645 1.357
13.972 3.6949999 1.36
14.005 3.7490001 1.364
14.02 3.799 1.367
14.096 3.8659999 1.375
14.235 3.95 1.39
22.479 -3.1889999 2.2590001
22.247 -3.092 2.2349999
22.329 -3.0380001 2.243
22.35 -2.9760001 2.2449999
10.928 -0.917 1.092
10.877 -0.88200003 1.087
10.855 -0.84799999 1.084
10.843 -0.81599998 1.0829999
10.838 -0.78399998 1.082
10.821 -0.75199997 1.08
10.756 -0.71600002 1.073
10.88 -0.69300002 1.085
11.137 -0.67699999 1.1109999
13.043 -0.417 1.2970001
12.931 -0.37599999 1.286
12.859 -0.33700001 1.278
12.842 -0.29899999 1.276
12.86 -0.26199999 1.278
12.931 -0.227 1.284
12.986 -0.19 1.289
13.088 -0.154 1.299
11.658 0.70599997 1.118
11.578 0.722 1.11
11.541 0.74000001 1.107
11.541 0.76099998 1.107
11.568 0.78399998 1.11
11.578 0.80599999 1.1109999
11.559 0.82599998 1.109
11.538 0.847 1.107
11.527 0.86799997 1.1059999
11.513 0.889 1.105
11.512 0.912 1.105
11.539 0.93699998 1.108
11.567 0.96200001 1.1109999
11.618 0.99000001 1.1160001
11.656 1.017 1.12
11.694 1.044 1.124
11.779 1.076 1.132
11.907 1.113 1.145
