# .PCD v0.7 - Point Cloud Data file format
VERSION 0.7
FIELDS x y z
SIZE 4 4 4
TYPE F F F
COUNT 1 1 1
WIDTH 1849
HEIGHT 1
VIEWPOINT 0 0 0 1 0 0 0
POINTS 1849
DATA ascii
14.026 1.906 0.213
14.048 1.9450001 0.213
14.039 1.979 0.213
14.091 2.0220001 0.214
14.112 2.0610001 0.214
14.131 2.0999999 0.214
14.185 2.145 0.215
14.219 2.187 0.215
14.25 2.23 0.21600001
14.27 2.2709999 0.21600001
14.346 2.3210001 0.21699999
14.376 2.3640001 0.21699999
14.461 2.4170001 0.219
12.182 2.069 0.184
12.029 2.076 0.182
11.968 2.099 0.18099999
11.936 2.1259999 0.18000001
11.929 2.158 0.18000001
11.935 2.1930001 0.18000001
11.939 2.227 0.18000001
11.738 2.223 0.177
11.617 2.233 0.175
11.567 2.257 0.17399999
11.552 2.2869999 0.17399999
11.58 2.326 0.17399999
11.691 2.382 0.176
15.108 3.079 0.228
14.927 3.086 0.22499999
14.956 3.1359999 0.22499999
14.974 3.184 0.22499999
15.029 3.2409999 0.226
15.049 3.29 0.227
15.132 3.3540001 0.228
15.144 3.4030001 0.228
15.222 3.4660001 0.229
15.214 3.5109999 0.229
15.265 3.5699999 0.23
15.26 3.6159999 0.229
15.366 3.6889999 0.23100001
15.456 3.7590001 0.23199999
15.486 3.8150001 0.233
15.465 3.859 0.23199999
15.46 3.9070001 0.23199999
15.526 3.973 0.233
15.621 4.0469999 0.235
15.639 4.1020002 0.235
15.73 4.177 0.236
15.784 4.243 0.237
15.815 4.303 0.23800001
15.815 4.355 0.23800001
15.892 4.4289999 0.23899999
15.955 4.4990001 0.23999999
16.025999 4.572 0.241
16.046 4.632 0.241
16.087999 4.698 0.242
16.136 4.7670002 0.243
16.287001 4.8670001 0.245
16.264 4.915 0.244
16.306 4.9840002 0.245
16.379 5.0619998 0.24600001
16.408001 5.1279998 0.24699999
16.469999 5.204 0.248
16.452999 5.257 0.24699999
16.517 5.335 0.248
16.546 5.402 0.249
16.594 5.4770002 0.25
16.627001 5.5469999 0.25
16.698 5.6300001 0.25099999
16.736 5.7020001 0.252
16.754 5.7690001 0.252
16.884001 5.8740001 0.25400001
16.900999 5.9419999 0.25400001
16.927 6.013 0.255
16.969 6.0890002 0.25600001
11.341 4.6240001 0.171
11.172 4.598 0.169
11.138 4.6279998 0.168
11.156 4.6789999 0.169
11.234 4.756 0.17
11.257 4.809 0.17
11.232 4.8429999 0.17
11.28 4.9089999 0.171
12.357 5.8769999 0.18799999
12.272 5.8870001 0.18700001
12.272 6.092 0.18700001
12.221 6.118 0.186
12.197 6.3130002 0.186
12.209 6.3709998 0.18700001
12.213 6.4260001 0.18700001
12.204 6.474 0.18700001
8.1639996 -5.3730001 0.229
8.2080002 -5.3509998 0.23
8.2539997 -5.329 0.23199999
8.2840004 -5.2979999 0.23199999
8.3190002 -5.2690001 0.233
8.3470001 -5.237 0.234
8.3739996 -5.204 0.234
8.4040003 -5.1719999 0.235
8.4370003 -5.1430001 0.236
8.4659996 -5.1110001 0.237
8.493 -5.0780001 0.237
8.5200005 -5.0450001 0.23800001
8.5480003 -5.0139999 0.23800001
8.5649996 -4.9759998 0.23899999
8.5880003 -4.941 0.23899999
8.6110001 -4.9060001 0.23999999
8.6289997 -4.8699999 0.23999999
8.6700001 -4.8460002 0.241
8.6870003 -4.8080001 0.242
8.7279997 -4.7839999 0.243
8.7659998 -4.7589998 0.243
8.7989998 -4.73 0.244
8.7930002 -4.6810002 0.244
8.809 -4.6440001 0.244
8.8290005 -4.6090002 0.245
8.849 -4.5749998 0.245
8.8780003 -4.5450001 0.24600001
8.915 -4.5190001 0.24699999
8.9460001 -4.4899998 0.248
8.9560003 -4.4510002 0.248
8.9940004 -4.4260001 0.249
9.0089998 -4.3899999 0.249
9.0430002 -4.3629999 0.25
9.0839996 -4.3390002 0.25099999
9.1199999 -4.3130002 0.252
9.1429996 -4.2820001 0.252
9.1459999 -4.2399998 0.252
9.1700001 -4.2090001 0.25299999
9.1899996 -4.1760001 0.25299999
9.2200003 -4.1479998 0.25400001
9.2489996 -4.119 0.255
9.2779999 -4.0900002 0.255
9.3070002 -4.0609999 0.25600001
9.3249998 -4.0279999 0.257
9.3710003 -4.006 0.25799999
9.3979998 -3.977 0.25799999
9.4429998 -3.9549999 0.25999999
9.4580002 -3.921 0.25999999
9.4860001 -3.892 0.26100001
9.5139999 -3.8640001 0.26100001
9.5360003 -3.832 0.26199999
9.559 -3.8010001 0.26199999
9.5810003 -3.77 0.26300001
9.5909996 -3.7349999 0.26300001
9.6459999 -3.717 0.26499999
9.6669998 -3.6860001 0.26499999
9.6920004 -3.6570001 0.266
9.7349997 -3.6340001 0.26699999
9.7370005 -3.596 0.26699999
9.783 -3.5739999 0.26800001
9.8030005 -3.543 0.26800001
9.8290005 -3.5150001 0.26899999
9.8500004 -3.484 0.27000001
9.8830004 -3.457 0.27000001
9.9200001 -3.4330001 0.271
9.9469995 -3.405 0.27200001
9.9770002 -3.3770001 0.273
10.008 -3.3499999 0.27399999
10.018 -3.3169999 0.27399999
10.056 -3.2920001 0.27500001
10.075 -3.2609999 0.27500001
10.159 -3.2520001 0.278
10.187 -3.224 0.278
10.224 -3.1989999 0.27900001
10.187 -3.151 0.278
10.218 -3.1240001 0.27900001
10.246 -3.0969999 0.28
10.278 -3.0710001 0.28099999
10.288 -3.0380001 0.28099999
10.334 -3.016 0.28200001
10.364 -2.9890001 0.28299999
10.383 -2.96 0.28299999
10.436 -2.9389999 0.285
10.463 -2.9119999 0.285
10.485 -2.8829999 0.28600001
10.53 -2.8610001 0.287
10.562 -2.8340001 0.28799999
10.582 -2.8050001 0.28799999
10.617 -2.78 0.289
10.663 -2.7579999 0.29100001
10.699 -2.733 0.292
10.714 -2.7019999 0.292
10.756 -2.6789999 0.29300001
10.761 -2.6459999 0.29300001
10.784 -2.618 0.294
10.833 -2.596 0.29499999
10.881 -2.5739999 0.296
10.92 -2.55 0.29699999
10.963 -2.527 0.29800001
10.973 -2.4960001 0.29899999
11.014 -2.4719999 0.30000001
11.057 -2.4489999 0.301
11.081 -2.421 0.30199999
11.105 -2.3940001 0.30199999
11.141 -2.369 0.303
11.196 -2.348 0.30500001
11.217 -2.3199999 0.30500001
11.303 -2.3050001 0.308
11.348 -2.2820001 0.30899999
9.9390001 -1.97 0.27000001
9.8299999 -1.921 0.26699999
9.7989998 -1.887 0.266
9.842 -1.868 0.26800001
9.8999996 -1.852 0.26899999
9.9370003 -1.831 0.27000001
9.9399996 -1.804 0.27000001
9.9750004 -1.784 0.271
10.097 -1.778 0.27500001
11.753 -2.0380001 0.31999999
11.777 -2.0109999 0.31999999
11.801 -1.984 0.32100001
11.852 -1.961 0.322
11.943 -1.9450001 0.32499999
12.038 -1.929 0.32699999
11.97 -1.888 0.32600001
12.006 -1.863 0.32699999
11.999 -1.831 0.32600001
12.045 -1.807 0.32800001
12.085 -1.783 0.329
12.111 -1.756 0.329
12.178 -1.7359999 0.331
12.183 -1.707 0.331
12.202 -1.679 0.33199999
12.19 -1.648 0.33199999
12.224 -1.623 0.333
12.269 -1.599 0.33399999
12.292 -1.573 0.33399999
12.321 -1.548 0.33500001
12.36 -1.523 0.336
12.377 -1.4960001 0.33700001
12.445 -1.476 0.33899999
12.452 -1.448 0.33899999
12.452 -1.419 0.33899999
12.524 -1.399 0.34099999
12.547 -1.373 0.34099999
12.62 -1.352 0.34299999
12.69 -1.331 0.345
12.696 -1.304 0.34599999
12.748 -1.281 0.347
12.828 -1.261 0.34900001
12.868 -1.237 0.34999999
12.558 -1.073 0.34200001
12.304 -1.026 0.33500001
12.278 -0.99800003 0.33399999
12.314 -0.97500002 0.336
13.33 0.17900001 0.249
13.431 0.204 0.25099999
13.422 0.228 0.25099999
13.448 0.25299999 0.25099999
13.436 0.278 0.25099999
13.457 0.303 0.25099999
13.483 0.329 0.25099999
13.481 0.35499999 0.25099999
13.451 0.38100001 0.25
13.448 0.40700001 0.25
13.462 0.43399999 0.25
13.437 0.46000001 0.249
13.456 0.48800001 0.249
13.477 0.51599997 0.25
13.487 0.54400003 0.25
13.481 0.57200003 0.249
13.477 0.60000002 0.249
13.499 0.63 0.249
13.444 0.65600002 0.248
13.464 0.68599999 0.248
13.452 0.71399999 0.248
13.49 0.74599999 0.248
13.494 0.77600002 0.248
13.504 0.80699998 0.248
13.512 0.838 0.248
13.512 0.86799997 0.248
13.531 0.89999998 0.248
13.536 0.93199998 0.248
13.53 0.963 0.248
13.538 0.995 0.248
13.559 1.029 0.248
13.547 1.0599999 0.248
13.533 1.091 0.248
13.563 1.126 0.248
13.626 1.165 0.249
13.704 1.205 0.25
13.743 1.242 0.25099999
13.737 1.276 0.25099999
13.779 1.314 0.25099999
13.785 1.349 0.25099999
13.77 1.382 0.25099999
13.807 1.421 0.25099999
13.866 1.4630001 0.252
13.962 1.5089999 0.25400001
13.975 1.546 0.25400001
13.987 1.584 0.25400001
13.979 1.62 0.25400001
14.001 1.659 0.25400001
14.021 1.699 0.25400001
14.058 1.7410001 0.255
14.108 1.785 0.25600001
14.138 1.827 0.25600001
14.166 1.869 0.257
14.226 1.916 0.25799999
14.222 1.954 0.257
14.286 2.0020001 0.25799999
14.301 2.0439999 0.259
14.325 2.0869999 0.259
14.413 2.1400001 0.25999999
14.478 2.191 0.26199999
14.529 2.2390001 0.26199999
14.582 2.289 0.26300001
14.609 2.335 0.264
14.661 2.385 0.26499999
14.754 2.4430001 0.266
14.735 2.4820001 0.266
14.808 2.5380001 0.26699999
12.047 2.0999999 0.21699999
11.949 2.118 0.215
11.905 2.145 0.214
11.895 2.178 0.214
11.906 2.2160001 0.214
11.779 2.227 0.212
11.638 2.2349999 0.20900001
11.571 2.257 0.208
11.551 2.2880001 0.208
11.591 2.3310001 0.208
11.769 2.4030001 0.211
15.286 3.1210001 0.27500001
15.219 3.154 0.273
15.271 3.211 0.27399999
15.343 3.2739999 0.27599999
15.431 3.3399999 0.27700001
15.434 3.3889999 0.27700001
15.492 3.45 0.278
15.544 3.51 0.27900001
15.559 3.562 0.27900001
15.674 3.638 0.28099999
15.707 3.6949999 0.28200001
15.731 3.75 0.28200001
15.89 3.839 0.285
15.836 3.8759999 0.28400001
15.932 3.951 0.28600001
15.906 3.9949999 0.285
15.958 4.0599999 0.28600001
16.009001 4.125 0.287
16.034 4.1830001 0.287
16.079 4.2470002 0.28799999
16.084999 4.3010001 0.28799999
16.153999 4.3720002 0.289
16.212999 4.441 0.28999999
16.357 4.5349998 0.29300001
16.431 4.6090002 0.294
16.405001 4.6560001 0.294
16.523001 4.7449999 0.296
16.51 4.796 0.296
16.589001 4.8740001 0.29699999
16.666 4.9520001 0.29800001
16.697001 5.0180001 0.29899999
16.788 5.1009998 0.301
16.849001 5.177 0.30199999
16.792999 5.217 0.301
16.843 5.289 0.30199999
16.868999 5.355 0.30199999
16.915001 5.427 0.303
17.087 5.54 0.30599999
17.035999 5.5819998 0.30500001
17.069 5.651 0.30599999
17.204 5.7550001 0.308
17.202 5.8140001 0.308
17.224001 5.881 0.308
17.370001 5.9910002 0.31099999
11.489 4.691 0.206
11.218 4.6209998 0.20100001
11.148 4.632 0.2
11.125 4.6620002 0.2
11.131 4.7049999 0.2
11.2 4.7740002 0.20100001
11.215 4.8210001 0.20100001
11.219 4.8629999 0.20100001
11.227 4.9070001 0.20200001
11.315 4.9860001 0.20299999
12.231 5.8790002 0.22
12.236 5.9260001 0.221
12.197 6.3969998 0.221
12.189 6.4369998 0.221
12.233 6.5050001 0.221
12.33 6.6009998 0.223
8.7770004 -5.1849999 0.264
8.802 -5.1750002 0.264
8.8129997 -5.1560001 0.26499999
8.809 -5.1279998 0.26499999
8.835 -5.119 0.26499999
8.868 -5.112 0.266
8.8479996 -5.0749998 0.266
8.8479996 -5.0500002 0.266
8.8850002 -5.046 0.26699999
8.8900003 -5.0229998 0.26699999
8.9119997 -5.0100002 0.26800001
8.9379997 -4.9990001 0.26899999
8.9239998 -4.9650002 0.26800001
8.9399996 -4.948 0.26899999
8.9560003 -4.9310002 0.26899999
8.9610004 -4.908 0.26899999
8.9779997 -4.8920002 0.27000001
9.0030003 -4.8800001 0.271
9.0089998 -4.8569999 0.271
9.0299997 -4.842 0.27200001
9.0450001 -4.8239999 0.27200001
9.0570002 -4.8039999 0.27200001
9.0579996 -4.7789998 0.27200001
9.1110001 -4.7800002 0.27399999
9.1350002 -4.7659998 0.27500001
9.2550001 -4.802 0.278
9.2130003 -4.7540002 0.27700001
9.1590004 -4.6989999 0.27500001
9.158 -4.6719999 0.27500001
9.1569996 -4.645 0.27500001
9.1709995 -4.6259999 0.27599999
9.1750002 -4.6009998 0.27599999
9.1940002 -4.5840001 0.27700001
9.2110004 -4.566 0.27700001
9.224 -4.5450001 0.27700001
9.2399998 -4.527 0.278
9.2639999 -4.5110002 0.27900001
9.2910004 -4.4980001 0.28
9.3070002 -4.4780002 0.28
9.3199997 -4.4569998 0.28
9.368 -4.4530001 0.28200001
9.3760004 -4.4289999 0.28200001
9.3620005 -4.3959999 0.28200001
9.3950005 -4.3839998 0.28299999
9.3990002 -4.3579998 0.28299999
9.4160004 -4.3390002 0.28299999
9.4280005 -4.3169999 0.28400001
9.441 -4.296 0.28400001
9.4729996 -4.283 0.285
9.4709997 -4.2540002 0.285
9.4980001 -4.2379999 0.28600001
9.5159998 -4.2189999 0.28600001
9.5039997 -4.1859999 0.28600001
9.5380001 -4.1729999 0.287
9.5500002 -4.1500001 0.287
9.5459995 -4.1209998 0.287
9.5799999 -4.1079998 0.28799999
9.5909996 -4.0840001 0.289
9.6190004 -4.0679998 0.289
9.665 -4.0599999 0.29100001
9.6870003 -4.0409999 0.292
9.6859999 -4.0120001 0.292
9.6660004 -3.9749999 0.29100001
9.7010002 -3.9619999 0.292
9.7150002 -3.9389999 0.292
9.7290001 -3.9159999 0.29300001
9.7379999 -3.892 0.29300001
9.7700005 -3.8759999 0.294
9.8009996 -3.8599999 0.29499999
9.823 -3.8399999 0.296
9.835 -3.816 0.296
9.8500004 -3.793 0.296
9.8570004 -3.767 0.29699999
9.8780003 -3.747 0.29699999
9.9119997 -3.7309999 0.29800001
9.9259996 -3.707 0.29899999
9.9420004 -3.684 0.29899999
9.9639997 -3.6630001 0.30000001
9.9960003 -3.6459999 0.301
10.005 -3.6199999 0.301
10.016 -3.595 0.301
10.037 -3.573 0.30199999
10.055 -3.55 0.303
10.112 -3.5409999 0.30399999
10.105 -3.5090001 0.30399999
10.111 -3.4820001 0.30399999
10.14 -3.4630001 0.30500001
10.151 -3.437 0.30500001
10.166 -3.4130001 0.30599999
10.191 -3.392 0.30700001
10.212 -3.369 0.30700001
10.239 -3.348 0.308
10.296 -3.3369999 0.31
10.36 -3.3269999 0.31200001
10.357 -3.296 0.31200001
10.325 -3.256 0.31099999
10.346 -3.233 0.31099999
10.36 -3.207 0.31200001
10.371 -3.181 0.31200001
10.4 -3.1589999 0.31299999
10.391 -3.1259999 0.31299999
10.427 -3.1070001 0.31400001
10.459 -3.086 0.315
10.49 -3.0650001 0.31600001
10.51 -3.0409999 0.31600001
10.521 -3.013 0.31600001
10.572 -2.997 0.31799999
10.588 -2.971 0.31799999
10.605 -2.9460001 0.31900001
10.661 -2.9300001 0.32100001
10.682 -2.905 0.32100001
10.697 -2.878 0.322
10.717 -2.8529999 0.322
10.75 -2.8299999 0.32300001
10.768 -2.8039999 0.324
10.854 -2.7950001 0.32600001
10.848 -2.7620001 0.32600001
10.9 -2.744 0.32800001
10.942 -2.723 0.329
10.973 -2.6989999 0.33000001
11.026 -2.6800001 0.331
11.055 -2.6559999 0.33199999
11.048 -2.622 0.33199999
11.081 -2.598 0.333
11.119 -2.575 0.33399999
11.156 -2.5510001 0.33500001
11.203 -2.53 0.33700001
11.22 -2.5009999 0.33700001
11.267 -2.4790001 0.33899999
11.25 -2.4430001 0.338
11.332 -2.428 0.34
11.368 -2.4030001 0.34200001
11.394 -2.3759999 0.34200001
11.387 -2.342 0.34200001
11.479 -2.3280001 0.345
11.544 -2.3080001 0.347
11.655 -2.2969999 0.34999999
9.9110003 -1.924 0.29800001
9.8070002 -1.876 0.294
9.823 -1.851 0.29499999
9.8640003 -1.83 0.296
9.9320002 -1.814 0.29800001
9.934 -1.786 0.29800001
9.9560003 -1.762 0.29899999
10.044 -1.748 0.301
12.055 -2.0639999 0.36199999
11.963 -2.0139999 0.359
12.029 -1.99 0.361
12.114 -1.97 0.36399999
12.202 -1.914 0.366
12.167 -1.874 0.36500001
12.186 -1.842 0.366
12.259 -1.818 0.368
12.286 -1.7869999 0.36899999
12.325 -1.757 0.37
12.346 -1.725 0.37
12.398 -1.696 0.37200001
12.409 -1.6619999 0.37200001
12.481 -1.636 0.37400001
12.51 -1.604 0.375
12.536 -1.572 0.37599999
12.606 -1.545 0.37799999
12.637 -1.512 0.37900001
12.665 -1.479 0.38
12.722 -1.45 0.38100001
12.807 -1.423 0.384
12.899 -1.396 0.38699999
12.369 -1.1619999 0.37099999
12.246 -1.1160001 0.36700001
12.267 -1.082 0.36700001
14.022 0.48100001 0.28799999
13.967 0.49900001 0.287
14.018 0.52200001 0.287
14.047 0.54400003 0.28799999
14.058 0.56599998 0.28799999
14.084 0.58899999 0.28799999
13.99 0.60699999 0.28600001
14.001 0.63 0.28600001
14.005 0.653 0.28600001
14.011 0.676 0.28600001
13.971 0.69700003 0.285
13.976 0.72100002 0.285
13.942 0.74299997 0.28400001
13.951 0.76800001 0.28400001
14.002 0.79500002 0.285
14.01 0.81999999 0.285
14.032 0.847 0.285
14.001 0.87 0.285
14.037 0.898 0.285
14.083 0.92799997 0.28600001
13.692 1.061 0.27700001
13.636 1.084 0.27599999
13.63 1.1109999 0.27599999
14.319 1.226 0.289
14.272 1.252 0.28799999
14.287 1.283 0.289
14.338 1.318 0.28999999
14.356 1.351 0.28999999
14.369 1.383 0.28999999
14.397 1.4170001 0.28999999
14.408 1.45 0.29100001
14.631 1.505 0.29499999
14.617 1.536 0.29499999
14.59 1.566 0.294
14.556 1.596 0.29300001
14.573 1.631 0.29300001
14.599 1.668 0.294
14.604 1.7029999 0.294
14.626 1.74 0.294
14.658 1.779 0.29499999
14.696 1.818 0.296
14.71 1.8559999 0.296
14.75 1.897 0.29699999
14.734 1.931 0.296
14.782 1.973 0.29699999
14.84 2.0179999 0.29800001
14.894 2.063 0.29899999
14.93 2.105 0.30000001
14.961 2.148 0.30000001
15.006 2.1919999 0.301
15.031 2.2349999 0.30199999
15.088 2.2820001 0.303
15.116 2.326 0.303
15.125 2.3670001 0.30399999
15.159 2.4130001 0.30399999
15.166 2.454 0.30399999
15.184 2.4979999 0.30500001
15.219 2.5450001 0.30500001
15.269 2.5940001 0.30599999
15.314 2.6440001 0.30700001
12.128 2.1270001 0.243
15.443 2.7090001 0.31
11.979 2.1340001 0.23999999
11.917 2.1559999 0.23899999
11.884 2.184 0.23800001
11.863 2.2130001 0.23800001
11.819 2.2379999 0.237
11.677 2.2449999 0.234
11.578 2.2590001 0.23199999
11.553 2.2869999 0.23199999
11.539 2.3180001 0.23100001
11.591 2.362 0.23199999
11.78 2.4349999 0.236
15.834 3.2739999 0.31799999
15.86 3.326 0.31799999
15.885 3.378 0.31900001
15.9 3.4289999 0.31900001
15.928 3.483 0.31999999
15.971 3.54 0.32100001
16.028 3.6010001 0.322
16.069 3.6589999 0.32300001
16.079 3.711 0.32300001
16.122999 3.7709999 0.324
16.174999 3.8329999 0.32499999
16.219 3.8940001 0.32600001
16.278 3.9590001 0.32699999
16.341 4.026 0.329
16.334999 4.0760002 0.329
16.405001 4.145 0.33000001
16.424 4.2030001 0.33000001
16.403 4.25 0.33000001
16.479 4.322 0.33199999
16.49 4.3790002 0.33199999
16.562 4.4520001 0.33399999
16.642 4.5279999 0.33500001
16.718 4.6030002 0.33700001
16.747 4.6669998 0.338
16.826 4.744 0.33899999
16.892 4.8189998 0.34099999
16.868 4.869 0.34
16.966999 4.9549999 0.34200001
17.062 5.04 0.34400001
17.08 5.1030002 0.345
17.134001 5.178 0.34599999
17.285 5.2820001 0.34900001
17.27 5.3369999 0.34900001
17.396 5.4359999 0.352
17.402 5.4990001 0.352
17.414 5.5630002 0.352
17.469 5.6420002 0.354
17.538 5.7259998 0.35499999
17.676001 5.8330002 0.35800001
17.525999 5.8460002 0.35499999
17.698 5.9660001 0.359
17.718 6.0359998 0.36000001
17.763 6.1160002 0.361
11.298 4.6059999 0.23100001
11.166 4.5960002 0.229
11.131 4.6240001 0.228
11.147 4.6739998 0.229
11.221 4.75 0.23
11.237 4.8000002 0.23100001
11.217 4.836 0.23100001
11.24 4.8909998 0.23100001
12.287 5.8429999 0.255
12.257 5.8790002 0.25400001
12.269 6.402 0.257
12.237 6.4380002 0.25600001
12.369 6.5599999 0.259
8.4160004 -5.5380001 0.27599999
8.4530001 -5.5089998 0.27700001
8.4949999 -5.4840002 0.27900001
8.5270004 -5.4510002 0.27900001
8.54 -5.408 0.28
8.5769997 -5.3790002 0.28099999
8.6000004 -5.342 0.28099999
8.6359997 -5.3130002 0.28200001
8.6520004 -5.2729998 0.28299999
8.6890001 -5.244 0.28400001
8.71 -5.2059999 0.28400001
8.7370005 -5.1729999 0.285
8.7700005 -5.1420002 0.28600001
8.79 -5.105 0.28600001
8.8170004 -5.0710001 0.287
8.8520002 -5.0419998 0.28799999
8.8739996 -5.006 0.28799999
8.8990002 -4.9720001 0.289
8.9420004 -4.948 0.28999999
8.9680004 -4.914 0.29100001
9.0209999 -4.8959999 0.29300001
9.0699997 -4.875 0.294
9.0670004 -4.8260002 0.294
9.0699997 -4.7810001 0.294
9.0819998 -4.7399998 0.294
9.1190004 -4.7129998 0.29499999
9.132 -4.6739998 0.29499999
9.1499996 -4.6370001 0.296
9.1739998 -4.6040001 0.296
9.2049999 -4.5739999 0.29699999
9.25 -4.5510001 0.29899999
9.2690001 -4.5149999 0.29899999
9.2989998 -4.4850001 0.30000001
9.3509998 -4.4660001 0.301
9.3690004 -4.4299998 0.30199999
9.3850002 -4.3940001 0.30199999
9.4189997 -4.3660002 0.303
9.4239998 -4.3239999 0.303
9.4650002 -4.3000002 0.30399999
9.474 -4.2610002 0.30500001
9.5050001 -4.2319999 0.30500001
9.5469999 -4.2069998 0.30700001
9.5530005 -4.1680002 0.30700001
9.585 -4.1389999 0.308
9.5979996 -4.1030002 0.308
9.625 -4.072 0.30899999
9.6549997 -4.0430002 0.31
9.6960001 -4.0190001 0.31099999
9.7480001 -3.9990001 0.31200001
9.7489996 -3.9579999 0.31200001
9.7770004 -3.928 0.31299999
9.8059998 -3.8989999 0.31400001
9.8170004 -3.8629999 0.31400001
9.8559999 -3.8380001 0.315
9.8889999 -3.8099999 0.31600001
9.901 -3.7750001 0.317
9.9429998 -3.75 0.31799999
9.9779997 -3.724 0.31900001
10.006 -3.6949999 0.31999999
10.029 -3.664 0.31999999
10.06 -3.635 0.32100001
10.085 -3.605 0.322
10.11 -3.575 0.32300001
10.138 -3.546 0.32300001
10.174 -3.52 0.324
10.193 -3.4879999 0.32499999
10.228 -3.4619999 0.32600001
10.25 -3.431 0.32699999
10.276 -3.402 0.32699999
10.311 -3.375 0.32800001
10.357 -3.352 0.33000001
10.453 -3.345 0.333
10.427 -3.299 0.33199999
10.449 -3.2690001 0.33199999
10.449 -3.2320001 0.33199999
10.461 -3.1989999 0.333
10.507 -3.1760001 0.33399999
10.539 -3.1489999 0.33500001
10.569 -3.1210001 0.336
10.654 -3.109 0.33899999
10.701 -3.086 0.34
10.714 -3.0539999 0.34
10.766 -3.0320001 0.34200001
10.826 -3.013 0.34400001
10.855 -2.9849999 0.345
10.89 -2.9579999 0.34599999
10.911 -2.928 0.34599999
10.997 -2.915 0.34900001
11.026 -2.8870001 0.34999999
11.073 -2.8629999 0.35100001
11.129 -2.842 0.35299999
11.178 -2.819 0.35499999
11.239 -2.799 0.35600001
11.277 -2.773 0.35800001
11.282 -2.7390001 0.35800001
11.343 -2.7190001 0.36000001
11.356 -2.687 0.36000001
11.392 -2.6600001 0.361
11.413 -2.6300001 0.36199999
11.482 -2.6110001 0.36399999
11.514 -2.5840001 0.36500001
11.513 -2.55 0.36500001
11.565 -2.527 0.366
11.625 -2.506 0.368
11.669 -2.4809999 0.37
11.694 -2.4519999 0.37
11.765 -2.4330001 0.37200001
11.79 -2.404 0.373
11.905 -2.3940001 0.377
9.8409996 -1.951 0.31099999
9.7869997 -1.9119999 0.31
9.7869997 -1.885 0.31
9.8470001 -1.869 0.31200001
9.9090004 -1.853 0.31299999
9.9280005 -1.83 0.31400001
9.915 -1.8 0.31400001
9.9230003 -1.775 0.31400001
10.01 -1.763 0.317
12.332 -2.1389999 0.38999999
12.246 -2.092 0.38699999
12.243 -2.0580001 0.38699999
12.276 -2.0320001 0.38800001
12.344 -2.0109999 0.38999999
12.435 -1.993 0.39300001
12.673 -1.999 0.40099999
12.578 -1.951 0.398
12.491 -1.906 0.39500001
12.489 -1.874 0.39500001
12.51 -1.846 0.396
12.555 -1.821 0.39700001
12.593 -1.795 0.398
12.638 -1.771 0.40000001
12.666 -1.743 0.40099999
12.736 -1.722 0.403
12.698 -1.686 0.40200001
12.764 -1.664 0.40400001
12.811 -1.64 0.405
12.763 -1.603 0.40400001
12.734 -1.5700001 0.403
12.667 -1.5319999 0.40099999
12.67 -1.503 0.40099999
12.619 -1.467 0.39899999
12.575 -1.433 0.398
12.581 -1.405 0.398
12.569 -1.376 0.398
12.654 -1.3559999 0.40000001
12.455 -1.0650001 0.39399999
12.275 -1.024 0.38800001
12.239 -0.995 0.38699999
12.24 -0.97000003 0.38699999
12.249 -0.94599998 0.38800001
12.348 -0.92799997 0.391
13.725 0.186 0.32300001
13.743 0.211 0.32300001
13.781 0.236 0.324
13.805 0.26199999 0.324
13.792 0.287 0.324
13.821 0.31299999 0.324
13.798 0.33899999 0.324
13.815 0.366 0.324
13.853 0.39399999 0.32499999
13.86 0.421 0.32499999
13.859 0.44800001 0.324
13.875 0.477 0.324
13.871 0.50400001 0.324
13.905 0.53399998 0.32499999
13.903 0.56199998 0.32499999
13.935 0.59299999 0.32499999
13.905 0.62099999 0.324
13.939 0.65200001 0.32499999
13.925 0.68099999 0.324
13.949 0.71200001 0.32499999
13.94 0.74199998 0.324
13.929 0.77200001 0.324
13.984 0.80599999 0.32499999
13.975 0.83600003 0.32499999
14.009 0.87 0.32499999
14.025 0.903 0.32600001
14.04 0.93599999 0.32600001
14.112 0.97299999 0.32699999
13.589 1.097 0.315
13.6 1.131 0.315
13.594 1.163 0.315
13.676 1.2029999 0.31600001
14.442 1.306 0.33399999
14.383 1.337 0.33199999
14.399 1.374 0.333
14.393 1.41 0.33199999
14.45 1.452 0.33399999
14.494 1.493 0.33500001
14.593 1.54 0.33700001
14.713 1.591 0.33899999
14.715 1.6289999 0.33899999
14.712 1.6670001 0.33899999
14.681 1.702 0.338
14.71 1.744 0.33899999
14.724 1.785 0.33899999
14.786 1.832 0.34099999
14.839 1.878 0.34200001
14.869 1.9220001 0.34200001
14.939 1.972 0.34400001
14.974 2.017 0.345
15.01 2.063 0.345
15.033 2.108 0.34599999
15.12 2.1619999 0.34799999
15.164 2.21 0.34900001
15.175 2.2539999 0.34900001
15.243 2.3069999 0.34999999
15.261 2.3529999 0.35100001
15.298 2.402 0.352
15.327 2.45 0.352
15.359 2.4990001 0.35299999
15.428 2.5550001 0.35499999
15.442 2.602 0.35499999
15.482 2.654 0.35600001
15.505 2.7030001 0.35600001
12.178 2.1589999 0.28
15.645 2.773 0.359
11.976 2.158 0.27500001
11.897 2.1789999 0.273
11.862 2.2079999 0.27200001
11.82 2.2349999 0.271
11.692 2.2460001 0.26800001
11.582 2.2590001 0.266
11.541 2.286 0.26499999
11.552 2.323 0.26499999
11.589 2.3659999 0.266
16.48 3.365 0.37799999
11.904 2.467 0.273
16.169001 3.3510001 0.37099999
16.247999 3.4170001 0.373
16.246 3.467 0.373
16.292 3.527 0.37400001
16.334999 3.5869999 0.375
16.379 3.6470001 0.37599999
16.438999 3.7119999 0.37799999
16.475 3.7720001 0.37799999
16.496 3.8280001 0.37900001
16.566 3.8970001 0.38100001
16.562 3.948 0.38
16.737 4.0430002 0.38499999
16.829 4.119 0.38699999
16.848 4.178 0.38699999
16.847 4.2319999 0.38699999
16.927 4.3060002 0.389
16.927 4.3610001 0.389
16.997999 4.434 0.391
17.055 4.5050001 0.39199999
17.117001 4.5770001 0.39399999
17.139999 4.6389999 0.39399999
17.115999 4.6890001 0.39399999
17.198 4.7680001 0.396
17.304001 4.8540001 0.398
17.452999 4.9530001 0.40200001
17.544001 5.0380001 0.40400001
17.655001 5.1279998 0.40700001
17.65 5.1859999 0.40599999
17.697001 5.2589998 0.40799999
17.919001 5.3850002 0.41299999
17.964001 5.4580002 0.414
17.927 5.5079999 0.41299999
17.979 5.585 0.41499999
17.945 5.6350002 0.414
18.044001 5.7270002 0.41600001
18.077 5.7989998 0.417
18.120001 5.875 0.41800001
18.115999 5.9349999 0.41800001
18.118 5.9980001 0.41800001
18.24 6.1009998 0.421
18.301001 6.1849999 0.42300001
18.516001 6.3210001 0.428
11.325 4.6240001 0.26300001
11.192 4.6090002 0.25999999
11.151 4.632 0.25999999
11.116 4.658 0.259
11.141 4.7080002 0.25999999
11.187 4.7680001 0.26100001
11.206 4.816 0.26100001
11.197 4.8530002 0.26100001
11.213 4.9000001 0.26199999
11.311 4.9840002 0.264
9.0170002 -5.3309999 0.31299999
9.0349998 -5.316 0.31400001
9.0410004 -5.2940001 0.31400001
9.0699997 -5.2849998 0.315
9.066 -5.256 0.315
9.1040001 -5.2519999 0.31600001
9.1009998 -5.2249999 0.31600001
9.1079998 -5.2030001 0.31600001
9.1330004 -5.1900001 0.317
9.1300001 -5.1630001 0.317
9.1599998 -5.1529999 0.31799999
9.1730003 -5.1339998 0.31799999
9.1750002 -5.1090002 0.31799999
9.1990004 -5.0960002 0.31900001
9.1940002 -5.066 0.31900001
9.217 -5.052 0.31999999
9.2290001 -5.033 0.31999999
9.2360001 -5.0100002 0.32100001
9.2620001 -4.9970002 0.322
9.2740002 -4.9759998 0.322
9.2860003 -4.9559999 0.322
9.2969999 -4.9349999 0.32300001
9.3120003 -4.9159999 0.32300001
9.3240004 -4.8959999 0.324
9.3079996 -4.8600001 0.32300001
9.3599997 -4.8600001 0.32499999
9.3830004 -4.8449998 0.32600001
9.3739996 -4.8130002 0.32499999
9.3999996 -4.7989998 0.32600001
9.408 -4.776 0.32699999
9.427 -4.7579999 0.32699999
9.4379997 -4.7360001 0.32800001
9.4639997 -4.7220001 0.32800001
9.4790001 -4.7020001 0.329
9.4860001 -4.677 0.329
9.507 -4.6599998 0.33000001
9.5150003 -4.6360002 0.33000001
9.5360003 -4.619 0.331
9.5480003 -4.5970001 0.331
9.5579996 -4.5739999 0.33199999
9.5749998 -4.5539999 0.33199999
9.5889997 -4.533 0.333
9.6040001 -4.5120001 0.333
9.6149998 -4.4889998 0.33399999
9.6359997 -4.4710002 0.33399999
9.6499996 -4.4489999 0.33500001
9.6689997 -4.4299998 0.336
9.6899996 -4.4109998 0.336
9.6870003 -4.382 0.336
9.7200003 -4.368 0.33700001
9.7469997 -4.3520002 0.338
9.75 -4.3249998 0.338
9.7810001 -4.3099999 0.33899999
9.8000002 -4.29 0.34
9.8059998 -4.2639999 0.34
9.8070002 -4.2360001 0.34
9.8339996 -4.2189999 0.34099999
9.8400002 -4.1929998 0.34099999
9.8640003 -4.1739998 0.34200001
9.8710003 -4.1479998 0.34200001
9.9040003 -4.1329999 0.34400001
9.9090004 -4.1059999 0.34400001
9.9300003 -4.086 0.34400001
9.9540005 -4.0669999 0.345
9.9750004 -4.0469999 0.34599999
9.9879999 -4.0229998 0.34599999
10.012 -4.0029998 0.347
10.019 -3.977 0.347
10.049 -3.96 0.34799999
10.052 -3.9319999 0.34900001
10.079 -3.9130001 0.34900001
10.083 -3.885 0.34999999
10.114 -3.868 0.35100001
10.165 -3.8570001 0.352
10.17 -3.8299999 0.35299999
10.194 -3.809 0.35299999
10.198 -3.7809999 0.354
10.218 -3.7579999 0.354
10.215 -3.727 0.354
10.233 -3.704 0.35499999
10.248 -3.6800001 0.35499999
10.274 -3.6589999 0.35600001
10.298 -3.638 0.35699999
10.323 -3.6170001 0.35800001
10.339 -3.592 0.35800001
10.35 -3.566 0.359
10.4 -3.553 0.36000001
10.389 -3.5190001 0.36000001
10.415 -3.4979999 0.361
10.436 -3.474 0.36199999
10.456 -3.451 0.36199999
10.491 -3.4319999 0.36300001
10.528 -3.4130001 0.36500001
10.591 -3.4030001 0.36700001
10.598 -3.3740001 0.36700001
10.624 -3.352 0.368
10.655 -3.3310001 0.36899999
10.647 -3.2969999 0.36899999
10.647 -3.267 0.36899999
10.647 -3.2349999 0.36899999
10.701 -3.221 0.37
10.744 -3.2030001 0.37200001
10.773 -3.1800001 0.373
10.814 -3.161 0.37400001
10.9 -3.154 0.377
10.91 -3.1259999 0.37799999
10.942 -3.1029999 0.37900001
10.957 -3.076 0.37900001
10.971 -3.0480001 0.38
11.028 -3.0320001 0.382
11.081 -3.0139999 0.38299999
11.127 -2.9949999 0.38499999
11.163 -2.9719999 0.38600001
11.171 -2.9419999 0.38600001
11.211 -2.9200001 0.38800001
11.258 -2.9000001 0.389
11.253 -2.8659999 0.389
11.315 -2.849 0.391
11.334 -2.8210001 0.39199999
11.363 -2.796 0.39300001
11.449 -2.7839999 0.396
11.473 -2.756 0.39700001
11.505 -2.7309999 0.398
11.555 -2.71 0.39899999
11.607 -2.688 0.40099999
11.641 -2.6630001 0.40200001
11.622 -2.625 0.40200001
11.669 -2.602 0.403
11.688 -2.572 0.40400001
11.74 -2.55 0.40599999
11.773 -2.523 0.40700001
11.811 -2.497 0.40799999
11.836 -2.4679999 0.40900001
11.846 -2.4360001 0.40900001
11.915 -2.4159999 0.41100001
11.962 -2.391 0.41299999
11.995 -2.3640001 0.414
9.9200001 -1.926 0.34200001
9.802 -1.875 0.338
9.7860003 -1.844 0.338
9.8269997 -1.823 0.33899999
9.9169998 -1.812 0.34200001
9.9259996 -1.785 0.34200001
9.9200001 -1.755 0.34200001
9.9379997 -1.73 0.34299999
10.062 -1.722 0.347
12.423 -2.0910001 0.428
12.5 -2.0680001 0.43099999
12.482 -2.029 0.43000001
12.604 -2.013 0.435
12.702 -1.992 0.43799999
12.668 -1.914 0.43700001
12.709 -1.8839999 0.43799999
12.722 -1.85 0.43799999
12.85 -1.831 0.44299999
12.863 -1.796 0.44299999
12.71 -1.6289999 0.43799999
12.593 -1.5779999 0.43399999
12.577 -1.54 0.433
12.537 -1.499 0.43200001
12.523 -1.462 0.43099999
12.547 -1.429 0.43200001
12.623 -1.402 0.43399999
12.322 -1.1569999 0.42399999
12.218 -1.112 0.41999999
12.209 -1.076 0.41999999
12.284 -1.048 0.42199999
14.726 0.64099997 0.37200001
14.734 0.66500002 0.37200001
14.73 0.76200002 0.37099999
14.728 0.787 0.37099999
14.712 0.81199998 0.37
14.693 0.83600003 0.37
14.793 0.86799997 0.37200001
14.756 0.89300001 0.37099999
14.849 0.92500001 0.373
14.91 0.95599997 0.375
14.852 0.98000002 0.373
13.612 1.0829999 0.34099999
13.557 1.1059999 0.34
13.573 1.135 0.34
15.33 1.346 0.384
15.058 1.354 0.377
15.058 1.386 0.377
15.066 1.419 0.377
15.103 1.455 0.37799999
15.145 1.492 0.37900001
15.205 1.5319999 0.38
15.267 1.572 0.382
15.349 1.615 0.384
15.298 1.6440001 0.382
15.229 1.671 0.38100001
15.22 1.705 0.38
15.269 1.7460001 0.382
15.309 1.786 0.38299999
15.353 1.8279999 0.384
15.434 1.874 0.38600001
15.484 1.9170001 0.38699999
15.507 1.957 0.38699999
15.534 1.998 0.38800001
15.523 2.0350001 0.38800001
15.552 2.0769999 0.38800001
15.591 2.1210001 0.389
15.594 2.1600001 0.389
15.619 2.2030001 0.38999999
15.663 2.2490001 0.391
15.722 2.2980001 0.39300001
15.751 2.3429999 0.39300001
15.822 2.3940001 0.39500001
15.816 2.4349999 0.39500001
15.884 2.487 0.39700001
15.897 2.5309999 0.39700001
15.917 2.5769999 0.398
15.95 2.625 0.39899999
15.981 2.6730001 0.39899999
16.009001 2.721 0.40000001
16.038 2.77 0.40099999
16.149 2.8329999 0.40400001
12.102 2.1559999 0.30199999
16.426001 2.927 0.41100001
11.936 2.1600001 0.29800001
11.869 2.181 0.29699999
11.83 2.207 0.296
11.75 2.2260001 0.294
11.62 2.234 0.29100001
11.567 2.257 0.289
11.553 2.2880001 0.289
11.545 2.3199999 0.289
11.557 2.3559999 0.289
11.699 2.4189999 0.29300001
16.709 3.4549999 0.419
16.653999 3.493 0.417
16.73 3.5580001 0.419
16.764 3.615 0.41999999
16.823 3.678 0.42199999
16.875 3.7409999 0.42300001
16.843 3.7850001 0.42300001
16.934999 3.8570001 0.42500001
16.931999 3.908 0.42500001
16.976999 3.971 0.426
17.09 4.0500002 0.42899999
17.158001 4.119 0.43099999
17.212 4.1859999 0.433
17.339001 4.2719998 0.43599999
17.313999 4.3200002 0.43599999
17.403999 4.3979998 0.43799999
17.714001 4.533 0.44600001
17.624001 4.566 0.44400001
17.665001 4.6339998 0.44499999
17.625 4.6799998 0.44400001
17.709 4.7600002 0.447
17.851999 4.8569999 0.45100001
17.761999 4.8909998 0.44800001
17.957001 5.0040002 0.454
17.938999 5.0580001 0.45300001
17.969999 5.1269999 0.454
18.062 5.2129998 0.45699999
18.083 5.2800002 0.458
18.167 5.3660002 0.46000001
18.204 5.4390001 0.461
18.277 5.5229998 0.463
18.301001 5.5929999 0.46399999
18.327999 5.664 0.465
18.403999 5.7509999 0.46700001
18.319 5.7880001 0.465
18.530001 5.9190001 0.47099999
18.485001 5.9689999 0.47
18.576 6.0640001 0.47299999
18.584 6.1329999 0.47299999
18.643999 6.2179999 0.47499999
18.632999 6.2810001 0.47499999
18.663 6.3579998 0.47600001
11.264 4.592 0.29100001
11.17 4.5970001 0.289
11.152 4.6329999 0.28799999
11.139 4.671 0.28799999
11.183 4.7329998 0.28999999
11.229 4.7969999 0.29100001
11.195 4.8260002 0.29100001
11.208 4.8759999 0.29100001
11.327 4.973 0.29499999
12.511 5.7950001 0.32699999
12.419 5.803 0.32499999
12.38 5.836 0.324
12.429 5.9099998 0.32600001
8.625 -5.6729999 0.324
8.665 -5.645 0.32499999
8.7139997 -5.6230001 0.32699999
8.7419996 -5.5869999 0.32800001
8.7650003 -5.5489998 0.32800001
8.8070002 -5.5219998 0.33000001
8.8389997 -5.4889998 0.331
8.8500004 -5.4429998 0.331
8.8780003 -5.4089999 0.33199999
8.9169998 -5.3800001 0.333
8.9420004 -5.3439999 0.33399999
8.9709997 -5.3099999 0.33399999
9.0010004 -5.277 0.33500001
9.0290003 -5.2420001 0.336
9.0500002 -5.204 0.33700001
9.0830002 -5.1729999 0.338
9.1049995 -5.1350002 0.338
9.1269999 -5.098 0.33899999
9.1490002 -5.0609999 0.34
9.177 -5.027 0.34
9.2130003 -4.9980001 0.34200001
9.2229996 -4.9549999 0.34200001
9.2220001 -4.9070001 0.34099999
9.2659998 -4.882 0.34299999
9.3059998 -4.8559999 0.34400001
9.349 -4.8309999 0.34599999
9.3719997 -4.7950001 0.34599999
9.3940001 -4.7589998 0.347
9.4169998 -4.7249999 0.34799999
9.4580002 -4.698 0.34900001
9.4809999 -4.664 0.34999999
9.4910002 -4.6230001 0.34999999
9.5179996 -4.5900002 0.35100001
9.54 -4.5549998 0.35100001
9.5690002 -4.5240002 0.352
9.5959997 -4.4920001 0.35299999
9.632 -4.4640002 0.354
9.6420002 -4.4239998 0.354
9.6719999 -4.3930001 0.35499999
9.7130003 -4.3670001 0.35699999
9.7399998 -4.335 0.35800001
9.7589998 -4.3000002 0.35800001
9.7910004 -4.2709999 0.359
9.8260002 -4.243 0.36000001
9.8430004 -4.2069998 0.361
9.8769999 -4.178 0.36199999
9.8900003 -4.1409998 0.36199999
9.9069996 -4.1059999 0.36300001
9.948 -4.0799999 0.36399999
9.9820004 -4.052 0.36500001
10.012 -4.0219998 0.366
10.038 -3.9909999 0.36700001
10.073 -3.9630001 0.368
10.102 -3.9330001 0.36899999
10.124 -3.9000001 0.37
10.162 -3.8729999 0.37099999
10.185 -3.8410001 0.37200001
10.248 -3.8239999 0.37400001
10.279 -3.7950001 0.375
10.257 -3.7460001 0.37400001
10.308 -3.724 0.37599999
10.342 -3.697 0.377
10.394 -3.675 0.37900001
10.408 -3.6400001 0.37900001
10.417 -3.6040001 0.37900001
10.485 -3.5880001 0.382
10.517 -3.559 0.38299999
10.577 -3.54 0.38499999
10.601 -3.5090001 0.38499999
10.646 -3.484 0.38699999
10.678 -3.4560001 0.38800001
10.789 -3.4519999 0.39199999
10.838 -3.4289999 0.39399999
10.88 -3.4030001 0.39500001
10.854 -3.3570001 0.39399999
10.899 -3.332 0.396
10.95 -3.309 0.39700001
11.024 -3.293 0.40000001
11.083 -3.2720001 0.40200001
11.121 -3.2449999 0.403
11.174 -3.223 0.405
11.204 -3.1930001 0.40599999
11.231 -3.1630001 0.40700001
11.318 -3.1500001 0.41
11.337 -3.1170001 0.41100001
11.355 -3.0840001 0.41100001
11.435 -3.0680001 0.414
11.453 -3.036 0.41499999
11.449 -2.9979999 0.414
11.51 -2.977 0.417
11.58 -2.9579999 0.419
11.616 -2.9300001 0.41999999
11.665 -2.905 0.42199999
11.697 -2.8759999 0.42300001
11.746 -2.852 0.42500001
11.763 -2.819 0.42500001
11.815 -2.7950001 0.42699999
11.872 -2.7720001 0.42899999
11.901 -2.743 0.43000001
11.92 -2.711 0.43099999
11.973 -2.687 0.433
12.04 -2.6659999 0.435
12.05 -2.6329999 0.435
12.08 -2.6040001 0.43599999
12.115 -2.576 0.43700001
12.178 -2.5539999 0.44
12.211 -2.5250001 0.44100001
12.259 -2.5 0.442
9.8719997 -1.985 0.35600001
9.7860003 -1.9400001 0.35299999
9.7790003 -1.911 0.35299999
9.7910004 -1.886 0.35299999
9.8959999 -1.878 0.35699999
9.9399996 -1.859 0.35800001
9.9209995 -1.8279999 0.35800001
9.8959999 -1.7970001 0.35699999
9.9090004 -1.772 0.35699999
9.9619999 -1.755 0.359
10.186 -1.767 0.36700001
12.816 -2.1889999 0.46200001
12.824 -2.1570001 0.46200001
12.911 -2.1370001 0.465
12.772 -1.635 0.46000001
12.601 -1.5829999 0.454
12.583 -1.551 0.45300001
12.537 -1.516 0.45199999
12.54 -1.488 0.45199999
12.511 -1.455 0.45100001
12.504 -1.426 0.44999999
12.494 -1.396 0.44999999
12.481 -1.3660001 0.44999999
12.497 -1.34 0.44999999
12.511 -1.313 0.45100001
12.604 -1.295 0.454
12.483 -1.068 0.44999999
12.291 -1.025 0.44299999
12.236 -0.995 0.44100001
12.229 -0.97000003 0.44100001
12.231 -0.94499999 0.44100001
12.284 -0.92400002 0.44299999
14.433 0.198 0.40900001
14.436 0.223 0.40900001
14.473 0.25 0.41
14.532 0.278 0.41100001
14.541 0.30500001 0.412
14.618 0.33399999 0.41299999
14.633 0.36199999 0.414
14.607 0.389 0.41299999
14.649 0.41800001 0.414
14.594 0.44499999 0.412
14.638 0.47499999 0.41299999
14.665 0.50599998 0.414
14.682 0.53600001 0.414
14.648 0.56400001 0.41299999
14.691 0.59600002 0.414
14.716 0.62800002 0.414
14.694 0.65700001 0.414
14.819 0.69400001 0.417
14.763 0.72299999 0.41499999
14.789 0.75599998 0.41600001
14.8 0.78899997 0.41600001
14.87 0.82499999 0.41800001
14.894 0.86000001 0.41800001
14.886 0.89200002 0.41800001
14.929 0.92799997 0.419
14.967 0.96499997 0.41999999
15.054 1.005 0.42199999
13.621 1.068 0.38100001
13.545 1.094 0.37900001
13.571 1.1289999 0.38
13.551 1.16 0.37900001
15.286 1.3839999 0.428
15.224 1.416 0.426
15.235 1.455 0.426
15.267 1.4960001 0.42699999
15.308 1.539 0.428
15.384 1.586 0.43000001
15.467 1.6339999 0.43200001
15.537 1.681 0.43399999
15.45 1.712 0.43200001
15.484 1.756 0.43200001
15.494 1.7970001 0.433
15.56 1.846 0.43399999
15.615 1.8940001 0.43599999
15.675 1.943 0.43799999
15.695 1.987 0.43799999
15.734 2.0350001 0.43900001
15.741 2.0780001 0.43900001
15.76 2.1240001 0.44
15.813 2.174 0.44100001
15.89 2.2279999 0.44299999
15.931 2.2780001 0.44400001
15.993 2.332 0.44600001
16.016001 2.3800001 0.447
16.028999 2.427 0.447
16.087 2.4809999 0.449
16.101 2.529 0.449
16.167 2.585 0.45100001
16.150999 2.6289999 0.45100001
16.247999 2.691 0.45300001
16.327999 2.7520001 0.456
16.356001 2.8039999 0.456
16.406 2.8599999 0.458
16.530001 2.9300001 0.461
12.104 2.181 0.338
16.716 3.0120001 0.46599999
11.919 2.1830001 0.333
11.842 2.204 0.33000001
11.768 2.2249999 0.32800001
11.628 2.234 0.324
11.569 2.257 0.32300001
11.539 2.286 0.322
11.542 2.322 0.322
11.556 2.3599999 0.32300001
11.727 2.4300001 0.32699999
17.153 3.5550001 0.479
17.084 3.5929999 0.477
17.141001 3.658 0.479
17.121 3.7060001 0.479
17.232 3.7839999 0.48199999
17.298 3.852 0.484
17.309 3.9089999 0.484
17.360001 3.974 0.486
17.455999 4.0510001 0.48800001
17.427999 4.0999999 0.48800001
17.572001 4.1890001 0.49200001
17.679001 4.2709999 0.495
18.044001 4.5900002 0.50599998
18.131001 4.671 0.50800002
17.988001 4.6919999 0.50400001
18.084999 4.776 0.50700003
18.124001 4.8460002 0.50800002
18.181 4.921 0.50999999
18.233 4.994 0.51200002
18.268 5.0640001 0.51300001
18.362 5.1500001 0.51599997
18.386 5.2179999 0.51700002
18.544001 5.448 0.52200001
18.77 5.5770001 0.528
18.756001 5.6360002 0.528
18.816999 5.8439999 0.52999997
18.798 5.902 0.52999997
18.847 5.9809999 0.53200001
18.844 6.0450001 0.53200001
15.74 5.4819999 0.44600001
15.468 5.441 0.43799999
15.307 5.4380002 0.43399999
15.205 5.454 0.43099999
15.227 5.5159998 0.43200001
11.225 4.6220002 0.32100001
11.135 4.625 0.31799999
11.102 4.651 0.31799999
11.096 4.6890001 0.31799999
11.107 4.7329998 0.31799999
11.133 4.7839999 0.31900001
11.157 4.835 0.31999999
11.161 4.8769999 0.31999999
11.179 4.9250002 0.32100001
11.273 5.007 0.324
12.69 5.7290001 0.36500001
12.379 5.6329999 0.35699999
12.368 5.6729999 0.35600001
12.458 5.7600002 0.359
12.4 5.7779999 0.35800001
12.313 5.783 0.35600001
12.284 5.8130002 0.35499999
12.254 5.8439999 0.354
12.273 5.8979998 0.35499999
12.356 5.9819999 0.35800001
12.184 6.8330002 0.359
11.948 6.744 0.352
11.902 6.7610002 0.35100001
11.933 6.822 0.352
9.276 -5.4889998 0.36500001
9.2910004 -5.4710002 0.366
9.29 -5.4439998 0.366
9.3129997 -5.4310002 0.36700001
9.3070002 -5.4000001 0.366
9.3299999 -5.3870001 0.36700001
9.3360004 -5.3639998 0.36700001
9.3570004 -5.349 0.368
9.3830004 -5.336 0.36899999
9.3760004 -5.3060002 0.36899999
9.4180002 -5.302 0.37099999
9.4239998 -5.2789998 0.37099999
9.4359999 -5.2579999 0.37099999
9.4510002 -5.2389998 0.37200001
9.4540005 -5.2129998 0.37200001
9.4709997 -5.1960001 0.373
9.4980001 -5.1830001 0.37400001
9.5100002 -5.1620002 0.37400001
9.5319996 -5.1459999 0.375
9.5229998 -5.1139998 0.375
9.5439997 -5.0970001 0.375
9.5559998 -5.0760002 0.37599999
9.5819998 -5.0619998 0.377
9.592 -5.04 0.377
9.6569996 -5.046 0.38
9.6260004 -5.0019999 0.37900001
9.6239996 -4.973 0.37900001
9.6379995 -4.9520001 0.37900001
9.6630001 -4.9369998 0.38
9.6619997 -4.908 0.38
9.6890001 -4.8940001 0.38100001
9.6809998 -4.862 0.38100001
9.7080002 -4.8470001 0.382
9.7229996 -4.8260002 0.382
9.7390003 -4.8049998 0.38299999
9.7419996 -4.7779999 0.38299999
9.7559996 -4.757 0.384
9.7749996 -4.7379999 0.384
9.8030005 -4.723 0.38499999
9.8129997 -4.6989999 0.38600001
9.8409996 -4.684 0.38699999
9.8409996 -4.6550002 0.38699999
9.8500004 -4.631 0.38699999
9.8879995 -4.6199999 0.389
9.8889999 -4.5910001 0.389
9.9020004 -4.5689998 0.389
9.9189997 -4.5469999 0.38999999
9.9610004 -4.5380001 0.39199999
9.9619999 -4.5089998 0.39199999
9.9890003 -4.4920001 0.39300001
10.008 -4.4710002 0.39300001
10.016 -4.4460001 0.39399999
10.046 -4.4299998 0.39500001
10.046 -4.4000001 0.39500001
10.043 -4.3699999 0.39500001
10.07 -4.3520002 0.396
10.07 -4.322 0.396
10.125 -4.3169999 0.398
10.166 -4.3049998 0.39899999
10.174 -4.2779999 0.40000001
10.173 -4.2480001 0.40000001
10.198 -4.2290001 0.40000001
10.219 -4.2080002 0.40099999
10.23 -4.1820002 0.40200001
10.254 -4.1620002 0.403
10.259 -4.1339998 0.403
10.288 -4.1160002 0.40400001
10.338 -4.1059999 0.40599999
10.337 -4.0749998 0.40599999
10.333 -4.0430002 0.40599999
10.379 -4.0310001 0.40700001
10.413 -4.0139999 0.40900001
10.394 -3.9760001 0.40799999
10.452 -3.9679999 0.41
10.463 -3.9419999 0.41100001
10.492 -3.9219999 0.412
10.483 -3.888 0.41100001
10.538 -3.878 0.41299999
10.555 -3.8529999 0.414
10.588 -3.8340001 0.41499999
10.63 -3.819 0.417
10.665 -3.8 0.41800001
10.676 -3.773 0.419
10.724 -3.7590001 0.41999999
10.711 -3.723 0.41999999
10.773 -3.7130001 0.42199999
10.806 -3.6930001 0.42399999
10.83 -3.6700001 0.42399999
10.87 -3.652 0.426
10.9 -3.6300001 0.42699999
10.932 -3.609 0.428
10.959 -3.586 0.42899999
10.977 -3.5599999 0.43000001
11.028 -3.5450001 0.43200001
11.09 -3.5320001 0.43399999
11.185 -3.53 0.43799999
11.163 -3.4909999 0.43700001
11.15 -3.454 0.43700001
11.114 -3.411 0.435
11.176 -3.3970001 0.43799999
11.214 -3.3759999 0.43900001
11.227 -3.348 0.43900001
11.302 -3.3369999 0.442
11.302 -3.3050001 0.442
11.302 -3.2720001 0.442
11.393 -3.2650001 0.44600001
11.403 -3.2349999 0.44600001
11.419 -3.2060001 0.447
11.44 -3.1789999 0.44800001
11.484 -3.158 0.449
11.511 -3.132 0.44999999
11.531 -3.1040001 0.45100001
11.558 -3.0780001 0.45199999
11.587 -3.052 0.45300001
11.623 -3.0280001 0.454
11.666 -3.006 0.456
11.666 -2.9719999 0.456
11.715 -2.95 0.458
11.745 -2.924 0.45899999
11.809 -2.9059999 0.461
11.872 -2.8870001 0.46399999
11.88 -2.855 0.46399999
11.923 -2.8310001 0.46599999
11.93 -2.7980001 0.46599999
12.001 -2.78 0.46900001
12.035 -2.753 0.47
12.054 -2.723 0.47099999
12.108 -2.7 0.47299999
12.145 -2.6730001 0.47400001
12.184 -2.6470001 0.47600001
12.185 -2.612 0.47600001
12.221 -2.5840001 0.477
12.334 -2.572 0.48100001
12.307 -2.5309999 0.47999999
12.374 -2.51 0.48300001
12.405 -2.48 0.484
12.429 -2.4489999 0.48500001
9.901 -1.9220001 0.38600001
9.7740002 -1.87 0.38100001
9.7639999 -1.84 0.38100001
9.7930002 -1.817 0.382
9.9280005 -1.813 0.38699999
9.9569998 -1.79 0.38800001
9.8970003 -1.751 0.38600001
9.8920002 -1.722 0.38499999
9.934 -1.7 0.38699999
10.093 -1.699 0.39300001
13.679 -2.027 0.53200001
13.855 -2.0139999 0.53899997
13.837 -1.932 0.53799999
13.753 -1.881 0.53500003
12.653 -1.658 0.49200001
12.599 -1.614 0.49000001
12.565 -1.574 0.48800001
12.545 -1.536 0.48800001
12.495 -1.494 0.486
12.453 -1.4529999 0.484
12.468 -1.419 0.484
12.481 -1.385 0.48500001
12.284 -1.152 0.477
12.215 -1.1109999 0.47400001
12.216 -1.076 0.47400001
12.325 -1.05 0.47799999
15.993 1.4400001 0.477
15.974 1.472 0.477
15.997 1.508 0.477
16.058001 1.549 0.479
16.138 1.592 0.48199999
16.143 1.628 0.48199999
16.176001 1.6670001 0.48300001
16.212999 1.707 0.484
16.177 1.74 0.48300001
16.214001 1.781 0.484
16.257999 1.823 0.48500001
16.301001 1.865 0.486
16.291 1.902 0.486
16.327999 1.9450001 0.48699999
16.347 1.9859999 0.48800001
16.447001 2.0380001 0.491
16.466 2.0799999 0.491
16.488001 2.122 0.49200001
16.500999 2.164 0.49200001
16.528 2.2090001 0.493
16.551001 2.253 0.49399999
16.566 2.296 0.49399999
16.610001 2.3440001 0.49599999
16.681999 2.3970001 0.498
16.681999 2.4389999 0.498
16.768999 2.4949999 0.50099999
16.792999 2.5420001 0.50099999
16.829 2.5910001 0.50300002
16.92 2.6500001 0.505
16.924999 2.6949999 0.50599998
17.017 2.7550001 0.509
17.025999 2.802 0.509
17.02 2.8469999 0.509
17.076 2.9030001 0.51099998
17.118 2.957 0.51200002
17.153 3.01 0.51300001
17.26 3.076 0.51599997
12.096 2.1889999 0.36199999
17.308001 3.1329999 0.51800001
11.909 2.1889999 0.35600001
11.807 2.2030001 0.35299999
11.679 2.2119999 0.34999999
11.621 2.2349999 0.34799999
11.557 2.256 0.34599999
11.53 2.283 0.34599999
11.526 2.316 0.34599999
11.549 2.3540001 0.34599999
11.668 2.4130001 0.34999999
17.799 3.733 0.53399998
17.783001 3.7820001 0.53399998
17.799999 3.839 0.53500003
17.841999 3.902 0.53600001
17.934 3.9760001 0.53899997
18.069 4.0599999 0.54400003
18.065001 4.1139998 0.54400003
18.235001 4.2090001 0.54900002
18.503 4.3280001 0.55699998
18.433001 4.368 0.55599999
18.559999 4.4559999 0.56
18.940001 4.9070001 0.57300001
18.819 4.9359999 0.56900001
18.892 5.0170002 0.57200003
18.660999 5.0159998 0.565
18.785 5.1110001 0.56900001
18.983999 5.2270002 0.57599998
18.872999 5.2589998 0.57300001
18.914 5.3330002 0.574
19.391001 5.9250002 0.59100002
19.552 6.0419998 0.597
15.509 5.395 0.477
15.326 5.3870001 0.472
15.196 5.3959999 0.46799999
15.071 5.4070001 0.465
15.084 5.467 0.465
14.633 5.796 0.45500001
14.736 5.8940001 0.458
11.3 4.6059999 0.352
11.15 4.5879998 0.34799999
11.117 4.618 0.347
11.089 4.6490002 0.34599999
11.089 4.6929998 0.347
11.127 4.7519999 0.34799999
11.154 4.8080001 0.34999999
11.15 4.8499999 0.34999999
11.178 4.9070001 0.35100001
11.317 5.013 0.35600001
12.409 5.5970001 0.391
12.349 5.619 0.389
12.431 5.7069998 0.39199999
12.401 5.744 0.39199999
12.322 5.757 0.38999999
12.288 5.7919998 0.389
12.274 5.836 0.389
12.303 5.9000001 0.38999999
11.976 6.77 0.389
11.867 6.7620001 0.38600001
11.864 6.8130002 0.38600001
8.8760004 -5.836 0.375
8.908 -5.802 0.37599999
8.9370003 -5.7649999 0.377
8.974 -5.7340002 0.37900001
8.9960003 -5.6929998 0.37900001
9.04 -5.6659999 0.38100001
9.0749998 -5.6339998 0.382
9.0970001 -5.5939999 0.38299999
9.1199999 -5.5539999 0.38299999
9.1569996 -5.5240002 0.38499999
9.1669998 -5.4770002 0.38499999
9.217 -5.454 0.38699999
9.2399998 -5.415 0.38699999
9.2670002 -5.3790002 0.38800001
9.2969999 -5.3439999 0.389
9.3290005 -5.3109999 0.38999999
9.3540001 -5.2740002 0.391
9.382 -5.2389998 0.39199999
9.408 -5.2030001 0.39300001
9.4289999 -5.164 0.39300001
9.46 -5.131 0.39500001
9.4969997 -5.1009998 0.396
9.5209999 -5.0650001 0.39700001
9.5380001 -5.0250001 0.39700001
9.5640001 -4.9889998 0.398
9.5880003 -4.9530001 0.39899999
9.6169996 -4.9190001 0.40000001
9.6459999 -4.8860002 0.40099999
9.6619997 -4.8470001 0.40099999
9.6809998 -4.809 0.40200001
9.7080002 -4.7740002 0.403
9.7299995 -4.7379999 0.403
9.7700005 -4.711 0.405
9.7919998 -4.6750002 0.40599999
9.8170004 -4.6399999 0.40599999
9.8389997 -4.6040001 0.40700001
9.8800001 -4.5770001 0.40900001
9.9160004 -4.5479999 0.41
9.9169998 -4.5029998 0.41
9.9540005 -4.4749999 0.41100001
9.9899998 -4.4460001 0.412
10.017 -4.4130001 0.41299999
10.061 -4.388 0.41499999
10.11 -4.3639998 0.417
10.117 -4.323 0.417
10.126 -4.283 0.417
10.18 -4.2620001 0.419
10.201 -4.2270002 0.41999999
10.225 -4.1929998 0.421
10.267 -4.1669998 0.42199999
10.293 -4.1339998 0.42300001
10.336 -4.1079998 0.42500001
10.37 -4.079 0.426
10.377 -4.039 0.426
10.44 -4.0209999 0.428
10.502 -4.0019999 0.43099999
10.528 -3.97 0.43200001
10.553 -3.937 0.433
10.59 -3.9089999 0.43399999
10.665 -3.895 0.43700001
10.701 -3.8659999 0.43799999
10.751 -3.842 0.44
10.798 -3.8169999 0.442
10.847 -3.793 0.44400001
10.874 -3.7609999 0.44499999
10.907 -3.7320001 0.44600001
10.943 -3.7030001 0.447
10.995 -3.6789999 0.449
