# .PCD v0.7 - Point Cloud Data file format
VERSION 0.7
FIELDS x y z
SIZE 4 4 4
TYPE F F F
COUNT 1 1 1
WIDTH 1818
HEIGHT 1
VIEWPOINT 0 0 0 1 0 0 0
POINTS 1818
DATA ascii
11.347 2.5280001 -0.20299999
11.372 2.569 -0.204
11.394 2.6099999 -0.205
11.431 2.654 -0.206
11.438 2.6919999 -0.206
11.489 2.7409999 -0.208
11.516 2.7839999 -0.20900001
11.562 2.832 -0.20999999
11.621 2.8840001 -0.211
11.612 2.9189999 -0.212
11.623 2.9590001 -0.212
11.632 2.9990001 -0.213
11.648 3.0409999 -0.214
11.689 3.0899999 -0.215
11.708 3.1329999 -0.21600001
11.709 3.1719999 -0.21600001
11.727 3.2149999 -0.21699999
11.753 3.2609999 -0.21799999
11.785 3.309 -0.219
11.848 3.3659999 -0.22
11.932 3.4300001 -0.222
11.955 3.4760001 -0.223
11.983 3.5239999 -0.22400001
12.012 3.573 -0.22499999
12.013 3.6140001 -0.226
12.041 3.6630001 -0.227
12.069 3.7119999 -0.228
12.067 3.7520001 -0.228
12.107 3.806 -0.229
12.117 3.8499999 -0.23
12.14 3.8989999 -0.23100001
12.183 3.954 -0.23199999
12.178 3.994 -0.233
12.22 4.0500002 -0.234
12.242 4.0999999 -0.235
12.271 4.152 -0.236
12.255 4.1890001 -0.236
12.297 4.2459998 -0.23800001
12.31 4.2930002 -0.23800001
12.319 4.3390002 -0.23899999
12.353 4.3940001 -0.23999999
7.7680001 2.79 -0.15099999
12.445 4.4699998 -0.243
7.645 2.773 -0.149
12.665 4.5939999 -0.24699999
7.5970001 2.7820001 -0.149
7.5840001 2.8039999 -0.149
7.5609999 2.822 -0.149
7.5190001 2.8329999 -0.148
7.4349999 2.8269999 -0.147
7.388 2.836 -0.146
7.3579998 2.8499999 -0.146
7.3509998 2.8740001 -0.146
7.3540001 2.901 -0.146
7.3779998 2.937 -0.147
7.4819999 3.0050001 -0.15000001
12.651 5.0809999 -0.25299999
12.569 5.0929999 -0.252
12.583 5.1440001 -0.25299999
12.601 5.1960001 -0.25400001
12.626 5.2519999 -0.255
12.639 5.303 -0.25600001
12.655 5.355 -0.257
12.667 5.4060001 -0.25799999
12.711 5.4699998 -0.259
12.739 5.5289998 -0.26100001
12.739 5.5739999 -0.26100001
12.751 5.6259999 -0.26199999
12.757 5.6750002 -0.26300001
12.774 5.7290001 -0.264
12.779 5.777 -0.264
12.81 5.8379998 -0.266
12.831 5.8940001 -0.26699999
12.855 5.9520001 -0.26800001
12.878 6.0089998 -0.26899999
12.917 6.0739999 -0.271
12.923 6.1240001 -0.271
12.937 6.178 -0.27200001
12.986 6.2490001 -0.27399999
13.006 6.3060002 -0.27500001
13.028 6.3649998 -0.27599999
13.052 6.4239998 -0.27700001
13.05 6.4699998 -0.278
13.09 6.5380001 -0.27900001
12.303 6.1900001 -0.26300001
12.199 6.1820002 -0.26199999
12.23 6.243 -0.26300001
12.252 6.3429999 -0.26499999
12.158 6.3390002 -0.26300001
12.057 6.3309999 -0.26199999
12.05 6.3709998 -0.26199999
12.201 6.4959998 -0.266
12.223 6.5970001 -0.26800001
12.156 6.605 -0.26699999
12.21 6.678 -0.26899999
13.643 7.6110001 -0.303
13.575 7.6220002 -0.30199999
10.634 6.2020001 -0.23999999
10.513 6.1690001 -0.23800001
10.439 6.164 -0.237
10.365 6.1570001 -0.236
10.295 6.152 -0.235
10.24 6.1560001 -0.234
10.153 6.1399999 -0.233
10.101 6.145 -0.23199999
10.051 6.1500001 -0.23100001
9.9860001 6.1459999 -0.23100001
9.9350004 6.1490002 -0.23
9.9169998 6.1739998 -0.23
9.9289999 6.2160001 -0.23100001
9.9870005 6.2870002 -0.233
9.717 6.7140002 -0.237
9.6230001 6.6799998 -0.235
9.5609999 6.6680002 -0.234
9.5109997 6.664 -0.234
9.4429998 6.6469998 -0.233
9.3990002 6.6459999 -0.23199999
9.3610001 6.6490002 -0.23199999
9.3369999 6.6620002 -0.23199999
9.3170004 6.6760001 -0.23199999
9.3079996 6.6989999 -0.23199999
9.3079996 6.7280002 -0.233
9.302 6.7529998 -0.233
9.2980003 6.7779999 -0.234
7.1760001 -4.2150002 -0.021
7.1719999 -4.1929998 -0.021
7.1880002 -4.1820002 -0.021
7.1890001 -4.1620002 -0.021
7.2080002 -4.1529999 -0.021
7.2199998 -4.1389999 -0.021
7.23 -4.125 -0.021
7.2379999 -4.1079998 -0.021
7.2519999 -4.0960002 -0.021
7.2600002 -4.0799999 -0.021
7.277 -4.0689998 -0.021
7.2810001 -4.0500002 -0.021
7.2870002 -4.033 -0.02
7.29 -4.0139999 -0.02
7.3140001 -4.006 -0.02
7.3080001 -3.9820001 -0.02
7.3239999 -3.97 -0.02
7.3319998 -3.954 -0.02
7.3520002 -3.944 -0.02
7.355 -3.924 -0.02
7.3509998 -3.901 -0.02
7.342 -3.875 -0.02
7.3119998 -3.8380001 -0.02
7.302 -3.812 -0.02
7.2950001 -3.7869999 -0.02
7.381 -3.8110001 -0.02
7.4169998 -3.8080001 -0.02
7.4380002 -3.7980001 -0.02
7.4460001 -3.7809999 -0.02
7.467 -3.77 -0.02
7.4640002 -3.747 -0.02
7.473 -3.73 -0.02
7.494 -3.7190001 -0.02
7.4889998 -3.6949999 -0.02
7.4990001 -3.678 -0.02
7.52 -3.6670001 -0.02
7.513 -3.642 -0.018999999
7.5370002 -3.632 -0.018999999
7.5640001 -3.6229999 -0.018999999
7.5630002 -3.6010001 -0.018999999
7.5679998 -3.5810001 -0.018999999
7.5799999 -3.5650001 -0.018999999
7.5929999 -3.549 -0.018999999
7.6020002 -3.5320001 -0.018999999
7.618 -3.5179999 -0.018999999
7.6370001 -3.5039999 -0.018999999
7.6479998 -3.487 -0.018999999
7.6599998 -3.47 -0.018999999
7.6820002 -3.4579999 -0.018999999
7.684 -3.437 -0.018999999
7.684 -3.415 -0.018999999
7.7069998 -3.4030001 -0.018999999
7.7199998 -3.3859999 -0.018999999
7.7280002 -3.3670001 -0.018999999
7.7449999 -3.352 -0.018999999
7.75 -3.332 -0.018999999
7.7709999 -3.319 -0.018999999
7.7940001 -3.306 -0.018999999
7.7930002 -3.283 -0.018999999
7.8010001 -3.2639999 -0.018999999
7.8239999 -3.2509999 -0.017999999
7.8400002 -3.2349999 -0.017999999
7.8610001 -3.221 -0.017999999
7.8660002 -3.201 -0.017999999
7.8600001 -3.175 -0.017999999
7.8850002 -3.1630001 -0.017999999
7.8909998 -3.142 -0.017999999
7.9250002 -3.1329999 -0.017999999
7.9390001 -3.1159999 -0.017999999
7.9530001 -3.098 -0.017999999
7.9640002 -3.079 -0.017999999
7.9819999 -3.063 -0.017999999
7.9920001 -3.0439999 -0.017999999
8.0279999 -3.0350001 -0.017999999
8.0450001 -3.0179999 -0.017999999
8.0489998 -2.9960001 -0.017999999
8.0620003 -2.9779999 -0.017999999
8.0839996 -2.9619999 -0.017999999
8.0909996 -2.9419999 -0.017999999
8.1140003 -2.927 -0.017999999
8.1269999 -2.908 -0.017999999
8.1420002 -2.8900001 -0.017999999
8.1470003 -2.868 -0.017999999
8.1890001 -2.859 -0.017999999
8.1940002 -2.8369999 -0.017999999
8.1969995 -2.8150001 -0.017999999
8.2390003 -2.8050001 -0.017999999
8.2189999 -2.7750001 -0.017000001
8.2600002 -2.7650001 -0.017000001
8.2919998 -2.7520001 -0.017000001
8.2729998 -2.7219999 -0.017000001
8.2980003 -2.7060001 -0.017000001
8.3280001 -2.6919999 -0.017000001
8.323 -2.6659999 -0.017000001
8.3559999 -2.6530001 -0.017000001
8.3690004 -2.6329999 -0.017000001
8.3950005 -2.6170001 -0.017000001
8.4099998 -2.5969999 -0.017000001
8.415 -2.575 -0.017000001
8.4420004 -2.5580001 -0.017000001
8.4519997 -2.5369999 -0.017000001
8.4980001 -2.526 -0.017000001
8.4989996 -2.5020001 -0.017000001
8.5200005 -2.484 -0.017000001
8.5349998 -2.464 -0.017000001
8.5389996 -2.441 -0.017000001
8.5430002 -2.4170001 -0.017000001
8.5740004 -2.401 -0.017000001
8.5889997 -2.381 -0.017000001
8.6049995 -2.3610001 -0.017000001
8.6409998 -2.346 -0.017000001
8.6719999 -2.329 -0.017000001
8.6809998 -2.3069999 -0.016000001
8.691 -2.2839999 -0.016000001
8.6940002 -2.26 -0.016000001
8.7320004 -2.2449999 -0.016000001
8.7589998 -2.227 -0.016000001
8.7670002 -2.204 -0.016000001
8.7819996 -2.1819999 -0.016000001
8.8109999 -2.164 -0.016000001
8.8249998 -2.142 -0.016000001
8.8430004 -2.122 -0.016000001
8.8859997 -2.1059999 -0.016000001
8.8959999 -2.0829999 -0.016000001
8.9189997 -2.063 -0.016000001
8.9379997 -2.0420001 -0.016000001
8.9530001 -2.02 -0.016000001
8.9899998 -2.0020001 -0.016000001
9.0159998 -1.982 -0.016000001
9.0719995 -1.969 -0.016000001
9.0830002 -1.9450001 -0.016000001
9.0979996 -1.9220001 -0.016000001
9.073 -1.891 -0.016000001
9.1140003 -1.874 -0.016000001
9.1210003 -1.849 -0.016000001
9.1379995 -1.826 -0.016000001
9.1809998 -1.809 -0.016000001
9.2049999 -1.7869999 -0.016000001
9.2150002 -1.763 -0.015
9.2609997 -1.745 -0.015
9.2670002 -1.72 -0.015
9.2919998 -1.698 -0.015
9.3120003 -1.675 -0.015
9.3360004 -1.653 -0.015
9.3509998 -1.6289999 -0.015
9.4040003 -1.6109999 -0.015
9.4130001 -1.586 -0.015
9.4320002 -1.562 -0.015
9.4469995 -1.538 -0.015
9.4840002 -1.517 -0.015
9.5030003 -1.493 -0.015
9.5539999 -1.473 -0.015
9.5670004 -1.448 -0.015
9.6009998 -1.426 -0.015
9.6230001 -1.402 -0.015
9.665 -1.38 -0.015
9.7139997 -1.36 -0.015
9.7200003 -1.3329999 -0.015
9.7670002 -1.312 -0.015
9.7840004 -1.286 -0.015
9.8100004 -1.262 -0.015
9.842 -1.238 -0.015
9.8599997 -1.212 -0.015
9.9259996 -1.192 -0.015
9.974 -1.169 -0.015
9.9770002 -1.141 -0.014
10.007 -1.1160001 -0.014
10.054 -1.0930001 -0.014
10.101 -1.069 -0.014
10.135 -1.044 -0.014
10.17 -1.0190001 -0.014
10.194 -0.99199998 -0.014
10.239 -0.96799999 -0.014
10.279 -0.94199997 -0.014
10.304 -0.91500002 -0.014
10.36 -0.89099997 -0.014
10.421 -0.866 -0.014
10.437 -0.838 -0.014
10.516 -0.815 -0.014
10.633 -0.79299998 -0.014
10.694 -0.76800001 -0.014
10.5 0.244 -0.14300001
10.555 0.259 -0.14399999
10.457 0.271 -0.14300001
10.459 0.285 -0.14300001
10.431 0.29899999 -0.142
10.437 0.31400001 -0.14300001
10.442 0.329 -0.14300001
10.44 0.34400001 -0.14300001
10.429 0.359 -0.14300001
10.403 0.37400001 -0.14300001
10.426 0.391 -0.14300001
10.426 0.40700001 -0.14399999
10.386 0.421 -0.14300001
10.396 0.43799999 -0.14300001
10.394 0.45500001 -0.14399999
10.362 0.47099999 -0.14300001
10.389 0.48899999 -0.14399999
10.411 0.50800002 -0.14399999
10.399 0.52499998 -0.14399999
10.404 0.54299998 -0.145
10.406 0.56199998 -0.145
10.428 0.58099997 -0.145
10.425 0.60000002 -0.145
10.445 0.62 -0.146
10.461 0.63999999 -0.146
10.469 0.66000003 -0.147
10.467 0.67900002 -0.147
10.466 0.699 -0.147
10.48 0.72000003 -0.147
10.481 0.741 -0.148
10.502 0.76300001 -0.148
10.509 0.78399998 -0.148
10.531 0.80699998 -0.149
10.536 0.829 -0.149
10.536 0.85000002 -0.149
10.561 0.87400001 -0.15000001
10.572 0.89700001 -0.15000001
10.576 0.91900003 -0.15099999
10.58 0.94199997 -0.15099999
10.61 0.96799999 -0.152
10.606 0.99000001 -0.152
10.624 1.015 -0.152
10.653 1.041 -0.153
10.667 1.066 -0.153
10.675 1.091 -0.154
10.689 1.117 -0.154
10.716 1.1440001 -0.155
10.738 1.171 -0.155
10.742 1.196 -0.156
10.762 1.224 -0.156
10.778 1.251 -0.15700001
10.782 1.277 -0.15700001
10.779 1.302 -0.15700001
10.805 1.331 -0.15800001
10.826 1.36 -0.15899999
10.837 1.388 -0.15899999
10.854 1.4170001 -0.16
10.854 1.444 -0.16
10.877 1.474 -0.16
10.895 1.5039999 -0.161
10.912 1.534 -0.161
10.926 1.564 -0.162
10.957 1.597 -0.163
10.979 1.628 -0.163
10.993 1.659 -0.164
11.013 1.691 -0.164
11.04 1.724 -0.16500001
11.033 1.753 -0.16500001
11.062 1.7869999 -0.16599999
11.081 1.8200001 -0.167
11.099 1.853 -0.167
11.133 1.8890001 -0.168
11.155 1.923 -0.169
11.205 1.9630001 -0.17
11.239 2 -0.171
11.26 2.0350001 -0.171
11.281 2.0710001 -0.17200001
11.301 2.1059999 -0.17299999
11.321 2.142 -0.17299999
11.355 2.181 -0.17399999
11.364 2.2160001 -0.175
11.41 2.2579999 -0.176
11.428 2.2950001 -0.176
11.448 2.332 -0.177
11.505 2.378 -0.178
11.526 2.4159999 -0.17900001
11.535 2.4519999 -0.17900001
11.57 2.494 -0.18000001
11.585 2.533 -0.18099999
11.608 2.573 -0.182
11.642 2.6159999 -0.183
11.674 2.6589999 -0.183
11.698 2.7 -0.184
11.726 2.743 -0.185
11.741 2.783 -0.186
11.768 2.826 -0.186
11.806 2.872 -0.18700001
11.795 2.9059999 -0.18799999
11.832 2.9530001 -0.189
11.835 2.9909999 -0.189
11.923 3.052 -0.191
11.906 3.086 -0.191
11.939 3.1329999 -0.192
11.967 3.1789999 -0.193
11.984 3.223 -0.19400001
12.014 3.27 -0.19400001
12.021 3.312 -0.19499999
12.064 3.3640001 -0.19599999
12.088 3.4100001 -0.197
12.111 3.457 -0.198
12.113 3.4990001 -0.198
12.135 3.546 -0.199
12.159 3.5940001 -0.2
12.177 3.641 -0.20100001
12.205 3.691 -0.20200001
12.211 3.7349999 -0.20200001
12.245 3.7869999 -0.20299999
12.258 3.8340001 -0.204
12.276 3.882 -0.205
12.296 3.9319999 -0.205
12.313 3.98 -0.206
12.308 4.0219998 -0.207
12.348 4.079 -0.208
12.378 4.1329999 -0.20900001
12.404 4.1859999 -0.20999999
12.397 4.2280002 -0.20999999
12.414 4.2779999 -0.211
12.412 4.322 -0.211
12.45 4.381 -0.212
12.467 4.4320002 -0.213
12.512 4.494 -0.215
7.7090001 2.7969999 -0.132
12.627 4.5819998 -0.21699999
7.6290002 2.796 -0.131
7.5890002 2.8099999 -0.131
7.566 2.829 -0.131
7.48 2.825 -0.13
7.401 2.823 -0.12899999
7.3670001 2.8380001 -0.12800001
7.3520002 2.8599999 -0.12800001
7.3520002 2.888 -0.12899999
7.3759999 2.9260001 -0.12899999
7.494 3.0009999 -0.132
12.806 5.1279998 -0.226
12.774 5.165 -0.226
12.782 5.217 -0.226
12.8 5.2740002 -0.227
12.817 5.3309999 -0.228
12.831 5.3870001 -0.229
12.864 5.4510002 -0.23
12.892 5.5139999 -0.23100001
12.913 5.5739999 -0.23199999
12.924 5.6300001 -0.233
12.943 5.6900001 -0.234
13.001 5.7670002 -0.236
13.018 5.8270001 -0.236
13.022 5.881 -0.237
13.054 5.948 -0.23800001
13.073 6.0100002 -0.23899999
13.09 6.0710001 -0.23999999
13.117 6.1370001 -0.241
13.132 6.198 -0.242
13.157 6.2639999 -0.243
13.136 6.3080001 -0.244
13.174 6.381 -0.245
13.185 6.441 -0.24600001
13.225 6.5159998 -0.24699999
12.351 6.1370001 -0.23100001
12.238 6.1329999 -0.23
12.301 6.2160001 -0.23199999
12.226 6.2820001 -0.23199999
12.156 6.2979999 -0.23100001
12.087 6.3140001 -0.23
12.097 6.3709998 -0.23100001
12.296 6.5830002 -0.236
12.154 6.559 -0.234
12.196 6.6350002 -0.235
10.771 6.2410002 -0.213
10.586 6.1820002 -0.20900001
10.479 6.1669998 -0.208
10.404 6.1700001 -0.207
10.325 6.1700001 -0.206
10.245 6.1690001 -0.205
10.167 6.1680002 -0.204
10.103 6.1750002 -0.20299999
10.038 6.1830001 -0.20299999
9.9750004 6.1900001 -0.20200001
9.9209995 6.2020001 -0.20100001
9.8780003 6.2210002 -0.20100001
9.8660002 6.2600002 -0.20100001
9.9160004 6.3379998 -0.20299999
10.11 6.5089998 -0.207
9.7019997 6.8039999 -0.206
9.6239996 6.796 -0.205
9.5579996 6.796 -0.204
9.5039997 6.8039999 -0.204
9.4219999 6.7930002 -0.20299999
6.8629999 -4.5279999 -0.0040000002
6.8959999 -4.507 -0.0040000002
6.9130001 -4.474 -0.0040000002
6.9460001 -4.4520001 -0.0040000002
6.9689999 -4.4250002 -0.0040000002
7.0040002 -4.4039998 -0.0040000002
7.026 -4.3759999 -0.0040000002
7.0440001 -4.3449998 -0.003
7.066 -4.3169999 -0.003
7.0840001 -4.2870002 -0.003
7.1149998 -4.2639999 -0.003
7.1209998 -4.2259998 -0.003
7.138 -4.1950002 -0.003
7.1680002 -4.1729999 -0.003
7.1890001 -4.145 -0.003
7.2090001 -4.1160002 -0.003
7.2280002 -4.0869999 -0.003
7.243 -4.0560002 -0.003
7.2540002 -4.0229998 -0.003
7.2119999 -3.961 -0.003
7.2179999 -3.9260001 -0.003
7.2550001 -3.908 -0.003
7.3210001 -3.905 -0.003
7.3790002 -3.898 -0.0020000001
7.395 -3.868 -0.0020000001
7.4029999 -3.835 -0.0020000001
7.4159999 -3.803 -0.0020000001
7.4359999 -3.777 -0.0020000001
7.461 -3.7520001 -0.0020000001
7.4770002 -3.723 -0.0020000001
7.5040002 -3.7 -0.0020000001
7.5209999 -3.671 -0.0020000001
7.539 -3.6440001 -0.0020000001
7.566 -3.6199999 -0.0020000001
7.572 -3.5880001 -0.0020000001
7.5999999 -3.5650001 -0.0020000001
7.6230001 -3.54 -0.0020000001
7.6409998 -3.513 -0.0020000001
7.6669998 -3.4890001 -0.0020000001
7.6939998 -3.467 -0.001
7.7119999 -3.4400001 -0.001
7.7179999 -3.4070001 -0.001
7.7519999 -3.388 -0.001
7.776 -3.3640001 -0.001
7.783 -3.3329999 -0.001
7.822 -3.3150001 -0.001
7.829 -3.2839999 -0.001
7.8379998 -3.2539999 -0.001
7.8769999 -3.237 -0.001
7.895 -3.21 -0.001
7.9070001 -3.1819999 -0.001
7.9400001 -3.1619999 -0.001
7.947 -3.132 -0.001
7.98 -3.112 -0.001
8.0109997 -3.0910001 -0.001
8.0360003 -3.0680001 -0
8.0679998 -3.0480001 -0
8.0909996 -3.0239999 -0
8.1090002 -2.9979999 -0
8.1389999 -2.977 -0
8.1700001 -2.9560001 -0
8.2010002 -2.9360001 -0
8.217 -2.9089999 -0
8.2200003 -2.8789999 -0
8.2609997 -2.862 -0
8.2790003 -2.836 -0
8.2950001 -2.8110001 -0
8.3260002 -2.79 -0
8.342 -2.7639999 -0
8.3699999 -2.743 -0
8.3950005 -2.72 -0
8.4110003 -2.6949999 -0
8.4320002 -2.671 -0
8.4610004 -2.6500001 -0
8.4899998 -2.628 -0
8.5200005 -2.6070001 -0
8.5600004 -2.5899999 -0
8.5839996 -2.5669999 -0
8.5749998 -2.5339999 -0
8.5860004 -2.5079999 -0
8.6429996 -2.4949999 -0
8.6470003 -2.4660001 -0
8.6929998 -2.45 -0
8.7030001 -2.424 -0
8.7270002 -2.401 -0
8.7580004 -2.3800001 0.001
8.783 -2.358 0.001
8.8070002 -2.336 0.001
8.8400002 -2.316 0.001
8.8649998 -2.293 0.001
8.8889999 -2.2709999 0.001
8.9020004 -2.2460001 0.001
8.9169998 -2.221 0.001
8.9589996 -2.204 0.001
8.9759998 -2.1800001 0.001
9 -2.158 0.001
9.033 -2.1370001 0.001
9.0539999 -2.115 0.001
9.092 -2.096 0.001
9.1070004 -2.0710001 0.001
9.1420002 -2.052 0.0020000001
9.1479998 -2.026 0.0020000001
9.1750002 -2.0039999 0.0020000001
9.2019997 -1.983 0.0020000001
9.2080002 -1.957 0.0020000001
9.2250004 -1.934 0.0020000001
9.2559996 -1.914 0.0020000001
9.2910004 -1.8940001 0.0020000001
9.3199997 -1.873 0.0020000001
9.3400002 -1.851 0.0020000001
9.3559999 -1.827 0.0020000001
9.4110003 -1.812 0.0020000001
9.408 -1.785 0.0020000001
9.4469995 -1.766 0.0020000001
9.4899998 -1.748 0.003
9.4870005 -1.721 0.003
9.5109997 -1.7 0.003
9.5299997 -1.677 0.003
9.5609999 -1.6569999 0.003
9.5780001 -1.6339999 0.003
9.6149998 -1.615 0.003
9.6389999 -1.594 0.003
9.6719999 -1.574 0.003
9.7749996 -1.5650001 0.003
9.7629995 -1.538 0.003
9.7320004 -1.508 0.003
9.75 -1.4859999 0.003
9.783 -1.466 0.003
9.8079996 -1.4450001 0.0040000002
9.8299999 -1.424 0.0040000002
9.8780003 -1.406 0.0040000002
9.9040003 -1.385 0.0040000002
9.941 -1.3660001 0.0040000002
9.9440002 -1.342 0.0040000002
9.9619999 -1.3200001 0.0040000002
9.9940004 -1.301 0.0040000002
10.018 -1.28 0.0040000002
10.056 -1.261 0.0040000002
10.081 -1.24 0.0040000002
10.085 -1.217 0.0040000002
10.129 -1.198 0.0040000002
10.127 -1.175 0.0040000002
10.162 -1.155 0.0049999999
10.184 -1.135 0.0049999999
10.241 -1.118 0.0049999999
10.292 -1.1 0.0049999999
10.291 -1.077 0.0049999999
10.338 -1.059 0.0049999999
10.349 -1.0369999 0.0049999999
10.385 -1.018 0.0049999999
10.41 -0.99699998 0.0049999999
10.488 -0.98199999 0.0049999999
10.492 -0.95999998 0.0049999999
10.528 -0.94099998 0.0049999999
10.558 -0.921 0.0060000001
10.611 -0.903 0.0060000001
10.587 -0.87900001 0.0060000001
10.616 -0.85900003 0.0060000001
10.649 -0.83999997 0.0060000001
10.627 -0.81599998 0.0060000001
10.72 -0.80199999 0.0060000001
10.809 -0.78600001 0.0060000001
10.939 -0.77399999 0.0060000001
10.908 -0.75 0.0060000001
10.962 -0.73199999 0.0060000001
10.964 -0.71100003 0.0060000001
11.041 -0.69400001 0.0070000002
10.345 0.12899999 -0.112
10.367 0.148 -0.112
10.358 0.167 -0.112
10.419 0.18700001 -0.113
10.386 0.206 -0.113
10.437 0.227 -0.113
10.44 0.24699999 -0.114
10.432 0.26699999 -0.114
10.43 0.287 -0.114
10.42 0.30700001 -0.114
10.444 0.329 -0.114
10.451 0.34999999 -0.115
10.439 0.37099999 -0.115
10.455 0.39300001 -0.115
10.467 0.41499999 -0.115
10.454 0.43599999 -0.115
10.454 0.458 -0.116
10.492 0.48199999 -0.116
10.505 0.50599998 -0.117
10.51 0.52899998 -0.117
10.515 0.55199999 -0.117
10.538 0.57599998 -0.118
10.548 0.60000002 -0.118
10.552 0.62400001 -0.118
10.569 0.64899999 -0.118
10.564 0.67299998 -0.119
10.575 0.69800001 -0.119
10.586 0.72299999 -0.119
10.61 0.75 -0.12
10.621 0.77499998 -0.12
10.643 0.80199999 -0.121
10.645 0.82800001 -0.121
10.654 0.85399997 -0.121
10.669 0.88099998 -0.122
10.686 0.90899998 -0.122
10.722 0.93800002 -0.123
10.729 0.96499997 -0.123
10.745 0.99299997 -0.123
10.756 1.021 -0.124
10.778 1.051 -0.124
10.797 1.08 -0.125
10.821 1.11 -0.125
10.834 1.1390001 -0.126
10.839 1.168 -0.126
10.864 1.199 -0.126
10.878 1.229 -0.127
10.895 1.2589999 -0.127
10.917 1.291 -0.12800001
10.918 1.3200001 -0.12800001
10.922 1.35 -0.12800001
10.947 1.382 -0.12899999
10.97 1.415 -0.13
10.991 1.447 -0.13
11.016 1.4809999 -0.131
11.032 1.513 -0.131
11.035 1.544 -0.131
11.081 1.582 -0.132
11.092 1.614 -0.133
11.117 1.649 -0.133
11.135 1.683 -0.134
11.155 1.7180001 -0.134
11.185 1.7539999 -0.13500001
11.207 1.79 -0.13500001
11.232 1.826 -0.13600001
11.244 1.86 -0.13600001
11.284 1.9 -0.13699999
11.337 1.942 -0.138
11.378 1.982 -0.139
11.398 2.0190001 -0.14
11.413 2.056 -0.14
11.442 2.095 -0.141
11.472 2.1340001 -0.141
11.515 2.177 -0.142
11.524 2.2130001 -0.14300001
11.567 2.256 -0.14399999
11.599 2.2980001 -0.14399999
11.636 2.3399999 -0.145
11.65 2.3789999 -0.146
11.71 2.427 -0.147
11.739 2.4690001 -0.147
11.757 2.5090001 -0.148
11.784 2.5510001 -0.149
11.81 2.5940001 -0.149
11.845 2.638 -0.15000001
11.853 2.677 -0.15099999
11.911 2.7279999 -0.152
11.935 2.7709999 -0.152
11.961 2.8150001 -0.153
11.973 2.8559999 -0.154
11.992 2.898 -0.154
12.013 2.9419999 -0.155
12.031 2.9849999 -0.155
12.054 3.029 -0.156
12.12 3.085 -0.15700001
12.134 3.128 -0.15800001
12.141 3.1689999 -0.15800001
12.171 3.217 -0.15899999
12.16 3.253 -0.15899999
12.193 3.302 -0.16
12.206 3.346 -0.161
12.221 3.3900001 -0.161
12.233 3.434 -0.162
12.266 3.484 -0.163
12.267 3.5250001 -0.163
12.297 3.575 -0.164
12.308 3.619 -0.16500001
12.353 3.674 -0.16599999
12.379 3.723 -0.16599999
12.389 3.7679999 -0.167
12.395 3.812 -0.167
12.418 3.8610001 -0.168
12.432 3.9070001 -0.169
12.422 3.9460001 -0.169
12.445 3.9960001 -0.17
12.472 4.0469999 -0.171
12.48 4.0929999 -0.171
12.501 4.1430001 -0.17200001
12.516 4.191 -0.17299999
12.567 4.2509999 -0.17399999
12.539 4.2849998 -0.17399999
12.568 4.3390002 -0.175
12.565 4.381 -0.175
12.587 4.4320002 -0.176
12.586 4.4759998 -0.176
12.615 4.5310001 -0.177
12.66 4.5910001 -0.178
7.7509999 2.8380001 -0.109
12.753 4.6690001 -0.18000001
7.6329999 2.8210001 -0.108
7.5879998 2.8310001 -0.107
7.5310001 2.8369999 -0.107
7.4860001 2.846 -0.107
7.3990002 2.839 -0.106
7.355 2.849 -0.105
7.3390002 2.868 -0.105
7.3299999 2.891 -0.105
7.3410001 2.921 -0.106
7.3730001 2.961 -0.107
7.4809999 3.0309999 -0.108
13.038 5.2820001 -0.189
13.008 5.3169999 -0.19
13.037 5.375 -0.19
13.033 5.4200001 -0.191
13.061 5.4790001 -0.192
13.064 5.527 -0.192
13.112 5.5949998 -0.19400001
13.137 5.6529999 -0.19499999
13.203 5.7290001 -0.19599999
13.224 5.7849998 -0.197
13.272 5.855 -0.198
13.294 5.9120002 -0.199
13.322 5.973 -0.2
13.309 6.0149999 -0.2
13.349 6.0819998 -0.20100001
13.396 6.152 -0.20299999
13.377 6.1919999 -0.20299999
13.396 6.25 -0.204
13.445 6.3210001 -0.205
13.457 6.3759999 -0.206
13.454 6.4239998 -0.206
13.48 6.4850001 -0.207
13.486 6.5370002 -0.208
13.557 6.6209998 -0.20999999
12.374 6.1789999 -0.193
12.218 6.1459999 -0.191
12.248 6.2059999 -0.192
12.234 6.2880001 -0.193
12.303 6.369 -0.19499999
12.237 6.3790002 -0.19400001
12.074 6.3379998 -0.192
12.043 6.3660002 -0.192
12.108 6.4439998 -0.19400001
12.159 6.5159998 -0.19499999
12.143 6.552 -0.19499999
12.216 6.6360002 -0.197
12.179 6.6599998 -0.197
10.623 6.118 -0.176
10.497 6.0830002 -0.17399999
10.411 6.0710001 -0.17299999
10.369 6.0840001 -0.17299999
10.313 6.0879998 -0.17200001
10.254 6.0900002 -0.17200001
10.198 6.0929999 -0.171
10.134 6.0910001 -0.171
10.082 6.0960002 -0.17
10.031 6.1009998 -0.17
9.9879999 6.1100001 -0.17
9.9549999 6.125 -0.17
9.9189997 6.1389999 -0.17
9.9280005 6.1789999 -0.17
9.9960003 6.257 -0.17200001
9.6940002 6.7600002 -0.177
9.6269999 6.744 -0.176
9.566 6.7329998 -0.175
9.5530005 6.7540002 -0.176
9.5240002 6.7639999 -0.176
9.5050001 6.7810001 -0.176
9.5109997 6.8150001 -0.176
9.5 6.836 -0.177
9.4949999 6.862 -0.177
9.5209999 6.9099998 -0.178
9.5179996 6.9369998 -0.178
7.336 -4.3130002 0.013
7.3569999 -4.3039999 0.013
7.3520002 -4.2810001 0.013
7.3720002 -4.2719998 0.013
7.3730001 -4.2509999 0.013
7.3769999 -4.2329998 0.013
7.3959999 -4.2220001 0.013
7.4109998 -4.21 0.013
7.427 -4.198 0.013
7.4289999 -4.178 0.013
7.4380002 -4.1620002 0.013
7.447 -4.1459999 0.013
7.4580002 -4.131 0.014
7.4720001 -4.1170001 0.014
7.474 -4.0970001 0.014
7.494 -4.086 0.014
7.5040002 -4.0710001 0.014
7.5110002 -4.053 0.014
7.5229998 -4.0380001 0.014
7.526 -4.0180001 0.014
7.5409999 -4.0050001 0.014
7.5489998 -3.987 0.014
7.559 -3.971 0.014
7.559 -3.9489999 0.014
7.5570002 -3.9260001 0.015
7.5799999 -3.9170001 0.015
7.5939999 -3.902 0.015
7.6030002 -3.885 0.015
7.6300001 -3.8770001 0.015
7.6209998 -3.8499999 0.015
7.6560001 -3.846 0.015
7.6440001 -3.8180001 0.015
7.6630001 -3.8050001 0.015
7.6739998 -3.789 0.015
7.677 -3.7679999 0.015
7.6919999 -3.753 0.015
7.6999998 -3.7349999 0.016000001
7.7210002 -3.723 0.016000001
7.7319999 -3.7060001 0.016000001
7.7340002 -3.6849999 0.016000001
7.7680001 -3.6789999 0.016000001
7.7709999 -3.6570001 0.016000001
7.777 -3.638 0.016000001
7.7820001 -3.618 0.016000001
7.802 -3.6040001 0.016000001
7.822 -3.5910001 0.016000001
7.8249998 -3.5699999 0.016000001
7.8410001 -3.5550001 0.017000001
7.8629999 -3.5420001 0.017000001
7.8720002 -3.523 0.017000001
7.881 -3.5050001 0.017000001
7.8889999 -3.4849999 0.017000001
7.8940001 -3.4649999 0.017000001
7.9260001 -3.4560001 0.017000001
7.9330001 -3.4360001 0.017000001
7.9549999 -3.4230001 0.017000001
7.9759998 -3.408 0.017000001
7.9780002 -3.3859999 0.017000001
7.9959998 -3.3710001 0.017999999
8.007 -3.352 0.017999999
8.0229998 -3.336 0.017999999
8.0360003 -3.3180001 0.017999999
8.0439997 -3.2980001 0.017999999
8.0609999 -3.2820001 0.017999999
8.0760002 -3.2639999 0.017999999
8.0979996 -3.25 0.017999999
8.1099997 -3.2309999 0.017999999
8.125 -3.214 0.017999999
8.1440001 -3.198 0.018999999
8.1540003 -3.178 0.018999999
8.1680002 -3.1600001 0.018999999
8.198 -3.148 0.018999999
8.2139997 -3.1300001 0.018999999
8.2250004 -3.1110001 0.018999999
8.2609997 -3.0999999 0.018999999
8.2629995 -3.0769999 0.018999999
8.2770004 -3.059 0.018999999
8.2910004 -3.04 0.018999999
8.3000002 -3.0190001 0.02
8.3140001 -3 0.02
8.3299999 -2.9820001 0.02
8.335 -2.96 0.02
8.3540001 -2.9419999 0.02
8.3839998 -2.928 0.02
8.3909998 -2.9070001 0.02
8.3990002 -2.885 0.02
8.441 -2.875 0.02
8.4420004 -2.8510001 0.021
8.4610004 -2.8329999 0.021
8.4910002 -2.819 0.021
8.4840002 -2.7920001 0.021
8.5249996 -2.7809999 0.021
8.5439997 -2.763 0.021
8.5459995 -2.7390001 0.021
8.5609999 -2.7190001 0.021
8.5819998 -2.701 0.021
8.6020002 -2.6819999 0.021
8.6079998 -2.6589999 0.022
8.6610003 -2.651 0.022
8.691 -2.635 0.022
8.6800003 -2.6070001 0.022
8.691 -2.585 0.022
8.7110004 -2.566 0.022
8.7410002 -2.549 0.022
8.7480001 -2.526 0.022
8.7600002 -2.5050001 0.022
8.7810001 -2.4849999 0.023
8.8339996 -2.4749999 0.023
8.849 -2.454 0.023
8.8660002 -2.4330001 0.023
8.8870001 -2.4130001 0.023
8.9040003 -2.392 0.023
8.9230003 -2.3710001 0.023
8.9280005 -2.3469999 0.023
8.9460001 -2.326 0.024
9 -2.3139999 0.024
9.0030003 -2.289 0.024
9.0209999 -2.2679999 0.024
9.0340004 -2.2460001 0.024
9.0430002 -2.2219999 0.024
9.0839996 -2.2060001 0.024
9.1110001 -2.1860001 0.024
9.1059999 -2.1589999 0.025
9.1169996 -2.135 0.025
9.1529999 -2.1170001 0.025
9.1920004 -2.0999999 0.025
9.2080002 -2.0769999 0.025
9.2370005 -2.0580001 0.025
9.2449999 -2.033 0.025
9.2740002 -2.013 0.025
9.2980003 -1.9910001 0.026000001
9.3149996 -1.9680001 0.026000001
9.3439999 -1.948 0.026000001
9.3730001 -1.927 0.026000001
9.3690004 -1.899 0.026000001
9.415 -1.882 0.026000001
9.46 -1.864 0.026000001
9.4790001 -1.84 0.027000001
9.5190001 -1.821 0.027000001
9.5410004 -1.798 0.027000001
9.5819998 -1.778 0.027000001
9.6099997 -1.756 0.027000001
9.6269999 -1.732 0.027000001
9.6590004 -1.71 0.027000001
9.6639996 -1.683 0.028000001
9.7089996 -1.663 0.028000001
9.7119999 -1.636 0.028000001
9.7600002 -1.6160001 0.028000001
9.7849998 -1.592 0.028000001
9.8430004 -1.574 0.028000001
9.901 -1.5549999 0.028999999
9.882 -1.524 0.028999999
9.9029999 -1.499 0.028999999
9.9449997 -1.477 0.028999999
9.9949999 -1.456 0.028999999
10.024 -1.431 0.028999999
10.072 -1.41 0.029999999
10.103 -1.385 0.029999999
10.13 -1.36 0.029999999
10.152 -1.334 0.029999999
10.186 -1.309 0.029999999
10.197 -1.2819999 0.029999999
10.276 -1.263 0.030999999
10.315 -1.238 0.030999999
10.357 -1.2130001 0.030999999
10.403 -1.189 0.030999999
10.435 -1.163 0.030999999
10.462 -1.137 0.032000002
10.566 -1.118 0.032000002
10.615 -1.0930001 0.032000002
10.678 -1.069 0.032000002
10.678 -1.039 0.033
10.716 -1.012 0.033
10.742 -0.98400003 0.033
10.745 -0.954 0.033
10.816 -0.92900002 0.033
10.878 -0.903 0.033
10.951 -0.87800002 0.034000002
10.999 -0.85100001 0.034000002
10.998 -0.81999999 0.034000002
11.058 -0.79299998 0.034000002
11.068 -0.76200002 0.034000002
11.127 -0.73500001 0.035
11.132 0.32100001 -0.097000003
11.153 0.338 -0.097000003
11.083 0.35100001 -0.096000001
11.058 0.36700001 -0.096000001
11.081 0.384 -0.097000003
11.054 0.39899999 -0.097000003
11.027 0.41499999 -0.097000003
11.012 0.43200001 -0.097000003
10.992 0.44800001 -0.097000003
11.001 0.46599999 -0.097000003
10.982 0.48300001 -0.097000003
10.985 0.50099999 -0.097000003
10.989 0.51899999 -0.097000003
10.994 0.53799999 -0.097999997
10.963 0.55500001 -0.097000003
11.001 0.57599998 -0.097999997
10.958 0.59299999 -0.097999997
10.963 0.61299998 -0.097999997
10.971 0.63300002 -0.097999997
10.988 0.65399998 -0.098999999
10.974 0.67299998 -0.098999999
10.998 0.69499999 -0.098999999
10.985 0.71499997 -0.098999999
10.97 0.73400003 -0.098999999
10.973 0.75599998 -0.098999999
10.992 0.778 -0.1
11.003 0.801 -0.1
11.01 0.82300001 -0.1
11.015 0.84500003 -0.101
11.025 0.86799997 -0.101
11.032 0.89099997 -0.101
11.053 0.91600001 -0.102
11.069 0.94 -0.102
11.049 0.96200001 -0.102
11.066 0.98699999 -0.102
11.079 1.012 -0.103
11.109 1.038 -0.103
11.14 1.066 -0.104
11.137 1.09 -0.104
11.126 1.113 -0.104
11.165 1.142 -0.105
11.148 1.166 -0.105
11.149 1.191 -0.105
11.158 1.2180001 -0.105
11.193 1.247 -0.106
11.209 1.275 -0.106
11.224 1.303 -0.107
11.247 1.3329999 -0.107
11.262 1.3609999 -0.107
11.282 1.391 -0.108
11.297 1.42 -0.108
11.316 1.45 -0.109
11.334 1.4809999 -0.109
11.361 1.512 -0.11
11.357 1.54 -0.11
11.382 1.572 -0.11
11.402 1.604 -0.111
11.409 1.6339999 -0.111
11.448 1.669 -0.112
11.477 1.7029999 -0.112
11.502 1.7359999 -0.113
11.54 1.772 -0.113
11.561 1.806 -0.114
11.583 1.84 -0.114
11.632 1.8789999 -0.115
11.654 1.914 -0.116
11.677 1.95 -0.116
11.691 1.984 -0.117
11.703 2.0179999 -0.117
11.698 2.049 -0.117
11.745 2.0899999 -0.118
11.78 2.1289999 -0.119
11.805 2.1670001 -0.119
11.827 2.2049999 -0.12
11.856 2.244 -0.12
11.877 2.2820001 -0.121
11.914 2.323 -0.122
11.947 2.3640001 -0.122
11.945 2.3989999 -0.122
11.986 2.4419999 -0.123
12.023 2.4849999 -0.124
12.038 2.523 -0.124
12.033 2.5580001 -0.125
12.076 2.6040001 -0.125
12.074 2.6389999 -0.126
12.105 2.6830001 -0.126
12.134 2.7260001 -0.127
12.167 2.7709999 -0.12800001
12.195 2.8150001 -0.12800001
12.203 2.8540001 -0.12899999
12.219 2.8959999 -0.12899999
12.239 2.9389999 -0.13
12.237 2.977 -0.13
12.277 3.0250001 -0.131
12.295 3.0680001 -0.131
12.291 3.1070001 -0.132
12.322 3.154 -0.132
12.329 3.1949999 -0.133
12.318 3.2320001 -0.133
12.337 3.277 -0.134
12.344 3.319 -0.134
12.368 3.3659999 -0.13500001
12.392 3.414 -0.13500001
12.413 3.461 -0.13600001
12.424 3.5050001 -0.13600001
12.472 3.5599999 -0.13699999
12.491 3.6070001 -0.138
12.501 3.652 -0.138
12.51 3.697 -0.139
12.506 3.7390001 -0.139
12.526 3.7869999 -0.14
12.539 3.835 -0.14
12.533 3.8759999 -0.141
12.573 3.9319999 -0.142
12.578 3.977 -0.142
12.597 4.027 -0.14300001
12.626 4.0799999 -0.14300001
12.645 4.131 -0.14399999
12.651 4.178 -0.145
12.675 4.2309999 -0.145
12.714 4.29 -0.146
12.749 4.3470001 -0.147
12.75 4.3930001 -0.147
12.772 4.447 -0.148
12.769 4.4920001 -0.148
12.796 4.5479999 -0.149
12.819 4.6030002 -0.15000001
12.863 4.6669998 -0.15099999
7.7600002 2.8440001 -0.090999998
13.094 4.7989998 -0.154
7.6209998 2.8210001 -0.090000004
7.5630002 2.8280001 -0.089000002
7.5190001 2.839 -0.089000002
7.4250002 2.832 -0.088
7.3660002 2.8369999 -0.088
7.3439999 2.8559999 -0.088
7.3340001 2.8800001 -0.088
7.3439999 2.9119999 -0.088
7.3740001 2.9519999 -0.089000002
7.4920001 3.0280001 -0.090000004
13.321 5.3850002 -0.161
13.28 5.4190001 -0.161
13.288 5.474 -0.162
13.34 5.5469999 -0.163
13.323 5.592 -0.163
13.394 5.6750002 -0.16500001
13.427 5.7420001 -0.16599999
13.444 5.802 -0.16599999
13.488 5.8740001 -0.167
13.52 5.9419999 -0.168
13.56 6.0139999 -0.169
13.617 6.0939999 -0.17
13.631 6.1550002 -0.171
13.651 6.2189999 -0.17200001
13.622 6.2610002 -0.17200001
13.62 6.316 -0.17299999
13.621 6.3709998 -0.17299999
13.632 6.4330001 -0.17399999
13.667 6.5050001 -0.175
13.692 6.5739999 -0.176
13.743 6.6550002 -0.177
12.238 6.132 -0.15899999
12.196 6.1620002 -0.15899999
12.194 6.2649999 -0.16
12.215 6.3270001 -0.161
12.348 6.4489999 -0.163
12.064 6.3530002 -0.16
12.025 6.3839998 -0.16
12.084 6.4679999 -0.161
12.093 6.5250001 -0.162
12.194 6.6329999 -0.164
12.177 6.677 -0.164
12.139 6.7090001 -0.164
10.573 6.1729999 -0.146
10.44 6.1420002 -0.145
10.37 6.1479998 -0.14399999
10.308 6.158 -0.14399999
10.233 6.1599998 -0.14300001
10.179 6.1739998 -0.14300001
10.115 6.1820002 -0.142
10.053 6.1900001 -0.142
10.007 6.2080002 -0.142
9.9580002 6.223 -0.142
9.8970003 6.2319999 -0.141
9.8579998 6.2529998 -0.141
9.849 6.2940001 -0.141
9.8959999 6.3699999 -0.14300001
10.093 6.5440001 -0.146
9.625 6.8899999 -0.146
9.5489998 6.882 -0.145
7.0349998 -4.6399999 0.028999999
7.0580001 -4.6100001 0.028999999
7.0960002 -4.5910001 0.028999999
7.1149998 -4.559 0.029999999
7.1360002 -4.5279999 0.029999999
7.1620002 -4.5019999 0.029999999
7.1919999 -4.4780002 0.029999999
7.2129998 -4.448 0.029999999
7.2309999 -4.4159999 0.029999999
7.256 -4.3889999 0.029999999
7.276 -4.3579998 0.030999999
7.2989998 -4.3299999 0.030999999
7.3179998 -4.3000002 0.030999999
7.3379998 -4.27 0.030999999
7.3600001 -4.2420001 0.030999999
7.3860002 -4.2160001 0.030999999
7.4070001 -4.1869998 0.030999999
7.4260001 -4.1570001 0.030999999
7.441 -4.125 0.032000002
7.4580002 -4.0949998 0.032000002
7.4619999 -4.0570002 0.032000002
7.454 -4.0139999 0.032000002
7.5019999 -4 0.032000002
7.5370002 -3.98 0.032000002
7.566 -3.9560001 0.032000002
7.5890002 -3.9300001 0.033
7.5970001 -3.895 0.033
7.618 -3.8670001 0.033
7.6389999 -3.8399999 0.033
7.6620002 -3.8139999 0.033
7.6830001 -3.7869999 0.033
7.698 -3.756 0.033
7.7150002 -3.7279999 0.033
7.7420001 -3.704 0.034000002
7.7680001 -3.6789999 0.034000002
7.7820001 -3.6489999 0.034000002
7.8150001 -3.628 0.034000002
7.8340001 -3.5999999 0.034000002
7.8429999 -3.5680001 0.034000002
7.875 -3.5469999 0.034000002
7.888 -3.517 0.034000002
7.9089999 -3.4909999 0.035
7.9200001 -3.46 0.035
7.9559999 -3.441 0.035
7.987 -3.4189999 0.035
8.0109997 -3.3940001 0.035
8.033 -3.369 0.035
8.0480003 -3.3399999 0.035999998
8.0760002 -3.3169999 0.035999998
8.1149998 -3.299 0.035999998
8.1330004 -3.2720001 0.035999998
8.151 -3.2449999 0.035999998
8.1680002 -3.2179999 0.035999998
8.1820002 -3.1900001 0.035999998
8.2069998 -3.1659999 0.037
8.2290001 -3.141 0.037
8.2749996 -3.125 0.037
8.3030005 -3.102 0.037
8.3190002 -3.075 0.037
8.3540001 -3.0550001 0.037
8.3509998 -3.0209999 0.037
8.3690004 -2.9949999 0.037999999
8.4049997 -2.9749999 0.037999999
8.4250002 -2.95 0.037999999
8.4460001 -2.925 0.037999999
8.4809999 -2.905 0.037999999
8.5220003 -2.8870001 0.039000001
8.5430002 -2.862 0.039000001
8.5469999 -2.832 0.039000001
8.5819998 -2.812 0.039000001
8.6049995 -2.7880001 0.039000001
8.6280003 -2.7639999 0.039000001
8.6569996 -2.7420001 0.039000001
8.6689997 -2.714 0.039999999
8.7440004 -2.707 0.039999999
8.7810001 -2.687 0.039999999
8.776 -2.654 0.039999999
8.7869997 -2.6270001 0.039999999
8.8050003 -2.602 0.039999999
8.8500004 -2.5840001 0.041000001
8.8900003 -2.566 0.041000001
8.9329996 -2.5480001 0.041000001
8.9809999 -2.5309999 0.041000001
8.9809999 -2.5009999 0.041999999
8.9849997 -2.4719999 0.041999999
8.9989996 -2.4460001 0.041999999
9.0489998 -2.4289999 0.041999999
9.0530005 -2.401 0.041999999
9.0749998 -2.3770001 0.041999999
9.125 -2.3610001 0.041999999
9.1459999 -2.3369999 0.043000001
9.1820002 -2.316 0.043000001
9.1999998 -2.2920001 0.043000001
9.2279997 -2.27 0.043000001
9.2290001 -2.2409999 0.043000001
9.243 -2.2160001 0.043000001
9.2910004 -2.198 0.044
9.3000002 -2.1719999 0.044
9.3500004 -2.155 0.044
9.3999996 -2.138 0.044
9.415 -2.1129999 0.044
9.448 -2.092 0.045000002
9.4680004 -2.069 0.045000002
9.4890003 -2.0450001 0.045000002
9.5349998 -2.027 0.045000002
9.559 -2.0039999 0.045000002
9.5760002 -1.98 0.046
9.6090002 -1.959 0.046
9.6540003 -1.941 0.046
9.6750002 -1.9170001 0.046
9.6850004 -1.892 0.046
9.7209997 -1.8710001 0.046
9.7609997 -1.852 0.046999998
9.7720003 -1.827 0.046999998
9.8330002 -1.811 0.046999998
9.8369999 -1.785 0.046999998
9.8649998 -1.763 0.046999998
9.868 -1.737 0.046999998
9.901 -1.716 0.048
9.9420004 -1.697 0.048
9.9580002 -1.673 0.048
9.993 -1.652 0.048
10.025 -1.632 0.048999999
10.096 -1.617 0.048999999
10.161 -1.601 0.048999999
10.163 -1.575 0.048999999
10.133 -1.545 0.048999999
10.15 -1.521 0.048999999
10.176 -1.5 0.050000001
10.205 -1.478 0.050000001
10.268 -1.462 0.050000001
10.286 -1.439 0.050000001
10.303 -1.416 0.050000001
10.335 -1.395 0.050999999
10.373 -1.375 0.050999999
10.374 -1.35 0.050999999
10.403 -1.329 0.050999999
10.445 -1.3099999 0.050999999
10.477 -1.289 0.052000001
10.541 -1.272 0.052000001
10.534 -1.247 0.052000001
10.587 -1.229 0.052000001
10.617 -1.2079999 0.052999999
10.644 -1.186 0.052999999
10.656 -1.163 0.052999999
10.693 -1.143 0.052999999
10.729 -1.123 0.052999999
10.74 -1.1 0.052999999
10.761 -1.079 0.054000001
10.779 -1.057 0.054000001
10.797 -1.035 0.054000001
10.855 -1.017 0.054000001
10.851 -0.99299997 0.054000001
10.866 -0.972 0.054000001
10.873 -0.949 0.055
10.891 -0.92799997 0.055
10.935 -0.90899998 0.055
10.959 -0.88800001 0.055
10.967 -0.866 0.055
10.985 -0.84500003 0.055
11.025 -0.82499999 0.056000002
11.072 -0.80599999 0.056000002
11.109 -0.787 0.056000002
11.129 -0.76599997 0.056000002
11.178 -0.74699998 0.057
11.213 -0.727 0.057
11.231 -0.70700002 0.057
11.272 -0.68699998 0.057
11.282 -0.66600001 0.057
11.376 -0.64999998 0.057999998
10.856 0.13699999 -0.063000001
10.902 0.15700001 -0.063000001
10.869 0.177 -0.063000001
10.908 0.197 -0.064000003
10.909 0.21799999 -0.064000003
10.913 0.23800001 -0.064000003
10.92 0.259 -0.064000003
10.908 0.28 -0.064000003
10.911 0.30199999 -0.064000003
10.928 0.32300001 -0.064999998
10.93 0.345 -0.064999998
10.951 0.368 -0.064999998
10.931 0.38999999 -0.064999998
10.914 0.41100001 -0.064999998
10.924 0.43399999 -0.066
10.929 0.45699999 -0.066
10.911 0.47999999 -0.066
10.927 0.50400001 -0.066
10.941 0.528 -0.067000002
10.952 0.55199999 -0.067000002
10.965 0.57700002 -0.067000002
10.961 0.60100001 -0.067000002
10.956 0.625 -0.067000002
10.992 0.65100002 -0.068000004
10.999 0.67699999 -0.068000004
10.995 0.70099998 -0.068000004
10.977 0.72600001 -0.068000004
10.989 0.75199997 -0.068999998
10.978 0.77700001 -0.068999998
10.985 0.80299997 -0.068999998
11.007 0.83099997 -0.068999998
10.998 0.85600001 -0.07
11.033 0.88499999 -0.07
11.046 0.91299999 -0.07
11.076 0.94300002 -0.071000002
11.088 0.97100002 -0.071000002
11.094 0.99900001 -0.071000002
11.104 1.027 -0.071000002
11.137 1.058 -0.071999997
11.146 1.087 -0.071999997
11.17 1.118 -0.072999999
11.185 1.148 -0.072999999
11.185 1.177 -0.072999999
11.171 1.204 -0.072999999
11.185 1.235 -0.074000001
11.183 1.2640001 -0.074000001
11.217 1.2970001 -0.074000001
11.257 1.331 -0.075000003
11.288 1.365 -0.075000003
11.324 1.4 -0.075999998
11.349 1.433 -0.075999998
11.378 1.4680001 -0.077
11.413 1.503 -0.077
11.442 1.539 -0.077
11.451 1.571 -0.078000002
11.467 1.605 -0.078000002
11.507 1.643 -0.079000004
11.536 1.679 -0.079000004
11.596 1.72 -0.079999998
11.618 1.756 -0.079999998
11.646 1.794 -0.081
11.682 1.832 -0.081
11.688 1.867 -0.081
11.733 1.908 -0.082000002
11.787 1.95 -0.082999997
11.826 1.9910001 -0.082999997
11.845 2.029 -0.083999999
11.873 2.069 -0.083999999
11.932 2.1140001 -0.085000001
11.954 2.1530001 -0.085000001
12.006 2.198 -0.086000003
12.021 2.237 -0.086000003
12.049 2.2780001 -0.086999997
12.061 2.316 -0.086999997
12.101 2.3599999 -0.088
12.127 2.402 -0.088
12.156 2.4449999 -0.089000002
12.178 2.4860001 -0.089000002
12.232 2.5350001 -0.090000004
12.238 2.5739999 -0.090000004
12.272 2.619 -0.090999998
12.288 2.6600001 -0.090999998
12.323 2.7060001 -0.092
12.349 2.75 -0.092
12.371 2.7939999 -0.093000002
12.376 2.8340001 -0.093000002
12.393 2.8770001 -0.093999997
12.413 2.921 -0.093999997
12.411 2.96 -0.093999997
12.442 3.007 -0.094999999
12.466 3.052 -0.094999999
12.47 3.0929999 -0.096000001
12.501 3.141 -0.096000001
12.522 3.187 -0.097000003
12.547 3.234 -0.097000003
12.551 3.276 -0.097999997
12.589 3.3269999 -0.097999997
12.621 3.3759999 -0.098999999
12.625 3.4189999 -0.098999999
12.652 3.4679999 -0.1
12.669 3.5139999 -0.1
12.669 3.556 -0.101
12.693 3.605 -0.101
12.701 3.6489999 -0.102
12.708 3.694 -0.102
12.691 3.7309999 -0.102
12.702 3.777 -0.103
12.724 3.826 -0.103
12.767 3.882 -0.104
12.787 3.931 -0.105
12.829 3.9879999 -0.105
12.848 4.0370002 -0.106
12.852 4.0819998 -0.106
12.86 4.1279998 -0.107
12.928 4.1939998 -0.108
12.931 4.2399998 -0.108
12.994 4.3049998 -0.109
13.044 4.3670001 -0.11
13.076 4.4229999 -0.11
13.092 4.473 -0.111
13.077 4.513 -0.111
13.134 4.5780001 -0.112
13.177 4.6389999 -0.113
13.258 4.7140002 -0.114
13.289 4.7719998 -0.115
13.339 4.836 -0.115
7.7410002 2.8340001 -0.067000002
13.499 4.9419999 -0.117
7.6090002 2.812 -0.066
7.5539999 2.8180001 -0.066
7.5089998 2.8280001 -0.066
7.4359999 2.8269999 -0.064999998
7.3629999 2.825 -0.064999998
7.329 2.8380001 -0.064999998
7.3280001 2.8640001 -0.064999998
7.3130002 2.8840001 -0.064999998
7.329 2.9159999 -0.064999998
7.342 2.948 -0.066
7.4050002 2.9990001 -0.067000002
14.186 5.7459998 -0.12800001
13.848 5.6589999 -0.125
13.892 5.7259998 -0.126
13.907 5.783 -0.127
13.895 5.8280001 -0.127
13.909 5.8829999 -0.12800001
13.927 5.941 -0.12800001
13.964 6.007 -0.12899999
14.014 6.079 -0.13
14.068 6.1529999 -0.131
14.099 6.2179999 -0.132
14.036 6.2410002 -0.132
13.883 6.223 -0.131
13.823 6.2470002 -0.131
12.244 6.158 -0.121
12.182 6.171 -0.121
12.267 6.2589998 -0.123
12.259 6.3000002 -0.123
12.105 6.2649999 -0.122
12.107 6.3099999 -0.122
12.106 6.3540001 -0.123
12.058 6.3730001 -0.123
12.042 6.408 -0.123
12.092 6.4790001 -0.124
12.096 6.5250001 -0.124
12.205 6.6279998 -0.126
12.29 6.7639999 -0.12800001
12.178 6.7470002 -0.127
10.652 6.1719999 -0.114
10.549 6.1500001 -0.113
10.434 6.1209998 -0.112
10.363 6.1160002 -0.112
10.308 6.1209998 -0.112
10.261 6.1300001 -0.111
10.21 6.1360002 -0.111
10.145 6.1329999 -0.111
10.116 6.152 -0.111
10.07 6.1589999 -0.111
10.035 6.1739998 -0.111
9.993 6.1830001 -0.111
9.9619999 6.1989999 -0.111
9.9630003 6.2350001 -0.111
10.054 6.3270001 -0.113
7.506 -4.4159999 0.048999999
7.5209999 -4.4039998 0.048999999
7.5250001 -4.3850002 0.048999999
7.5349998 -4.369 0.048999999
7.5510001 -4.3569999 0.048999999
7.553 -4.3369999 0.048999999
7.5570002 -4.3179998 0.048999999
7.5890002 -4.3150001 0.050000001
7.5970001 -4.2969999 0.050000001
7.6129999 -4.2849998 0.050000001
7.6300001 -4.2729998 0.050000001
7.6339998 -4.2529998 0.050000001
7.6420002 -4.2360001 0.050000001
7.6539998 -4.2210002 0.050000001
7.6570001 -4.1999998 0.050000001
7.6690001 -4.1849999 0.050999999
7.665 -4.1609998 0.050999999
7.6820002 -4.1479998 0.050999999
7.6939998 -4.1329999 0.050999999
7.7080002 -4.118 0.050999999
7.7150002 -4.0999999 0.050999999
7.7249999 -4.0830002 0.050999999
7.7350001 -4.066 0.050999999
7.7610002 -4.0580001 0.052000001
7.7789998 -4.0440001 0.052000001
7.8060002 -4.0359998 0.052000001
7.7839999 -4.0019999 0.052000001
7.7919998 -3.984 0.052000001
7.8150001 -3.973 0.052000001
7.829 -3.9579999 0.052000001
7.8319998 -3.937 0.052000001
7.8410001 -3.9189999 0.052999999
7.8509998 -3.901 0.052999999
7.8740001 -3.8900001 0.052999999
7.8800001 -3.8699999 0.052999999
7.8909998 -3.8529999 0.052999999
7.8920002 -3.8299999 0.052999999
7.9289999 -3.825 0.052999999
7.927 -3.802 0.054000001
7.9400001 -3.7850001 0.054000001
7.961 -3.7720001 0.054000001
7.9549999 -3.7460001 0.054000001
7.9780002 -3.734 0.054000001
7.9920001 -3.7179999 0.054000001
8.0089998 -3.7019999 0.054000001
8.0100002 -3.6800001 0.054000001
8.026 -3.664 0.055
8.0550003 -3.654 0.055
8.0579996 -3.632 0.055
8.0670004 -3.6129999 0.055
8.0749998 -3.5929999 0.055
8.0959997 -3.579 0.055
8.1110001 -3.562 0.056000002
8.1429996 -3.552 0.056000002
8.1479998 -3.5309999 0.056000002
8.165 -3.5150001 0.056000002
8.1870003 -3.5009999 0.056000002
8.1870003 -3.477 0.056000002
8.2040005 -3.46 0.057
8.2250004 -3.4449999 0.057
8.2270002 -3.4219999 0.057
8.2460003 -3.4059999 0.057
8.2770004 -3.395 0.057
8.2779999 -3.372 0.057
8.2950001 -3.3540001 0.057
8.3079996 -3.336 0.057999998
8.3100004 -3.313 0.057999998
8.3500004 -3.3039999 0.057999998
8.3579998 -3.283 0.057999998
8.375 -3.266 0.057999998
8.3959999 -3.25 0.059
8.4049997 -3.2290001 0.059
8.4069996 -3.2049999 0.059
8.427 -3.1889999 0.059
8.46 -3.177 0.059
8.4700003 -3.1559999 0.059
8.4759998 -3.1340001 0.059
8.4989996 -3.1170001 0.059999999
8.5150003 -3.099 0.059999999
8.5220003 -3.076 0.059999999
8.5500002 -3.062 0.059999999
8.566 -3.043 0.059999999
8.5719995 -3.02 0.059999999
8.5880003 -3.0009999 0.061000001
8.6129999 -2.9849999 0.061000001
8.6219997 -2.9630001 0.061000001
8.6450005 -2.9460001 0.061000001
8.6440001 -2.921 0.061000001
8.6630001 -2.902 0.061000001
8.6899996 -2.8859999 0.061999999
8.7080002 -2.8670001 0.061999999
8.724 -2.8469999 0.061999999
8.7370005 -2.826 0.061999999
8.7679996 -2.8110001 0.061999999
8.7840004 -2.79 0.063000001
8.7860003 -2.766 0.063000001
8.8129997 -2.7490001 0.063000001
8.8889999 -2.747 0.063000001
8.9099998 -2.7279999 0.064000003
8.9110003 -2.7030001 0.064000003
8.9169998 -2.678 0.064000003
8.9239998 -2.655 0.064000003
8.9449997 -2.635 0.064000003
8.9750004 -2.618 0.064000003
8.9700003 -2.5910001 0.064000003
9.0220003 -2.5799999 0.064999998
9.0389996 -2.559 0.064999998
9.0830002 -2.5450001 0.064999998
9.1169996 -2.529 0.066
9.1199999 -2.503 0.066
9.1090002 -2.474 0.066
9.1420002 -2.457 0.066
9.1490002 -2.4319999 0.066
9.1789999 -2.414 0.066
9.1829996 -2.388 0.067000002
9.2379999 -2.3759999 0.067000002
9.2360001 -2.349 0.067000002
9.2650003 -2.3299999 0.067000002
9.2799997 -2.3069999 0.067000002
9.29 -2.283 0.068000004
9.3400002 -2.2679999 0.068000004
9.3719997 -2.2490001 0.068000004
9.3809996 -2.224 0.068000004
9.3979998 -2.201 0.068999998
9.4309998 -2.1819999 0.068999998
9.448 -2.1589999 0.068999998
9.4829998 -2.1400001 0.068999998
9.5349998 -2.1240001 0.07
9.5699997 -2.105 0.07
9.5830002 -2.0799999 0.07
9.6379995 -2.0639999 0.071000002
9.6499996 -2.039 0.071000002
9.6899996 -2.02 0.071000002
9.71 -1.9960001 0.071000002
9.7399998 -1.975 0.071999997
9.7690001 -1.9529999 0.071999997
9.809 -1.932 0.071999997
9.823 -1.9069999 0.072999999
9.8520002 -1.885 0.072999999
9.868 -1.86 0.072999999
9.8940001 -1.836 0.072999999
9.9200001 -1.813 0.072999999
9.9530001 -1.79 0.074000001
9.9700003 -1.765 0.074000001
10.033 -1.747 0.074000001
10.053 -1.722 0.075000003
10.084 -1.698 0.075000003
10.125 -1.677 0.075000003
10.156 -1.653 0.075999998
10.185 -1.628 0.075999998
10.295 -1.6160001 0.077
10.303 -1.5880001 0.077
10.275 -1.5549999 0.077
10.312 -1.531 0.077
10.36 -1.508 0.077
10.395 -1.484 0.078000002
10.426 -1.459 0.078000002
10.452 -1.433 0.078000002
10.514 -1.411 0.079000004
10.541 -1.385 0.079000004
10.613 -1.364 0.079999998
10.636 -1.336 0.079999998
10.684 -1.312 0.079999998
10.693 -1.283 0.079999998
10.748 -1.2589999 0.081
10.787 -1.233 0.081
10.827 -1.206 0.082000002
10.844 -1.177 0.082000002
10.867 -1.149 0.082000002
10.897 -1.1210001 0.082000002
10.935 -1.094 0.082999997
10.947 -1.064 0.082999997
10.973 -1.035 0.082999997
11.045 -1.011 0.083999999
11.087 -0.98299998 0.083999999
11.129 -0.95499998 0.083999999
11.134 -0.92400002 0.085000001
11.236 -0.89999998 0.085000001
11.283 -0.87199998 0.086000003
11.312 -0.84200001 0.086000003
11.372 -0.81400001 0.086999997
11.475 -0.78899997 0.086999997
11.734 0.37400001 -0.044
11.777 0.39300001 -0.044
11.778 0.41 -0.044
11.743 0.426 -0.044
11.699 0.44299999 -0.044
11.66 0.45899999 -0.044
11.584 0.47400001 -0.044
11.583 0.493 -0.045000002
11.565 0.50999999 -0.045000002
11.575 0.52999997 -0.045000002
11.578 0.54900002 -0.045000002
11.559 0.56800002 -0.045000002
11.551 0.58700001 -0.045000002
11.517 0.60500002 -0.045000002
11.53 0.62599999 -0.046
11.521 0.64600003 -0.046
11.528 0.667 -0.046
11.507 0.68599999 -0.046
11.451 0.704 -0.046
11.297 0.71499997 -0.046
11.158 0.727 -0.045000002
11.105 0.745 -0.045000002
11.093 0.76499999 -0.045000002
11.103 0.78799999 -0.046
11.09 0.80800003 -0.046
11.079 0.829 -0.046
11.084 0.852 -0.046
11.082 0.87400001 -0.046
11.094 0.898 -0.046
11.107 0.92199999 -0.046999998
11.136 0.94700003 -0.046999998
11.217 0.97799999 -0.048
11.451 1.022 -0.048999999
11.606 1.061 -0.050000001
11.625 1.0880001 -0.050000001
11.613 1.112 -0.050000001
11.551 1.131 -0.050000001
11.373 1.1390001 -0.048999999
11.302 1.1569999 -0.048999999
11.271 1.1799999 -0.048999999
