# .PCD v0.7 - Point Cloud Data file format
VERSION 0.7
FIELDS x y z
SIZE 4 4 4
TYPE F F F
COUNT 1 1 1
WIDTH 1809
HEIGHT 1
VIEWPOINT 0 0 0 1 0 0 0
POINTS 1809
DATA ascii
18.396 5.8759999 0.46799999
18.452999 5.9590001 0.46900001
18.604 6.0739999 0.47299999
18.587999 6.1339998 0.47299999
18.559 6.1900001 0.47299999
18.686001 6.2989998 0.47600001
18.642 6.3509998 0.47600001
13.036 5.415 0.33700001
12.919 5.4169998 0.33500001
12.855 5.441 0.333
12.822 5.4770002 0.333
12.783 5.5110002 0.33199999
12.754 5.5489998 0.331
12.512 5.796 0.32699999
12.436 5.8109999 0.32499999
12.426 5.8569999 0.32600001
12.471 5.9299998 0.32699999
8.1619997 3.9820001 0.214
8.0010004 3.937 0.20999999
7.9260001 3.934 0.20900001
7.875 3.941 0.208
7.8270001 3.95 0.206
7.7979999 3.9690001 0.206
7.7610002 3.983 0.205
7.744 4.007 0.205
7.7340002 4.0349998 0.205
7.73 4.066 0.205
7.7350001 4.1020002 0.205
7.7610002 4.1500001 0.206
7.789 4.198 0.207
7.9039998 4.2950001 0.211
8.6409998 -5.6830001 0.32499999
8.6820002 -5.6560001 0.32600001
8.7189999 -5.6259999 0.32699999
8.7559996 -5.5960002 0.32800001
8.7690001 -5.5510001 0.32800001
8.8129997 -5.526 0.33000001
8.8409996 -5.4899998 0.331
8.8599997 -5.4499998 0.331
8.8979998 -5.4200001 0.33199999
8.9239998 -5.3850002 0.333
8.9510002 -5.349 0.33399999
8.9799995 -5.3150001 0.33500001
8.9940004 -5.2719998 0.33500001
9.0360003 -5.2459998 0.336
9.059 -5.2090001 0.33700001
9.0880003 -5.1760001 0.338
9.1009998 -5.1329999 0.338
9.1210003 -5.0939999 0.33899999
9.1680002 -5.0710001 0.34
9.1940002 -5.0370002 0.34099999
9.2049999 -4.994 0.34099999
9.2180004 -4.9520001 0.34200001
9.2119999 -4.901 0.34099999
9.2819996 -4.8909998 0.34400001
9.3109999 -4.8590002 0.34400001
9.3369999 -4.8239999 0.345
9.3839998 -4.802 0.347
9.4069996 -4.7659998 0.347
9.4219999 -4.7270002 0.34799999
9.4469995 -4.6929998 0.34900001
9.4750004 -4.6609998 0.34900001
9.5019999 -4.6279998 0.34999999
9.5340004 -4.598 0.35100001
9.5450001 -4.5580001 0.352
9.5719995 -4.5250001 0.352
9.5889997 -4.4879999 0.35299999
9.6160002 -4.4559999 0.354
9.6529999 -4.4289999 0.35499999
9.6689997 -4.3909998 0.35499999
9.71 -4.3660002 0.35699999
9.7320004 -4.3319998 0.35699999
9.7700005 -4.3049998 0.359
9.8030005 -4.276 0.36000001
9.8290005 -4.244 0.36000001
9.8540001 -4.211 0.361
9.8830004 -4.1810002 0.36199999
9.901 -4.1459999 0.36300001
9.9239998 -4.112 0.36300001
9.9589996 -4.085 0.36399999
9.9899998 -4.0549998 0.36500001
10.011 -4.0209999 0.366
10.055 -3.997 0.368
10.079 -3.9649999 0.368
10.096 -3.9300001 0.36899999
10.132 -3.9030001 0.37
10.16 -3.8729999 0.37099999
10.204 -3.849 0.37200001
10.251 -3.825 0.37400001
10.272 -3.7920001 0.375
10.305 -3.7639999 0.37599999
10.308 -3.724 0.37599999
10.351 -3.7 0.377
10.39 -3.674 0.37799999
10.41 -3.641 0.37900001
10.443 -3.6129999 0.38
10.502 -3.5929999 0.382
10.52 -3.5599999 0.38299999
10.572 -3.5380001 0.38499999
10.618 -3.5139999 0.38600001
10.658 -3.4879999 0.38699999
10.703 -3.464 0.389
10.766 -3.4449999 0.391
10.861 -3.4360001 0.39399999
10.88 -3.4030001 0.39500001
10.899 -3.3710001 0.396
10.907 -3.335 0.396
10.975 -3.3169999 0.398
11.026 -3.2939999 0.40000001
11.071 -3.2690001 0.40200001
11.135 -3.2490001 0.40400001
11.184 -3.2260001 0.405
11.218 -3.197 0.40700001
11.245 -3.1670001 0.40700001
11.284 -3.1400001 0.40900001
11.349 -3.1199999 0.41100001
11.335 -3.079 0.41100001
11.387 -3.056 0.412
11.455 -3.036 0.41499999
11.476 -3.0050001 0.41499999
11.509 -2.9760001 0.41600001
11.572 -2.9549999 0.419
11.601 -2.9260001 0.41999999
11.679 -2.9089999 0.42199999
11.772 -2.895 0.426
10.904 -2.6470001 0.39399999
10.836 -2.5969999 0.39199999
10.759 -2.5450001 0.389
10.721 -2.5039999 0.38699999
10.738 -2.4749999 0.38800001
10.773 -2.45 0.389
10.969 -2.4619999 0.396
12.048 -2.668 0.435
12.065 -2.6359999 0.43599999
12.072 -2.602 0.43599999
12.134 -2.5799999 0.43799999
12.143 -2.546 0.43799999
12.241 -2.5309999 0.442
12.235 -2.4949999 0.442
12.263 -2.4660001 0.44299999
12.319 -2.4419999 0.44499999
12.425 -2.428 0.44800001
12.414 -2.391 0.44800001
12.485 -2.3699999 0.44999999
12.507 -2.339 0.45100001
12.558 -2.3139999 0.45300001
12.687 -2.3039999 0.458
12.663 -2.2650001 0.45699999
12.667 -2.2309999 0.45699999
12.734 -2.2090001 0.45899999
12.778 -2.1830001 0.461
12.752 -2.1440001 0.46000001
12.844 -2.1259999 0.463
14.391 0.197 0.40799999
14.438 0.223 0.40900001
14.52 0.25099999 0.41100001
14.548 0.278 0.412
14.559 0.30500001 0.412
14.624 0.33399999 0.414
14.587 0.36000001 0.412
14.65 0.38999999 0.414
14.631 0.41800001 0.41299999
14.627 0.44600001 0.41299999
14.639 0.47499999 0.41299999
14.616 0.50400001 0.412
14.676 0.53500003 0.414
14.657 0.565 0.41299999
14.644 0.59399998 0.412
14.75 0.62900001 0.41499999
14.698 0.65799999 0.414
14.803 0.69400001 0.41600001
14.764 0.72299999 0.41499999
14.75 0.75400001 0.41499999
14.811 0.79000002 0.41600001
14.839 0.824 0.417
14.879 0.85900003 0.41800001
14.88 0.89200002 0.41800001
14.905 0.92699999 0.41800001
14.951 0.96399999 0.419
15.125 1.0089999 0.42399999
13.526 1.0930001 0.37900001
13.556 1.128 0.37900001
13.589 1.164 0.38
15.277 1.383 0.42699999
15.223 1.416 0.426
15.259 1.457 0.42699999
15.239 1.494 0.426
15.289 1.5369999 0.42699999
15.37 1.584 0.42899999
15.469 1.6339999 0.43200001
15.535 1.681 0.43399999
15.513 1.7180001 0.433
15.514 1.7589999 0.433
15.476 1.795 0.43200001
15.584 1.849 0.435
15.631 1.896 0.43599999
15.658 1.941 0.43700001
15.734 1.992 0.43900001
15.74 2.036 0.43900001
15.732 2.0769999 0.43900001
15.784 2.1270001 0.44
15.793 2.171 0.44100001
15.819 2.2179999 0.44100001
15.949 2.2809999 0.44499999
16 2.3329999 0.44600001
16.025999 2.381 0.447
16.048 2.4300001 0.44800001
16.042 2.474 0.44800001
16.108999 2.53 0.449
16.141001 2.5810001 0.44999999
16.145 2.628 0.44999999
16.23 2.688 0.45300001
16.343 2.7539999 0.456
16.368999 2.806 0.45699999
16.422001 2.8629999 0.458
16.503 2.9260001 0.461
16.518 2.977 0.461
16.551001 3.0320001 0.46200001
16.610001 3.092 0.46399999
16.757999 3.1689999 0.46799999
16.777 3.223 0.46799999
16.851 3.2880001 0.47099999
16.888 3.346 0.472
16.905001 3.401 0.472
16.924 3.4560001 0.47299999
17.011999 3.526 0.47499999
17.075001 3.5910001 0.477
17.112 3.651 0.47799999
17.120001 3.7060001 0.47799999
17.229 3.783 0.48199999
17.285 3.849 0.48300001
17.302999 3.9070001 0.484
17.375999 3.9779999 0.486
17.429001 4.0450001 0.48800001
17.542999 4.1269999 0.491
17.559999 4.1859999 0.491
17.726 4.2820001 0.49599999
18.082001 4.5999999 0.50700003
18.018999 4.6420002 0.505
18.025 4.7020001 0.505
18.118 4.7849998 0.50800002
18.15 4.8530002 0.509
18.223 4.9320002 0.51099998
18.204 4.9860001 0.51099998
18.215 5.0489998 0.51099998
18.447001 5.1739998 0.51800001
18.412001 5.2259998 0.51700002
18.503 5.3130002 0.51999998
18.886999 5.9299998 0.53200001
18.790001 5.9629998 0.52999997
18.856001 6.0489998 0.53200001
15.668 5.4569998 0.44400001
15.454 5.4359999 0.43799999
15.316 5.441 0.43399999
15.185 5.447 0.43099999
15.253 5.5250001 0.433
13.132 5.5019999 0.37599999
13.004 5.4949999 0.37200001
12.996 5.539 0.37200001
12.606 5.691 0.36300001
12.369 5.6290002 0.35600001
12.373 5.6760001 0.35699999
12.475 5.7680001 0.36000001
12.396 5.776 0.35800001
12.316 5.7839999 0.35600001
12.281 5.8119998 0.35499999
12.274 5.8540001 0.35499999
12.281 5.902 0.35499999
8.2019997 4.0310001 0.23800001
8.0080004 3.9649999 0.23199999
7.9330001 3.957 0.23
7.8800001 3.9590001 0.229
7.8470001 3.971 0.228
7.7979999 3.9749999 0.227
7.7620001 3.9849999 0.226
7.7389998 4.0009999 0.22499999
7.7389998 4.0300002 0.226
7.7280002 4.052 0.226
7.723 4.0780001 0.226
7.7280002 4.1090002 0.226
7.7420001 4.1440001 0.226
7.7649999 4.1849999 0.227
7.8299999 4.2490001 0.229
12.16 6.8189998 0.35800001
11.958 6.75 0.352
11.896 6.7579999 0.35100001
11.958 6.836 0.35299999
9.2629995 -5.4809999 0.36500001
9.2810001 -5.4650002 0.36500001
9.29 -5.4439998 0.366
9.2930002 -5.4190001 0.366
9.3219995 -5.4089999 0.36700001
9.3129997 -5.3769999 0.366
9.3400002 -5.3660002 0.368
9.3479996 -5.3429999 0.368
9.375 -5.3319998 0.36899999
9.3809996 -5.309 0.36899999
9.4069996 -5.296 0.37
9.4060001 -5.2680001 0.37
9.4309998 -5.2550001 0.37099999
9.4379997 -5.2319999 0.37099999
9.4650002 -5.2199998 0.37200001
9.4729996 -5.197 0.373
9.4949999 -5.1810002 0.37400001
9.4989996 -5.1560001 0.37400001
9.4949999 -5.1259999 0.37400001
9.5310001 -5.118 0.375
9.5310001 -5.0900002 0.375
9.5340004 -5.0650001 0.375
9.5780001 -5.0599999 0.377
9.6040001 -5.046 0.37799999
9.6129999 -5.0229998 0.37799999
9.6260004 -5.0019999 0.37900001
9.6190004 -4.9699998 0.37799999
9.6330004 -4.9489999 0.37900001
9.6599998 -4.9349999 0.38
9.6719999 -4.9130001 0.38
9.6800003 -4.8889999 0.38100001
9.6969995 -4.869 0.38100001
9.7030001 -4.8439999 0.382
9.717 -4.823 0.382
9.7290001 -4.8000002 0.38299999
9.7399998 -4.7779999 0.38299999
9.7510004 -4.7550001 0.38299999
9.7810001 -4.7410002 0.38499999
9.7860003 -4.7150002 0.38499999
9.7969999 -4.691 0.38499999
9.8269997 -4.677 0.38600001
9.8360004 -4.6529999 0.38699999
9.8549995 -4.6329999 0.38699999
9.8719997 -4.612 0.38800001
9.8780003 -4.586 0.38800001
9.9049997 -4.5700002 0.389
9.9160004 -4.546 0.38999999
9.9569998 -4.5359998 0.391
9.96 -4.5079999 0.391
9.9790001 -4.487 0.39199999
9.9949999 -4.4660001 0.39300001
10.043 -4.4580002 0.39500001
10.069 -4.4400001 0.396
10.068 -4.4099998 0.396
10.057 -4.3759999 0.39500001
10.093 -4.362 0.396
10.1 -4.335 0.39700001
10.123 -4.316 0.398
10.154 -4.3000002 0.39899999
10.152 -4.2690001 0.39899999
10.164 -4.2449999 0.39899999
10.209 -4.2329998 0.40099999
10.216 -4.2059999 0.40099999
10.226 -4.1810002 0.40200001
10.257 -4.1630001 0.403
10.273 -4.1399999 0.403
10.289 -4.1160002 0.40400001
10.304 -4.092 0.40400001
10.345 -4.0780001 0.40599999
10.334 -4.0440001 0.40599999
10.406 -4.0419998 0.40799999
10.401 -4.0089998 0.40799999
10.412 -3.983 0.40900001
10.469 -3.974 0.41100001
10.487 -3.951 0.41100001
10.495 -3.9230001 0.412
10.505 -3.8970001 0.412
10.552 -3.8829999 0.414
10.573 -3.8599999 0.41499999
10.605 -3.8410001 0.41600001
10.652 -3.8269999 0.41800001
10.675 -3.8039999 0.419
10.675 -3.773 0.419
10.724 -3.7590001 0.41999999
10.713 -3.724 0.41999999
10.76 -3.7090001 0.42199999
10.795 -3.6900001 0.42300001
10.813 -3.664 0.42399999
10.853 -3.6459999 0.42500001
10.88 -3.6240001 0.426
10.927 -3.608 0.428
10.983 -3.5940001 0.43000001
10.974 -3.559 0.43000001
11.042 -3.549 0.433
11.127 -3.5439999 0.43599999
11.146 -3.5179999 0.43700001
11.16 -3.49 0.43700001
11.165 -3.4590001 0.43700001
11.157 -3.424 0.43700001
11.186 -3.4000001 0.43799999
11.22 -3.378 0.43900001
11.215 -3.3440001 0.43900001
11.279 -3.3299999 0.44100001
11.29 -3.3010001 0.442
11.313 -3.2750001 0.44299999
11.38 -3.2609999 0.44499999
11.414 -3.2379999 0.447
11.391 -3.1989999 0.44600001
11.429 -3.1760001 0.447
11.466 -3.1530001 0.449
11.523 -3.135 0.45100001
11.543 -3.1070001 0.45100001
11.583 -3.085 0.45300001
11.583 -3.0510001 0.45300001
11.602 -3.023 0.454
11.666 -3.006 0.456
11.681 -2.9760001 0.45699999
11.743 -2.9579999 0.45899999
11.775 -2.9319999 0.46000001
11.803 -2.904 0.461
11.848 -2.881 0.463
11.912 -2.8629999 0.465
11.956 -2.839 0.46700001
12.037 -2.823 0.47
10.924 -2.53 0.42699999
10.782 -2.4660001 0.421
10.73 -2.424 0.419
10.737 -2.3940001 0.419
10.804 -2.378 0.42199999
11.024 -2.395 0.43000001
12.214 -2.618 0.477
12.222 -2.5840001 0.477
12.284 -2.562 0.479
12.309 -2.5320001 0.47999999
12.377 -2.51 0.48300001
12.405 -2.48 0.484
12.471 -2.457 0.486
12.493 -2.4260001 0.48699999
12.54 -2.3989999 0.48899999
12.636 -2.381 0.493
12.662 -2.349 0.49399999
12.814 -2.3410001 0.49900001
12.889 -2.3169999 0.50199997
13.866 -1.8559999 0.53899997
13.97 -1.83 0.54299998
13.896 -1.781 0.54000002
13.869 -1.737 0.53899997
13.985 -1.712 0.54400003
14.128 -1.568 0.54900002
14.031 -1.517 0.54500002
15.959 1.437 0.47600001
16.01 1.475 0.47799999
15.968 1.505 0.477
16.030001 1.546 0.47799999
16.128 1.591 0.48100001
16.125 1.626 0.48100001
16.169001 1.666 0.48199999
16.204 1.706 0.48300001
16.174 1.739 0.48300001
16.245001 1.784 0.48500001
16.267 1.824 0.48500001
16.285999 1.864 0.486
16.283001 1.901 0.486
16.295 1.941 0.486
16.348 1.9859999 0.48800001
16.421 2.0339999 0.49000001
16.466 2.0799999 0.491
16.479 2.1210001 0.49200001
16.495001 2.164 0.49200001
16.507 2.2060001 0.493
16.562 2.2539999 0.49399999
16.6 2.3010001 0.495
16.631001 2.3469999 0.49599999
16.613001 2.3870001 0.49599999
16.771 2.4519999 0.50099999
16.767 2.4949999 0.50099999
16.796 2.543 0.50199997
16.848 2.5940001 0.50300002
16.886999 2.645 0.50400001
16.937 2.697 0.50599998
17.017 2.7550001 0.509
17.007 2.799 0.50800002
17.063 2.8540001 0.50999999
17.072001 2.902 0.51099998
17.169001 2.9660001 0.514
17.181 3.0150001 0.514
17.148001 3.056 0.51300001
17.205999 3.115 0.51499999
17.278 3.1760001 0.51700002
17.252001 3.22 0.51700002
17.361 3.289 0.51999998
17.535999 3.372 0.52600002
17.596001 3.434 0.52700001
17.583 3.4820001 0.52700001
17.673 3.5510001 0.52999997
17.66 3.5999999 0.52999997
17.735001 3.668 0.53200001
17.757999 3.7249999 0.53299999
17.767 3.779 0.53399998
17.806999 3.8410001 0.53500003
17.933001 3.921 0.53899997
18.045 4 0.54299998
18.059 4.0580001 0.54299998
18.167 4.138 0.54699999
18.225 4.2069998 0.54900002
18.299 4.2800002 0.551
18.461 4.375 0.55599999
18.603001 4.467 0.56099999
18.860001 4.7059999 0.56900001
18.648001 4.7119999 0.56300002
19.055 4.9369998 0.57599998
18.922001 4.9629998 0.57300001
18.915001 5.0229998 0.57300001
18.690001 5.0240002 0.56599998
18.802 5.1149998 0.56999999
18.924 5.21 0.574
18.937 5.276 0.57499999
18.955 5.3439999 0.57499999
19.283001 5.8260002 0.588
19.343 5.9109998 0.58999997
15.491 5.3889999 0.47600001
15.325 5.3860002 0.472
15.187 5.3930001 0.46799999
15.065 5.4050002 0.46399999
15.097 5.4710002 0.46599999
14.607 5.7859998 0.454
14.736 5.8940001 0.458
12.395 5.5900002 0.38999999
12.363 5.6259999 0.38999999
12.428 5.7049999 0.39199999
12.4 5.743 0.39199999
12.327 5.7589998 0.38999999
12.292 5.7940001 0.389
12.274 5.836 0.389
12.299 5.8979998 0.38999999
8.0430002 3.957 0.25600001
7.9390001 3.9400001 0.25299999
7.875 3.941 0.25099999
7.835 3.954 0.25
7.8000002 3.9690001 0.249
7.7600002 3.9820001 0.248
7.7410002 4.0050001 0.248
7.743 4.039 0.248
7.73 4.066 0.248
7.7319999 4.0999999 0.249
7.7420001 4.1389999 0.249
7.7610002 4.1830001 0.25
7.8270001 4.2529998 0.25299999
11.981 6.7729998 0.389
11.863 6.7600002 0.38600001
11.861 6.8109999 0.38600001
8.8660002 -5.8299999 0.375
8.9060001 -5.8000002 0.37599999
8.9359999 -5.7639999 0.377
8.9720001 -5.7319999 0.37799999
8.9960003 -5.6929998 0.37900001
9.0389996 -5.665 0.38100001
9.0570002 -5.6230001 0.38100001
9.0889997 -5.5890002 0.382
9.118 -5.553 0.38299999
9.1389999 -5.5120001 0.384
9.177 -5.4829998 0.38499999
9.2130003 -5.4510002 0.38600001
9.2469997 -5.4190001 0.38800001
9.2559996 -5.3720002 0.38800001
9.29 -5.3400002 0.389
9.3400002 -5.3169999 0.391
9.3549995 -5.2750001 0.391
9.3839998 -5.2399998 0.39199999
9.3970003 -5.197 0.39199999
9.4130001 -5.1550002 0.39300001
9.46 -5.131 0.39500001
9.5050001 -5.1059999 0.396
9.526 -5.0669999 0.39700001
9.5240002 -5.0170002 0.39700001
9.5640001 -4.9889998 0.398
9.5930004 -4.9559999 0.39899999
9.6169996 -4.9190001 0.40000001
9.6459999 -4.8860002 0.40099999
9.6630001 -4.8470001 0.40099999
9.6960001 -4.816 0.40200001
9.7209997 -4.7810001 0.403
9.7440004 -4.7449999 0.40400001
9.7510004 -4.7020001 0.40400001
9.7950001 -4.6760001 0.40599999
9.8210001 -4.6420002 0.40599999
9.8509998 -4.6100001 0.40799999
9.8879995 -4.5809999 0.40900001
9.9110003 -4.546 0.41
9.934 -4.5110002 0.41
9.9560003 -4.4759998 0.41100001
9.9949999 -4.448 0.41299999
10.028 -4.4180002 0.414
10.067 -4.3899999 0.41499999
10.116 -4.3670001 0.417
10.126 -4.3270001 0.417
10.132 -4.2849998 0.417
10.202 -4.2709999 0.41999999
10.218 -4.2340002 0.41999999
10.231 -4.1950002 0.421
10.284 -4.1739998 0.42300001
10.318 -4.1440001 0.42399999
10.333 -4.1069999 0.42500001
10.374 -4.0799999 0.426
10.398 -4.0469999 0.42699999
10.455 -4.027 0.42899999
10.494 -3.9990001 0.43099999
10.527 -3.97 0.43200001
10.565 -3.9419999 0.433
10.606 -3.915 0.435
10.65 -3.8889999 0.43599999
10.712 -3.8699999 0.43900001
10.788 -3.855 0.442
10.82 -3.825 0.44299999
10.852 -3.7950001 0.44400001
10.886 -3.7650001 0.44499999
10.925 -3.7379999 0.447
10.957 -3.7079999 0.44800001
11.02 -3.688 0.44999999
11.056 -3.6589999 0.45199999
11.125 -3.641 0.454
11.136 -3.6040001 0.45500001
11.234 -3.595 0.45899999
11.399 -3.6059999 0.465
11.334 -3.5450001 0.46200001
11.334 -3.5050001 0.46200001
11.374 -3.477 0.46399999
11.402 -3.4460001 0.465
11.422 -3.4119999 0.465
11.487 -3.391 0.46799999
11.509 -3.358 0.46900001
11.541 -3.3280001 0.47
11.599 -3.306 0.472
11.611 -3.27 0.47299999
11.647 -3.2409999 0.47400001
11.709 -3.2190001 0.47600001
11.729 -3.1860001 0.477
11.745 -3.151 0.47799999
11.792 -3.125 0.479
11.851 -3.1029999 0.48199999
11.911 -3.0799999 0.484
11.975 -3.0580001 0.48699999
12.016 -3.03 0.48800001
12.046 -3 0.48899999
12.075 -2.9690001 0.49000001
12.168 -2.954 0.49399999
10.962 -2.6270001 0.44499999
10.747 -2.543 0.43599999
10.708 -2.5 0.43399999
10.738 -2.4749999 0.43599999
10.859 -2.47 0.44
12.468 -2.7980001 0.50599998
12.461 -2.76 0.505
12.569 -2.7460001 0.50999999
12.621 -2.72 0.51200002
13.603 -2.4330001 0.551
13.676 -2.4089999 0.55400002
14.085 -2.0090001 0.56999999
13.972 -1.9579999 0.565
14 -1.928 0.56599998
14.12 -1.91 0.57099998
14.062 -1.868 0.56800002
14.172 -1.849 0.57300001
14.155 -1.813 0.57200003
14.21 -1.786 0.574
14.175 -1.748 0.57300001
14.173 -1.715 0.57300001
14.165 -1.681 0.57200003
14.229 -1.656 0.57499999
14.226 -1.623 0.57499999
14.339 -1.603 0.57999998
14.286 -1.564 0.57700002
15.231 0.211 0.505
15.194 0.237 0.50400001
15.305 0.26699999 0.50700003
15.316 0.29499999 0.50700003
15.347 0.324 0.50800002
15.336 0.352 0.50700003
15.348 0.38100001 0.50800002
13.184 0.35299999 0.43599999
13.197 0.37799999 0.43599999
13.203 0.40400001 0.43599999
13.223 0.43099999 0.43599999
13.222 0.45699999 0.43599999
15.487 0.56699997 0.51099998
15.413 0.59600002 0.50800002
13.183 0.53600001 0.435
13.161 0.56300002 0.43399999
13.151 0.58999997 0.433
15.495 0.72799999 0.50999999
15.561 0.764 0.51200002
15.629 0.801 0.514
16.146999 1.503 0.52999997
16.111 1.54 0.528
16.148001 1.584 0.52899998
16.174 1.627 0.52999997
16.215 1.6720001 0.53200001
16.252001 1.7180001 0.53299999
16.249001 1.7589999 0.53299999
16.368 1.814 0.53600001
16.362 1.8559999 0.53600001
16.400999 1.903 0.537
16.466999 1.955 0.54000002
16.459999 1.997 0.53899997
16.490999 2.0450001 0.54000002
16.552999 2.0969999 0.542
16.625 2.151 0.54500002
16.634001 2.197 0.54500002
16.674 2.2479999 0.546
16.732 2.3010001 0.54799998
16.799999 2.3570001 0.551
16.854 2.411 0.55199999
16.909 2.4660001 0.55400002
16.985001 2.5239999 0.55699998
17.028 2.579 0.55800003
17.063999 2.632 0.55900002
17.084999 2.684 0.56
17.138 2.7409999 0.56199998
17.201 2.8 0.56400001
17.243 2.8570001 0.56599998
17.292 2.915 0.56699997
17.379 2.98 0.56999999
17.422001 3.0380001 0.57200003
17.471001 3.098 0.57300001
17.478001 3.1500001 0.574
17.479 3.2019999 0.574
17.709 3.2969999 0.58099997
17.997999 3.404 0.59100002
18.296 3.5150001 0.60100001
18.316 3.5739999 0.602
18.072001 3.5810001 0.59399998
18.054001 3.632 0.59299999
18.139999 3.7049999 0.59600002
18.190001 3.77 0.59799999
18.226999 3.8340001 0.60000002
18.301001 3.905 0.602
18.577 4.0219998 0.611
18.548 4.073 0.611
18.573 4.1360002 0.61199999
18.620001 4.2049999 0.61299998
18.603001 4.2589998 0.61299998
18.695999 4.3390002 0.616
18.736 4.408 0.61799997
18.820999 4.487 0.62099999
18.957001 4.5799999 0.625
19.042 4.6609998 0.62800002
18.952999 4.6999998 0.62599999
18.961 4.763 0.62599999
18.988001 4.8299999 0.62699997
18.997 4.8940001 0.62800002
19.042999 4.9679999 0.63
19.076 5.0380001 0.63099998
19.101999 5.1069999 0.63200003
19.17 5.1880002 0.63499999
19.16 5.2480001 0.634
19.726 5.7290001 0.65499997
19.731001 5.796 0.65499997
19.711 5.8569999 0.65499997
19.629999 5.8979998 0.65200001
15.487 5.3400002 0.51800001
15.315 5.3340001 0.51300001
15.194 5.3439999 0.509
15.099 5.3629999 0.50599998
15.017 5.3870001 0.50400001
15.063 5.4559999 0.505
12.584 5.7259998 0.43000001
12.481 5.7249999 0.42699999
12.509 5.783 0.428
12.409 5.7820001 0.42500001
12.334 5.7919998 0.42300001
12.296 5.8189998 0.42199999
12.285 5.8590002 0.42199999
12.304 5.9120002 0.42300001
12.302 5.9559999 0.42300001
12.361 6.0300002 0.426
8.0570002 3.9890001 0.278
7.9629998 3.971 0.27500001
7.9109998 3.974 0.273
7.8699999 3.983 0.27200001
7.8330002 3.993 0.271
7.7989998 4.0029998 0.27000001
7.7509999 4.0079999 0.26899999
7.7270002 4.0229998 0.26800001
7.7199998 4.0479999 0.26800001
7.717 4.0739999 0.26800001
7.71 4.099 0.26800001
7.7259998 4.1360002 0.26899999
7.7270002 4.165 0.26899999
7.776 4.2189999 0.271
7.9200001 4.3260002 0.27599999
12.097 6.8280001 0.42399999
11.941 6.783 0.419
11.946 6.829 0.41999999
9.5270004 -5.6420002 0.419
9.5419998 -5.6230001 0.41999999
9.5670004 -5.6100001 0.421
9.5780001 -5.5900002 0.421
9.5970001 -5.573 0.42199999
9.5819998 -5.5370002 0.42199999
9.6339998 -5.539 0.42399999
9.6549997 -5.5229998 0.42500001
9.6800003 -5.5100002 0.426
9.6750002 -5.4790001 0.426
9.6870003 -5.4580002 0.426
9.684 -5.428 0.426
9.7089996 -5.414 0.42699999
9.7110004 -5.3870001 0.42699999
9.7349997 -5.3730001 0.428
9.7530003 -5.3540001 0.42899999
9.7639999 -5.3319998 0.42899999
9.7810001 -5.3130002 0.43000001
9.7880001 -5.2880001 0.43000001
9.8000002 -5.2659998 0.43099999
9.8179998 -5.2470002 0.43200001
9.8290005 -5.2249999 0.43200001
9.8590002 -5.2119999 0.433
9.8789997 -5.1939998 0.43399999
9.8900003 -5.171 0.435
9.8970003 -5.1459999 0.435
9.9020004 -5.1199999 0.435
9.9029999 -5.0910001 0.435
9.9289999 -5.0760002 0.43599999
9.9689999 -5.0669999 0.43799999
9.9879999 -5.0479999 0.43900001
9.9940004 -5.0219998 0.43900001
10.017 -5.0040002 0.44
10.045 -4.9889998 0.44100001
10.04 -4.9580002 0.44100001
10.051 -4.9330001 0.442
10.079 -4.9180002 0.44299999
10.117 -4.9070001 0.44400001
10.118 -4.8779998 0.44400001
10.122 -4.8499999 0.44499999
10.15 -4.8340001 0.44600001
10.164 -4.8109999 0.44600001
10.154 -4.777 0.44600001
10.197 -4.7670002 0.44800001
10.214 -4.7449999 0.44800001
10.248 -4.7309999 0.44999999
10.259 -4.7059999 0.44999999
10.243 -4.6690001 0.44999999
10.309 -4.6690001 0.45199999
10.348 -4.6560001 0.454
10.359 -4.631 0.45500001
10.367 -4.6040001 0.45500001
10.401 -4.5890002 0.456
10.389 -4.553 0.456
10.398 -4.527 0.456
10.433 -4.5120001 0.458
10.453 -4.4889998 0.458
10.503 -4.48 0.461
10.511 -4.4530001 0.461
10.533 -4.4310002 0.46200001
10.558 -4.4109998 0.463
10.563 -4.382 0.463
10.604 -4.369 0.465
10.608 -4.3390002 0.465
10.652 -4.3260002 0.46700001
10.662 -4.2989998 0.46700001
10.707 -4.2859998 0.46900001
10.768 -4.2789998 0.472
10.801 -4.2600002 0.47299999
10.94 -4.283 0.479
10.907 -4.2379999 0.47799999
10.932 -4.2160001 0.479
10.945 -4.1890001 0.479
10.902 -4.1409998 0.477
10.905 -4.1100001 0.47799999
10.926 -4.086 0.47799999
10.959 -4.0669999 0.47999999
10.988 -4.046 0.48100001
11.018 -4.0240002 0.48199999
11.046 -4.0019999 0.48300001
11.068 -3.9779999 0.484
11.089 -3.9530001 0.48500001
11.116 -3.9300001 0.486
11.133 -3.904 0.48699999
11.163 -3.882 0.48800001
11.197 -3.8610001 0.49000001
11.199 -3.829 0.49000001
11.291 -3.8280001 0.49399999
11.271 -3.7880001 0.493
11.294 -3.763 0.49399999
11.329 -3.7420001 0.495
11.362 -3.7190001 0.49700001
11.37 -3.6889999 0.49700001
11.391 -3.6630001 0.498
11.534 -3.675 0.50400001
11.661 -3.6819999 0.50999999
11.599 -3.6289999 0.50700003
11.586 -3.5910001 0.50599998
11.572 -3.553 0.505
11.608 -3.53 0.50700003
11.617 -3.4990001 0.50700003
11.64 -3.4719999 0.50800002
11.672 -3.448 0.50999999
11.69 -3.4189999 0.50999999
11.723 -3.395 0.51200002
11.772 -3.375 0.514
11.816 -3.3529999 0.51599997
11.823 -3.3210001 0.51599997
11.841 -3.2909999 0.51700002
11.863 -3.263 0.51700002
11.89 -3.2360001 0.51899999
11.922 -3.21 0.51999998
11.956 -3.1849999 0.52100003
12.014 -3.1659999 0.52399999
12.004 -3.128 0.523
12.092 -3.1159999 0.52700001
12.1 -3.0829999 0.52700001
12.182 -3.069 0.53100002
12.19 -3.0350001 0.53100002
12.253 -3.016 0.53399998
12.255 -2.9809999 0.53399998
12.266 -2.948 0.53399998
12.362 -2.9349999 0.53799999
12.414 -2.9119999 0.54100001
10.983 -2.5439999 0.47799999
10.768 -2.464 0.46900001
10.716 -2.421 0.46599999
10.738 -2.395 0.46700001
10.815 -2.3800001 0.47099999
13.554 -2.5150001 0.58899999
13.638 -2.4909999 0.59200001
13.673 -2.4579999 0.59399998
13.799 -2.441 0.59899998
13.715 -2.3870001 0.59500003
13.746 -2.3529999 0.597
13.752 -2.3139999 0.597
14.004 -2.1559999 0.60699999
13.972 -2.1099999 0.60600001
14.065 -2.0840001 0.61000001
14.18 -2.0599999 0.61500001
14.159 -2.017 0.61400002
14.268 -1.9910001 0.61799997
14.227 -1.9450001 0.61699998
14.193 -1.899 0.61500001
14.249 -1.8660001 0.61699998
14.272 -1.7869999 0.61799997
14.402 -1.762 0.62400001
14.36 -1.716 0.62199998
12.987 0.117 0.458
12.985 0.12899999 0.458
12.99 0.141 0.458
12.987 0.154 0.458
12.98 0.16599999 0.45699999
12.997 0.18000001 0.45699999
12.98 0.193 0.456
12.983 0.207 0.456
13.002 0.221 0.45699999
13.005 0.236 0.45699999
13.025 0.25099999 0.45699999
12.982 0.26499999 0.45500001
12.981 0.28 0.45500001
12.961 0.296 0.454
12.964 0.31200001 0.454
12.956 0.32800001 0.45300001
12.95 0.34400001 0.45300001
12.966 0.36199999 0.45300001
12.946 0.37799999 0.45199999
12.934 0.396 0.45199999
12.93 0.41299999 0.45100001
12.918 0.43099999 0.45100001
12.915 0.449 0.45100001
12.919 0.46799999 0.44999999
12.913 0.48699999 0.44999999
12.904 0.50599998 0.44999999
12.891 0.52499998 0.449
12.898 0.54500002 0.449
12.913 0.56599998 0.449
12.9 0.58600003 0.449
12.92 0.60799998 0.449
12.939 0.63 0.44999999
12.968 0.653 0.45100001
12.99 0.676 0.45100001
13.024 0.69999999 0.45199999
13.092 0.72600001 0.45500001
13.219 0.75599998 0.45899999
16.902 1.523 0.58600003
16.833 1.553 0.583
16.853001 1.591 0.58399999
16.867001 1.628 0.58399999
16.848 1.663 0.58399999
16.881001 1.7029999 0.58499998
16.882999 1.7410001 0.58499998
16.879999 1.779 0.58499998
16.914 1.8200001 0.58600003
16.985001 1.867 0.588
16.996 1.9069999 0.58899999
17.115999 1.96 0.59299999
17.084999 1.9960001 0.59200001
17.136999 2.043 0.59399998
17.15 2.085 0.59399998
17.172001 2.1289999 0.59500003
17.223 2.1760001 0.597
17.361 2.2360001 0.602
17.341 2.276 0.60100001
17.427999 2.3299999 0.60399997
17.451 2.3759999 0.60500002
17.523001 2.4300001 0.60799998
17.517 2.473 0.60799998
17.601999 2.53 0.611
17.587 2.573 0.61000001
17.596001 2.619 0.611
17.68 2.677 0.61400002
17.726999 2.7309999 0.616
17.767 2.7839999 0.61699998
17.823999 2.8399999 0.61900002
17.827999 2.888 0.62
17.888 2.9449999 0.62199998
17.936001 3.0009999 0.62400001
17.971001 3.056 0.625
18.108999 3.1289999 0.63
18.246 3.2019999 0.63499999
18.284 3.26 0.63700002
18.393 3.3299999 0.64099997
18.405001 3.3840001 0.64099997
18.468 3.447 0.64399999
18.562 3.517 0.64700001
18.528 3.5639999 0.64600003
18.691999 3.6489999 0.65200001
18.700001 3.704 0.653
18.666 3.7509999 0.65200001
18.681999 3.809 0.653
18.743999 3.8770001 0.65499997
18.783001 3.9400001 0.65700001
18.789 3.997 0.65700001
18.921 4.0809999 0.662
18.843 4.1209998 0.66000003
18.853001 4.1799998 0.66100001
18.915001 4.2509999 0.66299999
18.922001 4.3099999 0.66399997
19.021999 4.3909998 0.66799998
19.07 4.461 0.67000002
19.16 4.5409999 0.67299998
19.245001 4.6209998 0.676
19.775 5.4450002 0.69999999
19.895 5.5440001 0.704
15.592 5.3670001 0.56
15.359 5.342 0.55199999
15.239 5.3559999 0.54799998
15.129 5.3720002 0.54500002
15.03 5.3920002 0.542
15.052 5.4549999 0.54299998
12.602 5.7849998 0.46599999
12.427 5.7550001 0.46000001
12.371 5.7800002 0.45899999
12.365 5.8280001 0.45899999
12.373 5.8829999 0.46000001
12.353 5.9239998 0.45899999
12.378 5.987 0.461
8.0240002 3.948 0.29899999
7.9590001 3.9489999 0.29699999
7.8920002 3.9489999 0.29499999
7.8649998 3.9690001 0.29499999
7.8260002 3.9820001 0.29300001
7.7610002 3.9820001 0.29100001
7.7350001 4.0019999 0.29100001
7.7340002 4.0349998 0.29100001
7.7280002 4.0640001 0.29100001
7.7270002 4.0970001 0.292
7.7360001 4.1350002 0.292
7.7719998 4.1880002 0.294
7.8629999 4.2719998 0.29800001
9.1110001 -5.9889998 0.428
9.1800003 -5.9770002 0.43099999
9.1960001 -5.9310002 0.43099999
9.2250004 -5.8920002 0.43200001
9.2700005 -5.8649998 0.43399999
9.2950001 -5.8239999 0.435
9.3310003 -5.7909999 0.43599999
9.3599997 -5.7540002 0.43700001
9.3990002 -5.723 0.43900001
9.4309998 -5.6869998 0.44
9.4589996 -5.6490002 0.44100001
9.4829998 -5.6090002 0.442
9.5129995 -5.573 0.44299999
9.5530005 -5.5430002 0.44499999
9.5649996 -5.4970002 0.44499999
9.5979996 -5.4629998 0.44600001
9.6470003 -5.4380002 0.44800001
9.6549997 -5.3899999 0.44800001
9.6780005 -5.3509998 0.449
9.6999998 -5.3109999 0.44999999
9.71 -5.2659998 0.44999999
9.7819996 -5.2529998 0.45300001
9.8109999 -5.2179999 0.454
9.809 -5.1659999 0.454
9.8470001 -5.1360002 0.45500001
9.8920002 -5.1090002 0.45699999
9.9119997 -5.0689998 0.458
9.9490004 -5.0380001 0.45899999
9.9709997 -5 0.46000001
10.018 -4.974 0.46200001
10.031 -4.9320002 0.46200001
10.086 -4.9099998 0.46399999
10.104 -4.8709998 0.465
10.137 -4.8379998 0.46599999
10.152 -4.7979999 0.46700001
10.17 -4.7579999 0.46700001
10.211 -4.73 0.46900001
10.272 -4.711 0.47099999
10.284 -4.6690001 0.472
10.335 -4.645 0.47400001
10.369 -4.6139998 0.47499999
10.403 -4.5819998 0.477
10.439 -4.552 0.47799999
10.45 -4.5100002 0.47799999
10.478 -4.4759998 0.479
10.529 -4.4530001 0.48100001
10.579 -4.428 0.484
10.615 -4.3979998 0.48500001
10.639 -4.362 0.486
10.686 -4.336 0.48800001
10.716 -4.303 0.48899999
10.77 -4.2800002 0.491
10.815 -4.2540002 0.493
10.89 -4.2379999 0.49599999
10.972 -4.2249999 0.5
11.101 -4.23 0.50599998
11.077 -4.177 0.50400001
11.032 -4.1149998 0.50199997
11.055 -4.0799999 0.50300002
11.092 -4.0500002 0.50400001
11.148 -4.027 0.50700003
11.17 -3.9909999 0.50800002
11.214 -3.964 0.509
11.285 -3.9460001 0.51200002
11.32 -3.915 0.514
11.334 -3.8770001 0.514
11.364 -3.845 0.51499999
11.391 -3.812 0.51700002
11.432 -3.783 0.51800001
11.476 -3.7550001 0.51999998
11.513 -3.7249999 0.52200001
11.569 -3.7019999 0.52399999
11.773 -3.724 0.53299999
11.719 -3.665 0.52999997
11.738 -3.6289999 0.53100002
11.74 -3.589 0.53100002
11.739 -3.5469999 0.53100002
11.805 -3.526 0.53399998
11.846 -3.497 0.53600001
11.894 -3.47 0.537
11.945 -3.444 0.54000002
11.974 -3.4119999 0.54100001
12.027 -3.3870001 0.54299998
12.053 -3.3529999 0.54400003
12.103 -3.3269999 0.546
12.163 -3.303 0.54900002
12.231 -3.2820001 0.55199999
12.243 -3.2449999 0.55199999
12.302 -3.221 0.55500001
12.37 -3.1989999 0.55800003
12.393 -3.165 0.55900002
12.482 -3.148 0.56300002
12.614 -3.141 0.56800002
10.873 -2.6059999 0.49000001
10.707 -2.533 0.48199999
10.689 -2.4960001 0.48100001
10.739 -2.4749999 0.48300001
10.899 -2.4790001 0.49000001
13.488 -3.027 0.60699999
13.536 -2.9979999 0.60900003
13.474 -2.944 0.60600001
13.548 -2.881 0.60900003
13.644 -2.8610001 0.61299998
13.643 -2.822 0.61299998
13.637 -2.7809999 0.61299998
13.739 -2.763 0.61699998
13.776 -2.654 0.61900002
13.788 -2.618 0.61900002
13.816 -2.585 0.62
13.954 -2.572 0.62599999
13.93 -2.53 0.625
13.941 -2.494 0.62599999
13.919 -2.4519999 0.625
13.955 -2.421 0.62599999
14.032 -2.3970001 0.63
14.252 -2.2850001 0.639
14.257 -2.2490001 0.639
14.2 -2.204 0.63700002
14.225 -2.1719999 0.63800001
14.244 -2.138 0.639
14.279 -2.108 0.63999999
14.364 -2.085 0.64399999
14.404 -2.0550001 0.64600003
14.441 -1.989 0.64700001
14.432 -1.952 0.64700001
14.394 -1.913 0.64499998
14.457 -1.886 0.648
14.56 -1.865 0.65200001
14.535 -1.827 0.65100002
13.085 0.155 0.58899999
13.075 0.17200001 0.58899999
13.04 0.189 0.58700001
13.039 0.206 0.58700001
13.017 0.223 0.58600003
13.029 0.23999999 0.58700001
13.024 0.25600001 0.58700001
13.037 0.273 0.588
13.013 0.289 0.58700001
13.013 0.30500001 0.58700001
13.036 0.32100001 0.588
13.028 0.33700001 0.588
13.038 0.35299999 0.588
13.039 0.368 0.588
13.066 0.38499999 0.58999997
13.082 0.40000001 0.59100002
13.118 0.41600001 0.59200001
13.171 0.433 0.59500003
12.836 0.18000001 0.48699999
12.845 0.20299999 0.48699999
12.841 0.226 0.48699999
12.844 0.249 0.48699999
12.842 0.273 0.486
12.861 0.29699999 0.48699999
12.854 0.32100001 0.486
12.854 0.34599999 0.486
12.847 0.37 0.486
12.851 0.39500001 0.486
12.853 0.421 0.486
12.847 0.44600001 0.48500001
12.846 0.472 0.48500001
12.851 0.498 0.48500001
12.854 0.52499998 0.48500001
12.853 0.551 0.48500001
12.857 0.57800001 0.48500001
12.861 0.60500002 0.48500001
12.899 0.63499999 0.486
12.921 0.66399997 0.48699999
12.953 0.69300002 0.48800001
12.967 0.722 0.48899999
13.007 0.75300002 0.49000001
13.061 0.78500003 0.49200001
13.046 0.81400001 0.491
13.071 0.84500003 0.49200001
13.157 0.88 0.495
13.145 0.91000003 0.495
13.14 0.94 0.49399999
13.107 0.96799999 0.493
13.129 1.001 0.49399999
13.116 1.031 0.493
13.088 1.0599999 0.49200001
13.108 1.0930001 0.493
13.108 1.125 0.493
13.135 1.159 0.49399999
13.267 1.2029999 0.49900001
17.136999 1.596 0.64399999
16.969 1.623 0.63800001
16.955999 1.664 0.63800001
17.032 1.715 0.63999999
17.037001 1.758 0.64099997
17.063999 1.8049999 0.64200002
17.128 1.855 0.64399999
17.18 1.905 0.64600003
17.222 1.955 0.648
17.32 2.0109999 0.65100002
17.426001 2.069 0.65499997
17.434999 2.1170001 0.65600002
17.448999 2.165 0.65600002
17.474001 2.2149999 0.65700001
17.542 2.27 0.66000003
17.573999 2.322 0.66100001
17.596001 2.3729999 0.662
17.631001 2.4260001 0.66299999
17.635 2.4749999 0.66399997
17.683001 2.53 0.66500002
17.806 2.598 0.67000002
17.85 2.654 0.67199999
17.964001 2.721 0.676
18.037001 2.783 0.67900002
18.059 2.8380001 0.68000001
18.105 2.8959999 0.68199998
18.099001 2.947 0.68199998
18.247 3.0239999 0.68800002
18.289 3.0829999 0.68900001
18.434 3.161 0.69499999
18.669001 3.256 0.704
18.642 3.306 0.70300001
18.656 3.3629999 0.704
18.669001 3.421 0.704
18.756001 3.4920001 0.708
18.849001 3.566 0.71200001
18.858999 3.6240001 0.71200001
18.867001 3.6819999 0.713
19.054001 3.776 0.72000003
19.052999 3.8329999 0.72000003
19.058001 3.892 0.72000003
19.159 3.971 0.72500002
19.219999 4.0430002 0.727
19.219 4.1020002 0.727
19.254 4.1690001 0.72899997
19.294001 4.237 0.73100001
19.367001 4.3130002 0.73400003
19.555 4.4159999 0.741
19.587 4.4850001 0.74299997
19.75 4.7719998 0.75
19.761999 4.8369999 0.75099999
19.841 4.9200001 0.75400001
15.488 5.3400002 0.59799999
15.339 5.342 0.59200001
15.231 5.3569999 0.58899999
15.156 5.3829999 0.58600003
15.122 5.4239998 0.58499998
14.711 5.8470001 0.574
14.587 5.8499999 0.56900001
8.0539999 3.987 0.32100001
7.947 3.9630001 0.317
7.8990002 3.9679999 0.31600001
7.8579998 3.9760001 0.31400001
7.8280001 3.99 0.31299999
7.7839999 3.9960001 0.31200001
7.743 4.0029998 0.31099999
7.7290001 4.0240002 0.31
7.7199998 4.0479999 0.31
7.7020001 4.066 0.31
7.7020001 4.0939999 0.31
7.697 4.1199999 0.31
7.7119999 4.1560001 0.31099999
7.7859998 4.224 0.315
10.84 7.4840002 0.45899999
10.775 7.4749999 0.45699999
10.732 7.48 0.456
10.702 7.494 0.45500001
10.663 7.5009999 0.454
10.618 7.5029998 0.45199999
10.588 7.5159998 0.45199999
10.565 7.533 0.45100001
10.542 7.5500002 0.45100001
10.517 7.566 0.44999999
10.492 7.5799999 0.44999999
10.479 7.6030002 0.44999999
10.463 7.6240001 0.449
9.9280005 -5.8839998 0.48300001
9.9379997 -5.862 0.48300001
9.9399996 -5.8340001 0.48300001
9.9689999 -5.823 0.48500001
9.9829998 -5.802 0.48500001
9.9829998 -5.7729998 0.48500001
10.005 -5.757 0.486
10.026 -5.7399998 0.48699999
10.009 -5.7020001 0.48699999
10.046 -5.6939998 0.48800001
10.034 -5.658 0.48800001
10.042 -5.6329999 0.48800001
10.059 -5.6139998 0.48899999
10.069 -5.5900002 0.48899999
10.092 -5.5739999 0.49000001
10.102 -5.5500002 0.491
10.117 -5.5289998 0.49200001
10.141 -5.513 0.493
10.169 -5.4980001 0.49399999
10.186 -5.4780002 0.495
10.206 -5.4590001 0.49599999
10.25 -5.4530001 0.498
10.271 -5.434 0.49900001
10.306 -5.4229999 0.50099999
10.309 -5.3940001 0.50099999
10.273 -5.3449998 0.49900001
10.299 -5.329 0.5
10.334 -5.3169999 0.50199997
10.343 -5.2919998 0.50199997
10.354 -5.2670002 0.50300002
10.366 -5.243 0.50300002
10.367 -5.2129998 0.50300002
10.427 -5.2129998 0.50599998
10.421 -5.1789999 0.50599998
10.439 -5.158 0.50700003
10.434 -5.125 0.50599998
10.475 -5.1149998 0.50800002
10.479 -5.086 0.50800002
10.495 -5.0630002 0.509
10.514 -5.0409999 0.50999999
10.545 -5.0250001 0.51099998
10.584 -5.013 0.51300001
10.612 -4.9949999 0.51499999
10.606 -4.961 0.514
10.631 -4.9419999 0.51499999
10.643 -4.9159999 0.51599997
10.652 -4.8899999 0.51599997
10.701 -4.881 0.51899999
10.716 -4.8559999 0.51899999
10.73 -4.8309999 0.51999998
10.761 -4.8140001 0.52100003
10.77 -4.7859998 0.52200001
10.804 -4.7690001 0.523
10.794 -4.7340002 0.523
10.853 -4.7270002 0.52600002
10.872 -4.704 0.52700001
10.923 -4.6939998 0.52899998
10.931 -4.6659999 0.52899998
10.926 -4.632 0.52899998
10.949 -4.6090002 0.52999997
10.962 -4.5830002 0.53100002
10.99 -4.5619998 0.53200001
11.029 -4.546 0.53399998
11.053 -4.5229998 0.53500003
11.091 -4.507 0.537
11.097 -4.4770002 0.537
11.139 -4.461 0.53899997
11.145 -4.4310002 0.53899997
11.205 -4.4219999 0.542
11.392 -4.3959999 0.551
11.322 -4.336 0.54699999
11.294 -4.2919998 0.546
11.295 -4.2589998 0.546
11.322 -4.237 0.54699999
11.336 -4.2090001 0.54799998
11.358 -4.184 0.54900002
11.419 -4.1729999 0.55199999
11.446 -4.1490002 0.55299997
11.443 -4.1139998 0.55299997
11.474 -4.092 0.55400002
11.499 -4.0669999 0.55500001
11.526 -4.0440001 0.55599999
11.559 -4.0209999 0.55800003
11.583 -3.9960001 0.55900002
11.585 -3.9630001 0.55900002
11.595 -3.9319999 0.56
11.649 -3.9170001 0.56199998
11.67 -3.8900001 0.56300002
11.701 -3.8659999 0.56400001
11.719 -3.8380001 0.565
11.77 -3.8199999 0.56800002
11.807 -3.7980001 0.56900001
11.829 -3.77 0.56999999
12.003 -3.7909999 0.579
11.96 -3.743 0.57700002
11.948 -3.704 0.57599998
11.991 -3.6830001 0.57800001
11.99 -3.6470001 0.57800001
11.977 -3.609 0.57700002
12.007 -3.5829999 0.57800001
12.057 -3.563 0.58099997
12.134 -3.55 0.58399999
12.193 -3.5320001 0.58700001
12.19 -3.4960001 0.58700001
12.272 -3.483 0.59100002
12.323 -3.4619999 0.59299999
12.375 -3.441 0.59600002
12.419 -3.4170001 0.59799999
12.561 -3.4200001 0.60399997
12.494 -3.365 0.60100001
10.742 -2.4890001 0.51599997
10.689 -2.4460001 0.51300001
10.694 -2.4159999 0.51300001
10.764 -2.401 0.51599997
13.607 -2.9560001 0.653
13.644 -2.925 0.65499997
13.638 -2.8840001 0.65399998
13.678 -2.8529999 0.65600002
13.671 -2.812 0.65600002
13.741 -2.7869999 0.65899998
13.807 -2.7609999 0.662
13.785 -2.7160001 0.66100001
13.848 -2.6889999 0.66399997
13.964 -2.671 0.66900003
13.988 -2.635 0.67000002
14.02 -2.6010001 0.67199999
14.06 -2.5680001 0.67299998
14.065 -2.529 0.67299998
14.077 -2.49 0.67400002
14.175 -2.467 0.67900002
14.145 -2.421 0.67699999
14.165 -2.3829999 0.67799997
14.373 -2.336 0.68699998
14.338 -2.289 0.68599999
14.305 -2.2420001 0.68400002
14.349 -2.2079999 0.68599999
14.365 -2.1689999 0.68699998
14.484 -2.1459999 0.69199997
14.468 -2.102 0.69099998
14.53 -2.069 0.69400001
14.536 -2.0280001 0.69400001
14.548 -1.988 0.69499999
14.705 -1.967 0.70200002
12.94 0.23100001 0.611
12.892 0.26699999 0.60900003
12.894 0.30399999 0.60900003
12.884 0.34099999 0.60799998
12.899 0.37799999 0.60900003
12.875 0.414 0.60799998
12.886 0.45100001 0.60799998
12.886 0.48800001 0.60799998
12.887 0.52499998 0.60799998
12.891 0.56199998 0.60799998
12.89 0.59899998 0.60799998
12.897 0.63599998 0.60799998
12.907 0.67299998 0.60799998
12.899 0.70999998 0.60799998
12.91 0.74800003 0.60799998
12.909 0.78399998 0.60799998
12.92 0.82200003 0.60799998
12.923 0.85900003 0.60799998
12.912 0.89600003 0.60799998
12.787 0.119 0.51200002
12.778 0.13 0.51200002
12.781 0.142 0.51099998
12.777 0.154 0.51099998
12.783 0.167 0.51099998
12.78 0.17900001 0.50999999
12.772 0.192 0.50999999
12.772 0.206 0.50999999
12.762 0.22 0.509
12.762 0.234 0.509
12.749 0.248 0.50800002
12.753 0.26300001 0.50800002
12.751 0.278 0.50700003
12.746 0.29300001 0.50700003
12.748 0.30899999 0.50700003
12.745 0.32499999 0.50700003
12.73 0.34099999 0.50599998
12.735 0.35800001 0.50599998
12.732 0.37400001 0.505
12.728 0.39199999 0.505
12.73 0.40900001 0.505
12.736 0.42699999 0.505
12.73 0.44499999 0.50400001
12.722 0.463 0.50400001
12.718 0.48199999 0.50400001
12.725 0.50099999 0.50400001
12.721 0.51999998 0.50300002
12.714 0.54000002 0.50300002
12.71 0.55900002 0.50300002
12.715 0.57999998 0.50300002
12.71 0.60000002 0.50199997
12.715 0.62099999 0.50300002
12.721 0.64200002 0.50300002
12.741 0.66500002 0.50300002
12.773 0.68800002 0.50400001
12.847 0.71399999 0.50700003
12.899 0.74000001 0.509
12.924 0.764 0.50999999
12.958 0.78899997 0.51099998
12.97 0.81300002 0.51200002
12.965 0.83700001 0.51200002
12.958 0.86000001 0.51099998
12.947 0.884 0.51099998
12.937 0.90700001 0.50999999
12.934 0.93199998 0.50999999
12.927 0.95599997 0.50999999
12.901 0.98000002 0.509
12.916 1.006 0.509
12.914 1.0319999 0.509
12.916 1.058 0.509
12.937 1.086 0.50999999
12.933 1.113 0.50999999
12.945 1.141 0.50999999
12.983 1.171 0.51200002
13.039 1.204 0.514
17.917 1.654 0.70599997
13.03 1.2309999 0.514
17.746 1.677 0.69999999
13.034 1.2589999 0.514
17.839001 1.724 0.70300001
13.052 1.29 0.51499999
17.792 1.758 0.70200002
13.092 1.322 0.51599997
17.864 1.804 0.704
13.128 1.355 0.51800001
17.865999 1.844 0.70499998
13.193 1.391 0.51999998
17.875 1.885 0.70499998
17.983 1.937 0.70899999
18 1.98 0.70999998
18.101999 2.0320001 0.71399999
18.292 2.096 0.722
18.233 2.132 0.71899998
18.302 2.1830001 0.722
18.238001 2.2179999 0.72000003
18.487 2.293 0.73000002
18.465 2.335 0.72899997
18.500999 2.3840001 0.73100001
18.577999 2.4389999 0.73400003
18.566999 2.484 0.73400003
18.608999 2.5350001 0.73500001
18.67 2.5899999 0.73799998
18.747 2.648 0.741
18.813999 2.7049999 0.74400002
18.805 2.7520001 0.74400002
18.857 2.8080001 0.74599999
18.895 2.8629999 0.74800003
18.843 2.904 0.74599999
18.917999 2.9649999 0.74900001
18.937 3.0179999 0.75
19.031 3.0829999 0.75400001
19.027 3.1340001 0.75400001
19.032 3.1860001 0.755
19.018 3.2349999 0.75400001
19.084999 3.2980001 0.75700003
19.122999 3.3570001 0.759
19.129 3.411 0.75999999
19.212999 3.4790001 0.76300001
19.229 3.536 0.764
19.240999 3.592 0.76499999
19.407 3.678 0.77200001
19.326 3.7179999 0.76899999
19.57 3.8210001 0.77899998
19.646999 3.892 0.78299999
19.700001 5.2309999 0.79500002
19.737 5.3049998 0.79699999
19.721001 5.3649998 0.79699999
15.459 5.3769999 0.63599998
15.355 5.3959999 0.63200003
15.322 5.4400001 0.63099998
14.822 5.7579999 0.616
14.796 5.8039999 0.61500001
14.62 5.7909999 0.60900003
14.542 5.8150001 0.60600001
8.0790005 3.9749999 0.34599999
7.9660001 3.9530001 0.34099999
7.882 3.944 0.338
7.8610001 3.9660001 0.338
7.8150001 3.977 0.336
7.7620001 3.9820001 0.33399999
7.7350001 4.0019999 0.33399999
7.7189999 4.026 0.333
7.7080002 4.0539999 0.333
7.6919999 4.0780001 0.333
7.6869998 4.1090002 0.333
7.6849999 4.1409998 0.33399999
7.7610002 4.2160001 0.33700001
10.995 7.0180001 0.493
10.934 7.0310001 0.491
10.887 7.052 0.49000001
10.844 7.0749998 0.48899999
10.8 7.098 0.48800001
10.787 7.1409998 0.48800001
10.763 7.1760001 0.48699999
10.734 7.2080002 0.48699999
10.697 7.2350001 0.486
10.661 7.2620001 0.48500001
10.625 7.289 0.484
10.604 7.3249998 0.484
10.581 7.3610001 0.484
10.543 7.3860002 0.48300001
10.531 7.4289999 0.48300001
10.492 7.4530001 0.48199999
10.473 7.4910002 0.48199999
10.419 7.5040002 0.48100001
9.4510002 -6.211 0.48800001
9.5050001 -6.1869998 0.491
9.5319996 -6.1459999 0.49200001
9.5699997 -6.1110001 0.493
9.6140003 -6.0809999 0.495
9.6499996 -6.0450001 0.49700001
9.691 -6.013 0.498
9.7119999 -5.9689999 0.49900001
9.7370005 -5.927 0.5
9.7880001 -5.901 0.50199997
9.8210001 -5.8639998 0.50400001
9.8369999 -5.8169999 0.50400001
9.8739996 -5.7839999 0.50599998
9.908 -5.7480001 0.50700003
9.9219999 -5.7010002 0.50700003
9.9720001 -5.6750002 0.50999999
9.9980001 -5.6350002 0.51099998
10.029 -5.5970001 0.51200002
10.063 -5.5619998 0.51300001
10.1 -5.5289998 0.51499999
10.168 -5.513 0.51800001
10.167 -5.4590001 0.51800001
10.162 -5.4029999 0.51700002
10.202 -5.3720002 0.51899999
10.268 -5.3540001 0.52200001
10.309 -5.323 0.523
10.309 -5.2709999 0.523
10.351 -5.2410002 0.52499998
10.385 -5.2069998 0.52600002
10.408 -5.1669998 0.52700001
10.443 -5.1339998 0.52899998
10.473 -5.098 0.52999997
10.512 -5.066 0.53200001
10.567 -5.0419998 0.53399998
10.566 -4.9920001 0.53399998
10.612 -4.9640002 0.53600001
10.631 -4.9239998 0.537
10.663 -4.8889999 0.53799999
10.721 -4.8670001 0.54100001
10.755 -4.8330002 0.542
10.809 -4.809 0.54400003
10.819 -4.7649999 0.54500002
10.852 -4.7309999 0.546
10.903 -4.7049999 0.54799998
10.945 -4.6750002 0.55000001
10.968 -4.638 0.551
11.019 -4.6110001 0.55299997
11.041 -4.573 0.55400002
11.076 -4.5409999 0.55599999
11.095 -4.5019999 0.55699998
11.158 -4.48 0.56
11.194 -4.448 0.56099999
11.236 -4.4180002 0.56300002
11.296 -4.3959999 0.56599998
11.421 -4.3979998 0.57200003
11.626 -4.4299998 0.58200002
11.45 -4.3169999 0.57300001
11.42 -4.2600002 0.57099998
11.43 -4.2179999 0.57099998
11.475 -4.1890001 0.57300001
11.507 -4.1560001 0.57499999
11.551 -4.1269999 0.57700002
11.586 -4.0949998 0.57800001
11.621 -4.0630002 0.57999998
11.665 -4.0339999 0.58200002
11.69 -3.9979999 0.583
11.732 -3.9690001 0.58499998
11.788 -3.944 0.58700001
11.804 -3.9059999 0.588
11.854 -3.8789999 0.58999997
11.909 -3.8529999 0.59299999
11.959 -3.826 0.59500003
12.057 -3.8139999 0.60000002
12.213 -3.776 0.60699999
12.199 -3.7290001 0.60600001
12.285 -3.7119999 0.61000001
12.335 -3.684 0.61299998
12.416 -3.665 0.61699998
12.419 -3.6229999 0.61699998
12.558 -3.6210001 0.62300003
13.503 -3.4920001 0.66900003
13.428 -3.4289999 0.66500002
13.399 -3.3789999 0.66299999
13.479 -3.3570001 0.667
13.564 -3.335 0.671
10.871 -2.605 0.537
10.688 -2.5280001 0.528
10.663 -2.49 0.52700001
10.709 -2.4679999 0.52899998
10.871 -2.4719999 0.537
13.837 -3.1059999 0.68400002
13.747 -3.0439999 0.67900002
13.807 -3.017 0.68199998
13.822 -2.9790001 0.68199998
13.872 -2.9489999 0.685
13.914 -2.918 0.68699998
13.937 -2.882 0.68800002
13.959 -2.8469999 0.68900001
14.055 -2.826 0.69300002
14.129 -2.8010001 0.69700003
14.166 -2.7690001 0.699
14.173 -2.73 0.699
14.183 -2.6930001 0.699
14.277 -2.671 0.704
14.293 -2.596 0.704
14.32 -2.562 0.70599997
14.36 -2.53 0.708
14.419 -2.5020001 0.70999998
14.536 -2.369 0.71600002
14.503 -2.326 0.71399999
14.483 -2.2850001 0.713
14.553 -2.2590001 0.71600002
14.604 -2.23 0.71899998
14.665 -2.2019999 0.722
14.763 -2.1800001 0.72600001
14.664 -2.128 0.722
14.728 -2.1010001 0.72500002
14.837 -2.0439999 0.73000002
14.922 -2.0190001 0.73400003
14.959 -1.988 0.736
12.998 0.082999997 0.64099997
12.889 0.1 0.63599998
12.845 0.117 0.634
12.823 0.134 0.63300002
12.815 0.152 0.63300002
12.824 0.169 0.63300002
12.829 0.186 0.634
12.831 0.20299999 0.634
12.832 0.219 0.634
12.855 0.236 0.63499999
12.852 0.25299999 0.63499999
12.866 0.26899999 0.63599998
12.869 0.285 0.63599998
12.878 0.301 0.63700002
12.868 0.317 0.63599998
12.871 0.333 0.63700002
12.888 0.34900001 0.63800001
12.913 0.36500001 0.639
12.951 0.38100001 0.64099997
12.975 0.39700001 0.64200002
12.968 0.412 0.64200002
13.006 0.428 0.64399999
12.711 0.18000001 0.54299998
12.713 0.20200001 0.542
12.716 0.22499999 0.542
12.718 0.248 0.542
12.723 0.27200001 0.542
12.723 0.296 0.542
12.717 0.31900001 0.542
12.715 0.34400001 0.54100001
12.719 0.368 0.54100001
12.715 0.39300001 0.54100001
12.698 0.417 0.54000002
12.704 0.44299999 0.54000002
12.712 0.46799999 0.54100001
12.707 0.49399999 0.54000002
12.697 0.51999998 0.54000002
12.708 0.546 0.54000002
12.701 0.57300001 0.54000002
12.704 0.59899998 0.54000002
12.714 0.62699997 0.54000002
12.739 0.65600002 0.54100001
12.801 0.68599999 0.54299998
12.877 0.71899998 0.54699999
12.884 0.74699998 0.54699999
12.907 0.778 0.54799998
12.912 0.80699998 0.54799998
12.913 0.83600003 0.54799998
12.899 0.86400002 0.54699999
12.905 0.89399999 0.54699999
12.865 0.921 0.546
12.863 0.95099998 0.54500002
12.854 0.98100001 0.54500002
12.863 1.012 0.54500002
12.871 1.043 0.546
12.879 1.075 0.546
12.889 1.107 0.546
12.905 1.14 0.54699999
12.898 1.171 0.54699999
12.938 1.206 0.54799998
12.954 1.24 0.54900002
