# .PCD v0.7 - Point Cloud Data file format
VERSION 0.7
FIELDS x y z
SIZE 4 4 4
TYPE F F F
COUNT 1 1 1
WIDTH 1810
HEIGHT 1
VIEWPOINT 0 0 0 1 0 0 0
POINTS 1810
DATA ascii
14.317 -2.5610001 0.70499998
14.36 -2.53 0.708
14.39 -2.497 0.70899999
14.443 -2.4679999 0.71100003
14.569 -2.3740001 0.71700001
14.492 -2.3239999 0.71399999
14.44 -2.279 0.71100003
14.669 -2.277 0.722
14.591 -2.2279999 0.71799999
14.668 -2.2030001 0.722
14.702 -2.171 0.72399998
14.682 -2.131 0.722
14.745 -2.1040001 0.72600001
14.795 -2.0380001 0.72799999
14.886 -2.0139999 0.73199999
12.955 0.082000002 0.639
12.859 0.1 0.63499999
12.829 0.117 0.63300002
12.82 0.134 0.63300002
12.829 0.152 0.63300002
12.83 0.169 0.634
12.82 0.186 0.63300002
12.844 0.20299999 0.634
12.838 0.219 0.634
12.858 0.236 0.63499999
12.864 0.25299999 0.63599998
12.864 0.26899999 0.63599998
12.864 0.285 0.63599998
12.875 0.301 0.63700002
12.869 0.317 0.63700002
12.889 0.333 0.63800001
12.897 0.34900001 0.63800001
12.925 0.36500001 0.63999999
12.962 0.38100001 0.64200002
12.989 0.39700001 0.64300001
13.007 0.41299999 0.64399999
12.999 0.42699999 0.64399999
12.69 0.17900001 0.542
12.713 0.20200001 0.542
12.718 0.22499999 0.542
12.72 0.248 0.542
12.726 0.27200001 0.542
12.717 0.29499999 0.542
12.717 0.31900001 0.542
12.718 0.34400001 0.542
12.716 0.368 0.54100001
12.717 0.39300001 0.54100001
12.714 0.41800001 0.54100001
12.703 0.44299999 0.54000002
12.717 0.46900001 0.54100001
12.705 0.49399999 0.54000002
12.701 0.51999998 0.54000002
12.702 0.546 0.54000002
12.704 0.57300001 0.54000002
12.71 0.60000002 0.54000002
12.721 0.62699997 0.54000002
12.737 0.65499997 0.54100001
12.799 0.68599999 0.54299998
12.865 0.71799999 0.546
12.888 0.74800003 0.54699999
12.903 0.77700001 0.54699999
12.92 0.80699998 0.54799998
12.907 0.83600003 0.54699999
12.895 0.86400002 0.54699999
12.897 0.89399999 0.54699999
12.882 0.92299998 0.546
12.86 0.95099998 0.54500002
12.846 0.98000002 0.54500002
12.854 1.011 0.54500002
12.873 1.043 0.546
12.876 1.075 0.546
12.891 1.107 0.546
12.901 1.1390001 0.54699999
12.905 1.171 0.54699999
12.926 1.205 0.54799998
12.95 1.239 0.54900002
18.017 1.725 0.764
12.971 1.274 0.55000001
17.983999 1.766 0.76200002
12.994 1.309 0.551
17.972 1.811 0.76200002
13.003 1.3430001 0.551
17.992001 1.858 0.76300001
13.014 1.377 0.55199999
18.049999 1.91 0.76499999
13.061 1.416 0.55400002
18.212 1.974 0.77200001
13.156 1.46 0.55800003
18.282 2.029 0.77499998
18.42 2.092 0.78100002
18.437 2.142 0.78200001
13.126 1.5599999 0.55699998
18.471001 2.1949999 0.78299999
13.007 1.58 0.55199999
18.489 2.2460001 0.78399998
13.151 1.632 0.55800003
18.533001 2.3 0.78600001
18.613001 2.3599999 0.79000002
18.667 2.4170001 0.792
18.711 2.473 0.79400003
18.77 2.5320001 0.79699999
18.853001 2.595 0.80000001
18.884001 2.651 0.80199999
18.959 2.714 0.80500001
19.025999 2.776 0.80800003
18.993 2.8239999 0.80699998
19.007 2.8800001 0.80800003
19.070999 2.9430001 0.81099999
19.139999 3.0079999 0.81400001
19.202 3.073 0.81599998
19.285999 3.141 0.81999999
19.299 3.1989999 0.82099998
19.236 3.244 0.81900001
19.327999 3.3150001 0.82300001
19.421 3.388 0.82700002
19.493999 3.4579999 0.82999998
19.540001 3.523 0.83200002
19.596001 3.5910001 0.83499998
19.635 3.6559999 0.83700001
19.624001 3.7130001 0.83700001
19.672001 3.7809999 0.83899999
21.138 5.1739998 0.90799999
21.226 5.2639999 0.912
19.662001 5.1929998 0.847
19.643999 5.2519999 0.847
19.635 5.3140001 0.847
19.712999 5.3990002 0.85100001
17.959 5.276 0.778
17.909 5.3210001 0.77600002
9.0579996 2.8740001 0.39399999
8.9329996 2.865 0.38800001
8.8859997 2.8800001 0.38699999
8.849 2.898 0.38499999
8.8280001 2.9219999 0.38499999
8.8269997 2.9519999 0.38499999
8.8190002 2.9790001 0.38499999
8.8120003 3.0079999 0.38499999
8.8190002 3.04 0.38499999
8.8219995 3.072 0.38600001
8.8380003 3.108 0.38699999
8.8660002 3.1489999 0.38800001
8.8970003 3.191 0.38999999
9.0179996 3.266 0.396
14.893 5.7610002 0.65700001
14.666 5.7249999 0.648
14.643 5.7680001 0.64700001
14.63 5.8150001 0.64700001
14.521 5.823 0.64300001
14.613 5.9120002 0.64700001
10.838 7.1919999 0.51800001
10.755 7.1739998 0.51499999
10.712 7.1810002 0.51300001
10.687 7.2010002 0.51300001
10.665 7.2220001 0.51200002
10.644 7.243 0.51200002
10.635 7.2729998 0.51200002
10.611 7.2909999 0.51099998
10.602 7.3200002 0.51200002
10.588 7.3449998 0.51200002
10.565 7.3639998 0.51099998
10.539 7.3800001 0.50999999
10.518 7.4000001 0.50999999
10.51 7.427 0.50999999
10.479 7.4390001 0.509
10.482 7.4749999 0.50999999
10.471 7.5 0.50999999
10.466 7.5300002 0.51099998
10.446 7.5479999 0.50999999
10.435 7.572 0.50999999
10.417 7.5910001 0.50999999
10.322 -6.1220002 0.55000001
10.342 -6.105 0.551
10.392 -6.105 0.55299997
10.373 -6.0640001 0.55199999
10.462 -6.085 0.55699998
10.402 -6.02 0.55400002
10.413 -5.9970002 0.55400002
10.451 -5.9889998 0.55599999
10.444 -5.954 0.55599999
10.496 -5.954 0.55900002
10.486 -5.9169998 0.55800003
10.495 -5.8920002 0.55900002
10.464 -5.8439999 0.55699998
10.491 -5.829 0.55800003
10.492 -5.7989998 0.55800003
10.509 -5.7779999 0.55900002
10.544 -5.7670002 0.56099999
10.544 -5.7360001 0.56099999
10.557 -5.7119999 0.56199998
10.556 -5.6810002 0.56099999
10.572 -5.6589999 0.56199998
10.604 -5.645 0.56400001
10.627 -5.6259999 0.565
10.73 -5.6500001 0.57099998
10.733 -5.6199999 0.57099998
10.673 -5.5570002 0.56699997
10.67 -5.5250001 0.56699997
10.695 -5.507 0.56800002
10.708 -5.4819999 0.56900001
10.729 -5.461 0.56999999
10.747 -5.4390001 0.57099998
10.755 -5.4120002 0.57099998
10.78 -5.3930001 0.57300001
10.823 -5.3829999 0.57499999
10.829 -5.3540001 0.57499999
10.834 -5.3249998 0.57499999
10.861 -5.3060002 0.57700002
10.878 -5.283 0.57800001
10.887 -5.256 0.57800001
10.924 -5.2410002 0.57999998
10.923 -5.2090001 0.57999998
10.961 -5.1950002 0.58200002
10.973 -5.1680002 0.58200002
10.983 -5.1409998 0.583
11.019 -5.125 0.58499998
11.01 -5.0890002 0.58399999
11.043 -5.072 0.58600003
11.074 -5.0539999 0.58700001
11.081 -5.0250001 0.588
11.112 -5.006 0.58899999
11.117 -4.9759998 0.58899999
11.149 -4.9569998 0.59100002
11.168 -4.9330001 0.59200001
11.177 -4.9039998 0.59200001
11.211 -4.8860002 0.59399998
11.263 -4.8759999 0.597
11.295 -4.8569999 0.59799999
11.299 -4.8249998 0.59899998
11.299 -4.7919998 0.59899998
11.31 -4.7639999 0.59899998
11.35 -4.7470002 0.60100001
11.384 -4.7280002 0.60299999
11.396 -4.6999998 0.60299999
11.4 -4.6680002 0.60399997
11.422 -4.6440001 0.60500002
11.469 -4.6290002 0.60699999
11.489 -4.6040001 0.60799998
11.544 -4.592 0.611
11.602 -4.5809999 0.61400002
11.633 -4.559 0.61500001
11.65 -4.5320001 0.616
11.659 -4.5009999 0.61699998
11.606 -4.447 0.61400002
11.642 -4.4260001 0.616
11.696 -4.4130001 0.61799997
11.713 -4.3850002 0.61900002
11.732 -4.3579998 0.62
11.757 -4.3330002 0.62099999
11.791 -4.3099999 0.62300003
11.791 -4.276 0.62300003
11.835 -4.2579999 0.625
11.858 -4.2309999 0.62599999
11.866 -4.1989999 0.62699997
11.925 -4.1849999 0.63
11.948 -4.158 0.63099998
11.966 -4.1300001 0.63200003
10.055 -3.441 0.53100002
9.9820004 -3.3870001 0.52700001
9.9840002 -3.358 0.52700001
9.993 -3.332 0.52700001
10.036 -3.3169999 0.52899998
10.188 -3.3380001 0.537
13.445 -3.74 0.70700002
13.348 -3.674 0.70200002
13.352 -3.6359999 0.70200002
13.407 -3.612 0.70499998
13.395 -3.5699999 0.704
13.439 -3.543 0.70700002
13.549 -3.533 0.71200001
13.523 -3.447 0.71100003
13.554 -3.4159999 0.71200001
13.573 -3.381 0.713
13.632 -3.3559999 0.71600002
13.748 -3.345 0.722
13.693 -3.2920001 0.71899998
13.716 -3.2579999 0.72000003
13.754 -3.227 0.722
13.773 -3.1919999 0.72299999
13.822 -3.1630001 0.72500002
13.852 -3.1300001 0.727
13.862 -3.092 0.727
13.939 -3.069 0.73100001
13.927 -3.026 0.73000002
13.953 -2.9909999 0.73199999
13.993 -2.96 0.73400003
14.051 -2.931 0.736
14.114 -2.904 0.74000001
14.156 -2.8710001 0.74199998
14.187 -2.8369999 0.74299997
14.262 -2.8110001 0.74699998
14.276 -2.7720001 0.74800003
14.321 -2.74 0.75
14.407 -2.714 0.75400001
14.429 -2.677 0.755
14.487 -2.6040001 0.75800002
14.548 -2.573 0.76099998
14.592 -2.539 0.76300001
14.549 -2.49 0.76099998
14.774 -2.358 0.77200001
14.752 -2.312 0.77100003
14.74 -2.2679999 0.76999998
14.909 -2.2509999 0.77899998
14.967 -2.217 0.78200001
13.113 0.199 0.67699999
12.877 0.23199999 0.66399997
12.817 0.26800001 0.66100001
12.793 0.30399999 0.66000003
12.807 0.34099999 0.66000003
12.811 0.37799999 0.66000003
12.808 0.414 0.66000003
12.807 0.45100001 0.66000003
12.826 0.48800001 0.66100001
12.819 0.52499998 0.66000003
12.829 0.56199998 0.66000003
12.831 0.59899998 0.66000003
12.816 0.63499999 0.65899998
12.839 0.67199999 0.66000003
12.842 0.70899999 0.66000003
12.847 0.74599999 0.66100001
12.863 0.78399998 0.66100001
12.875 0.82200003 0.662
12.872 0.85900003 0.66100001
12.86 0.89499998 0.66100001
12.655 0.12 0.56699997
12.652 0.132 0.56699997
12.653 0.14300001 0.56599998
12.646 0.155 0.56599998
12.655 0.168 0.56599998
12.649 0.18000001 0.565
12.649 0.193 0.565
12.648 0.207 0.565
12.652 0.22 0.56400001
12.637 0.234 0.56400001
12.641 0.248 0.56300002
12.648 0.26300001 0.56400001
12.644 0.278 0.56300002
12.651 0.29300001 0.56300002
12.634 0.30899999 0.56199998
12.635 0.324 0.56199998
12.642 0.34099999 0.56199998
12.649 0.35699999 0.56199998
12.648 0.37400001 0.56199998
12.65 0.391 0.56199998
12.653 0.40900001 0.56199998
12.658 0.42699999 0.56199998
12.652 0.44499999 0.56099999
12.66 0.463 0.56099999
12.66 0.48199999 0.56099999
12.659 0.50099999 0.56099999
12.661 0.51999998 0.56099999
12.67 0.54000002 0.56099999
12.669 0.55900002 0.56099999
12.67 0.57999998 0.56099999
12.666 0.60000002 0.56099999
12.663 0.62 0.56
12.679 0.64200002 0.56099999
12.684 0.66299999 0.56099999
12.737 0.68800002 0.56300002
12.834 0.71499997 0.56800002
12.887 0.741 0.56999999
12.88 0.76300001 0.56900001
12.888 0.78600001 0.56999999
12.881 0.80900002 0.56900001
12.878 0.833 0.56900001
12.854 0.85500002 0.56800002
12.818 0.87599999 0.56599998
12.811 0.89999998 0.56599998
12.803 0.92400002 0.56599998
12.799 0.94800001 0.565
12.796 0.97299999 0.565
12.798 0.99900001 0.565
12.804 1.025 0.56599998
12.808 1.051 0.56599998
12.827 1.0779999 0.56699997
12.837 1.1059999 0.56699997
12.862 1.135 0.56800002
12.894 1.164 0.56999999
12.898 1.192 0.56999999
12.933 1.223 0.57099998
12.939 1.251 0.57200003
12.967 1.2819999 0.57300001
12.969 1.311 0.57300001
19.344 1.956 0.85500002
12.993 1.342 0.574
19.436001 2.0079999 0.85900003
13.026 1.375 0.57599998
19.461 2.0539999 0.861
13.098 1.4119999 0.579
19.25 2.075 0.85100001
13.136 1.446 0.58099997
19.403999 2.1359999 0.85799998
13.129 1.475 0.58099997
19.416 2.1819999 0.85900003
13.108 1.503 0.57999998
19.468 2.2320001 0.861
13.01 1.522 0.57599998
13.021 1.554 0.57599998
19.437 2.3199999 0.86000001
13.065 1.59 0.57800001
19.367001 2.3570001 0.85699999
19.537001 2.425 0.86500001
19.405001 2.4549999 0.85900003
19.458 2.5090001 0.86199999
19.466999 2.5569999 0.86299998
19.419001 2.599 0.861
19.472 2.654 0.86299998
19.632 2.7249999 0.87
19.660999 2.7780001 0.87199998
13.022 1.873 0.57800001
19.649 2.826 0.87199998
13.152 1.925 0.58399999
19.743 2.8900001 0.87599999
19.759001 2.9430001 0.87699997
19.761999 2.9949999 0.87800002
19.826 3.056 0.88099998
19.865999 3.115 0.88300002
19.846001 3.164 0.88200003
19.790001 3.207 0.88
19.882 3.2750001 0.884
20.028999 3.3529999 0.89099997
20.250999 3.4449999 0.90200001
20.283001 3.506 0.903
20.551001 3.609 0.91600001
20.858 3.954 0.93099999
20.794001 4.0009999 0.92900002
21.922001 4.796 0.98400003
21.879 4.8520002 0.98299998
21.719 4.882 0.97600001
21.73 4.9510002 0.977
19.796 5.1929998 0.89700001
19.648001 5.2179999 0.89099997
19.629 5.276 0.89099997
19.589001 5.3299999 0.889
19.622 5.4029999 0.89200002
19.743999 5.5019999 0.898
18.152 5.2389998 0.82700002
17.945999 5.2399998 0.81900001
17.745001 5.2410002 0.81
17.659 5.276 0.80699998
17.688999 5.3449998 0.80900002
9.0959997 2.905 0.41800001
8.934 2.885 0.41
8.8809996 2.8989999 0.40799999
8.8439999 2.918 0.40700001
8.8210001 2.941 0.40599999
8.8299999 2.9760001 0.40700001
8.8100004 3.0009999 0.40700001
8.8030005 3.03 0.40700001
8.8149996 3.066 0.40799999
8.8310003 3.1029999 0.40900001
8.8509998 3.1429999 0.41
8.8999996 3.1919999 0.41299999
9.0010004 3.2620001 0.41800001
14.943 5.7480001 0.69800001
14.712 5.7150002 0.68800002
14.674 5.756 0.68699998
14.692 5.8189998 0.68900001
14.598 5.8369999 0.685
11.008 6.9759998 0.55699998
10.873 6.941 0.551
10.822 6.9590001 0.54900002
10.804 6.9980001 0.54900002
10.769 7.027 0.54799998
10.736 7.0560002 0.54699999
10.709 7.0890002 0.54699999
10.684 7.1230001 0.54699999
10.66 7.1589999 0.546
10.634 7.1919999 0.546
10.602 7.2220001 0.54500002
10.581 7.2589998 0.54500002
10.557 7.2930002 0.54500002
10.525 7.322 0.54400003
10.509 7.3629999 0.54400003
10.495 7.4039998 0.54400003
10.466 7.4349999 0.54400003
10.437 7.4650002 0.54299998
10.399 7.4899998 0.542
9.8039999 -6.441 0.55299997
9.868 -6.421 0.55599999
9.9259996 -6.3979998 0.55900002
9.9589996 -6.3579998 0.56
9.9899998 -6.3169999 0.56099999
10.051 -6.2950001 0.56400001
10.071 -6.2470002 0.565
10.115 -6.2150002 0.56699997
10.156 -6.1799998 0.56900001
10.196 -6.145 0.57099998
10.204 -6.0910001 0.57099998
10.234 -6.0510001 0.57200003
10.261 -6.0089998 0.57300001
10.281 -5.9629998 0.574
10.322 -5.9289999 0.57599998
10.347 -5.8870001 0.57700002
10.356 -5.835 0.57700002
10.415 -5.8119998 0.57999998
10.445 -5.7729998 0.58099997
10.542 -5.77 0.58600003
10.56 -5.724 0.58600003
10.548 -5.6620002 0.58499998
10.582 -5.625 0.58700001
10.6 -5.5799999 0.588
10.64 -5.5469999 0.58899999
10.68 -5.5139999 0.59100002
10.692 -5.4660001 0.59200001
10.749 -5.441 0.59399998
10.769 -5.3990002 0.59500003
10.798 -5.3600001 0.59600002
10.828 -5.322 0.59799999
10.861 -5.2859998 0.59899998
10.906 -5.2550001 0.60100001
10.941 -5.2199998 0.60299999
10.958 -5.177 0.60399997
11.015 -5.152 0.60600001
11.026 -5.1059999 0.60699999
11.059 -5.0700002 0.60799998
11.103 -5.039 0.61000001
11.141 -5.006 0.61199999
11.162 -4.9650002 0.61299998
11.198 -4.9310002 0.61500001
11.236 -4.8979998 0.616
11.253 -4.855 0.61699998
11.33 -4.8390002 0.62099999
11.342 -4.7950001 0.62099999
11.373 -4.7589998 0.62300003
11.396 -4.7199998 0.62400001
11.444 -4.691 0.62599999
11.494 -4.6630001 0.62800002
11.534 -4.6300001 0.63
11.578 -4.5999999 0.63200003
11.597 -4.5599999 0.63300002
11.649 -4.533 0.63599998
11.713 -4.5100002 0.639
11.732 -4.4689999 0.63999999
11.764 -4.434 0.64099997
11.819 -4.408 0.64399999
11.845 -4.3709998 0.64499998
11.871 -4.3330002 0.64600003
11.943 -4.3130002 0.64999998
11.98 -4.2800002 0.65200001
12.016 -4.2470002 0.65399998
12.026 -4.204 0.65399998
12.155 -4.2030001 0.66100001
12.295 -4.2049999 0.66799998
10.039 -3.3959999 0.54500002
9.9809999 -3.339 0.542
9.9870005 -3.3039999 0.542
10.083 -3.299 0.54699999
10.399 -3.3640001 0.56400001
13.411 -3.8670001 0.72500002
13.429 -3.826 0.72600001
13.421 -3.779 0.72500002
13.441 -3.7390001 0.72600001
13.502 -3.711 0.72899997
13.513 -3.6700001 0.73000002
13.645 -3.661 0.73699999
13.788 -3.6099999 0.74400002
13.761 -3.5580001 0.74199998
13.727 -3.5050001 0.74000001
13.753 -3.4679999 0.74199998
13.772 -3.4300001 0.74199998
13.983 -3.3940001 0.75300002
13.914 -3.335 0.74900001
14.005 -3.313 0.75400001
13.994 -3.2679999 0.75300002
14.035 -3.2349999 0.75599998
14.054 -3.1960001 0.75599998
14.081 -3.1600001 0.75800002
14.13 -3.1289999 0.75999999
14.172 -3.0969999 0.76200002
14.218 -3.0650001 0.76499999
14.282 -3.0369999 0.76800001
14.343 -3.0079999 0.77100003
14.319 -2.9619999 0.76999998
14.363 -2.9289999 0.77200001
14.453 -2.9059999 0.77700001
14.461 -2.8670001 0.77700001
14.587 -2.8510001 0.78299999
14.538 -2.8010001 0.78100002
14.674 -2.7449999 0.78799999
14.689 -2.7079999 0.78799999
14.647 -2.6600001 0.78600001
14.79 -2.6459999 0.79400003
14.799 -2.608 0.79400003
15.057 -2.415 0.80699998
15.073 -2.3789999 0.80800003
12.906 0.082000002 0.69300002
12.849 0.098999999 0.69
12.826 0.117 0.68900001
12.824 0.134 0.68900001
12.823 0.15099999 0.68900001
12.833 0.169 0.69
12.851 0.186 0.69099998
12.867 0.20299999 0.69199997
12.865 0.22 0.69199997
12.885 0.237 0.69300002
12.89 0.25299999 0.69300002
12.894 0.27000001 0.69400001
12.908 0.28600001 0.69400001
12.913 0.30199999 0.69499999
12.907 0.31799999 0.69499999
12.952 0.33500001 0.69700003
12.977 0.35100001 0.699
13.032 0.368 0.70200002
13.048 0.384 0.70300001
13.053 0.39899999 0.70300001
13.142 0.417 0.708
13.184 0.43399999 0.70999998
12.632 0.18000001 0.59899998
12.641 0.20299999 0.59899998
12.647 0.226 0.59899998
12.647 0.249 0.59899998
12.655 0.27200001 0.59899998
12.645 0.29499999 0.59899998
12.663 0.31999999 0.59899998
12.665 0.34400001 0.59899998
12.662 0.368 0.59899998
12.663 0.39300001 0.59899998
12.656 0.417 0.59899998
12.668 0.44299999 0.59899998
12.671 0.46799999 0.59899998
12.664 0.49399999 0.59799999
12.674 0.51999998 0.59899998
12.668 0.546 0.59799999
12.665 0.57200003 0.59799999
12.671 0.59899998 0.59799999
12.669 0.62599999 0.59799999
12.679 0.65399998 0.59899998
12.711 0.68300003 0.60000002
12.785 0.71499997 0.60299999
12.894 0.74900001 0.60799998
12.889 0.778 0.60799998
12.869 0.80500001 0.60699999
12.87 0.83399999 0.60699999
12.86 0.86299998 0.60699999
12.839 0.89099997 0.60600001
12.81 0.91900003 0.60399997
12.799 0.94800001 0.60399997
12.783 0.977 0.60299999
12.769 1.006 0.602
12.787 1.038 0.60299999
12.787 1.068 0.60299999
12.796 1.1 0.60299999
12.805 1.132 0.60399997
12.826 1.165 0.60500002
12.868 1.201 0.60699999
12.883 1.234 0.60799998
12.914 1.2690001 0.60900003
19.427 1.91 0.917
12.926 1.303 0.61000001
19.368999 1.9529999 0.91399997
12.952 1.3380001 0.611
19.375 2.0020001 0.91399997
12.955 1.372 0.611
19.381001 2.052 0.91500002
12.984 1.408 0.61299998
19.368 2.1010001 0.91399997
13.046 1.449 0.616
19.566999 2.1730001 0.92299998
13.096 1.488 0.61799997
19.524 2.2190001 0.92199999
13.142 1.528 0.62
19.534 2.2709999 0.92199999
13.104 1.558 0.61900002
19.476999 2.3150001 0.92000002
13.018 1.582 0.61500001
19.636999 2.3859999 0.92699999
13.03 1.618 0.61500001
19.59 2.4330001 0.92500001
13.115 1.664 0.61900002
19.648001 2.4920001 0.92799997
19.618 2.5409999 0.92699999
19.731001 2.609 0.93199998
19.757999 2.6670001 0.93400002
19.754 2.72 0.93400002
19.860001 2.789 0.93900001
20.084 2.8759999 0.94999999
13.092 1.911 0.61900002
20.079 2.931 0.94999999
13.025 1.937 0.616
20.021999 2.9790001 0.94700003
19.993 3.03 0.94599998
20.017 3.0899999 0.94800001
20.018999 3.1470001 0.94800001
20.164 3.2279999 0.95499998
20.247999 3.299 0.95899999
20.445999 3.3900001 0.96899998
20.417999 3.444 0.96799999
20.416 3.503 0.96799999
20.452 3.5680001 0.97000003
20.601 3.655 0.977
21.733999 4.1129999 1.033
21.655001 4.1620002 1.029
21.671 4.2309999 1.03
21.686001 4.2989998 1.0319999
21.997 4.5609999 1.048
22.052 4.6399999 1.051
21.893999 4.6739998 1.044
21.76 4.7119999 1.038
21.737 4.7740002 1.0369999
21.698999 4.8340001 1.036
21.738001 4.9099998 1.038
19.747 5.0879998 0.94800001
19.673 5.132 0.94499999
19.635 5.1859999 0.94300002
19.610001 5.243 0.94300002
19.568001 5.296 0.94099998
19.641001 5.3800001 0.94499999
19.834999 5.4980001 0.95499998
18.111 5.1399999 0.87300003
17.903999 5.1399999 0.86400002
17.754999 5.1570001 0.85699999
17.631001 5.1789999 0.852
17.58 5.223 0.85000002
17.659 5.3060002 0.85399997
9.1420002 2.901 0.44400001
8.9560003 2.872 0.435
8.8870001 2.881 0.43200001
8.8500004 2.8989999 0.43000001
8.8310003 2.9230001 0.43000001
8.8170004 2.9489999 0.42899999
8.8000002 2.973 0.42899999
8.7959995 3.0020001 0.42899999
8.8100004 3.0369999 0.43000001
8.8190002 3.0710001 0.43099999
8.8430004 3.1099999 0.43200001
8.8699999 3.1500001 0.43399999
8.9250002 3.201 0.43700001
9.0319996 3.2709999 0.44299999
14.855 5.7459998 0.73199999
14.793 5.7740002 0.73000002
14.9 5.869 0.736
14.849 5.902 0.73400003
10.948 7.2280002 0.58600003
10.793 7.1630001 0.579
10.741 7.165 0.57599998
10.713 7.1830001 0.57599998
10.707 7.2150002 0.57599998
10.68 7.2319999 0.57499999
10.661 7.2550001 0.57499999
10.65 7.283 0.57499999
10.635 7.309 0.57499999
10.625 7.336 0.57499999
10.596 7.3509998 0.57499999
10.574 7.3709998 0.574
10.555 7.3920002 0.574
10.555 7.4260001 0.57499999
10.533 7.4450002 0.574
10.528 7.4749999 0.57499999
10.517 7.5 0.57499999
10.516 7.533 0.57499999
10.498 7.553 0.57499999
10.487 7.5780001 0.57499999
10.471 7.599 0.57499999
10.458 7.6220002 0.57499999
10.707 -6.3559999 0.62
10.719 -6.3330002 0.62
10.734 -6.3109999 0.62099999
10.71 -6.2649999 0.62
10.777 -6.2729998 0.62400001
10.78 -6.244 0.62400001
10.784 -6.2150002 0.62400001
10.794 -6.1900001 0.62400001
10.868 -6.2010002 0.62900001
10.834 -6.1500001 0.62699997
10.879 -6.1440001 0.62900001
10.835 -6.0869999 0.62699997
10.856 -6.0679998 0.62800002
10.843 -6.0289998 0.62699997
10.873 -6.0139999 0.62900001
10.878 -5.9850001 0.62900001
10.921 -5.9770002 0.63099998
10.976 -5.9749999 0.634
10.946 -5.927 0.63300002
10.942 -5.8930001 0.63200003
10.962 -5.8720002 0.63300002
11.005 -5.8629999 0.63599998
11.13 -5.8319998 0.64300001
11.074 -5.77 0.639
11.06 -5.7309999 0.639
11.053 -5.6950002 0.63800001
11.08 -5.6760001 0.63999999
11.094 -5.651 0.63999999
11.114 -5.6290002 0.64099997
11.151 -5.6149998 0.64399999
11.169 -5.5910001 0.64499998
11.19 -5.5689998 0.64600003
11.193 -5.5380001 0.64600003
11.205 -5.5110002 0.64600003
11.229 -5.4899998 0.648
11.241 -5.4629998 0.648
11.279 -5.448 0.64999998
11.282 -5.4159999 0.64999998
11.302 -5.3930001 0.65200001
11.314 -5.3660002 0.65200001
11.335 -5.342 0.653
11.362 -5.322 0.65499997
11.367 -5.2909999 0.65499997
11.377 -5.2620001 0.65600002
11.387 -5.2329998 0.65600002
11.445 -5.2259998 0.65899998
11.451 -5.1950002 0.66000003
11.463 -5.1669998 0.66000003
11.48 -5.1409998 0.66100001
11.523 -5.1269999 0.66299999
11.547 -5.1040001 0.66500002
11.579 -5.0840001 0.66600001
11.601 -5.059 0.66799998
11.626 -5.0359998 0.66900003
11.646 -5.0100002 0.67000002
11.636 -4.9720001 0.66900003
11.69 -4.961 0.67199999
11.714 -4.9369998 0.67400002
11.747 -4.9159999 0.676
11.746 -4.881 0.67500001
11.777 -4.8600001 0.67699999
11.798 -4.8340001 0.67799997
11.854 -4.822 0.68099999
11.894 -4.803 0.68400002
11.924 -4.7800002 0.685
11.975 -4.7659998 0.68800002
12.022 -4.7490001 0.69099998
12.077 -4.7350001 0.69400001
12.115 -4.7150002 0.69599998
12.115 -4.6799998 0.69599998
12.104 -4.6399999 0.69499999
12.169 -4.6290002 0.699
12.241 -4.6199999 0.70300001
12.252 -4.5890002 0.70300001
12.266 -4.5580001 0.704
12.304 -4.5359998 0.70599997
12.332 -4.5110002 0.70700002
12.423 -4.507 0.71200001
12.513 -4.5040002 0.71799999
12.594 -4.4959998 0.722
12.649 -4.4780002 0.72500002
12.661 -4.4460001 0.72600001
12.739 -4.4359999 0.73000002
10.071 -3.477 0.57700002
9.9540005 -3.408 0.56999999
9.9429998 -3.375 0.56900001
9.9530001 -3.349 0.56999999
10.02 -3.342 0.574
10.128 -3.349 0.57999998
10.295 -3.3740001 0.58899999
13.509 -4.152 0.773
13.513 -4.1139998 0.773
13.498 -4.0700002 0.77200001
13.455 -4.0180001 0.76899999
13.518 -3.997 0.773
13.531 -3.961 0.773
13.527 -3.921 0.773
13.586 -3.898 0.77600002
13.565 -3.8529999 0.77499998
13.549 -3.809 0.77399999
13.583 -3.779 0.77600002
13.651 -3.7579999 0.77899998
13.741 -3.743 0.78399998
13.778 -3.7130001 0.78600001
13.839 -3.6889999 0.79000002
13.923 -3.671 0.79400003
13.967 -3.5610001 0.796
13.988 -3.526 0.79699999
13.968 -3.48 0.796
14.077 -3.467 0.80199999
14.184 -3.411 0.80800003
14.204 -3.3740001 0.80900002
14.141 -3.319 0.80500001
14.149 -3.279 0.80599999
14.187 -3.247 0.80800003
14.295 -3.2309999 0.81400001
14.374 -3.207 0.81800002
14.36 -3.1619999 0.81699997
14.371 -3.1229999 0.81800002
14.392 -3.086 0.81900001
14.465 -3.0599999 0.82300001
14.541 -3.0339999 0.82700002
14.682 -3.0209999 0.83499998
14.658 -2.8889999 0.833
14.694 -2.8529999 0.83499998
14.759 -2.823 0.838
14.751 -2.779 0.838
14.795 -2.7449999 0.83999997
14.872 -2.7160001 0.84399998
14.98 -2.6930001 0.85000002
15.236 -2.431 0.86400002
15.303 -2.398 0.86699998
12.922 0.235 0.72299999
12.842 0.27000001 0.71799999
12.82 0.30700001 0.71600002
12.836 0.34400001 0.71700001
12.839 0.38100001 0.71700001
12.832 0.417 0.71700001
12.845 0.45500001 0.71700001
12.867 0.49200001 0.71799999
12.863 0.52899998 0.71799999
12.871 0.56599998 0.71799999
12.869 0.60299999 0.71799999
12.868 0.63999999 0.71799999
12.905 0.67799997 0.71899998
12.903 0.71499997 0.71899998
12.918 0.75300002 0.72000003
12.928 0.79100001 0.72000003
12.934 0.82800001 0.72000003
12.951 0.86699998 0.72100002
12.935 0.903 0.72000003
12.644 0.123 0.62599999
12.649 0.134 0.62599999
12.643 0.146 0.62599999
12.631 0.15800001 0.625
12.643 0.17 0.625
12.64 0.183 0.625
12.643 0.19599999 0.62400001
12.642 0.20900001 0.62400001
12.648 0.223 0.62400001
12.648 0.237 0.62400001
12.642 0.25099999 0.62300003
12.645 0.26499999 0.62300003
12.648 0.28 0.62300003
12.641 0.29499999 0.62199998
12.647 0.31099999 0.62199998
12.643 0.32699999 0.62199998
12.65 0.34299999 0.62199998
12.64 0.359 0.62099999
12.655 0.377 0.62199998
12.645 0.39300001 0.62099999
12.657 0.41100001 0.62199998
12.653 0.42899999 0.62099999
12.642 0.44600001 0.62099999
12.657 0.465 0.62099999
12.656 0.484 0.62099999
12.662 0.50300002 0.62099999
12.67 0.52200001 0.62099999
12.66 0.54100001 0.62099999
12.672 0.56199998 0.62099999
12.67 0.58099997 0.62099999
12.673 0.602 0.62099999
12.672 0.62300003 0.62099999
12.674 0.64399999 0.62099999
12.688 0.66500002 0.62099999
12.726 0.68900001 0.62300003
12.798 0.71499997 0.62699997
12.879 0.74199998 0.63
12.907 0.76599997 0.63200003
12.909 0.78899997 0.63200003
12.883 0.81099999 0.63
12.846 0.83200002 0.62900001
12.821 0.85399997 0.62699997
12.783 0.87599999 0.625
12.746 0.89700001 0.62400001
12.726 0.92000002 0.62300003
12.711 0.94300002 0.62199998
12.709 0.96799999 0.62199998
12.718 0.99400002 0.62199998
12.732 1.02 0.62300003
12.742 1.0470001 0.62300003
12.753 1.074 0.62400001
12.769 1.101 0.625
12.78 1.1289999 0.625
12.818 1.159 0.62699997
12.862 1.1900001 0.62900001
12.908 1.222 0.63200003
12.936 1.252 0.63300002
12.934 1.28 0.63300002
12.979 1.313 0.63499999
12.979 1.342 0.63499999
20.636 2.1340001 1.011
12.973 1.37 0.63499999
20.577 2.174 1.008
13.059 1.409 0.63999999
20.641001 2.227 1.011
13.124 1.446 0.64300001
20.598 2.2690001 1.0089999
20.684 2.326 1.0140001
20.655001 2.3699999 1.012
20.606001 2.4130001 1.01
20.516001 2.45 1.006
20.662001 2.517 1.013
20.783001 2.5810001 1.02
20.686001 2.618 1.015
20.775999 2.6800001 1.02
20.743 2.727 1.018
20.657 2.766 1.015
20.662001 2.8180001 1.015
20.614 2.8629999 1.013
20.679001 2.924 1.017
20.785 2.9909999 1.022
20.891001 3.0599999 1.028
20.812 3.1010001 1.024
20.778999 3.1500001 1.023
20.799 3.207 1.024
20.834999 3.2679999 1.026
20.737 3.3069999 1.022
20.684999 3.3529999 1.02
20.642 3.402 1.018
20.653999 3.4590001 1.0190001
21.886 3.7839999 1.081
21.68 3.8080001 1.071
21.742001 3.8789999 1.075
21.709999 3.9330001 1.074
21.673 3.987 1.072
21.673 4.0479999 1.073
21.690001 4.1129999 1.074
21.733 4.1830001 1.077
21.830999 4.2639999 1.082
21.875999 4.335 1.085
21.996 4.4229999 1.092
22.018999 4.4920001 1.094
22.114 4.5760002 1.099
22.166 4.652 1.102
22.214001 4.7270002 1.105
22.037001 4.7550001 1.097
21.969999 4.8070002 1.094
21.886999 4.8540001 1.091
21.872 4.9169998 1.091
19.691 5.1659999 0.99000001
19.606001 5.2069998 0.98699999
19.587 5.2649999 0.98699999
19.570999 5.3249998 0.98699999
19.563 5.3870001 0.98699999
19.667 5.48 0.99299997
18.135 5.1739998 0.917
17.931999 5.1760001 0.90799999
17.768999 5.1880002 0.89999998
17.652 5.2140002 0.89499998
17.555 5.2449999 0.89099997
17.563999 5.3070002 0.89200002
9.2810001 2.964 0.47299999
8.9759998 2.898 0.458
8.8830004 2.8989999 0.454
8.8470001 2.9189999 0.45199999
8.8269997 2.9430001 0.45199999
8.8170004 2.9719999 0.45199999
8.8100004 3.0009999 0.45199999
8.8100004 3.0320001 0.45199999
8.8140001 3.0650001 0.45300001
8.8409996 3.1070001 0.45500001
8.8579998 3.145 0.456
8.9200001 3.1989999 0.46000001
9.0030003 3.2620001 0.465
14.992 5.7680001 0.77899998
14.841 5.7649999 0.77200001
11.14 7.059 0.62800002
10.909 6.9640002 0.616
10.858 6.9829998 0.61400002
10.815 7.006 0.61199999
10.801 7.0479999 0.61299998
10.777 7.0830002 0.61199999
10.762 7.125 0.61299998
10.741 7.1620002 0.61199999
10.706 7.1900001 0.611
10.67 7.217 0.61000001
10.647 7.2529998 0.61000001
10.62 7.2859998 0.61000001
10.598 7.322 0.61000001
10.575 7.3579998 0.60900003
10.561 7.3990002 0.60900003
10.538 7.4349999 0.60900003
10.505 7.4629998 0.60799998
10.477 7.4949999 0.60799998
10.443 7.5219998 0.60699999
10.173 -6.6820002 0.62099999
10.232 -6.6570001 0.62400001
10.284 -6.6269999 0.62699997
10.331 -6.5939999 0.62900001
10.36 -6.5489998 0.63
10.406 -6.5159998 0.63300002
10.436 -6.4720001 0.634
10.459 -6.4250002 0.63499999
10.498 -6.3870001 0.63700002
10.534 -6.348 0.63800001
10.561 -6.303 0.639
10.584 -6.256 0.63999999
10.639 -6.2290001 0.64300001
10.662 -6.1820002 0.64399999
10.693 -6.1409998 0.64600003
10.74 -6.1090002 0.648
10.759 -6.0609999 0.64899999
10.8 -6.026 0.65100002
10.84 -5.9899998 0.653
10.924 -5.9780002 0.65700001
10.952 -5.9349999 0.65899998
10.949 -5.8759999 0.65799999
10.947 -5.8179998 0.65700001
10.967 -5.7729998 0.65799999
11.006 -5.737 0.66000003
11.042 -5.6999998 0.662
11.084 -5.665 0.66399997
11.119 -5.6279998 0.66600001
11.146 -5.586 0.667
11.182 -5.5500002 0.66900003
11.224 -5.5159998 0.671
11.256 -5.4770002 0.67199999
11.253 -5.4219999 0.67199999
11.316 -5.3979998 0.67500001
11.341 -5.3559999 0.676
11.387 -5.3249998 0.67900002
11.414 -5.2849998 0.68000001
11.413 -5.2309999 0.67900002
11.457 -5.1989999 0.68199998
11.503 -5.1680002 0.68400002
11.551 -5.1370001 0.68599999
11.573 -5.0949998 0.68699998
11.615 -5.0619998 0.69
11.651 -5.026 0.69099998
11.689 -4.9920001 0.69300002
11.737 -4.961 0.69599998
11.777 -4.927 0.69800001
11.817 -4.8930001 0.69999999
11.855 -4.8590002 0.70200002
11.897 -4.8260002 0.704
11.928 -4.7880001 0.70599997
12.028 -4.7789998 0.71100003
12.122 -4.7659998 0.71600002
12.191 -4.743 0.72000003
12.225 -4.7059999 0.722
12.265 -4.6719999 0.72399998
12.37 -4.6620002 0.73000002
12.4 -4.6240001 0.73100001
12.534 -4.6240001 0.73900002
12.587 -4.5949998 0.74199998
12.619 -4.5570002 0.74299997
12.751 -4.5549998 0.75099999
12.822 -4.5310001 0.755
12.84 -4.4889998 0.755
12.87 -4.4499998 0.75700003
10.127 -3.4630001 0.59500003
9.9619999 -3.369 0.58499998
9.9569998 -3.3310001 0.58499998
10.022 -3.3150001 0.588
10.18 -3.3299999 0.59799999
13.58 -4.1500001 0.796
13.553 -4.0939999 0.79400003
13.568 -4.052 0.79400003
13.592 -4.0120001 0.796
13.681 -3.9909999 0.801
13.647 -3.9349999 0.79799998
13.673 -3.8959999 0.80000001
13.734 -3.8670001 0.80299997
13.824 -3.846 0.80800003
13.932 -3.829 0.81400001
14.033 -3.8110001 0.81999999
14.11 -3.6029999 0.82300001
14.225 -3.5869999 0.82999998
14.212 -3.539 0.829
14.246 -3.503 0.83099997
14.349 -3.483 0.83600003
14.421 -3.4560001 0.83999997
14.393 -3.405 0.83899999
14.713 -3.2579999 0.85600001
14.631 -3.197 0.85100001
13.027 -0.40000001 0.75400001
12.915 -0.37400001 0.74800003
12.867 -0.35100001 0.745
12.85 -0.329 0.74400002
12.817 -0.30700001 0.74199998
12.818 -0.28600001 0.74199998
12.804 -0.26499999 0.74199998
12.808 -0.245 0.74199998
12.772 -0.223 0.74000001
12.739 -0.20299999 0.73799998
12.752 -0.183 0.73900002
12.758 -0.163 0.73900002
12.8 -0.14399999 0.74199998
12.91 -0.125 0.74800003
12.627 0.182 0.65899998
12.63 0.205 0.65899998
12.644 0.228 0.65899998
12.649 0.25099999 0.65899998
12.658 0.27399999 0.65899998
12.657 0.29800001 0.65899998
12.657 0.32100001 0.65899998
12.662 0.345 0.65899998
12.667 0.37 0.65899998
12.67 0.39500001 0.65899998
12.666 0.419 0.65899998
12.668 0.44499999 0.65899998
12.674 0.47 0.65899998
12.678 0.49599999 0.65899998
12.68 0.52200001 0.65899998
12.687 0.54799998 0.65899998
12.674 0.574 0.65899998
12.685 0.602 0.65899998
12.696 0.62900001 0.66000003
12.715 0.65700001 0.66000003
12.757 0.68699998 0.66299999
12.845 0.72000003 0.667
12.888 0.75 0.66900003
12.895 0.77899998 0.67000002
12.872 0.80699998 0.66799998
12.826 0.833 0.66600001
12.797 0.86000001 0.66399997
12.771 0.88800001 0.66299999
12.719 0.91299999 0.66000003
12.683 0.94 0.65799999
12.69 0.97100002 0.65899998
12.696 1.001 0.65899998
12.718 1.033 0.66000003
12.743 1.066 0.662
12.736 1.096 0.66100001
12.76 1.1289999 0.662
12.788 1.163 0.66399997
12.827 1.198 0.66600001
12.904 1.237 0.67000002
12.954 1.274 0.67299998
12.961 1.308 0.67299998
12.988 1.3430001 0.67500001
12.981 1.376 0.67400002
20.597 2.1830001 1.0700001
12.979 1.409 0.67400002
20.601999 2.2360001 1.071
13.044 1.449 0.67799997
20.608 2.29 1.071
13.147 1.495 0.68300003
20.649 2.348 1.073
20.672001 2.405 1.075
20.649 2.4560001 1.074
20.615999 2.507 1.072
20.726999 2.575 1.0779999
20.851999 2.6459999 1.085
20.881001 2.7060001 1.087
20.799 2.7520001 1.0829999
20.823999 2.812 1.084
20.85 2.872 1.086
20.834 2.927 1.085
20.858 2.9879999 1.087
21.167 3.0910001 1.103
21.167 3.1500001 1.103
20.936001 3.174 1.092
20.889999 3.2260001 1.089
20.924999 3.2909999 1.092
21.812 3.8069999 1.14
21.83 3.8740001 1.142
21.868999 3.9449999 1.1440001
21.865 4.0079999 1.1440001
21.843 4.0689998 1.1440001
21.871 4.1389999 1.145
21.945999 4.2189999 1.15
22.035 4.302 1.155
22.066999 4.375 1.1569999
22.16 4.46 1.163
22.288 4.5539999 1.17
22.334999 4.632 1.173
22.336 4.6999998 1.173
22.34 4.7690001 1.174
22.316999 4.8330002 1.173
22.438 4.9289999 1.1799999
19.671 5.132 1.0420001
19.613001 5.1810002 1.04
19.605 5.2420001 1.04
19.580999 5.3000002 1.039
19.618999 5.3740001 1.0420001
19.754 5.4759998 1.05
18.112 5.1399999 0.96399999
17.924999 5.1469998 0.954
17.780001 5.164 0.94700003
17.68 5.1939998 0.94300002
17.589001 5.2259998 0.93800002
17.628 5.2969999 0.94099998
9.052 2.9030001 0.48500001
8.9139996 2.8889999 0.47799999
8.8579998 2.901 0.47600001
8.8520002 2.9300001 0.47600001
8.8269997 2.9519999 0.47499999
8.8140001 2.9779999 0.47400001
8.7989998 3.003 0.47400001
8.8009996 3.0339999 0.47400001
8.8179998 3.0710001 0.47600001
8.8459997 3.1110001 0.477
8.8690004 3.1500001 0.479
8.8990002 3.1919999 0.48100001
8.9650002 3.247 0.48500001
9.1969995 3.3629999 0.498
11.022 -6.5489998 0.68900001
11.031 -6.5219998 0.68900001
11.094 -6.527 0.69300002
11.149 -6.5279999 0.69599998
11.127 -6.4819999 0.69499999
11.157 -6.4679999 0.69700003
11.179 -6.448 0.69800001
11.188 -6.421 0.699
11.294 -6.4489999 0.70499998
11.21 -6.368 0.69999999
11.229 -6.3460002 0.70099998
11.248 -6.3249998 0.70200002
11.229 -6.2810001 0.70099998
11.24 -6.2550001 0.70099998
11.236 -6.2189999 0.70099998
11.235 -6.1869998 0.70099998
11.262 -6.1690001 0.70300001
11.282 -6.1469998 0.704
11.328 -6.138 0.70700002
11.354 -6.119 0.708
11.448 -6.1370001 0.71399999
11.457 -6.0409999 0.71399999
11.429 -5.993 0.71200001
11.48 -5.9860001 0.71600002
11.461 -5.9419999 0.71399999
11.458 -5.908 0.71399999
11.464 -5.8769999 0.71399999
11.472 -5.848 0.71499997
11.492 -5.8239999 0.71600002
11.531 -5.8099999 0.71799999
11.543 -5.7820001 0.71899998
11.59 -5.7719998 0.722
11.617 -5.7519999 0.72299999
11.632 -5.7249999 0.72399998
11.65 -5.6989999 0.72500002
11.644 -5.6620002 0.72500002
11.674 -5.6420002 0.72600001
11.7 -5.6209998 0.72799999
11.737 -5.6040001 0.73000002
11.742 -5.572 0.73000002
11.724 -5.5289998 0.72899997
11.78 -5.5209999 0.73299998
11.802 -5.4959998 0.73400003
11.852 -5.4850001 0.73699999
11.871 -5.4590001 0.73799998
11.886 -5.4310002 0.73900002
11.927 -5.415 0.741
11.943 -5.3870001 0.74199998
12.006 -5.3800001 0.74599999
12 -5.342 0.745
12.081 -5.3429999 0.75
12.077 -5.3049998 0.75
12.14 -5.2979999 0.75400001
12.194 -5.2849998 0.75700003
12.122 -5.2179999 0.75300002
12.225 -5.2270002 0.759
12.346 -5.2420001 0.76599997
12.298 -5.1859999 0.76300001
12.35 -5.1719999 0.76599997
12.384 -5.1490002 0.76800001
12.395 -5.118 0.76899999
12.417 -5.0900002 0.76999998
12.435 -5.0609999 0.77100003
12.527 -5.0619998 0.77700001
12.554 -5.0349998 0.778
12.63 -5.0289998 0.78299999
12.593 -4.9770002 0.77999997
12.737 -4.9970002 0.78899997
12.878 -4.901 0.79699999
12.84 -4.849 0.79500002
12.892 -4.8309999 0.79799998
12.986 -4.8280001 0.80400002
13.018 -4.802 0.80599999
13.057 -4.7779999 0.80800003
13.045 -4.7350001 0.80699998
13.113 -4.7210002 0.81099999
13.193 -4.7119999 0.81599998
9.9680004 -3.4430001 0.616
9.9200001 -3.3970001 0.61299998
9.9200001 -3.368 0.61299998
9.9589996 -3.3529999 0.61500001
10.014 -3.342 0.61799997
10.13 -3.3510001 0.62599999
10.311 -3.381 0.63700002
13.627 -4.388 0.84100002
13.639 -4.3520002 0.84200001
13.683 -4.3260002 0.84399998
13.782 -4.1570001 0.85000002
13.793 -4.1199999 0.85000002
13.83 -4.0900002 0.852
13.856 -4.0580001 0.85399997
13.909 -4.033 0.85699999
13.984 -4.0139999 0.861
14.069 -3.997 0.86699998
14.052 -3.951 0.86500001
14.045 -3.9089999 0.86500001
14.115 -3.8870001 0.86900002
14.245 -3.881 0.87699997
14.347 -3.7839999 0.88300002
14.399 -3.756 0.88599998
14.543 -3.54 0.89300001
14.55 -3.4990001 0.89399999
14.545 -3.4560001 0.89300001
14.774 -3.382 0.90700001
14.74 -3.3310001 0.90499997
15.016 -3.177 0.921
14.998 -3.1289999 0.91900003
12.962 -0.50400001 0.78500003
12.85 -0.463 0.778
12.773 -0.42300001 0.773
12.717 -0.38499999 0.76899999
12.7 -0.34799999 0.76800001
12.69 -0.31099999 0.76700002
12.684 -0.27500001 0.76700002
12.677 -0.23800001 0.76599997
12.68 -0.20200001 0.76599997
12.684 -0.16599999 0.76599997
12.721 -0.13 0.76800001
12.793 -0.093999997 0.77200001
12.727 0.126 0.69099998
12.718 0.138 0.69
12.713 0.149 0.68900001
12.715 0.161 0.68900001
12.721 0.17399999 0.68900001
12.721 0.18700001 0.68900001
12.729 0.2 0.68900001
12.72 0.213 0.68800002
12.724 0.227 0.68800002
12.727 0.241 0.68800002
12.74 0.255 0.68800002
12.74 0.27000001 0.68800002
12.734 0.285 0.68699998
12.739 0.30000001 0.68699998
12.746 0.31600001 0.68699998
12.737 0.33199999 0.68699998
12.741 0.34799999 0.68699998
12.738 0.36399999 0.68599999
12.741 0.38100001 0.68599999
12.735 0.398 0.68599999
12.749 0.41600001 0.68599999
12.776 0.435 0.68699998
12.775 0.45300001 0.68699998
12.782 0.472 0.68699998
12.774 0.49000001 0.68699998
12.773 0.509 0.68699998
12.793 0.52899998 0.68800002
12.8 0.54900002 0.68800002
12.803 0.56900001 0.68800002
12.813 0.58999997 0.68800002
12.81 0.61000001 0.68800002
12.824 0.63200003 0.68900001
12.849 0.65399998 0.69
12.888 0.67799997 0.69199997
12.904 0.69999999 0.69300002
12.913 0.72299999 0.69300002
12.911 0.745 0.69300002
12.904 0.76800001 0.69199997
12.903 0.79100001 0.69199997
12.861 0.81099999 0.69
12.851 0.83399999 0.68900001
12.831 0.85600001 0.68800002
12.782 0.87699997 0.68599999
12.739 0.898 0.68300003
12.711 0.92000002 0.68199998
12.706 0.94400001 0.68199998
12.703 0.96899998 0.68099999
12.725 0.99599999 0.68300003
12.729 1.021 0.68300003
12.76 1.05 0.685
12.773 1.077 0.685
12.806 1.1059999 0.68699998
12.822 1.1339999 0.68800002
12.88 1.166 0.69099998
12.899 1.1950001 0.69199997
12.917 1.224 0.69300002
20.888 1.979 1.122
12.942 1.2539999 0.69499999
20.896999 2.0250001 1.122
12.951 1.283 0.69499999
20.889 2.0699999 1.122
12.977 1.314 0.69700003
20.945999 2.1210001 1.125
12.979 1.3430001 0.69700003
12.987 1.373 0.69800001
21.447001 2.267 1.152
13.002 1.404 0.699
21.231001 2.2920001 1.141
13.046 1.438 0.70099998
21.163 2.3329999 1.138
13.203 1.4859999 0.70999998
21.377001 2.4059999 1.149
21.455 2.5139999 1.154
21.556999 2.576 1.16
21.634001 2.6370001 1.164
21.753 2.7030001 1.171
21.878 2.7709999 1.178
21.916 2.829 1.181
21.843 2.8729999 1.177
21.823999 2.924 1.176
21.809 2.9760001 1.176
21.848 3.0350001 1.178
21.778 3.0799999 1.175
21.768 3.1340001 1.175
22.240999 3.2590001 1.201
22.164 3.3039999 1.197
22.200001 3.3670001 1.2
22.226999 3.4289999 1.201
22.23 3.4879999 1.202
22.299 3.5569999 1.206
22.302 3.6170001 1.207
22.306 3.677 1.2079999
22.288 3.734 1.207
22.216 3.7820001 1.204
22.167999 3.8340001 1.202
22.115999 3.8859999 1.2
22.149 3.9530001 1.202
22.174 4.0190001 1.204
22.202 4.086 1.206
22.246 4.1560001 1.209
22.347 4.2379999 1.215
22.356001 4.303 1.217
22.245001 4.3449998 1.211
22.443001 4.4489999 1.223
22.464001 4.5180001 1.225
22.497999 4.5900002 1.227
22.52 4.6599998 1.229
22.492001 4.7210002 1.228
22.452 4.7789998 1.227
22.509001 4.8579998 1.2309999
19.761 5.1849999 1.092
19.643999 5.217 1.086
19.636999 5.2789998 1.087
19.606001 5.335 1.086
19.632 5.4060001 1.0880001
18.232 5.2020001 1.013
17.961 5.184 0.99900001
17.830999 5.2069998 0.99299997
17.737 5.2389998 0.98799998
17.669001 5.2789998 0.986
17.771999 5.3699999 0.99199998
9.0179996 2.9119999 0.50599998
8.908 2.908 0.5
8.8590002 2.9230001 0.498
8.8310003 2.9449999 0.49700001
8.8149996 2.971 0.49700001
8.8050003 2.9990001 0.49700001
8.8050003 3.0309999 0.49700001
8.8109999 3.0650001 0.498
8.8409996 3.1070001 0.5
8.875 3.151 0.50300002
8.9090004 3.1960001 0.505
8.9700003 3.25 0.509
9.2720003 3.3940001 0.52700001
11.38 6.5349998 0.69199997
11.283 6.5300002 0.68699998
11.279 6.5780001 0.68800002
10.514 -6.9039998 0.69099998
10.561 -6.869 0.69300002
10.584 -6.8189998 0.69400001
10.65 -6.796 0.69800001
10.702 -6.7639999 0.70099998
10.739 -6.723 0.70300001
10.793 -6.6919999 0.70599997
10.817 -6.6440001 0.70700002
10.847 -6.598 0.708
10.894 -6.5630002 0.71100003
10.914 -6.513 0.71100003
10.928 -6.4580002 0.71200001
10.967 -6.4200001 0.71399999
10.995 -6.3740001 0.71499997
11.047 -6.3429999 0.71799999
11.06 -6.29 0.71799999
11.119 -6.263 0.722
11.161 -6.2259998 0.72399998
11.273 -6.2280002 0.73000002
11.274 -6.1680002 0.73000002
11.263 -6.1030002 0.72899997
11.301 -6.0640001 0.73100001
11.346 -6.0289998 0.73299998
11.373 -5.9850001 0.73500001
11.373 -5.927 0.73400003
11.412 -5.8899999 0.736
11.473 -5.8629999 0.74000001
11.493 -5.816 0.74000001
11.549 -5.7870002 0.74400002
11.593 -5.7529998 0.74599999
11.599 -5.6989999 0.74599999
11.646 -5.6659999 0.74800003
11.657 -5.6149998 0.74900001
11.705 -5.5830002 0.75099999
11.748 -5.5479999 0.75400001
11.797 -5.5159998 0.75599998
11.85 -5.4860001 0.759
11.896 -5.4520001 0.76200002
11.93 -5.4130001 0.764
11.964 -5.3740001 0.76599997
12.042 -5.355 0.76999998
12.07 -5.3130002 0.77200001
12.1 -5.2729998 0.773
12.202 -5.263 0.77899998
12.254 -5.2319999 0.78200001
12.323 -5.2080002 0.78600001
12.345 -5.164 0.787
12.416 -5.1409998 0.79100001
12.441 -5.098 0.792
12.536 -5.0840001 0.79799998
12.551 -5.0380001 0.79900002
12.608 -5.0079999 0.80199999
12.69 -4.9879999 0.80699998
12.837 -4.994 0.81599998
12.902 -4.9660001 0.81999999
12.99 -4.948 0.82499999
13.044 -4.8639998 0.82800001
13.137 -4.8470001 0.833
13.144 -4.7979999 0.833
13.285 -4.7969999 0.84200001
13.321 -4.7579999 0.84399998
13.357 -4.7199998 0.84600002
13.583 -4.7480001 0.86000001
10.002 -3.4200001 0.63200003
9.9250002 -3.3570001 0.62699997
9.9490004 -3.3280001 0.62900001
10.01 -3.3110001 0.63200003
10.177 -3.329 0.64300001
13.793 -4.4120002 0.87
13.831 -4.3740001 0.87300003
13.877 -4.3390002 0.875
13.958 -4.217 0.87900001
13.982 -4.1750002 0.88099998
14.056 -4.1490002 0.88499999
14.091 -4.1110001 0.88700002
14.439 -4.0170002 0.90799999
14.341 -3.9419999 0.90100002
14.389 -3.9070001 0.90399998
14.794 -3.5910001 0.92699999
14.927 -3.5769999 0.93599999
12.941 -0.419 0.80500001
12.842 -0.39399999 0.79900002
12.738 -0.36899999 0.79299998
12.688 -0.347 0.79000002
12.652 -0.324 0.787
12.641 -0.303 0.787
12.642 -0.28299999 0.787
12.633 -0.26199999 0.78600001
12.648 -0.242 0.787
12.631 -0.221 0.78600001
12.633 -0.20100001 0.787
12.632 -0.18099999 0.787
12.649 -0.161 0.78799999
12.656 -0.142 0.78799999
12.685 -0.123 0.79000002
12.737 -0.104 0.79299998
12.863 -0.085000001 0.801
12.702 0.185 0.722
12.716 0.208 0.72299999
12.731 0.23100001 0.72399998
12.723 0.25400001 0.72299999
12.724 0.27700001 0.72299999
12.74 0.301 0.72399998
12.752 0.32499999 0.72399998
12.754 0.34999999 0.72399998
12.762 0.37400001 0.72399998
12.775 0.40000001 0.72500002
12.771 0.42500001 0.72500002
12.779 0.44999999 0.72500002
12.793 0.47600001 0.72600001
12.806 0.50300002 0.72600001
12.808 0.52899998 0.72600001
12.82 0.55599999 0.727
12.822 0.583 0.727
12.828 0.61000001 0.727
12.86 0.639 0.72899997
12.892 0.66799998 0.73100001
12.899 0.69599998 0.73100001
12.907 0.72500002 0.73100001
12.912 0.75300002 0.73199999
12.901 0.78100002 0.73100001
12.877 0.80900002 0.73000002
12.843 0.83499998 0.72799999
12.823 0.86299998 0.72600001
12.777 0.889 0.72399998
12.736 0.91600001 0.72100002
12.697 0.94300002 0.71899998
12.702 0.97299999 0.72000003
12.712 1.003 0.72000003
12.733 1.035 0.72100002
12.757 1.068 0.72299999
12.782 1.101 0.72399998
12.811 1.135 0.72600001
12.85 1.169 0.72799999
12.875 1.2029999 0.73000002
12.893 1.237 0.73100001
12.915 1.271 0.73199999
20.952999 2.063 1.188
12.932 1.306 0.73299998
21.402 2.161 1.214
12.953 1.34 0.73400003
12.969 1.375 0.73500001
21.398001 2.2690001 1.214
12.984 1.41 0.736
21.368999 2.3210001 1.212
12.981 1.443 0.736
21.379999 2.3770001 1.2130001
13.024 1.482 0.73900002
21.391001 2.434 1.214
13.16 1.531 0.74699998
21.5 2.5020001 1.22
21.625 2.631 1.228
21.643 2.6900001 1.229
21.778999 2.7650001 1.237
21.884001 2.8380001 1.243
21.872999 2.895 1.243
21.862 2.9530001 1.243
21.819 3.007 1.2410001
21.837 3.069 1.242
21.858 3.1329999 1.244
21.844 3.191 1.243
22.122999 3.293 1.2589999
22.114 3.3540001 1.2589999
22.156 3.4230001 1.262
22.231001 3.497 1.267
22.296 3.5710001 1.271
22.354 3.6440001 1.275
22.362 3.7090001 1.276
22.398001 3.78 1.278
22.311001 3.8299999 1.274
22.259001 3.8859999 1.271
22.247999 3.9489999 1.271
22.239 4.0120001 1.271
22.252001 4.0799999 1.272
22.365999 4.1669998 1.279
22.443001 4.2480001 1.284
22.497 4.3260002 1.288
22.514999 4.3969998 1.289
22.528 4.467 1.291
22.58 4.546 1.294
22.563 4.6110001 1.294
22.677 4.7030001 1.301
19.642 5.1880002 1.138
19.625999 5.2480001 1.138
19.59 5.302 1.137
19.725 5.4029999 1.145
18.135 5.2069998 1.056
18.041 5.2399998 1.051
18.139999 5.329 1.058
17.688 5.493 1.035
17.483 5.4889998 1.024
17.417 5.527 1.021
9.0970001 2.918 0.53299999
17.542 5.6269999 1.029
8.9440002 2.8989999 0.52499998
8.8870001 2.911 0.52200001
8.8559999 2.931 0.52100003
8.8210001 2.95 0.51899999
8.8059998 2.9749999 0.51800001
8.8000002 3.0039999 0.51899999
8.7959995 3.0320001 0.51899999
8.816 3.0699999 0.51999998
8.8479996 3.112 0.523
8.8920002 3.158 0.52600002
8.9169998 3.198 0.528
8.9630003 3.2460001 0.53100002
9.066 3.3150001 0.537
11.327 6.599 0.71700001
11.169 6.5469999 0.708
11.128 6.5630002 0.70599997
11.061 6.5640001 0.70200002
11.04 6.5900002 0.70200002
11.014 6.6139998 0.70099998
10.997 6.6440001 0.70099998
10.969 6.6659999 0.69999999
10.96 6.6999998 0.69999999
10.964 6.7410002 0.70200002
10.961 6.7779999 0.70200002
11.016 6.8520002 0.70700002
12.029 -6.2420001 0.80500001
11.998 -6.1900001 0.80299997
12.041 -6.177 0.80500001
12.048 -6.145 0.80599999
12.067 -6.1199999 0.80699998
12.089 -6.0960002 0.80800003
12.107 -6.0689998 0.80900002
12.153 -6.0570002 0.81199998
12.165 -6.027 0.81300002
12.17 -5.993 0.81300002
12.209 -5.9770002 0.81599998
12.233 -5.9530001 0.81699997
12.238 -5.9190001 0.81699997
12.281 -5.9039998 0.81999999
12.3 -5.8769999 0.82099998
12.317 -5.848 0.82200003
12.377 -5.8410001 0.82599998
12.46 -5.8429999 0.83200002
12.385 -5.7719998 0.82700002
12.402 -5.743 0.82800001
12.425 -5.717 0.829
12.464 -5.6989999 0.83099997
12.519 -5.6869998 0.83499998
12.546 -5.6620002 0.83700001
12.587 -5.6430001 0.83899999
12.56 -5.5949998 0.83700001
12.595 -5.573 0.83999997
12.642 -5.5570002 0.84299999
12.694 -5.5419998 0.84600002
12.721 -5.5170002 0.84799999
12.807 -5.5159998 0.85299999
12.801 -5.4759998 0.85299999
12.779 -5.4289999 0.85100001
12.891 -5.4390001 0.85799998
12.921 -5.4130001 0.86000001
13.662 -5.0819998 0.90700001
13.655 -5.039 0.90700001
13.57 -4.9679999 0.90100002
13.669 -4.9640002 0.90700001
13.668 -4.9239998 0.90700001
13.658 -4.8800001 0.90600002
13.687 -4.8499999 0.90799999
13.732 -4.8260002 0.91100001
10.063 -3.507 0.667
9.915 -3.4260001 0.65700001
9.8909998 -3.3889999 0.65600002
9.9060001 -3.365 0.65600002
9.9390001 -3.3469999 0.65899998
10.014 -3.3429999 0.66299999
10.108 -3.345 0.67000002
10.239 -3.358 0.67799997
14.036 -4.4809999 0.92900002
14.008 -4.4310002 0.92699999
14.007 -4.3899999 0.92699999
14.048 -4.3610001 0.93000001
14.093 -4.3340001 0.93199998
14.211 -4.204 0.93900001
14.374 -4.211 0.94999999
14.477 -4.1570001 0.95700002
14.483 -4.1160002 0.95700002
12.98 -0.54000002 0.84200001
12.849 -0.498 0.833
12.725 -0.45699999 0.82499999
