# .PCD v0.7 - Point Cloud Data file format
VERSION 0.7
FIELDS x y z
SIZE 4 4 4
TYPE F F F
COUNT 1 1 1
WIDTH 1776
HEIGHT 1
VIEWPOINT 0 0 0 1 0 0 0
POINTS 1776
DATA ascii
9.9540005 3.6849999 -0.47499999
9.9519997 3.72 -0.47499999
9.9770002 3.7639999 -0.477
9.9980001 3.8080001 -0.479
10.011 3.848 -0.48100001
10.025 3.8889999 -0.48199999
10.041 3.931 -0.484
10.059 3.974 -0.48500001
10.078 4.0170002 -0.48699999
10.082 4.0549998 -0.48800001
10.09 4.0939999 -0.48899999
10.099 4.1339998 -0.491
10.128 4.1820002 -0.493
10.154 4.2290001 -0.495
10.165 4.2709999 -0.49599999
10.194 4.3200002 -0.49900001
10.214 4.3649998 -0.5
10.234 4.4109998 -0.50199997
10.262 4.46 -0.50400001
10.262 4.4970002 -0.505
10.313 4.5570002 -0.509
10.341 4.6069999 -0.51099998
10.359 4.652 -0.51300001
10.38 4.6989999 -0.51499999
10.378 4.7360001 -0.51599997
10.39 4.7789998 -0.51700002
10.425 4.8330002 -0.51999998
10.438 4.8779998 -0.52100003
10.476 4.9330001 -0.52399999
10.498 4.9819999 -0.52600002
10.492 5.0180001 -0.52700001
10.536 5.0770001 -0.52999997
10.545 5.1199999 -0.53200001
10.576 5.1729999 -0.53399998
10.606 5.2270002 -0.537
10.602 5.2639999 -0.537
10.642 5.323 -0.54000002
10.656 5.369 -0.542
10.681 5.4200001 -0.54400003
10.697 5.4679999 -0.546
10.698 5.507 -0.54699999
10.732 5.5640001 -0.55000001
10.739 5.6069999 -0.551
10.736 5.645 -0.55199999
10.747 5.6900001 -0.55400002
10.781 5.7470002 -0.55699998
10.832 5.8140001 -0.56
10.829 5.8520002 -0.56099999
10.851 5.9029999 -0.56300002
10.844 5.9390001 -0.56400001
10.854 5.9840002 -0.56599998
10.869 6.0320001 -0.56800002
10.891 6.0840001 -0.56999999
10.891 6.1230001 -0.57099998
10.931 6.1859999 -0.574
10.985 6.256 -0.57800001
10.993 6.3010001 -0.57999998
11 6.3439999 -0.58099997
11.006 6.3870001 -0.583
11.022 6.4369998 -0.58499998
11.009 6.4689999 -0.58499998
11.044 6.5289998 -0.588
11.072 6.586 -0.59100002
11.073 6.6259999 -0.59200001
11.084 6.6719999 -0.59399998
11.072 6.704 -0.59399998
11.054 6.7329998 -0.59399998
11.062 6.777 -0.59600002
11.066 6.8189998 -0.597
11.072 6.862 -0.59899998
11.09 6.9120002 -0.60100001
11.119 6.9699998 -0.60399997
11.141 7.0229998 -0.60600001
11.155 7.0710001 -0.60799998
11.18 7.1259999 -0.611
11.277 7.2270002 -0.61699998
11.274 7.2639999 -0.61799997
6.4549999 -3.776 -0.175
6.4520001 -3.757 -0.175
6.4710002 -3.75 -0.175
6.4790001 -3.7360001 -0.176
6.4829998 -3.721 -0.176
6.494 -3.7090001 -0.176
6.5019999 -3.6949999 -0.176
6.5079999 -3.6800001 -0.176
6.5180001 -3.668 -0.176
6.5300002 -3.6559999 -0.176
6.5279999 -3.6359999 -0.176
6.5339999 -3.6210001 -0.176
6.5469999 -3.6099999 -0.176
6.5630002 -3.5999999 -0.177
6.5760002 -3.589 -0.177
6.5669999 -3.5650001 -0.177
6.5650001 -3.546 -0.177
6.5910001 -3.5409999 -0.177
6.6090002 -3.5320001 -0.178
6.6149998 -3.516 -0.178
6.6300001 -3.506 -0.178
6.6350002 -3.49 -0.178
6.6500001 -3.4790001 -0.178
6.6609998 -3.4649999 -0.178
6.6669998 -3.4489999 -0.178
6.6760001 -3.4349999 -0.17900001
6.6900001 -3.4230001 -0.17900001
6.7030001 -3.411 -0.17900001
6.7059999 -3.3929999 -0.17900001
6.7189999 -3.381 -0.17900001
6.7199998 -3.362 -0.17900001
6.7259998 -3.346 -0.17900001
6.7360001 -3.332 -0.17900001
6.7509999 -3.3199999 -0.18000001
6.7540002 -3.302 -0.18000001
6.7639999 -3.2880001 -0.18000001
6.777 -3.2739999 -0.18000001
6.7849998 -3.2590001 -0.18000001
6.7870002 -3.2409999 -0.18000001
6.7919998 -3.224 -0.18000001
6.809 -3.2119999 -0.18099999
6.8210001 -3.198 -0.18099999
6.8280001 -3.1819999 -0.18099999
6.8509998 -3.1730001 -0.18099999
6.8499999 -3.1530001 -0.18099999
6.8670001 -3.141 -0.182
6.8790002 -3.1270001 -0.182
6.881 -3.108 -0.182
6.9000001 -3.0969999 -0.182
6.9089999 -3.0810001 -0.182
6.9169998 -3.0650001 -0.182
6.9219999 -3.0469999 -0.182
6.9289999 -3.0309999 -0.182
6.9450002 -3.0179999 -0.183
6.9510002 -3 -0.183
6.9580002 -2.984 -0.183
6.961 -2.9649999 -0.183
6.9780002 -2.9519999 -0.183
6.98 -2.9330001 -0.183
6.9879999 -2.9159999 -0.183
7.0079999 -2.904 -0.184
7.0209999 -2.8889999 -0.184
7.02 -2.869 -0.184
7.0289998 -2.8529999 -0.184
7.0419998 -2.8369999 -0.184
7.0500002 -2.8199999 -0.184
7.0710001 -2.8080001 -0.185
7.0749998 -2.79 -0.185
7.085 -2.773 -0.185
7.092 -2.756 -0.185
7.098 -2.7379999 -0.185
7.1209998 -2.7260001 -0.185
7.118 -2.704 -0.185
7.132 -2.6889999 -0.185
7.1389999 -2.671 -0.185
7.1589999 -2.6589999 -0.186
7.1630001 -2.6400001 -0.186
7.171 -2.622 -0.186
7.177 -2.6040001 -0.186
7.2030001 -2.592 -0.18700001
7.2049999 -2.572 -0.186
7.2160001 -2.5550001 -0.18700001
7.2090001 -2.5320001 -0.186
7.237 -2.5220001 -0.18700001
7.2490001 -2.5050001 -0.18700001
7.2709999 -2.4920001 -0.18799999
7.2680001 -2.47 -0.18700001
7.289 -2.4560001 -0.18799999
7.3119998 -2.4430001 -0.18799999
7.316 -2.4230001 -0.18799999
7.322 -2.404 -0.18799999
7.3340001 -2.3870001 -0.18799999
7.348 -2.3699999 -0.189
7.375 -2.358 -0.189
7.3899999 -2.342 -0.19
7.381 -2.3180001 -0.189
7.3990002 -2.302 -0.19
7.3930001 -2.279 -0.189
7.4190001 -2.266 -0.19
7.4250002 -2.2460001 -0.19
7.4390001 -2.2290001 -0.19
7.454 -2.2119999 -0.19
7.4780002 -2.198 -0.191
7.4829998 -2.178 -0.191
7.4920001 -2.1589999 -0.191
7.5079999 -2.1429999 -0.191
7.5120001 -2.122 -0.191
7.5339999 -2.1070001 -0.192
7.552 -2.0899999 -0.192
7.5570002 -2.0699999 -0.192
7.572 -2.053 -0.192
7.5739999 -2.0320001 -0.192
7.5879998 -2.0139999 -0.192
7.6220002 -2.0009999 -0.193
7.6279998 -1.9809999 -0.193
7.6539998 -1.965 -0.19400001
7.6669998 -1.947 -0.19400001
7.678 -1.928 -0.19400001
7.6750002 -1.905 -0.19400001
7.7129998 -1.893 -0.19499999
7.7420001 -1.878 -0.19499999
7.743 -1.8559999 -0.19499999
7.7649999 -1.839 -0.19599999
7.77 -1.818 -0.19599999
7.7940001 -1.801 -0.19599999
7.8150001 -1.784 -0.197
7.8169999 -1.762 -0.19599999
7.8390002 -1.745 -0.197
7.8499999 -1.725 -0.197
7.8660002 -1.706 -0.197
7.8940001 -1.6900001 -0.198
7.881 -1.664 -0.197
7.9180002 -1.65 -0.198
7.9369998 -1.631 -0.199
7.9390001 -1.609 -0.199
7.9650002 -1.591 -0.199
7.9679999 -1.569 -0.199
7.9959998 -1.552 -0.2
8.0209999 -1.534 -0.2
8.0450001 -1.516 -0.20100001
8.0439997 -1.493 -0.2
8.066 -1.474 -0.20100001
8.0869999 -1.455 -0.20100001
8.125 -1.439 -0.20200001
8.1199999 -1.415 -0.20200001
8.1339998 -1.3940001 -0.20200001
8.151 -1.374 -0.20200001
8.1420002 -1.349 -0.20200001
8.2150002 -1.3380001 -0.204
8.2480001 -1.3200001 -0.204
8.2519999 -1.2970001 -0.204
8.2480001 -1.273 -0.204
8.2869997 -1.256 -0.205
8.3179998 -1.237 -0.205
8.3339996 -1.215 -0.206
8.382 -1.199 -0.207
8.3850002 -1.175 -0.207
8.4090004 -1.155 -0.207
8.4420004 -1.136 -0.208
8.4499998 -1.113 -0.208
8.4829998 -1.0930001 -0.20900001
8.5010004 -1.071 -0.20900001
8.5170002 -1.049 -0.20900001
8.5270004 -1.026 -0.20900001
8.5539999 -1.005 -0.20999999
8.5819998 -0.98400003 -0.20999999
8.6049995 -0.963 -0.211
8.6599998 -0.94400001 -0.212
8.6619997 -0.92000002 -0.212
8.6879997 -0.898 -0.212
8.6960001 -0.87400001 -0.212
8.7110004 -0.85100001 -0.213
8.7410002 -0.829 -0.213
8.7749996 -0.80800003 -0.214
8.79 -0.78399998 -0.214
8.8280001 -0.76300001 -0.215
8.8500004 -0.74000001 -0.215
8.9090004 -0.71899998 -0.21699999
8.9630003 -0.69800001 -0.21799999
8.934 -0.671 -0.21699999
8.974 -0.648 -0.21799999
8.9729996 -0.62300003 -0.21799999
9.0080004 -0.60000002 -0.21799999
9.0509996 -0.57700002 -0.219
9.066 -0.55299997 -0.219
9.1029997 -0.52899998 -0.22
9.1409998 -0.505 -0.221
9.1470003 -0.47999999 -0.221
9.1999998 -0.45699999 -0.222
9.2729998 -0.43399999 -0.22400001
9.125 0.134 -0.35600001
9.1160002 0.14399999 -0.35600001
9.1809998 0.156 -0.359
9.0790005 0.16599999 -0.35499999
9.0469999 0.177 -0.354
9.0559998 0.18799999 -0.354
9.0539999 0.2 -0.354
9.0369997 0.212 -0.35299999
9.0369997 0.22400001 -0.354
9.0240002 0.236 -0.35299999
9.0109997 0.249 -0.35299999
9.0109997 0.26100001 -0.35299999
9.0010004 0.27399999 -0.35299999
8.9949999 0.287 -0.35299999
9.0050001 0.301 -0.35299999
9.0030003 0.315 -0.35299999
9.0089998 0.329 -0.354
8.9750004 0.34200001 -0.352
8.9779997 0.35600001 -0.35299999
8.9799995 0.37 -0.35299999
8.9770002 0.38499999 -0.35299999
8.9919996 0.40099999 -0.354
8.9879999 0.41499999 -0.354
8.9750004 0.43000001 -0.354
8.9890003 0.44600001 -0.354
9 0.46200001 -0.35499999
9.0030003 0.47799999 -0.35499999
8.9989996 0.49399999 -0.35499999
9.0039997 0.51099998 -0.35600001
9.0059996 0.528 -0.35600001
9.0109997 0.54400003 -0.35600001
9.0240002 0.56199998 -0.35699999
9.0209999 0.579 -0.35699999
9.0190001 0.59600002 -0.35699999
9.0349998 0.61500001 -0.35800001
9.0489998 0.63300002 -0.359
9.0389996 0.65100002 -0.359
9.0559998 0.67000002 -0.36000001
9.0480003 0.68800002 -0.36000001
9.0690002 0.708 -0.361
9.0600004 0.72600001 -0.361
9.0799999 0.74599999 -0.36199999
9.085 0.76499999 -0.36300001
9.0860004 0.78500003 -0.36300001
9.1020002 0.80599999 -0.36399999
9.1269999 0.82700002 -0.36500001
9.125 0.847 -0.36500001
9.1479998 0.86900002 -0.36700001
9.1599998 0.89099997 -0.36700001
9.1470003 0.91000003 -0.36700001
9.1569996 0.93199998 -0.368
9.1630001 0.95300001 -0.368
9.1780005 0.97600001 -0.36899999
9.1820002 0.99699998 -0.37
9.1899996 1.02 -0.37
9.2069998 1.043 -0.37200001
9.2119999 1.0650001 -0.37200001
9.2139997 1.0880001 -0.373
9.2200003 1.1109999 -0.373
9.2379999 1.135 -0.37400001
9.2419996 1.158 -0.375
9.2609997 1.183 -0.37599999
9.2609997 1.206 -0.37599999
9.2740002 1.2309999 -0.377
9.29 1.257 -0.37799999
9.2919998 1.28 -0.37900001
9.3050003 1.306 -0.38
9.3039999 1.33 -0.38
9.3310003 1.358 -0.382
9.3479996 1.3839999 -0.38299999
9.3559999 1.41 -0.38299999
9.3760004 1.438 -0.38499999
9.4049997 1.467 -0.38600001
9.3929996 1.49 -0.38600001
9.4239998 1.521 -0.38800001
9.4250002 1.546 -0.38800001
9.4280005 1.573 -0.389
9.4499998 1.602 -0.38999999
9.4630003 1.63 -0.391
9.4530001 1.655 -0.391
9.4820004 1.686 -0.39300001
9.4879999 1.714 -0.39399999
9.4960003 1.742 -0.39500001
9.4969997 1.7690001 -0.39500001
9.507 1.798 -0.396
9.5080004 1.826 -0.39700001
9.5369997 1.859 -0.398
9.5489998 1.8890001 -0.39899999
9.5509996 1.9170001 -0.40000001
9.566 1.949 -0.40099999
9.5869999 1.9809999 -0.40200001
9.5889997 2.01 -0.403
9.599 2.0409999 -0.40400001
9.6099997 2.072 -0.405
9.632 2.1059999 -0.40700001
9.6260004 2.1340001 -0.40700001
9.6590004 2.171 -0.40900001
9.6499996 2.198 -0.40900001
9.684 2.2360001 -0.41100001
9.6829996 2.266 -0.412
9.6990004 2.3 -0.41299999
9.6920004 2.3280001 -0.41299999
9.7089996 2.3629999 -0.414
9.7279997 2.3989999 -0.41600001
9.724 2.428 -0.41600001
9.7399998 2.4630001 -0.41800001
9.7749996 2.5039999 -0.41999999
9.7659998 2.533 -0.41999999
9.7709999 2.566 -0.421
9.7729998 2.598 -0.42199999
9.7860003 2.6340001 -0.42300001
9.8000002 2.6700001 -0.42399999
9.8079996 2.704 -0.42500001
9.8079996 2.737 -0.426
9.8140001 2.7709999 -0.42699999
9.8280001 2.8080001 -0.428
9.8500004 2.848 -0.42899999
9.8479996 2.8800001 -0.43000001
9.8789997 2.9230001 -0.43200001
9.875 2.9549999 -0.433
9.8660002 2.987 -0.433
9.882 3.0250001 -0.43399999
9.8809996 3.059 -0.435
9.9119997 3.1029999 -0.43700001
9.9359999 3.145 -0.43900001
9.9460001 3.1830001 -0.44
9.9610004 3.223 -0.44100001
9.9589996 3.2579999 -0.442
9.96 3.293 -0.44299999
9.967 3.3310001 -0.44400001
9.9689999 3.368 -0.44499999
9.9610004 3.401 -0.44499999
10.001 3.451 -0.44800001
10.017 3.4920001 -0.449
10.021 3.53 -0.44999999
10.043 3.575 -0.45199999
10.046 3.6129999 -0.45300001
10.066 3.6570001 -0.45500001
10.082 3.7 -0.456
10.084 3.7379999 -0.45699999
10.097 3.7809999 -0.458
10.138 3.8340001 -0.461
10.157 3.8789999 -0.463
10.196 3.9330001 -0.465
10.204 3.9749999 -0.46700001
10.202 4.013 -0.46700001
10.237 4.066 -0.47
10.246 4.1090002 -0.47099999
10.264 4.1550002 -0.47299999
10.292 4.2059999 -0.47499999
10.31 4.2540002 -0.477
10.338 4.3060002 -0.479
10.365 4.3579998 -0.48100001
10.4 4.4130001 -0.484
10.421 4.4629998 -0.486
10.458 4.52 -0.48800001
10.484 4.573 -0.49000001
10.511 4.6269999 -0.493
10.539 4.6810002 -0.495
10.553 4.73 -0.49599999
10.581 4.7849998 -0.49900001
10.617 4.8439999 -0.50099999
10.641 4.8990002 -0.50400001
10.661 4.9510002 -0.50599998
10.669 4.9980001 -0.50700003
10.732 5.072 -0.51099998
10.728 5.1149998 -0.51200002
10.771 5.1799998 -0.51499999
10.785 5.2309999 -0.51700002
10.833 5.3000002 -0.51999998
10.841 5.349 -0.52100003
10.88 5.414 -0.52399999
10.88 5.46 -0.52499998
10.91 5.5209999 -0.528
10.908 5.566 -0.52899998
10.93 5.6240001 -0.53100002
10.937 5.6750002 -0.53299999
10.977 5.7420001 -0.53600001
11.005 5.8039999 -0.53799999
10.992 5.8449998 -0.53899997
11.005 5.9000001 -0.54000002
11.008 5.9489999 -0.542
11.033 6.0110002 -0.54400003
11.042 6.0640001 -0.546
11.071 6.1290002 -0.54799998
11.108 6.198 -0.551
11.12 6.2540002 -0.55299997
11.13 6.309 -0.55500001
11.126 6.3559999 -0.55599999
11.147 6.4190001 -0.55800003
11.154 6.473 -0.56
11.148 6.5190001 -0.56099999
11.155 6.5739999 -0.56199998
11.167 6.632 -0.56400001
11.171 6.684 -0.56599998
11.165 6.7319999 -0.56699997
11.153 6.776 -0.56699997
11.138 6.8179998 -0.56800002
11.125 6.8610001 -0.56800002
11.124 6.9120002 -0.56999999
11.102 6.9499998 -0.56999999
11.102 7.0009999 -0.57099998
11.144 7.0799999 -0.57499999
11.161 7.1430001 -0.57700002
9.7440004 6.7470002 -0.51700002
9.7469997 6.7969999 -0.51800001
9.6440001 6.7719998 -0.514
9.6160002 6.7989998 -0.51300001
9.5799999 6.8210001 -0.51300001
9.5229998 6.8270001 -0.51099998
9.4650002 6.8319998 -0.509
6.1539998 -4.0700002 -0.155
6.1960001 -4.059 -0.155
6.2189999 -4.0349998 -0.156
6.2309999 -4.0040002 -0.156
6.2600002 -3.984 -0.156
6.2719998 -3.9530001 -0.156
6.2859998 -3.924 -0.15700001
6.3130002 -3.9030001 -0.15700001
6.335 -3.8789999 -0.15700001
6.3600001 -3.8570001 -0.15800001
6.375 -3.829 -0.15800001
6.3899999 -3.8010001 -0.15800001
6.4070001 -3.7750001 -0.15800001
6.414 -3.7420001 -0.15800001
6.4299998 -3.7149999 -0.15800001
6.4289999 -3.6789999 -0.15800001
6.4359999 -3.6470001 -0.15800001
6.4910002 -3.6429999 -0.15899999
6.5110002 -3.618 -0.16
6.5440001 -3.602 -0.16
6.5409999 -3.5650001 -0.16
6.5549998 -3.5380001 -0.16
6.5900002 -3.5220001 -0.161
6.6020002 -3.494 -0.161
6.6240001 -3.4719999 -0.161
6.6440001 -3.448 -0.162
6.6630001 -3.424 -0.162
6.6789999 -3.398 -0.162
6.6890001 -3.3699999 -0.162
6.6950002 -3.3399999 -0.162
6.7189999 -3.319 -0.162
6.743 -3.2980001 -0.163
6.7509999 -3.2690001 -0.163
6.7709999 -3.2460001 -0.163
6.7810001 -3.2179999 -0.163
6.7940001 -3.1919999 -0.163
6.8169999 -3.171 -0.164
6.8319998 -3.1459999 -0.164
6.8509998 -3.1229999 -0.164
6.8850002 -3.1070001 -0.16500001
6.8940001 -3.0799999 -0.16500001
6.9109998 -3.056 -0.16500001
6.9169998 -3.0280001 -0.16500001
6.9369998 -3.006 -0.16500001
6.9510002 -2.9809999 -0.16599999
6.9710002 -2.9590001 -0.16599999
6.9840002 -2.934 -0.16599999
7.0050001 -2.9130001 -0.16599999
7.0170002 -2.8870001 -0.167
7.0430002 -2.868 -0.167
7.0489998 -2.8410001 -0.167
7.0640001 -2.8169999 -0.167
7.0970001 -2.8010001 -0.168
7.1069999 -2.7750001 -0.168
7.1220002 -2.7520001 -0.168
7.1459999 -2.7320001 -0.168
7.1609998 -2.7090001 -0.169
7.165 -2.681 -0.169
7.1890001 -2.661 -0.169
7.2030001 -2.638 -0.169
7.2210002 -2.6159999 -0.169
7.2410002 -2.595 -0.17
7.2519999 -2.5710001 -0.17
7.27 -2.549 -0.17
7.2750001 -2.523 -0.17
7.3099999 -2.507 -0.171
7.3429999 -2.4909999 -0.171
7.355 -2.467 -0.17200001
7.369 -2.444 -0.17200001
7.4060001 -2.4289999 -0.17200001
7.4219999 -2.4070001 -0.17299999
7.4390001 -2.3859999 -0.17299999
7.4580002 -2.3640001 -0.17299999
7.4749999 -2.3429999 -0.17299999
7.4819999 -2.319 -0.17299999
7.493 -2.2950001 -0.17399999
7.52 -2.277 -0.17399999
7.5300002 -2.253 -0.17399999
7.5609999 -2.2360001 -0.175
7.5929999 -2.2190001 -0.175
7.6059999 -2.197 -0.176
7.625 -2.1760001 -0.176
7.6459999 -2.1559999 -0.176
7.6440001 -2.1300001 -0.176
7.6659999 -2.1099999 -0.176
7.7150002 -2.098 -0.177
7.7140002 -2.072 -0.177
7.7410002 -2.0539999 -0.178
7.7610002 -2.0339999 -0.178
7.7729998 -2.0120001 -0.178
7.802 -1.994 -0.17900001
7.8140001 -1.972 -0.17900001
7.8340001 -1.952 -0.17900001
7.8509998 -1.932 -0.17900001
7.8959999 -1.918 -0.18000001
7.9000001 -1.8940001 -0.18000001
7.9099998 -1.872 -0.18000001
7.9450002 -1.8559999 -0.18099999
7.9580002 -1.835 -0.18099999
7.9689999 -1.813 -0.18099999
7.9829998 -1.7920001 -0.182
8.0050001 -1.773 -0.182
8.0200005 -1.752 -0.182
8.0369997 -1.732 -0.182
8.0500002 -1.711 -0.183
8.0839996 -1.694 -0.183
8.0939999 -1.673 -0.183
8.1079998 -1.652 -0.184
8.1359997 -1.635 -0.184
8.1639996 -1.617 -0.185
8.1630001 -1.594 -0.185
8.1759996 -1.573 -0.185
8.2279997 -1.5599999 -0.186
8.21 -1.534 -0.185
8.257 -1.52 -0.186
8.2550001 -1.497 -0.186
8.2650003 -1.476 -0.186
8.283 -1.457 -0.186
8.3199997 -1.441 -0.18700001
8.3260002 -1.42 -0.18700001
8.3299999 -1.398 -0.18700001
8.3529997 -1.38 -0.18799999
8.3719997 -1.3609999 -0.18799999
8.4049997 -1.344 -0.189
8.4289999 -1.326 -0.189
8.4390001 -1.306 -0.189
8.4560003 -1.2869999 -0.189
8.474 -1.268 -0.19
8.507 -1.252 -0.19
8.5229998 -1.232 -0.191
8.5340004 -1.2130001 -0.191
8.5539999 -1.194 -0.191
8.5670004 -1.175 -0.191
8.5749998 -1.155 -0.191
8.5930004 -1.137 -0.192
8.6029997 -1.117 -0.192
8.6269999 -1.1 -0.192
8.6140003 -1.077 -0.192
8.6429996 -1.061 -0.192
8.6569996 -1.0420001 -0.193
8.677 -1.024 -0.193
8.6999998 -1.007 -0.193
8.7060003 -0.98699999 -0.193
8.7410002 -0.97100002 -0.19400001
8.7460003 -0.95200002 -0.19400001
8.7609997 -0.93300003 -0.19400001
8.7919998 -0.917 -0.19499999
8.7819996 -0.89600003 -0.19499999
8.8249998 -0.88099998 -0.19599999
8.8400002 -0.86299998 -0.19599999
8.8509998 -0.84500003 -0.19599999
8.8710003 -0.82700002 -0.19599999
8.875 -0.80900002 -0.19599999
8.8950005 -0.79100001 -0.197
8.908 -0.77399999 -0.197
8.9359999 -0.75700003 -0.197
8.9449997 -0.73900002 -0.198
8.9399996 -0.72000003 -0.197
8.9659996 -0.704 -0.198
8.9779997 -0.68599999 -0.198
9 -0.66900003 -0.198
9.0299997 -0.653 -0.199
9.033 -0.63499999 -0.199
9.0469999 -0.61799997 -0.199
9.0649996 -0.60100001 -0.2
9.0839996 -0.58499998 -0.2
9.1309996 -0.56999999 -0.20100001
9.1389999 -0.55299997 -0.20100001
9.1309996 -0.53399998 -0.20100001
9.1639996 -0.51899999 -0.20100001
9.1709995 -0.50199997 -0.20100001
9.198 -0.486 -0.20200001
9.2150002 -0.46900001 -0.20200001
9.2480001 -0.454 -0.20299999
9.2889996 -0.43900001 -0.204
9.2740002 -0.421 -0.20299999
9.2840004 -0.405 -0.204
9.3260002 -0.38999999 -0.204
9.3479996 -0.37400001 -0.205
9.3430004 -0.35699999 -0.205
9.3839998 -0.34200001 -0.205
8.8780003 0.104 -0.32300001
8.9049997 0.121 -0.324
8.908 0.13699999 -0.324
8.9119997 0.154 -0.32499999
8.9250002 0.171 -0.32499999
8.9329996 0.18799999 -0.32600001
8.9289999 0.205 -0.32600001
8.9239998 0.222 -0.32600001
8.9309998 0.23999999 -0.32600001
8.9280005 0.257 -0.32600001
8.9429998 0.27599999 -0.32699999
8.948 0.294 -0.32699999
8.9530001 0.31299999 -0.32800001
8.9549999 0.331 -0.32800001
8.9469995 0.34999999 -0.32800001
8.96 0.36899999 -0.329
8.9560003 0.38800001 -0.329
8.9519997 0.40700001 -0.329
8.9790001 0.42699999 -0.33000001
8.9689999 0.447 -0.33000001
8.9890003 0.46700001 -0.331
8.9779997 0.48699999 -0.331
9.007 0.50800002 -0.33199999
9.0010004 0.528 -0.33199999
8.9969997 0.54900002 -0.33199999
9.0120001 0.56999999 -0.333
9.0270004 0.59200001 -0.33399999
9.0190001 0.61299998 -0.33399999
9.0349998 0.63499999 -0.33399999
9.0450001 0.65700001 -0.33500001
9.059 0.68000001 -0.336
9.0550003 0.70099998 -0.336
9.0670004 0.72399998 -0.33700001
9.0900002 0.74800003 -0.338
9.0909996 0.76999998 -0.338
9.132 0.796 -0.34
9.1110001 0.81699997 -0.33899999
9.1070004 0.83899999 -0.34
9.1359997 0.86500001 -0.34099999
9.1470003 0.889 -0.34200001
9.1680002 0.91500002 -0.34299999
9.177 0.93900001 -0.34299999
9.1780005 0.963 -0.34400001
9.1820002 0.98699999 -0.34400001
9.1960001 1.013 -0.345
9.2040005 1.038 -0.34599999
9.2209997 1.064 -0.347
9.2309999 1.09 -0.347
9.2419996 1.1160001 -0.34799999
9.2519999 1.142 -0.34900001
9.2749996 1.17 -0.34999999
9.2840004 1.196 -0.35100001
9.3030005 1.224 -0.352
9.3100004 1.25 -0.35299999
9.3260002 1.278 -0.354
9.3400002 1.306 -0.354
9.3450003 1.3329999 -0.35499999
9.3590002 1.3609999 -0.35600001
9.3870001 1.392 -0.35699999
9.4139996 1.4220001 -0.359
9.4160004 1.449 -0.359
9.4519997 1.482 -0.361
9.4549999 1.51 -0.36199999
9.474 1.54 -0.36300001
9.4759998 1.568 -0.36300001
9.4949999 1.599 -0.36399999
9.5159998 1.63 -0.366
9.559 1.665 -0.368
9.5450001 1.691 -0.368
9.5670004 1.723 -0.36899999
9.5790005 1.7539999 -0.37
9.599 1.786 -0.37099999
9.6009998 1.816 -0.37200001
9.6219997 1.849 -0.373
9.6300001 1.8789999 -0.37400001
9.6450005 1.911 -0.375
9.6569996 1.943 -0.37599999
9.6739998 1.976 -0.377
9.7040005 2.0120001 -0.37799999
9.7060003 2.0420001 -0.37900001
9.7089996 2.073 -0.38
9.7340002 2.109 -0.38100001
9.7510004 2.1429999 -0.382
9.7860003 2.181 -0.384
9.7849998 2.2119999 -0.38499999
9.7969999 2.2449999 -0.38600001
9.8210001 2.2820001 -0.38699999
9.8299999 2.3150001 -0.38800001
9.8380003 2.348 -0.389
9.8599997 2.385 -0.38999999
9.8809996 2.4219999 -0.39199999
9.915 2.4619999 -0.39399999
9.9259996 2.497 -0.39500001
9.9469995 2.5339999 -0.396
9.9540005 2.5680001 -0.39700001
9.9809999 2.608 -0.398
9.9770002 2.6389999 -0.39899999
9.9779997 2.6719999 -0.40000001
9.9899998 2.7079999 -0.40099999
10 2.744 -0.40200001
10.012 2.78 -0.403
10.034 2.8199999 -0.40400001
10.04 2.855 -0.405
10.062 2.895 -0.40700001
10.08 2.9330001 -0.40799999
10.106 2.9749999 -0.40900001
10.119 3.013 -0.41100001
10.119 3.0469999 -0.41100001
10.131 3.085 -0.412
10.15 3.125 -0.414
10.136 3.155 -0.414
10.169 3.2 -0.41600001
10.187 3.24 -0.417
10.2 3.279 -0.41800001
10.241 3.3269999 -0.421
10.222 3.3559999 -0.421
10.216 3.3900001 -0.421
10.207 3.4219999 -0.421
10.221 3.4619999 -0.42300001
10.224 3.4979999 -0.42399999
10.265 3.5480001 -0.426
10.277 3.5880001 -0.42699999
10.292 3.6289999 -0.428
10.331 3.678 -0.43099999
10.353 3.723 -0.43200001
10.368 3.7639999 -0.43399999
10.349 3.7939999 -0.43399999
10.352 3.8310001 -0.435
10.357 3.8699999 -0.43599999
10.37 3.911 -0.43700001
10.416 3.9660001 -0.44
10.424 4.0050001 -0.44100001
10.448 4.052 -0.442
10.489 4.105 -0.44499999
10.493 4.1440001 -0.44600001
10.516 4.191 -0.44800001
10.533 4.2350001 -0.449
10.55 4.2800002 -0.45100001
10.579 4.329 -0.45300001
10.605 4.3779998 -0.45500001
10.641 4.4310002 -0.45699999
10.656 4.4759998 -0.458
10.695 4.5310001 -0.461
10.722 4.5809999 -0.463
10.724 4.6199999 -0.46399999
10.741 4.6659999 -0.465
10.776 4.7210002 -0.46799999
10.819 4.7779999 -0.47
10.834 4.8249998 -0.472
10.858 4.875 -0.47400001
10.865 4.9169998 -0.47499999
10.907 4.9759998 -0.47799999
10.92 5.0209999 -0.479
10.951 5.0760002 -0.48100001
10.973 5.1259999 -0.48300001
11.029 5.1919999 -0.48699999
11.037 5.2360001 -0.48800001
11.063 5.289 -0.49000001
11.077 5.336 -0.49200001
11.094 5.3850002 -0.493
11.107 5.4320002 -0.495
11.108 5.473 -0.49599999
11.137 5.5279999 -0.498
11.142 5.5710001 -0.49900001
11.169 5.625 -0.50099999
11.184 5.6739998 -0.50300002
11.202 5.724 -0.505
11.236 5.783 -0.50700003
11.249 5.8299999 -0.509
11.26 5.8769999 -0.50999999
11.263 5.9200001 -0.51099998
11.288 5.9749999 -0.51300001
11.285 6.0139999 -0.514
11.308 6.0679998 -0.51599997
11.314 6.112 -0.51800001
11.347 6.171 -0.51999998
11.353 6.2160001 -0.52100003
11.365 6.2639999 -0.523
11.359 6.302 -0.52399999
11.374 6.3520002 -0.52600002
11.394 6.4039998 -0.52700001
11.4 6.4489999 -0.52899998
11.413 6.4980001 -0.52999997
11.411 6.5380001 -0.53100002
11.429 6.5900002 -0.53299999
11.445 6.6409998 -0.53500003
11.453 6.6869998 -0.537
11.466 6.7360001 -0.53799999
11.481 6.7859998 -0.54000002
11.471 6.8210001 -0.54100001
11.476 6.8649998 -0.542
11.482 6.9089999 -0.54299998
11.465 6.941 -0.54400003
9.7220001 6.691 -0.484
9.6370001 6.664 -0.48100001
9.599 6.6690001 -0.47999999
9.5930004 6.6960001 -0.47999999
9.625 6.75 -0.48300001
9.6610003 6.8060002 -0.486
6.5650001 -3.8440001 -0.146
6.579 -3.8340001 -0.146
6.5939999 -3.8239999 -0.147
6.6129999 -3.816 -0.147
6.6209998 -3.803 -0.147
6.6160002 -3.7820001 -0.147
6.632 -3.7720001 -0.147
6.6399999 -3.7579999 -0.147
6.6459999 -3.7420001 -0.147
6.6630001 -3.733 -0.147
6.677 -3.7219999 -0.148
6.6789999 -3.7049999 -0.148
6.6999998 -3.697 -0.148
6.6929998 -3.674 -0.148
6.7030001 -3.661 -0.148
6.6989999 -3.6400001 -0.148
6.717 -3.631 -0.148
6.7199998 -3.6129999 -0.148
6.7399998 -3.605 -0.148
6.743 -3.5869999 -0.148
6.763 -3.5780001 -0.149
6.7639999 -3.5599999 -0.148
6.7779999 -3.5480001 -0.149
6.789 -3.5339999 -0.149
6.8010001 -3.5209999 -0.149
6.7989998 -3.5009999 -0.149
6.8119998 -3.4879999 -0.149
6.8119998 -3.4690001 -0.149
6.8109999 -3.4489999 -0.149
6.822 -3.4349999 -0.149
6.8400002 -3.425 -0.149
6.8429999 -3.4059999 -0.149
6.8569999 -3.3940001 -0.149
6.862 -3.3770001 -0.149
6.8730001 -3.362 -0.15000001
6.8850002 -3.348 -0.15000001
6.895 -3.3340001 -0.15000001
6.9000001 -3.3169999 -0.15000001
6.9109998 -3.302 -0.15000001
6.9239998 -3.2880001 -0.15000001
6.9289999 -3.2709999 -0.15000001
6.947 -3.26 -0.15000001
6.9549999 -3.243 -0.15099999
6.96 -3.2260001 -0.15099999
6.9699998 -3.21 -0.15099999
6.9860001 -3.198 -0.15099999
7.0040002 -3.1860001 -0.15099999
7.0089998 -3.168 -0.15099999
7.0139999 -3.1500001 -0.15099999
7.027 -3.1359999 -0.15099999
7.0430002 -3.122 -0.152
7.0479999 -3.105 -0.152
7.053 -3.0869999 -0.152
7.0739999 -3.076 -0.152
7.0760002 -3.056 -0.152
7.0890002 -3.0409999 -0.152
7.105 -3.0280001 -0.152
7.119 -3.013 -0.153
7.1209998 -2.994 -0.152
7.1399999 -2.9809999 -0.153
7.1420002 -2.961 -0.153
7.1609998 -2.948 -0.153
7.165 -2.9300001 -0.153
7.1859999 -2.918 -0.153
7.1900001 -2.898 -0.153
7.2020001 -2.8829999 -0.153
7.224 -2.8710001 -0.154
7.223 -2.8499999 -0.154
7.2379999 -2.835 -0.154
7.2529998 -2.8199999 -0.154
7.2579999 -2.8010001 -0.154
7.2649999 -2.783 -0.154
7.277 -2.766 -0.154
7.2839999 -2.7479999 -0.154
7.3000002 -2.733 -0.155
7.3060002 -2.714 -0.155
7.3189998 -2.698 -0.155
7.335 -2.6830001 -0.155
7.3530002 -2.668 -0.155
7.3470001 -2.645 -0.155
7.3600001 -2.6289999 -0.155
7.3730001 -2.612 -0.155
7.3779998 -2.5929999 -0.155
7.3850002 -2.5739999 -0.155
7.414 -2.563 -0.156
7.4190001 -2.543 -0.156
7.427 -2.5250001 -0.156
7.4450002 -2.51 -0.156
7.473 -2.497 -0.15700001
7.493 -2.483 -0.15700001
7.494 -2.461 -0.15700001
7.5079999 -2.444 -0.15700001
7.526 -2.4289999 -0.15700001
7.546 -2.414 -0.15800001
7.553 -2.3940001 -0.15800001
7.5760002 -2.3800001 -0.15800001
7.579 -2.359 -0.15800001
7.5960002 -2.342 -0.15800001
7.6040001 -2.323 -0.15800001
7.625 -2.3080001 -0.15899999
7.6279998 -2.2869999 -0.15899999
7.6360002 -2.267 -0.15899999
7.6539998 -2.2509999 -0.15899999
7.6609998 -2.2309999 -0.15899999
7.6830001 -2.2149999 -0.15899999
7.7160001 -2.2030001 -0.16
7.7069998 -2.178 -0.16
7.7270002 -2.1619999 -0.16
7.743 -2.1440001 -0.16
7.7659998 -2.128 -0.161
7.7880001 -2.112 -0.161
7.8049998 -2.0940001 -0.161
7.802 -2.0710001 -0.161
7.816 -2.052 -0.161
7.849 -2.039 -0.162
7.862 -2.0190001 -0.162
7.8670001 -1.998 -0.162
7.8769999 -1.978 -0.162
7.8850002 -1.9579999 -0.162
7.9180002 -1.943 -0.162
7.9419999 -1.927 -0.163
7.9689999 -1.91 -0.163
7.9590001 -1.885 -0.163
7.9879999 -1.869 -0.163
8.007 -1.851 -0.164
8.026 -1.8329999 -0.164
8.0439997 -1.814 -0.164
8.0459995 -1.791 -0.164
8.0760002 -1.775 -0.16500001
8.099 -1.757 -0.16500001
8.1059999 -1.735 -0.16500001
8.1309996 -1.717 -0.16500001
8.1490002 -1.698 -0.16599999
8.165 -1.678 -0.16599999
8.1800003 -1.658 -0.16599999
8.2010002 -1.6390001 -0.16599999
8.21 -1.617 -0.16599999
8.2119999 -1.594 -0.16599999
8.2580004 -1.58 -0.167
8.2939997 -1.563 -0.168
8.3039999 -1.541 -0.168
8.3170004 -1.52 -0.168
8.3369999 -1.5 -0.168
8.3669996 -1.4809999 -0.169
8.3570004 -1.456 -0.168
8.3920002 -1.438 -0.169
8.4359999 -1.4220001 -0.17
8.4370003 -1.398 -0.17
8.4429998 -1.375 -0.17
8.4680004 -1.355 -0.17
8.4840002 -1.3329999 -0.17
8.5019999 -1.312 -0.17
8.5489998 -1.295 -0.171
8.566 -1.273 -0.17200001
8.599 -1.2539999 -0.17200001
8.6079998 -1.2309999 -0.17200001
8.6269999 -1.209 -0.17200001
8.6560001 -1.189 -0.17299999
8.6730003 -1.166 -0.17299999
8.6940002 -1.1440001 -0.17299999
8.7019997 -1.1210001 -0.17299999
8.7440004 -1.101 -0.17399999
8.7589998 -1.0779999 -0.17399999
8.7679996 -1.0549999 -0.17399999
8.7799997 -1.031 -0.17399999
8.8100004 -1.01 -0.175
8.8369999 -0.98799998 -0.175
8.8800001 -0.96799999 -0.176
8.9049997 -0.94499999 -0.176
8.9300003 -0.92199999 -0.177
8.9569998 -0.89999998 -0.177
8.9840002 -0.87699997 -0.178
9 -0.85299999 -0.178
9.0249996 -0.82999998 -0.178
9.0349998 -0.80500001 -0.178
9.0799999 -0.78399998 -0.17900001
9.0900002 -0.759 -0.17900001
9.1110001 -0.73500001 -0.17900001
9.158 -0.713 -0.18000001
9.1739998 -0.68800002 -0.18000001
9.2150002 -0.66500002 -0.18099999
9.2489996 -0.64099997 -0.18099999
9.2779999 -0.61699998 -0.182
9.2989998 -0.59200001 -0.182
9.3529997 -0.56900001 -0.183
9.3669996 -0.54299998 -0.183
9.3780003 -0.51800001 -0.183
9.441 -0.49399999 -0.184
9.4890003 -0.47 -0.185
9.2969999 0.15000001 -0.315
9.2469997 0.16 -0.31299999
9.25 0.171 -0.31299999
9.2609997 0.183 -0.31400001
9.2519999 0.19499999 -0.31400001
9.2449999 0.207 -0.31400001
9.2189999 0.21799999 -0.31299999
9.2320004 0.23100001 -0.31299999
9.2049999 0.243 -0.31299999
9.2089996 0.25600001 -0.31299999
9.1890001 0.26899999 -0.31200001
9.1899996 0.28200001 -0.31299999
9.1759996 0.29499999 -0.31200001
9.1759996 0.30899999 -0.31200001
9.1700001 0.322 -0.31200001
9.1639996 0.336 -0.31200001
9.1859999 0.35100001 -0.31299999
9.1630001 0.36500001 -0.31299999
9.165 0.38 -0.31299999
9.1709995 0.39500001 -0.31299999
9.1700001 0.41 -0.31299999
9.1709995 0.426 -0.31400001
9.1680002 0.44100001 -0.31400001
9.1829996 0.45699999 -0.31400001
9.1789999 0.47299999 -0.31400001
9.1809998 0.48899999 -0.315
9.1940002 0.50700003 -0.315
9.191 0.523 -0.315
9.2049999 0.54100001 -0.31600001
9.2040005 0.55800003 -0.31600001
9.2060003 0.57499999 -0.317
9.2159996 0.59299999 -0.317
9.2329998 0.61199999 -0.31799999
9.2270002 0.62900001 -0.31799999
9.2370005 0.648 -0.31900001
9.2480001 0.667 -0.31900001
9.2519999 0.68599999 -0.31999999
9.2530003 0.704 -0.31999999
9.2609997 0.72399998 -0.31999999
9.2600002 0.74299997 -0.32100001
9.2790003 0.76300001 -0.322
9.2840004 0.78299999 -0.322
9.3059998 0.80500001 -0.32300001
9.3070002 0.82499999 -0.32300001
9.3170004 0.84600002 -0.324
9.3299999 0.86699998 -0.32499999
9.342 0.889 -0.32499999
9.3549995 0.91100001 -0.32600001
9.3520002 0.93099999 -0.32600001
9.382 0.95499998 -0.32800001
9.3710003 0.97600001 -0.32800001
9.4060001 1.001 -0.329
9.4029999 1.022 -0.329
9.4219999 1.046 -0.33000001
9.4300003 1.069 -0.331
9.441 1.0930001 -0.33199999
9.4549999 1.117 -0.333
9.4580002 1.14 -0.333
9.4700003 1.164 -0.33399999
9.4849997 1.189 -0.33500001
9.4890003 1.2130001 -0.33500001
9.507 1.239 -0.336
9.4980001 1.261 -0.336
9.5220003 1.288 -0.33700001
9.5380001 1.3150001 -0.338
9.5500002 1.341 -0.33899999
9.5790005 1.369 -0.34099999
9.5900002 1.396 -0.34099999
9.6110001 1.424 -0.34299999
9.6049995 1.448 -0.34299999
9.6330004 1.478 -0.34400001
9.6359997 1.5039999 -0.345
9.6610003 1.533 -0.34599999
9.6630001 1.5599999 -0.34599999
9.7010002 1.592 -0.34799999
9.717 1.6210001 -0.34900001
9.7150002 1.647 -0.34999999
9.7349997 1.677 -0.35100001
9.7650003 1.71 -0.352
9.7779999 1.739 -0.35299999
9.7919998 1.7690001 -0.354
9.8059998 1.799 -0.35499999
9.816 1.829 -0.35600001
9.8330002 1.86 -0.35699999
9.8559999 1.893 -0.35800001
9.8559999 1.921 -0.359
9.8800001 1.955 -0.36000001
9.8760004 1.983 -0.36000001
9.875 2.0120001 -0.361
9.901 2.046 -0.36199999
9.927 2.0810001 -0.36399999
9.9180002 2.109 -0.36399999
9.9429998 2.1440001 -0.36500001
9.9560003 2.177 -0.366
9.96 2.2079999 -0.36700001
9.9870005 2.244 -0.36899999
10 2.2780001 -0.37
10.01 2.3110001 -0.37099999
10.016 2.3429999 -0.37099999
10.046 2.382 -0.373
10.06 2.4170001 -0.37400001
10.084 2.454 -0.37599999
10.092 2.4879999 -0.37599999
10.114 2.5250001 -0.37799999
10.124 2.5599999 -0.37900001
10.135 2.596 -0.38
10.139 2.6289999 -0.38
10.173 2.671 -0.382
10.187 2.7079999 -0.38299999
10.217 2.7490001 -0.38499999
10.24 2.789 -0.38699999
10.274 2.832 -0.389
10.291 2.8710001 -0.38999999
10.301 2.908 -0.391
10.317 2.947 -0.39199999
10.33 2.9860001 -0.39300001
10.347 3.026 -0.39399999
10.357 3.0639999 -0.396
10.362 3.1010001 -0.396
10.366 3.1370001 -0.39700001
10.367 3.1730001 -0.398
10.389 3.2160001 -0.39899999
10.393 3.253 -0.40000001
10.405 3.293 -0.40099999
10.426 3.336 -0.403
10.429 3.3740001 -0.40400001
10.439 3.414 -0.405
10.447 3.454 -0.40599999
10.441 3.4890001 -0.40599999
10.437 3.5250001 -0.40700001
10.451 3.5669999 -0.40799999
10.486 3.6170001 -0.41
10.486 3.655 -0.41100001
10.514 3.7030001 -0.41299999
10.522 3.744 -0.414
10.523 3.783 -0.41499999
10.529 3.8239999 -0.41600001
10.535 3.865 -0.417
10.551 3.9100001 -0.41800001
10.574 3.9579999 -0.41999999
10.57 3.9960001 -0.41999999
10.598 4.0469999 -0.42199999
10.621 4.0960002 -0.42399999
10.662 4.152 -0.426
10.673 4.197 -0.428
10.672 4.237 -0.428
10.689 4.2849998 -0.43000001
10.715 4.3369999 -0.43200001
10.748 4.3909998 -0.43399999
10.771 4.4429998 -0.43599999
10.799 4.4959998 -0.43799999
10.836 4.5539999 -0.44
10.848 4.6020002 -0.44100001
10.893 4.664 -0.44400001
10.905 4.7119999 -0.44600001
10.92 4.7620001 -0.447
10.951 4.8189998 -0.449
10.964 4.868 -0.45100001
11.01 4.9330001 -0.45300001
11.03 4.987 -0.45500001
11.05 5.0409999 -0.45699999
11.074 5.0960002 -0.45899999
11.098 5.1529999 -0.461
11.13 5.2129998 -0.463
11.145 5.2659998 -0.465
11.174 5.3260002 -0.46700001
11.182 5.3759999 -0.46799999
11.197 5.4299998 -0.47
11.229 5.4920001 -0.472
11.236 5.5419998 -0.47299999
11.238 5.5900002 -0.47400001
11.272 5.6550002 -0.477
11.276 5.704 -0.47799999
11.306 5.7680001 -0.47999999
11.324 5.8249998 -0.48199999
11.325 5.8740001 -0.48300001
11.327 5.9229999 -0.484
11.329 5.973 -0.48500001
11.354 6.0349998 -0.48800001
11.372 6.0939999 -0.48899999
11.368 6.1420002 -0.49000001
11.386 6.2010002 -0.49200001
11.381 6.2490001 -0.493
11.397 6.3070002 -0.495
11.379 6.348 -0.495
11.396 6.4070001 -0.49700001
11.404 6.4619999 -0.498
11.415 6.52 -0.5
11.424 6.5760002 -0.50199997
11.438 6.6350002 -0.50300002
11.437 6.6859999 -0.50400001
11.458 6.75 -0.50599998
11.451 6.7979999 -0.50700003
11.469 6.8610001 -0.509
11.473 6.915 -0.51099998
11.469 6.9660001 -0.51200002
11.466 7.0159998 -0.51300001
11.425 7.0440001 -0.51200002
9.9440002 6.6919999 -0.458
9.7869997 6.6329999 -0.45199999
9.7290001 6.6409998 -0.45100001
9.7200003 6.6820002 -0.45100001
9.6960001 6.7119999 -0.45100001
9.6280003 6.9000001 -0.454
9.5179996 6.869 -0.449
6.2779999 -4.1500001 -0.127
6.3130002 -4.1329999 -0.127
6.3460002 -4.1149998 -0.12800001
6.3639998 -4.0869999 -0.12800001
6.395 -4.0679998 -0.12800001
6.4050002 -4.0349998 -0.12800001
6.4250002 -4.0089998 -0.12800001
6.447 -3.984 -0.12899999
6.4699998 -3.96 -0.12899999
6.494 -3.937 -0.12899999
6.5079999 -3.9070001 -0.12899999
6.533 -3.8840001 -0.13
6.5619998 -3.8640001 -0.13
6.5669999 -3.8299999 -0.13
6.5830002 -3.802 -0.13
6.5960002 -3.773 -0.13
6.6209998 -3.75 -0.13
6.6220002 -3.7149999 -0.13
6.6609998 -3.701 -0.131
6.6849999 -3.678 -0.131
6.6939998 -3.6470001 -0.131
6.7150002 -3.6229999 -0.131
6.7379999 -3.5999999 -0.132
6.7360001 -3.563 -0.131
6.7659998 -3.5450001 -0.132
6.7779999 -3.516 -0.132
6.7870002 -3.4860001 -0.132
6.8049998 -3.461 -0.132
6.8200002 -3.4349999 -0.132
6.8340001 -3.408 -0.132
6.868 -3.391 -0.133
6.8870001 -3.3670001 -0.133
6.8990002 -3.3399999 -0.133
6.9130001 -3.313 -0.133
6.9330001 -3.29 -0.134
6.9510002 -3.2650001 -0.134
6.9650002 -3.2390001 -0.134
6.9819999 -3.214 -0.134
7 -3.1900001 -0.134
7.0139999 -3.165 -0.134
7.04 -3.1440001 -0.13500001
7.052 -3.1170001 -0.13500001
7.066 -3.092 -0.13500001
7.0949998 -3.073 -0.13500001
7.1110001 -3.049 -0.13500001
7.1209998 -3.0220001 -0.13500001
7.1420002 -2.9990001 -0.13600001
7.1700001 -2.98 -0.13600001
7.184 -2.9549999 -0.13600001
7.1989999 -2.931 -0.13600001
7.2160001 -2.9070001 -0.13699999
7.2410002 -2.8870001 -0.13699999
7.2480001 -2.8599999 -0.13699999
7.2750001 -2.8399999 -0.13699999
7.2969999 -2.8180001 -0.13699999
7.3060002 -2.7920001 -0.138
7.3249998 -2.77 -0.138
7.3390002 -2.7460001 -0.138
7.3709998 -2.7279999 -0.138
7.3870001 -2.7049999 -0.139
7.4000001 -2.6800001 -0.139
7.4200001 -2.6589999 -0.139
7.428 -2.6329999 -0.139
7.4499998 -2.6110001 -0.139
7.48 -2.5940001 -0.14
7.4959998 -2.5699999 -0.14
7.5100002 -2.5469999 -0.14
7.526 -2.5239999 -0.14
7.5349998 -2.4990001 -0.14
7.5619998 -2.48 -0.14
7.586 -2.46 -0.141
7.6269999 -2.4449999 -0.141
7.6350002 -2.4200001 -0.141
7.6500001 -2.3970001 -0.142
7.6789999 -2.3789999 -0.142
7.6830001 -2.3529999 -0.142
7.7080002 -2.3329999 -0.142
7.7129998 -2.3080001 -0.142
7.757 -2.2939999 -0.14300001
7.7909999 -2.277 -0.14300001
7.777 -2.2460001 -0.14300001
7.8130002 -2.23 -0.14399999
7.8270001 -2.207 -0.14399999
7.8270001 -2.181 -0.14399999
7.8740001 -2.1670001 -0.14399999
7.888 -2.145 -0.14399999
7.8940001 -2.1210001 -0.14399999
7.921 -2.102 -0.145
7.9419999 -2.0810001 -0.145
7.9559999 -2.059 -0.145
7.9720001 -2.0380001 -0.145
8.0100002 -2.0220001 -0.146
8.0220003 -1.999 -0.146
8.0419998 -1.979 -0.146
8.0699997 -1.96 -0.147
8.0790005 -1.937 -0.147
8.1020002 -1.918 -0.147
8.1289997 -1.899 -0.147
8.1409998 -1.877 -0.148
8.1540003 -1.855 -0.148
8.1739998 -1.835 -0.148
8.2119999 -1.819 -0.149
8.2309999 -1.798 -0.149
8.2370005 -1.775 -0.149
8.2530003 -1.7539999 -0.149
8.2690001 -1.733 -0.149
8.3009996 -1.716 -0.15000001
8.309 -1.694 -0.15000001
8.3310003 -1.674 -0.15000001
8.3559999 -1.655 -0.15000001
8.3730001 -1.635 -0.15000001
8.415 -1.619 -0.15099999
8.4309998 -1.599 -0.15099999
8.4379997 -1.577 -0.15099999
8.4549999 -1.556 -0.152
8.4549999 -1.533 -0.15099999
8.4770002 -1.5140001 -0.152
8.4879999 -1.493 -0.152
8.5139999 -1.475 -0.152
8.5459995 -1.457 -0.153
8.5609999 -1.437 -0.153
8.5830002 -1.418 -0.153
8.5869999 -1.396 -0.153
8.6029997 -1.376 -0.153
8.6110001 -1.355 -0.153
8.6479998 -1.339 -0.154
8.684 -1.322 -0.154
8.6719999 -1.298 -0.154
8.7040005 -1.281 -0.155
8.7229996 -1.262 -0.155
8.7379999 -1.242 -0.155
8.7559996 -1.223 -0.155
8.7700005 -1.2029999 -0.155
8.776 -1.183 -0.155
8.7969999 -1.164 -0.156
8.8290005 -1.147 -0.156
8.8549995 -1.1289999 -0.15700001
8.8649998 -1.109 -0.15700001
8.8730001 -1.089 -0.15700001
8.8999996 -1.072 -0.15700001
8.9049997 -1.051 -0.15700001
8.9239998 -1.033 -0.15700001
8.9250002 -1.012 -0.15700001
8.9720001 -0.99699998 -0.15800001
8.9879999 -0.97899997 -0.15800001
9.0030003 -0.95999998 -0.15800001
9.0439997 -0.94400001 -0.15899999
9.052 -0.92500001 -0.15899999
9.0690002 -0.90600002 -0.15899999
9.0830002 -0.88800001 -0.15899999
9.085 -0.86799997 -0.15899999
9.1160002 -0.85100001 -0.16
9.118 -0.83200002 -0.16
9.158 -0.81599998 -0.16
9.1630001 -0.79699999 -0.161
9.1850004 -0.77899998 -0.161
9.2110004 -0.76200002 -0.161
9.2130003 -0.74299997 -0.161
9.2290001 -0.72500002 -0.161
9.2659998 -0.70899999 -0.162
9.2650003 -0.69 -0.162
9.2819996 -0.67199999 -0.162
9.3030005 -0.65499997 -0.162
9.3070002 -0.63700002 -0.162
9.3210001 -0.61900002 -0.163
9.3430004 -0.602 -0.163
9.382 -0.58600003 -0.163
9.3800001 -0.56800002 -0.163
9.4189997 -0.55199999 -0.164
9.4329996 -0.53500003 -0.164
9.4569998 -0.51800001 -0.164
9.5159998 -0.50400001 -0.16500001
9.5790005 -0.48899999 -0.16599999
9.5380001 -0.46900001 -0.16599999
9.5810003 -0.454 -0.16599999
9.6560001 -0.43900001 -0.168
9.5769997 -0.41800001 -0.16599999
9.7060003 -0.40700001 -0.168
9.0819998 0.108 -0.28299999
9.125 0.125 -0.285
9.1400003 0.142 -0.285
9.158 0.15899999 -0.28600001
9.1590004 0.176 -0.28600001
9.165 0.19400001 -0.28600001
9.1630001 0.211 -0.287
9.177 0.23 -0.287
9.1759996 0.248 -0.287
9.1700001 0.266 -0.287
9.1879997 0.285 -0.28799999
9.1920004 0.303 -0.28799999
9.2030001 0.322 -0.289
9.1879997 0.34099999 -0.289
9.2089996 0.361 -0.28999999
9.198 0.38 -0.289
9.2030001 0.39899999 -0.28999999
9.2180004 0.41999999 -0.28999999
9.2220001 0.44 -0.29100001
9.2370005 0.461 -0.29100001
9.2449999 0.48199999 -0.292
9.2469997 0.50199997 -0.292
9.2539997 0.523 -0.29300001
9.2679996 0.54500002 -0.29300001
9.2729998 0.56599998 -0.294
9.2840004 0.588 -0.294
9.2919998 0.61000001 -0.29499999
9.2950001 0.63200003 -0.29499999
9.3059998 0.65499997 -0.296
9.3199997 0.67799997 -0.296
9.316 0.699 -0.29699999
9.3290005 0.72299999 -0.29699999
9.342 0.74599999 -0.29800001
9.3369999 0.76899999 -0.29800001
9.3649998 0.79400003 -0.29899999
9.375 0.81800002 -0.30000001
9.3789997 0.84200001 -0.30000001
9.3990002 0.86699998 -0.301
9.4130001 0.89200002 -0.30199999
9.4230003 0.917 -0.303
9.434 0.94199997 -0.303
9.4510002 0.96799999 -0.30399999
9.4619999 0.99299997 -0.30500001
9.4829998 1.02 -0.30599999
9.5120001 1.048 -0.30700001
9.5129995 1.073 -0.30700001
9.5220003 1.099 -0.308
9.5310001 1.125 -0.30899999
9.5450001 1.153 -0.30899999
9.5509996 1.179 -0.31
9.5719995 1.207 -0.31099999
9.5900002 1.2359999 -0.31200001
9.6040001 1.2640001 -0.31299999
9.5950003 1.289 -0.31299999
9.6289997 1.3200001 -0.31400001
9.6330004 1.347 -0.315
9.6470003 1.376 -0.315
9.6899996 1.41 -0.317
9.6940002 1.437 -0.31799999
9.7110004 1.467 -0.31900001
9.7259998 1.497 -0.31999999
9.7390003 1.527 -0.31999999
9.7609997 1.558 -0.32100001
9.7779999 1.589 -0.322
9.809 1.623 -0.324
9.8190002 1.653 -0.32499999
9.8380003 1.6849999 -0.32600001
9.8479996 1.716 -0.32600001
9.8620005 1.747 -0.32699999
9.8870001 1.781 -0.32800001
9.9090004 1.814 -0.33000001
9.9219999 1.846 -0.33000001
9.941 1.88 -0.33199999
9.9639997 1.914 -0.333
9.993 1.95 -0.33399999
10.008 1.983 -0.33500001
10.014 2.0150001 -0.336
10.014 2.0450001 -0.336
10.027 2.079 -0.33700001
10.076 2.1199999 -0.33899999
10.082 2.152 -0.34
10.069 2.181 -0.34
10.098 2.2190001 -0.34099999
10.112 2.253 -0.34200001
10.13 2.289 -0.34299999
10.153 2.326 -0.345
10.151 2.358 -0.345
10.182 2.398 -0.347
10.207 2.4360001 -0.34799999
10.215 2.47 -0.34900001
10.216 2.503 -0.34900001
10.232 2.54 -0.34999999
10.235 2.5739999 -0.35100001
10.254 2.612 -0.352
10.287 2.654 -0.354
10.304 2.6919999 -0.35499999
10.333 2.733 -0.35699999
10.362 2.7750001 -0.35800001
10.415 2.823 -0.361
10.416 2.8570001 -0.361
10.437 2.898 -0.36199999
10.467 2.941 -0.36399999
10.481 2.9790001 -0.36500001
10.499 3.0190001 -0.366
10.534 3.0650001 -0.368
10.54 3.102 -0.36899999
10.544 3.138 -0.37
10.555 3.177 -0.37099999
10.571 3.2179999 -0.37200001
10.583 3.257 -0.373
10.625 3.306 -0.375
10.589 3.3310001 -0.37400001
10.604 3.372 -0.375
10.634 3.418 -0.377
10.661 3.4630001 -0.37900001
10.629 3.4890001 -0.37799999
10.652 3.533 -0.38
10.665 3.5739999 -0.38100001
10.634 3.6010001 -0.38
10.671 3.6500001 -0.382
10.659 3.6830001 -0.382
10.673 3.7249999 -0.384
10.684 3.766 -0.38499999
10.676 3.8 -0.38499999
10.689 3.842 -0.38600001
10.703 3.885 -0.38699999
10.724 3.9300001 -0.389
10.743 3.9749999 -0.38999999
10.741 4.0120001 -0.391
10.763 4.0580001 -0.39199999
10.777 4.1020002 -0.39399999
10.795 4.1469998 -0.39500001
10.82 4.1950002 -0.39700001
10.844 4.243 -0.398
10.856 4.2859998 -0.39899999
10.881 4.335 -0.40099999
10.893 4.3790002 -0.40200001
10.902 4.421 -0.403
10.924 4.4689999 -0.405
10.957 4.5219998 -0.40700001
10.971 4.5669999 -0.40799999
11.001 4.619 -0.41
11.05 4.6799998 -0.412
11.058 4.723 -0.41299999
11.102 4.7820001 -0.41600001
11.111 4.8260002 -0.417
11.142 4.8790002 -0.419
11.165 4.9299998 -0.421
11.188 4.9809999 -0.42199999
11.203 5.0279999 -0.42399999
11.224 5.0780001 -0.42500001
11.26 5.1360002 -0.42699999
11.28 5.1859999 -0.42899999
11.303 5.237 -0.43099999
11.309 5.2810001 -0.43200001
11.313 5.3239999 -0.433
11.328 5.3730001 -0.43399999
11.358 5.4289999 -0.43599999
11.389 5.4850001 -0.43799999
11.418 5.5409999 -0.44
11.441 5.5939999 -0.442
11.437 5.6329999 -0.44299999
11.46 5.6869998 -0.44400001
11.469 5.7329998 -0.44600001
11.49 5.7859998 -0.447
11.503 5.8340001 -0.449
11.523 5.8860002 -0.44999999
11.517 5.9250002 -0.45100001
11.548 5.9840002 -0.45300001
11.55 6.027 -0.454
11.567 6.0780001 -0.456
11.581 6.1279998 -0.45699999
11.588 6.1739998 -0.458
11.616 6.2309999 -0.46000001
11.634 6.283 -0.46200001
11.635 6.3260002 -0.463
11.649 6.3759999 -0.465
11.665 6.427 -0.46599999
11.695 6.4860001 -0.46799999
11.712 6.539 -0.47
11.734 6.5939999 -0.472
11.767 6.6550002 -0.47400001
11.773 6.7010002 -0.47499999
11.755 6.7329998 -0.47600001
11.803 6.8039999 -0.479
11.809 6.8499999 -0.47999999
11.834 6.9070001 -0.48199999
11.868 6.9689999 -0.484
11.894 7.0279999 -0.486
11.906 7.0770001 -0.48800001
12.01 7.1820002 -0.493
9.79 6.7680001 -0.42500001
9.7180004 6.75 -0.42300001
9.658 6.7399998 -0.421
9.6219997 6.7459998 -0.421
9.632 6.7839999 -0.42199999
9.5979996 6.7909999 -0.421
9.5570002 6.7919998 -0.41999999
9.5150003 6.7930002 -0.419
9.4849997 6.8010001 -0.419
9.4610004 6.8130002 -0.419
9.4680004 6.848 -0.41999999
9.4399996 6.8559999 -0.41999999
9.4309998 6.8790002 -0.41999999
6.7140002 -3.9349999 -0.117
6.7119999 -3.915 -0.117
6.7210002 -3.901 -0.117
6.7319999 -3.888 -0.117
6.7319999 -3.869 -0.117
6.7550001 -3.8640001 -0.117
6.7540002 -3.8440001 -0.117
6.7540002 -3.825 -0.117
6.7779999 -3.8199999 -0.117
6.7859998 -3.8050001 -0.117
6.796 -3.7920001 -0.117
6.8049998 -3.777 -0.117
6.8239999 -3.7679999 -0.118
6.8260002 -3.75 -0.118
6.8270001 -3.7309999 -0.117
6.849 -3.724 -0.118
6.8439999 -3.7019999 -0.118
6.8530002 -3.687 -0.118
6.8730001 -3.678 -0.118
6.881 -3.6630001 -0.118
6.8759999 -3.641 -0.118
6.8759999 -3.6210001 -0.118
6.881 -3.6040001 -0.118
6.9070001 -3.598 -0.118
6.914 -3.582 -0.118
6.9229999 -3.5669999 -0.118
6.9380002 -3.5550001 -0.118
6.934 -3.533 -0.118
6.9400001 -3.517 -0.118
6.9460001 -3.5 -0.118
6.9580002 -3.4860001 -0.118
6.9559999 -3.4649999 -0.118
6.9850001 -3.4590001 -0.118
6.987 -3.441 -0.118
6.993 -3.424 -0.118
7.0029998 -3.408 -0.119
7.0279999 -3.4000001 -0.119
7.0440001 -3.388 -0.119
7.059 -3.375 -0.119
7.0749998 -3.362 -0.119
7.0749998 -3.342 -0.119
7.0809999 -3.3239999 -0.119
7.0960002 -3.3110001 -0.119
7.1040001 -3.2939999 -0.119
7.1090002 -3.276 -0.119
7.1329999 -3.267 -0.12
7.1360002 -3.2479999 -0.12
7.1550002 -3.2360001 -0.12
7.1700001 -3.2219999 -0.12
7.1700001 -3.201 -0.12
7.1919999 -3.1900001 -0.12
7.1869998 -3.168 -0.12
7.1999998 -3.1530001 -0.12
7.2080002 -3.135 -0.12
7.2360001 -3.1270001 -0.121
7.2290001 -3.1029999 -0.12
7.244 -3.089 -0.121
7.25 -3.0699999 -0.121
7.2649999 -3.056 -0.121
7.276 -3.04 -0.121
7.2919998 -3.0250001 -0.121
7.3150001 -3.0139999 -0.121
7.3340001 -3.0009999 -0.122
7.3470001 -2.9849999 -0.122
7.348 -2.964 -0.122
7.3639998 -2.9489999 -0.122
7.3779998 -2.9330001 -0.122
7.3769999 -2.9119999 -0.122
7.4039998 -2.901 -0.122
7.4089999 -2.882 -0.122
7.4330001 -2.8699999 -0.122
7.4390001 -2.8510001 -0.122
7.4460001 -2.832 -0.122
7.4400001 -2.8080001 -0.122
7.4720001 -2.799 -0.123
7.4809999 -2.7809999 -0.123
7.5029998 -2.767 -0.123
7.5229998 -2.753 -0.123
7.5219998 -2.7309999 -0.123
7.5510001 -2.72 -0.123
7.5560002 -2.7 -0.123
7.5679998 -2.6830001 -0.123
7.5700002 -2.661 -0.123
7.5970001 -2.6489999 -0.124
7.6149998 -2.6329999 -0.124
7.6240001 -2.615 -0.124
7.6230001 -2.592 -0.124
7.651 -2.5799999 -0.124
7.678 -2.5669999 -0.125
7.6700001 -2.5420001 -0.124
7.6989999 -2.53 -0.125
7.7030001 -2.5090001 -0.125
7.7189999 -2.4920001 -0.125
7.7259998 -2.4719999 -0.125
7.7350001 -2.4530001 -0.125
7.7579999 -2.438 -0.125
7.776 -2.421 -0.125
7.7909999 -2.4030001 -0.125
7.8049998 -2.385 -0.126
7.8280001 -2.3699999 -0.126
7.836 -2.3499999 -0.126
7.849 -2.3310001 -0.126
7.8699999 -2.3150001 -0.126
7.8670001 -2.2920001 -0.126
7.9089999 -2.2809999 -0.127
7.9239998 -2.263 -0.127
7.9289999 -2.2409999 -0.127
7.9489999 -2.224 -0.127
7.9530001 -2.2030001 -0.127
7.9699998 -2.1849999 -0.127
8.0010004 -2.1700001 -0.12800001
8.0159998 -2.151 -0.12800001
8.0249996 -2.131 -0.12800001
8.0430002 -2.112 -0.12800001
8.0600004 -2.0940001 -0.12800001
8.0699997 -2.073 -0.12800001
8.0740004 -2.0510001 -0.12800001
8.1020002 -2.0350001 -0.12800001
8.1040001 -2.013 -0.12800001
8.1499996 -2.0009999 -0.12899999
8.1669998 -1.982 -0.12899999
8.1820002 -1.962 -0.12899999
8.2130003 -1.946 -0.13
8.224 -1.925 -0.13
8.2360001 -1.904 -0.13
8.2639999 -1.887 -0.13
8.2749996 -1.8660001 -0.13
8.2939997 -1.847 -0.13
8.2989998 -1.824 -0.13
8.3039999 -1.801 -0.13
8.3310003 -1.783 -0.131
8.3669996 -1.767 -0.131
8.3809996 -1.7460001 -0.131
8.3909998 -1.725 -0.131
8.4259996 -1.7079999 -0.132
8.4180002 -1.682 -0.131
8.4490004 -1.664 -0.132
8.4770002 -1.646 -0.132
8.4770002 -1.6210001 -0.132
8.5139999 -1.604 -0.132
8.5389996 -1.585 -0.133
8.5459995 -1.562 -0.133
