# .PCD v0.7 - Point Cloud Data file format
VERSION 0.7
FIELDS x y z
SIZE 4 4 4
TYPE F F F
COUNT 1 1 1
WIDTH 1819
HEIGHT 1
VIEWPOINT 0 0 0 1 0 0 0
POINTS 1819
DATA ascii
31 4.598 5.4450002
30.995001 4.677 5.448
30.983 4.7540002 5.4489999
30.982 4.8340001 5.4520001
30.958 4.9109998 5.4510002
30.962 4.993 5.4549999
30.959999 5.0739999 5.4580002
30.981001 5.1599998 5.4660001
30.971001 5.2410002 5.467
30.987 5.3280001 5.474
30.968 5.4089999 5.4749999
30.952 5.4899998 5.4749999
30.954 5.5760002 5.48
30.962 5.6630001 5.4850001
30.966 5.7490001 5.4899998
30.971001 5.8369999 5.4949999
30.976 5.9250002 5.5
30.983999 6.0149999 5.5050001
30.993999 6.105 5.5110002
30.979 6.191 5.513
30.992001 6.283 5.52
30.99 6.3720002 5.5240002
30.992001 6.4629998 5.5289998
31.011999 6.5580001 5.5370002
30.981001 6.6430001 5.5359998
31.003 6.7399998 5.5450001
30.983 6.8280001 5.546
30.981001 6.921 5.5500002
30.992001 7.0170002 5.5570002
31.014999 7.1170001 5.566
31.003 7.2080002 5.5689998
30.993 7.3010001 5.572
31.011999 7.401 5.5809999
31.02 7.5 5.5879998
31.049 7.6040001 5.598
31.052999 7.7020001 5.6040001
31.047001 7.7979999 5.6090002
31.030001 7.8930001 5.6110001
31.068001 8.0010004 5.6230001
31.061001 8.099 5.6279998
31.052 8.1960001 5.632
31.052 8.2969999 5.638
31.063 8.401 5.645
31.086 8.5080004 5.6550002
31.069 8.6059999 5.658
31.077999 8.7110004 5.6659999
31.073999 8.8129997 5.671
31.091999 8.9209995 5.6810002
31.127001 9.0360003 5.6929998
31.110001 9.1359997 5.6960001
31.127001 9.2460003 5.7059999
31.131001 9.3529997 5.7129998
31.177999 9.4729996 5.7280002
31.165001 9.5760002 5.7319999
31.143 9.677 5.7350001
31.136999 9.783 5.7410002
31.135 9.8900003 5.7470002
31.156 10.006 5.7579999
31.167 10.119 5.7670002
31.16 10.226 5.7719998
31.169001 10.34 5.7810001
31.181 10.454 5.79
31.202999 10.573 5.8010001
31.187 10.68 5.8060002
31.177999 10.789 5.8109999
31.198 10.909 5.823
31.176001 11.015 5.8260002
31.211 11.141 5.8400002
31.215 11.257 5.848
31.245001 11.383 5.862
31.264999 11.506 5.8730001
31.214001 11.603 5.8709998
31.243 11.731 5.8850002
31.253 11.852 5.8940001
31.253 11.969 5.902
31.306999 12.108 5.921
31.337 12.239 5.9349999
31.277 12.335 5.9310002
31.281 12.456 5.941
31.323 12.593 5.9569998
31.337999 12.721 5.9679999
31.344999 12.845 5.9780002
31.35 12.969 5.9879999
8.9510002 -3.6719999 1.581
8.8050003 -3.5739999 1.5549999
8.8059998 -3.5380001 1.554
8.802 -3.5 1.552
8.8360004 -3.477 1.558
8.8430004 -3.4430001 1.558
8.8610001 -3.414 1.5599999
8.8859997 -3.388 1.564
8.9110003 -3.362 1.568
8.9619999 -3.345 1.576
9.0059996 -3.326 1.5829999
9.0509996 -3.3069999 1.59
9.1020002 -3.29 1.598
9.1520004 -3.273 1.6059999
9.2709999 -3.279 1.626
31.033001 3.5250001 5.5120001
30.968 3.598 5.5019999
30.959 3.677 5.5029998
30.926001 3.753 5.4990001
30.927999 3.835 5.5019999
30.923 3.9159999 5.5029998
30.941 4 5.5089998
30.941999 4.0830002 5.5110002
30.908001 4.1609998 5.507
30.903999 4.244 5.5089998
30.909 4.3280001 5.513
30.921 4.414 5.5170002
30.893999 4.4949999 5.5149999
30.889999 4.5799999 5.5170002
30.884001 4.665 5.5190001
30.896999 4.7529998 5.5240002
30.908001 4.8410001 5.5289998
30.893 4.9250002 5.5289998
30.916 5.0159998 5.5359998
30.917 5.105 5.539
30.917 5.1929998 5.5430002
30.936001 5.2849998 5.5489998
30.954 5.3769999 5.5560002
30.924 5.461 5.553
30.92 5.5510001 5.5560002
30.919001 5.6409998 5.559
30.940001 5.7360001 5.566
30.940001 5.8270001 5.5700002
30.950001 5.921 5.5749998
30.964001 6.0159998 5.5819998
30.959 6.1069999 5.5840001
30.981001 6.204 5.592
30.993 6.3000002 5.598
30.990999 6.3940001 5.6009998
30.975 6.4840002 5.6020002
30.982 6.5799999 5.6079998
30.983 6.6760001 5.612
30.997999 6.7740002 5.619
31 6.8699999 5.6230001
31.014999 6.9699998 5.6300001
30.990999 7.0609999 5.6300001
31.011999 7.1630001 5.638
31 7.257 5.6399999
31.004 7.355 5.645
31.046 7.4629998 5.658
31.069 7.5669999 5.6659999
31.059 7.664 5.6690001
31.059999 7.763 5.6739998
31.075001 7.8660002 5.6810002
31.051001 7.96 5.6820002
31.073999 8.066 5.691
31.084 8.1689997 5.697
31.091 8.2720003 5.704
31.142 8.3870001 5.7179999
31.167 8.4949999 5.7280002
31.087 8.5749998 5.7179999
31.089001 8.6780005 5.724
31.115 8.7880001 5.7340002
31.112 8.8900003 5.7379999
31.139999 9.0010004 5.7490001
31.181999 9.1169996 5.7620001
31.197001 9.2259998 5.77
31.125 9.3079996 5.7620001
31.243 9.4490004 5.79
31.254 9.5570002 5.7969999
31.215 9.6499996 5.796
31.200001 9.7510004 5.7989998
31.208 9.9659996 5.8119998
31.239 10.082 5.8239999
31.204 10.284 5.829
31.287001 10.419 5.8509998
31.242001 10.512 5.848
31.226999 10.615 5.8520002
31.289 10.744 5.8699999
31.287001 10.852 5.875
31.296 10.964 5.8839998
9.0039997 -3.825 1.627
8.8240004 -3.7219999 1.595
8.7799997 -3.677 1.586
8.7779999 -3.6489999 1.585
8.7679996 -3.619 1.5829999
8.7770004 -3.596 1.584
8.7910004 -3.575 1.587
8.8109999 -3.5569999 1.59
8.8179998 -3.533 1.591
8.8360004 -3.513 1.5930001
8.8690004 -3.4990001 1.599
8.8830004 -3.4779999 1.601
8.9110003 -3.4619999 1.6059999
8.941 -3.4460001 1.6109999
8.96 -3.427 1.614
8.9969997 -3.414 1.62
9.0389996 -3.4030001 1.627
9.0620003 -3.3840001 1.631
9.1110001 -3.375 1.6390001
9.1450005 -3.3599999 1.645
9.2539997 -3.372 1.664
26.570999 -9.5220003 4.777
26.559 -9.4370003 4.7740002
26.539 -9.3500004 4.7690001
26.555 -9.276 4.77
26.579 -9.2049999 4.7740002
30.964001 3.273 5.5510001
30.978001 3.3429999 5.5560002
30.975 3.4119999 5.5580001
31.021999 3.5569999 5.5710001
31.002001 3.6259999 5.5689998
30.944 3.6900001 5.5609999
30.947001 3.763 5.5640001
30.931999 3.8329999 5.5640001
30.954 3.9089999 5.5710001
30.978001 3.9860001 5.5780001
30.950001 4.0570002 5.5749998
30.955 4.1329999 5.579
30.951 4.2069998 5.5809999
30.924999 4.2800002 5.5799999
30.938 4.3579998 5.585
30.938999 4.4359999 5.5879998
30.924999 4.5110002 5.5890002
30.959999 4.5949998 5.598
30.937 4.6700001 5.5970001
30.955 4.7529998 5.6040001
30.937 4.8299999 5.6040001
30.964001 4.915 5.6129999
30.954 4.994 5.6139998
30.944 5.0749998 5.6160002
30.954 5.158 5.6209998
30.990999 5.2470002 5.632
30.983999 5.3299999 5.6339998
30.976999 5.4130001 5.6370001
30.964001 5.4949999 5.6389999
30.988001 5.5840001 5.6469998
30.975 5.6680002 5.6490002
30.973 5.7540002 5.652
30.958 5.8369999 5.6539998
30.982 5.9289999 5.6620002
30.990999 6.0190001 5.6690001
31.024 6.1139998 5.6789999
30.983999 6.1950002 5.6760001
30.99 6.2849998 5.6820002
30.990999 6.375 5.6869998
31.007999 6.4689999 5.6939998
31.000999 6.559 5.698
30.990999 6.6479998 5.7010002
31.02 6.7470002 5.711
31.021 6.8400002 5.7160001
31.031 6.9349999 5.723
31.021999 7.027 5.7259998
31.000999 7.1160002 5.7280002
31.011999 7.2140002 5.7350001
31.017 7.3099999 5.7410002
31.02 7.4060001 5.7470002
31.033001 7.506 5.7550001
31.062 7.6100001 5.7649999
31.038 7.7020001 5.7670002
31.042 7.8000002 5.7729998
31.030001 7.8959999 5.776
31.086 8.0089998 5.7919998
31.062 8.1020002 5.7940001
31.045 8.198 5.796
31.089001 8.3100004 5.8109999
31.089001 8.4110003 5.8169999
31.083 8.5109997 5.822
31.09 8.6149998 5.829
31.047001 8.7060003 5.8270001
31.073 8.816 5.8379998
31.072001 8.9200001 5.8449998
31.112 9.0349998 5.8579998
31.097 9.1359997 5.862
31.120001 9.2480001 5.8730001
31.132999 9.3570004 5.882
31.124001 9.4610004 5.8870001
31.138 9.5719995 5.8969998
31.124001 9.6750002 5.901
31.122999 9.7819996 5.9070001
31.143999 9.8970003 5.9180002
31.127001 10.001 5.9219999
31.136999 10.113 5.9310002
31.246 10.259 5.9590001
31.139999 10.334 5.9460001
31.17 10.455 5.9590001
31.17 10.567 5.967
31.164 10.676 5.973
31.198 10.801 5.987
31.177 10.906 5.9910002
31.202999 11.029 6.0029998
31.233999 11.154 6.0170002
31.249001 11.274 6.0279999
31.261999 11.394 6.0380001
31.27 11.629 6.0560002
31.261999 11.743 6.0619998
31.243 11.853 6.0669999
26.495001 -11.558 4.8210001
26.502001 -11.444 4.8189998
26.507999 -11.216 4.8150001
26.51 -11.102 4.8130002
26.469999 -10.972 4.803
26.473 -10.861 4.8010001
8.8509998 -3.5940001 1.604
8.8030005 -3.5369999 1.594
8.7980003 -3.4990001 1.5930001
8.8310003 -3.4749999 1.598
8.842 -3.4430001 1.599
8.8669996 -3.4170001 1.603
8.901 -3.3940001 1.608
8.9300003 -3.369 1.612
8.9750004 -3.3510001 1.62
9.0220003 -3.332 1.627
9.0649996 -3.312 1.6339999
9.1280003 -3.3 1.645
9.1859999 -3.2850001 1.655
26.667 -9.3330002 4.8000002
26.643999 -9.224 4.7940001
26.605 -9.1090002 4.7839999
26.636999 -9.0200005 4.7880001
26.702999 -8.9429998 4.7979999
26.695 -8.842 4.7940001
26.813 -6.184 4.7639999
26.782 -6.0949998 4.757
26.771 -6.0120001 4.7540002
26.775999 -5.9330001 4.7529998
30.919001 2.385 5.6269999
30.905001 2.4560001 5.625
30.916 2.529 5.6279998
30.886 2.599 5.6240001
30.854 2.6689999 5.6199999
30.862 2.744 5.6220002
30.808001 2.813 5.6139998
30.861 2.8929999 5.625
30.861 2.9679999 5.6269999
30.872999 3.0450001 5.631
30.893 3.1229999 5.6360002
30.895 3.201 5.638
30.854 3.2739999 5.6329999
30.882 3.355 5.6399999
30.864 3.431 5.638
30.872 3.5109999 5.6420002
30.855 3.5880001 5.6409998
30.886999 3.6719999 5.6490002
30.860001 3.7490001 5.6459999
30.862 3.8299999 5.6490002
30.872 3.9130001 5.6529999
30.856001 3.993 5.652
30.886 4.079 5.6599998
30.857 4.158 5.6570001
30.844 4.2389998 5.6570001
30.864 4.3260002 5.664
30.872999 4.4109998 5.6680002
30.91 4.5009999 5.678
30.878 4.5819998 5.6739998
30.886999 4.6690001 5.6789999
30.868999 4.7519999 5.6789999
30.889 4.8410001 5.6849999
30.910999 4.9320002 5.6919999
30.908001 5.0190001 5.6950002
30.905001 5.1059999 5.698
30.903 5.1939998 5.6999998
30.908001 5.2839999 5.7049999
30.931999 5.3769999 5.7119999
30.927999 5.4660001 5.7150002
30.947001 5.559 5.7220001
30.945 5.6500001 5.7249999
30.947001 5.7410002 5.7290001
30.950001 5.8330002 5.7329998
30.966 5.927 5.7399998
30.972 6.0209999 5.7449999
30.997999 6.118 5.7529998
30.966999 6.2049999 5.7519999
30.982 6.302 5.7579999
30.995001 6.3979998 5.7649999
31.004 6.494 5.77
30.997 6.5869999 5.7729998
31.014 6.6859999 5.7810001
31.014999 6.7820001 5.7849998
31.035 6.882 5.7930002
31.007 6.9720001 5.7919998
31.025999 7.073 5.8000002
31.034 7.171 5.8060002
31.011 7.263 5.8060002
31.055 7.3709998 5.8189998
31.068001 7.4720001 5.8260002
31.009001 7.5570002 5.8189998
31.032 7.6609998 5.829
31.069 7.7690001 5.8400002
31.054001 7.8649998 5.842
31.077999 7.9710002 5.8520002
31.101999 8.0769997 5.8610001
31.096001 8.1759996 5.8649998
31.077999 8.2729998 5.8670001
31.128 8.3870001 5.882
31.143999 8.493 5.8899999
31.15 8.5970001 5.8959999
31.09 8.6829996 5.8899999
31.15 8.802 5.9070001
31.131001 8.8999996 5.9089999
31.219999 9.0290003 5.9310002
31.139 9.1090002 5.921
31.15 9.2159996 5.9289999
31.226999 9.3430004 5.9489999
26.257 -12.281 4.8870001
26.243 -12.194 4.8829999
26.281 -12.132 4.8889999
26.239 -12.033 4.8800001
26.263 -11.964 4.8839998
26.240999 -11.874 4.8779998
26.299999 -11.82 4.888
26.306999 -11.744 4.888
26.254999 -11.64 4.8769999
26.280001 -11.571 4.881
26.253 -11.48 4.875
26.34 -11.438 4.8899999
26.361 -11.287 4.8909998
26.326 -11.192 4.8829999
9.0279999 -3.8099999 1.674
8.8459997 -3.707 1.64
8.7959995 -3.6589999 1.63
8.7860003 -3.628 1.628
8.7790003 -3.599 1.626
8.7959995 -3.579 1.6289999
8.8210001 -3.562 1.633
8.8299999 -3.539 1.6339999
8.8649998 -3.526 1.64
8.8760004 -3.5039999 1.642
8.8990002 -3.4860001 1.646
8.9239998 -3.4690001 1.65
8.9519997 -3.4530001 1.655
8.9870005 -3.4389999 1.661
9.0369997 -3.431 1.67
9.0699997 -3.4159999 1.675
9.1210003 -3.4070001 1.684
9.1700001 -3.398 1.693
9.3100004 -3.4219999 1.7180001
26.566 -9.6040001 4.902
26.531 -9.5120001 4.8940001
26.545 -9.4359999 4.895
26.587999 -9.3719997 4.902
26.583 -9.29 4.9000001
26.577999 -9.2080002 4.8979998
26.573 -9.1260004 4.895
26.566 -9.0439997 4.8930001
26.6 -8.9750004 4.8979998
26.594 -8.8929996 4.8959999
26.608 -8.8179998 4.8969998
26.591999 -8.7320004 4.8930001
26.615 -8.6599998 4.8959999
26.65 -8.5909996 4.901
26.806999 -6.638 4.8959999
26.742001 -6.5419998 4.8829999
26.743 -6.4619999 4.882
26.735001 -6.381 4.8790002
26.757 -6.3070002 4.882
26.74 -6.223 4.8769999
26.778 -6.152 4.8829999
26.809 -6.0799999 4.8870001
26.763 -5.9899998 4.8769999
26.754999 -5.9089999 4.875
26.750999 -5.829 4.8730001
26.811001 -5.7620001 4.882
30.99 3.4860001 5.7220001
30.945999 3.5510001 5.717
30.948 3.622 5.7189999
30.959999 3.6949999 5.724
30.922001 3.7620001 5.7189999
30.921 3.835 5.7220001
30.945999 3.911 5.7290001
30.973 3.9879999 5.737
30.934 4.0570002 5.7329998
30.950001 4.1339998 5.7389998
30.979 4.2140002 5.7470002
30.968 4.2880001 5.7480001
30.931 4.3600001 5.744
30.958 4.441 5.7519999
30.950001 4.5180001 5.7540002
30.93 4.5929999 5.7540002
30.952999 4.6760001 5.7610002
30.952 4.7550001 5.7649999
30.995001 4.842 5.776
30.941999 4.914 5.77
30.969999 5 5.7789998
30.975 5.0819998 5.783
30.982 5.1659999 5.7880001
30.993 5.2509999 5.7940001
30.959999 5.3280001 5.7919998
30.969999 5.414 5.7979999
30.971001 5.4990001 5.802
30.968 5.5830002 5.8060002
30.985001 5.6719999 5.8130002
31.023001 5.7659998 5.8249998
31.002001 5.849 5.8249998
31.017 5.9390001 5.8319998
31.014999 6.026 5.836
31.018 6.1149998 5.8410001
31.000999 6.2010002 5.8429999
31.007 6.2919998 5.849
31.035999 6.388 5.8590002
31.018999 6.4749999 5.8600001
31.004999 6.5630002 5.8629999
31.006001 6.6550002 5.868
31.041 6.7550001 5.8790002
31.007 6.8400002 5.8779998
31.014999 6.9349999 5.8850002
31.006001 7.026 5.888
31.014999 7.1230001 5.895
31.023001 7.2189999 5.902
31.013 7.3119998 5.9060001
31.025999 7.4109998 5.914
31.052 7.5139999 5.9239998
31 7.598 5.9200001
31.062 7.711 5.9369998
31.076 7.8119998 5.9460001
31.059999 7.9070001 5.9489999
31.039 8.1000004 5.9559999
31.096001 8.2150002 5.973
31.070999 8.309 5.9749999
31.08 8.4119997 5.9829998
31.070999 8.5109997 5.987
31.042 8.6049995 5.9879999
31.045 8.7089996 5.9949999
31.077999 8.8210001 6.0079999
31.118 8.9370003 6.0219998
31.073 9.0279999 6.02
31.132 10.006 6.0939999
31.172001 10.129 6.1100001
31.15 10.231 6.1129999
31.184 10.353 6.1269999
31.188 10.466 6.1350002
26.334999 -11.964 4.927
26.327 -11.841 4.9229999
26.347 -11.731 4.9229999
26.365999 -11.621 4.9239998
26.382999 -11.512 4.9239998
26.409 -11.406 4.9260001
26.424999 -11.298 4.9260001
26.403 -11.174 4.9200001
26.476 -11.09 4.9299998
26.492001 -10.984 4.9310002
26.431 -10.846 4.9169998
8.8830004 -3.5699999 1.65
8.8249998 -3.51 1.6390001
8.8369999 -3.4779999 1.64
8.8760004 -3.4579999 1.647
8.8839998 -3.424 1.647
8.9200001 -3.402 1.653
8.9510002 -3.378 1.658
8.9809999 -3.3540001 1.663
9.0340004 -3.3380001 1.6720001
9.1009998 -3.326 1.683
9.21 -3.3299999 1.7029999
26.610001 -9.4160004 4.915
26.573 -9.302 4.9060001
26.622 -9.217 4.9130001
26.629 -9.1190004 4.9120002
26.648001 -9.026 4.914
26.615 -8.9160004 4.9050002
26.614 -8.8170004 4.9029999
26.622 -8.7209997 4.902
26.625999 -8.625 4.901
26.618999 -8.526 4.8979998
26.655001 -8.4420004 4.902
26.733 -8.3699999 4.914
26.731001 -7.1799998 4.8899999
26.712999 -7.0869999 4.8850002
26.725 -7.0040002 4.8860002
26.785999 -6.8470001 4.8940001
26.715 -6.743 4.8790002
26.694 -6.6539998 4.8740001
26.707001 -6.573 4.875
26.707001 -6.4889998 4.8730001
26.711 -6.4070001 4.8720002
26.743 -6.3319998 4.8769999
26.721001 -6.244 4.8709998
26.709 -6.1599998 4.868
26.693001 -6.0749998 4.8629999
26.726 -6.0019999 4.868
26.784 -5.9349999 4.8769999
26.85 -5.869 4.888
30.943001 2.391 5.79
30.912001 2.46 5.7849998
30.85 2.527 5.7750001
30.872 2.602 5.7810001
30.813 2.6700001 5.7709999
30.851999 2.747 5.7800002
30.844 2.8199999 5.7800002
30.84 2.895 5.7810001
30.854 2.971 5.7849998
30.832001 3.0450001 5.7820001
30.848 3.1229999 5.7870002
30.857 3.2 5.7909999
30.864 3.279 5.7940001
30.839001 3.3540001 5.7909999
30.868 3.4349999 5.7989998
30.841999 3.5109999 5.796
30.851999 3.592 5.8000002
30.813999 3.6670001 5.7950001
30.823999 3.7490001 5.7989998
30.837999 3.8310001 5.8039999
30.851 3.914 5.809
30.834999 3.994 5.8080001
30.858999 4.079 5.8150001
30.844999 4.1599998 5.8150001
30.844 4.243 5.8179998
30.867001 4.3299999 5.8249998
30.855 4.4120002 5.8249998
30.847 4.4959998 5.8270001
30.886 4.5869999 5.8369999
30.856001 4.6680002 5.8340001
30.863001 4.7550001 5.8390002
30.847 4.8390002 5.8390002
30.913 4.9359999 5.8540001
30.874001 5.0170002 5.8499999
30.886 5.1069999 5.8559999
30.895 5.197 5.8610001
30.874001 5.2820001 5.8600001
30.902 5.3759999 5.869
30.893 5.4640002 5.8709998
30.923 5.559 5.8800001
30.922001 5.6490002 5.8829999
30.905001 5.737 5.8839998
30.938 5.8340001 5.8940001
30.959999 5.9299998 5.902
30.959999 6.0219998 5.9060001
30.938 6.1110001 5.9050002
30.947001 6.2049999 5.9109998
30.952 6.2989998 5.9159999
30.969 6.3969998 5.9229999
30.993 6.4959998 5.9320002
30.993999 6.5910001 5.9369998
30.968 6.6799998 5.9359999
30.993999 6.7810001 5.9450002
30.972 6.8720002 5.9450002
31.004999 6.9749999 5.9559999
31.000999 7.0710001 5.96
31.009001 7.1700001 5.9660001
31.031 7.2719998 5.9749999
31.037001 7.3709998 5.9809999
31.052999 7.473 5.9889998
31.062 7.5739999 5.9949999
31.028 7.664 5.994
31.062 7.7719998 6.0050001
31.084 7.8769999 6.0139999
31.054001 7.9689999 6.0139999
31.030001 8.0629997 6.0139999
31.028 8.1630001 6.0190001
31.08 8.2770004 6.0339999
31.104 8.3850002 6.0440001
31.108999 8.4879999 6.0510001
31.068001 8.5790005 6.0479999
31.08 8.684 6.0560002
31.108999 8.7950001 6.0669999
31.107 8.8970003 6.072
31.165001 9.0170002 6.0890002
31.173 9.1230001 6.0970001
26.149 -12.717 4.9990001
26.153 -12.639 4.9980001
26.174999 -12.57 5.0009999
26.235001 -12.278 5.0079999
26.209 -12.186 5.0019999
26.190001 -12.097 4.9970002
26.238001 -12.04 5.0050001
26.292 -11.984 5.0139999
26.254999 -11.887 5.006
26.254 -11.807 5.0040002
26.27 -11.734 5.006
26.235001 -11.638 4.9980001
26.261999 -11.49 5.0009999
26.348 -11.448 5.0159998
26.347 -11.287 5.0139999
26.306 -11.189 5.0040002
26.313999 -11.113 5.0050001
26.34 -11.044 5.0079999
8.9449997 -3.6960001 1.7
8.8920002 -3.6470001 1.689
8.868 -3.6099999 1.684
8.8629999 -3.5810001 1.683
8.868 -3.556 1.683
8.8870001 -3.5369999 1.687
8.8959999 -3.5139999 1.688
8.9020004 -3.4890001 1.689
8.9160004 -3.4679999 1.691
8.9399996 -3.45 1.6950001
8.941 -3.4230001 1.6950001
8.9770002 -3.4100001 1.701
9.0190001 -3.398 1.709
9.0710001 -3.3900001 1.7180001
9.1280003 -3.3840001 1.728
26.503 -9.5860004 5.0149999
26.464001 -9.4919996 5.007
26.528999 -9.4350004 5.0170002
26.534 -9.3570004 5.0170002
26.524 -9.2729998 5.0139999
26.533001 -9.1960001 5.0139999
26.528999 -9.1149998 5.0120001
26.556999 -9.0450001 5.0159998
26.601999 -8.9799995 5.0229998
26.563999 -8.8870001 5.0149999
26.576 -8.8109999 5.0159998
26.576 -8.7309999 5.0149999
26.573999 -8.6499996 5.013
26.573999 -8.5699997 5.0120001
26.622999 -8.5059996 5.0190001
26.652 -8.4350004 5.0229998
26.642 -8.3520002 5.02
26.657 -7.9559999 5.0159998
26.646 -7.8730001 5.013
26.745001 -7.7420001 5.0289998
26.669001 -7.6399999 5.013
26.718 -7.5739999 5.0209999
26.736 -7.1799998 5.0180001
26.686001 -7.0869999 5.007
26.677999 -7.0050001 5.0040002
26.719999 -6.9359999 5.0100002
26.724001 -6.8569999 5.0100002
26.711 -6.7740002 5.006
26.688999 -6.6890001 5
26.681999 -6.6079998 4.9980001
26.709 -6.5349998 5.0009999
26.702999 -6.454 4.9990001
26.702 -6.3740001 4.9970002
26.721001 -6.2989998 5
26.719 -6.2189999 4.9980001
26.722 -6.1399999 4.9970002
26.712999 -6.059 4.994
26.729 -5.9829998 4.9949999
26.712 -5.9000001 4.9910002
26.759001 -5.8309999 4.9980001
30.927 3.4119999 5.869
30.944 3.483 5.875
31.014 3.5610001 5.8899999
30.941 3.6240001 5.8790002
30.931 3.694 5.8800001
30.962999 3.77 5.888
30.931999 3.839 5.8850002
30.938 3.9119999 5.8889999
30.952999 3.9879999 5.895
30.916 4.0580001 5.8909998
30.93 4.1339998 5.8959999
30.996 4.2189999 5.9120002
30.947001 4.2880001 5.9060001
30.940001 4.3639998 5.908
30.948999 4.4419999 5.9130001
30.958 4.5209999 5.9180002
30.98 4.6030002 5.9250002
30.952999 4.678 5.9239998
30.952 4.757 5.927
30.917 4.8319998 5.9239998
30.933001 4.915 5.9310002
30.943001 4.9980001 5.9359999
30.924 5.0770001 5.9369998
30.964001 5.1659999 5.948
30.931999 5.243 5.9460001
30.929001 5.3260002 5.9489999
30.961 5.415 5.96
30.976 5.5029998 5.967
30.969999 5.5869999 5.9699998
30.961 5.671 5.9720001
30.947001 5.7540002 5.974
30.986 5.848 5.9860001
30.961 5.9310002 5.9860001
30.968 6.02 5.9920001
30.974001 6.1100001 5.9980001
30.966 6.197 6.0009999
30.978001 6.289 6.0079999
30.988001 6.381 6.0149999
30.992001 6.4720001 6.0209999
30.988001 6.5619998 6.0250001
30.973 6.651 6.027
30.993999 6.7470002 6.0359998
30.98 6.8369999 6.039
31.024 6.9400001 6.053
31.018999 7.033 6.0570002
31.013 7.125 6.0609999
31.021 7.2220001 6.0679998
31.025999 7.3189998 6.0749998
31.006001 7.4099998 6.0770001
31.025 7.5110002 6.086
31.037001 7.6100001 6.0939999
31.077999 7.7179999 6.1079998
31.034 7.8049998 6.1059999
31.038 7.9050002 6.1129999
31.039 8.1029997 6.125
31.073999 8.2130003 6.138
31.065001 8.3109999 6.1430001
31.040001 8.4049997 6.1440001
31.042999 8.5080004 6.151
31.031 8.6059999 6.1550002
31.089001 8.7250004 6.1739998
24.778 -16.280001 4.8930001
24.888 -16.197001 4.9099998
24.993 -16.111 4.9260001
25.063999 -16.004 4.9359999
25.386 -15.306 4.973
25.461 -15.205 4.9829998
25.518 -15.094 4.9899998
25.586 -14.99 4.9990001
26.167 -13.259 5.0549998
26.159 -13.126 5.0500002
26.212 -12.519 5.0440001
26.222 -12.4 5.0419998
26.254 -12.293 5.0450001
26.271 -12.179 5.046
26.316 -11.957 5.0479999
26.322001 -11.841 5.046
26.346001 -11.733 5.0479999
26.357 -11.62 5.0469999
26.365999 -11.507 5.0450001
26.364 -11.39 5.0419998
26.414 -11.296 5.0489998
26.469999 -11.205 5.0570002
26.458 -11.085 5.052
26.487 -10.984 5.0539999
26.438999 -10.852 5.0419998
26.482 -10.758 5.0479999
26.497999 -10.653 5.0479999
9.1450005 -3.638 1.7410001
8.9809999 -3.536 1.709
8.9499998 -3.487 1.702
8.9390001 -3.4460001 1.699
8.9490004 -3.414 1.7
8.9440002 -3.3759999 1.698
8.9689999 -3.3499999 1.702
8.9860001 -3.3199999 1.705
9.0249996 -3.299 1.711
9.0530005 -3.2739999 1.716
9.1450005 -3.2720001 1.732
26.558001 -9.2980003 5.027
26.579 -9.2040005 5.0289998
26.573 -9.1020002 5.0250001
26.594 -9.0089998 5.027
26.631001 -8.9219999 5.0320001
26.591 -8.8100004 5.0219998
26.603001 -8.7159996 5.0219998
26.613001 -8.6219997 5.0219998
26.608 -8.5240002 5.0190001
26.650999 -8.4420004 5.0250001
26.645 -8.3439999 5.0219998
26.688 -8.2629995 5.0279999
26.672001 -7.8839998 5.0170002
26.767 -7.8200002 5.033
26.702 -7.7090001 5.0190001
26.681 -7.6129999 5.013
26.687 -7.5240002 5.0120001
26.733 -7.2690001 5.0159998
26.673 -7.165 5.0029998
26.677 -7.0780001 5.0019999
26.653 -6.9850001 4.9959998
26.671 -6.9039998 4.9970002
26.676001 -6.8189998 4.9970002
26.698999 -6.7399998 4.9990001
26.674999 -6.6490002 4.993
26.700001 -6.5710001 4.9959998
26.695999 -6.487 4.994
26.691999 -6.4029999 4.9920001
26.698999 -6.322 4.9920001
26.671 -6.2329998 4.9850001
26.691999 -6.1560001 4.987
26.711 -6.0799999 4.9889998
26.714001 -6 4.9889998
26.757999 -5.9289999 4.9949999
26.844999 -5.869 5.0100002
30.849001 2.677 5.9380002
30.855 2.7509999 5.941
30.879999 2.8269999 5.947
30.867001 2.901 5.9460001
30.853001 2.9749999 5.9450002
30.910999 3.0569999 5.9580002
30.877001 3.1300001 5.9530001
30.879 3.2839999 5.9580002
30.855 3.359 5.9549999
30.858 3.438 5.9580002
30.846001 3.516 5.9580002
30.858 3.596 5.9619999
30.878 3.6789999 5.9679999
30.844999 3.7550001 5.9640002
30.871 3.839 5.9720001
30.854 3.918 5.9710002
30.84 3.9979999 5.9710002
30.856001 4.0830002 5.9759998
30.854 4.165 5.9790001
30.846001 4.2470002 5.98
30.851 4.3319998 5.9840002
30.858 4.4169998 5.9879999
30.868 4.5029998 5.993
30.91 4.5939999 6.0040002
30.865 4.6729999 5.9980001
30.884001 4.7620001 6.0050001
30.896999 4.8499999 6.0110002
30.902 4.9380002 6.0149999
30.885 5.0229998 6.0149999
30.903999 5.1139998 6.0219998
30.902 5.2020001 6.0250001
30.92 5.2930002 6.0320001
30.892 5.3779998 6.0300002
30.903 5.4689999 6.0359998
30.934999 5.5650001 6.046
30.944 5.6570001 6.0510001
30.927999 5.7449999 6.052
30.931999 5.8369999 6.0570002
30.927 5.928 6.059
30.940001 6.0219998 6.066
30.927999 6.1129999 6.0679998
30.955 6.211 6.0770001
30.982 6.3099999 6.0869999
30.995001 6.4060001 6.0929999
30.973 6.4959998 6.0929999
31.082001 6.6129999 6.119
30.976 6.6859999 6.1030002
30.996 6.7859998 6.1110001
31.004 6.8829999 6.1170001
31.027 6.9850001 6.1269999
31.021 7.0799999 6.1300001
31.056999 7.1849999 6.1420002
31.032 7.277 6.1420002
31.070999 7.3829999 6.1539998
31.075001 7.4829998 6.1599998
31.072001 7.5799999 6.164
31.089001 7.783 6.178
31.139999 7.895 6.1929998
31.066999 7.9770002 6.184
31.044001 8.0710001 6.1849999
31.063999 8.1759996 6.1939998
31.106001 8.2889996 6.2080002
26.103001 -12.862 5.1170001
26.112 -12.787 5.118
26.136999 -12.719 5.1220002
26.125 -12.634 5.118
26.138 -12.56 5.119
26.153999 -12.488 5.1209998
26.214001 -12.437 5.132
26.173 -12.337 5.1230001
26.167999 -12.255 5.1199999
26.198 -12.189 5.125
26.229 -12.123 5.1300001
26.236 -12.046 5.1300001
26.254 -11.974 5.132
26.219 -11.878 5.1240001
26.306999 -11.838 5.1399999
26.285999 -11.748 5.1350002
26.242001 -11.649 5.125
26.297001 -11.513 5.1329999
26.304001 -11.436 5.1329999
26.354 -11.377 5.1420002
26.280001 -11.265 5.1259999
26.319 -11.201 5.132
26.278999 -11.105 5.1230001
26.296 -11.032 5.125
26.309999 -10.958 5.1269999
26.337999 -10.889 5.131
26.327 -10.804 5.1279998
26.358999 -10.737 5.132
9.0790005 -3.6429999 1.767
9.0080004 -3.5869999 1.752
8.9610004 -3.5409999 1.743
8.9309998 -3.5020001 1.737
8.9239998 -3.4719999 1.735
8.9180002 -3.4430001 1.733
8.9209995 -3.4170001 1.733
8.934 -3.395 1.735
8.9440002 -3.372 1.737
8.9540005 -3.348 1.738
8.9949999 -3.336 1.7460001
9.0380001 -3.325 1.7539999
9.1850004 -3.3510001 1.7819999
26.584999 -9.54 5.1550002
26.481001 -9.4219999 5.1339998
26.489 -9.3450003 5.1339998
26.499001 -9.2690001 5.1350002
26.521999 -9.1960001 5.138
26.551001 -9.1260004 5.1420002
26.518999 -9.0349998 5.1339998
26.552 -8.9659996 5.1389999
26.549999 -8.8859997 5.138
26.573999 -8.8140001 5.1409998
26.596001 -8.7410002 5.1440001
26.583 -8.6560001 5.1399999
26.566 -8.5710001 5.1350002
26.579 -8.4949999 5.1360002
26.587 -8.4180002 5.1370001
26.593 -8.3400002 5.1360002
26.624001 -8.0290003 5.1370001
26.634001 -7.9520001 5.1370001
26.608 -7.8649998 5.131
26.688999 -7.8080001 5.145
26.660999 -7.6399999 5.1370001
26.669001 -7.5630002 5.1370001
26.677 -7.4850001 5.1370001
26.707001 -7.4130001 5.1409998
26.677 -7.1659999 5.132
26.653999 -7.0799999 5.1259999
26.705999 -7.0139999 5.1339998
26.684 -6.928 5.1279998
26.674 -6.8460002 5.125
26.673 -6.7659998 5.1240001
26.683001 -6.6890001 5.1240001
26.666 -6.605 5.1199999
26.693001 -6.5320001 5.1230001
26.707001 -6.4559999 5.1240001
26.700001 -6.375 5.1220002
26.686001 -6.2919998 5.118
26.737 -6.224 5.1259999
26.715 -6.1399999 5.1199999
26.705 -6.0580001 5.1170001
26.722 -5.9819999 5.119
26.73 -5.9050002 5.119
26.733999 -5.8260002 5.118
26.768999 -5.7540002 5.1230001
26.788 -5.678 5.125
30.929001 3.8410001 6.0469999
30.931999 3.914 6.0510001
30.937 3.9890001 6.0549998
30.93 4.2880001 6.066
30.948 4.368 6.073
30.962999 4.5250001 6.0819998
30.945999 4.6009998 6.0830002
31.002001 4.6880002 6.0970001
30.968 5.2519999 6.118
31.027 5.3460002 6.1329999
31 5.4250002 6.132
30.997 5.5089998 6.1360002
30.995001 5.5939999 6.1399999
31.004999 5.6820002 6.1469998
30.99 5.8520002 6.1529999
30.954 5.9330001 6.1500001
31.006001 6.0300002 6.165
31.042 6.1259999 6.177
30.993 6.2049999 6.1719999
30.972 6.29 6.1729999
31 6.3860002 6.184
31.062 6.4899998 6.2010002
30.971001 6.6529999 6.1939998
31.009001 6.7540002 6.2069998
30.987 6.842 6.2069998
31.021 6.9419999 6.2199998
30.996 7.125 6.2259998
30.996 7.2199998 6.2319999
30.981001 7.4070001 6.2399998
31.014999 7.5120001 6.2529998
31.049 7.6170001 6.2659998
31.070999 7.7199998 6.276
31.063 7.816 6.2810001
31.065001 8.4160004 6.3200002
31.025999 8.507 6.3179998
24.750999 -16.266001 5.0089998
24.846001 -16.174 5.0229998
24.917 -16.066999 5.033
24.988001 -15.959 5.0430002
25.065001 -15.857 5.0539999
25.136 -15.75 5.0630002
25.17 -15.622 5.066
25.253 -15.524 5.0780001
25.294001 -15.402 5.0819998
25.35 -15.289 5.0890002
25.388 -15.166 5.092
25.464001 -15.066 5.1030002
25.521999 -14.957 5.1100001
25.605 -14.862 5.1230001
25.618 -14.727 5.1209998
25.674 -14.618 5.1279998
25.732 -14.511 5.1360002
26.173 -13.007 5.1750002
26.188 -12.887 5.1739998
26.148001 -12.742 5.1630001
26.152 -12.618 5.1599998
26.177999 -12.506 5.1620002
26.202999 -12.395 5.164
26.211 -12.275 5.1620002
26.239 -12.167 5.164
26.275999 -12.063 5.1680002
26.284 -11.946 5.1669998
26.284 -11.827 5.1630001
26.330999 -11.729 5.1700001
26.357 -11.623 5.1719999
26.395 -11.522 5.1760001
26.375999 -11.397 5.1690001
26.395 -11.29 5.1700001
26.415001 -11.184 5.171
26.4 -11.064 5.165
26.400999 -10.951 5.1620002
26.386 -10.832 5.1570001
26.41 -10.731 5.1589999
26.461 -10.64 5.1659999
26.434999 -10.52 5.158
26.462 -10.421 5.1609998
26.482 -10.32 5.1620002
26.525 -10.229 5.1669998
9.0170002 -3.4400001 1.755
8.9639997 -3.3840001 1.744
8.9379997 -3.339 1.738
8.9589996 -3.3110001 1.742
8.9659996 -3.2780001 1.742
8.9770002 -3.247 1.743
9.04 -3.2349999 1.755
9.165 -3.244 1.778
26.583 -9.2069998 5.1539998
26.552 -9.0959997 5.1459999
26.577999 -9.0050001 5.1479998
26.614 -8.9180002 5.1529999
26.587 -8.8109999 5.1459999
26.697001 -8.7489996 5.165
26.653999 -8.6370001 5.1539998
26.622999 -8.5310001 5.1459999
26.599001 -8.427 5.1389999
26.629 -8.3409996 5.1430001
26.618 -8.243 5.1389999
26.643999 -8.1560001 5.1420002
26.636 -8.0600004 5.138
26.690001 -7.9829998 5.1469998
26.638 -7.875 5.1350002
26.662001 -7.79 5.1370001
26.775999 -7.6409998 5.1550002
26.686001 -7.5250001 5.1360002
26.733 -7.3590002 5.1420002
26.652 -7.2480001 5.1240001
26.663 -7.1630001 5.125
26.658001 -7.0739999 5.1220002
26.648001 -6.9850001 5.118
26.650999 -6.9000001 5.1170001
26.660999 -6.816 5.1170001
26.66 -6.7309999 5.1149998
26.657 -6.645 5.1129999
26.688 -6.5689998 5.118
26.669001 -6.4809999 5.112
26.667999 -6.3969998 5.1100001
26.695999 -6.3210001 5.1139998
26.693001 -6.2389998 5.112
26.687 -6.1550002 5.1100001
26.687 -6.0739999 5.1079998
26.704 -5.9980001 5.1100001
26.681 -5.9120002 5.1040001
26.761 -5.8499999 5.118
30.885 2.9820001 6.1139998
30.862 3.056 6.1110001
30.889999 3.135 6.118
30.844 3.207 6.1110001
30.919001 3.2920001 6.1279998
30.851999 3.3629999 6.1170001
30.861 3.4419999 6.1209998
30.854 3.52 6.1209998
30.836 3.598 6.1199999
30.818001 3.675 6.119
30.805 3.7539999 6.119
30.833 3.8380001 6.1269999
30.868 3.924 6.1360002
30.851 4.0040002 6.1360002
30.858 4.0869999 6.1399999
30.834999 4.1659999 6.138
30.912001 4.2600002 6.1560001
30.865 4.3369999 6.1500001
30.875 4.4229999 6.1550002
30.891001 4.5100002 6.1609998
30.885 4.5939999 6.1630001
30.916 4.6849999 6.1719999
30.940001 4.7740002 6.1799998
30.91 4.8559999 6.177
30.92 4.9450002 6.1830001
30.872999 5.0250001 6.177
30.934 5.1230001 6.1919999
30.896999 5.2049999 6.1880002
30.889 5.2919998 6.1900001
30.931 5.388 6.2020001
30.907 5.474 6.2010002
30.914 5.5650001 6.2069998
30.947001 5.6620002 6.217
30.971001 5.757 6.2259998
30.969 5.848 6.23
31.018999 5.9489999 6.244
30.947001 6.0279999 6.2329998
30.972 6.125 6.2420001
30.995001 6.223 6.2509999
30.948 6.3070002 6.2459998
30.981001 6.4070001 6.257
30.965 6.4980001 6.2579999
30.992001 6.598 6.2680001
31.032 6.7020001 6.2810001
30.988001 6.7880001 6.277
31.011999 6.8889999 6.2859998
31.108999 7.007 6.3109999
31.051001 7.0910001 6.3039999
31.004 7.177 6.2989998
31.117001 7.5960002 6.342
31.059999 7.6810002 6.336
26.031 -13.314 5.2360001
26.041 -13.239 5.237
26.025 -13.151 5.2329998
26.042 -13.08 5.2350001
26.079 -13.019 5.2410002
26.121 -12.96 5.2480001
26.08 -12.86 5.2389998
26.062 -12.771 5.2340002
26.108999 -12.714 5.2420001
26.103001 -12.631 5.2399998
26.141001 -12.57 5.2459998
26.099001 -12.47 5.2360001
26.136 -12.407 5.2420001
26.152 -12.335 5.244
26.158001 -12.258 5.244
26.228001 -12.21 5.257
26.247999 -12.059 5.2579999
26.226 -11.969 5.2529998
26.24 -11.895 5.2540002
26.242001 -11.816 5.2529998
26.211 -11.722 5.2459998
26.188999 -11.632 5.2399998
26.245001 -11.577 5.25
26.222 -11.487 5.244
26.249001 -11.418 5.2480001
26.26 -11.343 5.2490001
26.264 -11.265 5.2490001
26.275999 -11.19 5.25
26.27 -11.107 5.2470002
26.290001 -11.035 5.25
26.292 -10.956 5.2490001
26.312 -10.884 5.2519999
26.299 -10.799 5.2480001
26.329 -10.731 5.2519999
26.343 -10.656 5.2540002
26.354 -10.581 5.2550001
26.351999 -10.5 5.2529998
8.9890003 -3.527 1.791
8.9289999 -3.4760001 1.778
8.9049997 -3.4400001 1.773
8.908 -3.414 1.773
8.9099998 -3.3870001 1.773
8.9119997 -3.3610001 1.773
8.915 -3.335 1.773
8.941 -3.3180001 1.778
8.9799995 -3.3050001 1.785
9.0319996 -3.2969999 1.795
9.1569996 -3.3150001 1.819
26.471001 -9.4230003 5.257
26.483 -9.3470001 5.2589998
26.459999 -9.2589998 5.2529998
26.485001 -9.1879997 5.256
26.500999 -9.1129999 5.2579999
26.513 -9.0369997 5.2589998
26.531 -8.9630003 5.2610002
26.586 -8.901 5.2709999
26.559999 -8.8120003 5.2639999
26.582001 -8.7399998 5.2670002
26.577 -8.658 5.2649999
26.566 -8.5740004 5.2610002
26.566999 -8.4940004 5.2600002
26.577999 -8.4180002 5.2610002
26.580999 -8.3389997 5.2600002
26.612 -8.2679996 5.2639999
26.608999 -8.1870003 5.2620001
26.6 -8.1049995 5.2589998
26.556999 -8.0120001 5.2490001
26.604 -7.9460001 5.257
26.584999 -7.8600001 5.2519999
26.614 -7.789 5.256
26.679001 -7.7280002 5.2680001
26.704 -7.335 5.2649999
26.666 -7.244 5.256
26.657 -7.1620002 5.2529998
26.643 -7.079 5.2490001
26.655001 -7.0019999 5.25
26.688999 -6.9310002 5.2550001
26.646 -6.8400002 5.2449999
26.688999 -6.7719998 5.2519999
26.673 -6.6880002 5.2480001
26.655001 -6.6040001 5.2420001
26.67 -6.5279999 5.244
26.673 -6.4489999 5.243
26.677 -6.3699999 5.2420001
26.681 -6.2919998 5.2420001
26.655001 -6.2059999 5.2350001
26.714001 -6.1399999 5.2449999
26.724001 -6.0630002 5.2459998
26.719999 -5.9819999 5.243
26.687 -5.895 5.2350001
26.721001 -5.823 5.2410002
26.761 -5.7519999 5.2470002
26.802999 -5.6820002 5.2540002
30.952 4.6040001 6.2490001
30.948999 4.6830001 6.2519999
30.938 4.7610002 6.2529998
30.983 5.257 6.2870002
30.976999 5.3400002 6.29
31.041 5.605 6.316
30.969999 5.678 6.3060002
30.992001 5.7680001 6.3150001
31.034 7.3270001 6.415
31.068001 7.4310002 6.428
31.037001 7.52 6.428
24.725 -16.254 5.125
24.823999 -16.164 5.1409998
24.902 -16.061001 5.152
24.958 -15.944 5.1589999
25.038 -15.844 5.171
25.098 -15.731 5.1789999
25.146 -15.611 5.184
25.202999 -15.498 5.191
25.257999 -15.384 5.198
25.326 -15.278 5.2069998
25.368999 -15.159 5.2119999
25.403 -15.034 5.2140002
25.464001 -14.927 5.223
25.485001 -14.796 5.223
25.552 -14.693 5.2319999
25.589001 -14.574 5.2360001
25.617001 -14.45 5.237
25.701 -14.358 5.25
25.707001 -14.224 5.2470002
25.75 -14.111 5.2519999
25.830999 -14.019 5.2649999
25.85 -13.894 5.2649999
25.934 -13.804 5.2779999
25.993 -13.702 5.2859998
26.013 -13.317 5.2789998
26.025 -13.193 5.2779999
26.021999 -13.063 5.2729998
26.052999 -12.951 5.276
26.101 -12.848 5.2820001
26.125 -12.733 5.2839999
26.141001 -12.616 5.283
26.146999 -12.495 5.2810001
26.167 -12.381 5.2820001
26.202 -12.274 5.2849998
26.205 -12.154 5.283
26.247 -12.052 5.2880001
26.263 -11.94 5.2880001
26.290001 -11.832 5.29
26.323 -11.729 5.2940001
26.318001 -11.608 5.289
26.34 -11.501 5.2909999
26.33 -11.38 5.2859998
26.341999 -11.27 5.2849998
26.407 -11.183 5.2950001
26.368 -11.053 5.2839999
26.385 -10.947 5.2849998
26.361 -10.825 5.277
26.414 -10.735 5.2849998
26.431 -10.631 5.2849998
26.448999 -10.528 5.2859998
26.471001 -10.427 5.2880001
26.444 -10.308 5.2800002
26.426001 -10.193 5.2729998
9.0010004 -3.3989999 1.794
8.9490004 -3.3440001 1.783
8.9449997 -3.3069999 1.781
8.9359999 -3.2679999 1.778
8.9589996 -3.2409999 1.7819999
9.0019999 -3.2219999 1.79
9.0819998 -3.2160001 1.8049999
26.549999 -9.198 5.2719998
26.530001 -9.0909996 5.2659998
26.542 -8.9949999 5.2659998
26.563 -8.9029999 5.2680001
26.568001 -8.8059998 5.2670002
26.596001 -8.7180004 5.27
26.632 -8.632 5.2750001
26.587 -8.5200005 5.2639999
26.591 -8.4259996 5.2620001
26.615 -8.3380003 5.2649999
26.597 -8.2370005 5.2589998
26.612 -8.1479998 5.2600002
26.598 -8.0500002 5.2550001
26.621 -7.9640002 5.2579999
26.591999 -7.8629999 5.25
26.610001 -7.776 5.2519999
26.667 -7.7020001 5.2610002
26.629 -7.4200001 5.2480001
26.628 -7.3309999 5.2449999
26.653 -7.2490001 5.2490001
26.653 -7.1609998 5.2470002
26.650999 -7.073 5.2449999
26.638 -6.9829998 5.2399998
26.642 -6.8979998 5.2389998
26.672001 -6.8200002 5.243
26.642 -6.7270002 5.2360001
26.653 -6.645 5.2360001
26.657 -6.5619998 5.2350001
26.667999 -6.4809999 5.2360001
26.66 -6.3959999 5.2329998
26.684 -6.3189998 5.2360001
26.667999 -6.2329998 5.2309999
26.683001 -6.1550002 5.2319999
26.731001 -6.085 5.2399998
26.725 -6.0029998 5.2379999
26.690001 -5.915 5.2290001
26.695 -5.836 5.2290001
30.898001 3.2939999 6.2880001
30.874001 3.369 6.2849998
30.872999 3.448 6.2870002
30.827999 3.5209999 6.2800002
30.830999 3.6010001 6.283
30.823999 3.6800001 6.2839999
30.820999 3.76 6.2859998
30.809999 3.839 6.2859998
30.813999 3.921 6.29
30.837 4.006 6.2969999
30.82 4.086 6.296
30.823 4.1690001 6.3000002
30.841 4.2540002 6.3070002
30.846001 4.3390002 6.3109999
30.863001 4.4250002 6.3169999
30.870001 4.5110002 6.322
30.844 4.592 6.3189998
30.830999 4.6760001 6.3200002
30.879 4.7690001 6.3330002
30.844999 4.8499999 6.3299999
30.868999 4.941 6.3379998
30.874001 5.0289998 6.342
30.926001 5.125 6.3569999
30.877001 5.2059999 6.3499999
30.833 5.2870002 6.3449998
30.893999 5.3860002 6.3610001
30.871 5.4720001 6.3610001
30.952 5.5760002 6.381
30.938 5.664 6.382
30.902 5.7480001 6.3790002
30.891001 5.8369999 6.3800001
30.926001 5.9359999 6.3920002
30.945999 6.0320001 6.4000001
31.027 6.1399999 6.421
30.976 6.3169999 6.4200001
31.038 6.4229999 6.4369998
30.945 6.4980001 6.4219999
31.02 6.6090002 6.4429998
30.962 6.691 6.4349999
31.034 6.803 6.4549999
31.003 6.8909998 6.4530001
31.040001 6.9959998 6.4660001
25.962 -13.606 5.3530002
25.975 -13.534 5.355
26.01 -13.472 5.3610001
25.992001 -13.383 5.3559999
25.997 -13.306 5.3559999
26.031 -13.243 5.3610001
26.063999 -12.941 5.3629999
26.094999 -12.876 5.368
26.108999 -12.803 5.3699999
26.091999 -12.714 5.3649998
26.098 -12.637 5.3649998
26.076 -12.547 5.3590002
26.079 -12.468 5.3590002
26.101999 -12.399 5.362
26.156 -12.345 5.3720002
26.190001 -12.12 5.375
26.197001 -12.043 5.375
26.226999 -11.977 5.3800001
26.179001 -11.875 5.368
26.194 -11.801 5.3699999
26.172001 -11.711 5.3639998
26.167 -11.629 5.362
26.271 -11.595 5.382
26.221001 -11.493 5.3699999
26.231001 -11.417 5.3709998
26.268 -11.353 5.3769999
26.245001 -11.263 5.3709998
26.299 -11.206 5.381
26.274 -11.115 5.375
26.278999 -11.037 5.3740001
26.292 -10.962 5.375
26.334999 -10.9 5.3829999
26.285999 -10.799 5.3720002
26.301001 -10.725 5.3730001
26.334999 -10.659 5.3790002
26.320999 -10.573 5.375
26.34 -10.501 5.3769999
9.0419998 -3.549 1.845
8.9650002 -3.4920001 1.8279999
8.9090004 -3.4430001 1.817
8.9060001 -3.415 1.8150001
8.9040003 -3.3870001 1.814
8.9099998 -3.362 1.8150001
8.9180002 -3.3380001 1.817
8.9469995 -3.322 1.822
8.9630003 -3.3010001 1.825
9.0200005 -3.2939999 1.836
9.1750002 -3.323 1.867
26.489 -9.434 5.388
26.474001 -9.3479996 5.3829999
26.457001 -9.2620001 5.3779998
26.475 -9.1879997 5.381
26.503 -9.118 5.3850002
26.468 -9.0249996 5.3759999
26.530001 -8.967 5.388
26.611 -8.9130001 5.402
26.569 -8.8190002 5.3930001
26.544001 -8.6499996 5.3839998
26.541 -8.5690002 5.382
26.533001 -8.4870005 5.3790002
26.559 -8.415 5.3829999
26.569 -8.3380003 5.3839998
26.549 -8.2519999 5.3779998
26.6 -8.1879997 5.3870001
26.565001 -8.0970001 5.3779998
26.547001 -8.0109997 5.3730001
26.566999 -7.9369998 5.3759999
26.565001 -7.8569999 5.3740001
26.597 -7.7859998 5.3790002
26.627001 -7.7150002 5.3839998
26.617001 -7.632 5.3800001
26.653 -7.5630002 5.3860002
26.618999 -7.473 5.3779998
26.635 -7.3969998 5.3790002
26.645 -7.3200002 5.3800001
26.631001 -7.237 5.3759999
26.636999 -7.1589999 5.375
26.679001 -7.0900002 5.382
26.645 -6.8410001 5.3709998
26.627001 -6.757 5.3660002
26.662001 -6.6859999 5.3709998
26.691999 -6.6139998 5.3759999
26.648001 -6.5229998 5.3649998
26.650999 -6.4450002 5.3649998
26.650999 -6.3649998 5.3629999
26.666 -6.289 5.3639998
26.660999 -6.2080002 5.362
26.681 -6.1329999 5.3639998
26.701 -6.0580001 5.3670001
26.673 -5.973 5.3600001
26.725 -5.9050002 5.369
26.715 -5.823 5.3649998
26.716999 -5.744 5.3639998
26.724001 -5.665 5.3639998
30.962 5.0089998 6.4369998
30.964001 5.092 6.4419999
24.718 -16.254 5.2459998
24.802 -16.155001 5.2589998
24.891001 -16.059 5.2729998
24.955999 -15.948 5.2820001
25.045 -15.853 5.296
25.113001 -15.745 5.3049998
25.153 -15.62 5.309
25.198 -15.5 5.3140001
25.264999 -15.393 5.3239999
25.316 -15.277 5.3299999
25.341 -15.147 5.3299999
25.406 -15.04 5.3400002
25.457001 -14.927 5.3460002
25.487 -14.802 5.348
25.521999 -14.68 5.3509998
25.570999 -14.568 5.3569999
25.611 -14.451 5.3610001
25.681999 -14.352 5.3720002
25.712 -14.23 5.3740001
25.736 -14.107 5.375
25.788 -13.999 5.381
25.799 -13.87 5.3800001
25.822001 -13.749 5.381
25.862 -13.637 5.3850002
25.903 -13.526 5.3899999
25.919001 -13.403 5.3889999
25.959999 -13.294 5.3940001
25.959 -13.164 5.3899999
26 -13.056 5.395
26.028999 -12.943 5.3969998
26.070999 -12.836 5.402
26.101999 -12.726 5.4050002
26.122 -12.61 5.4050002
26.141001 -12.495 5.4060001
26.163 -12.382 5.4070001
26.156 -12.256 5.402
26.183001 -12.147 5.4039998
26.233999 -12.05 5.4109998
26.243999 -11.934 5.4099998
26.311001 -11.845 5.4200001
26.282 -11.713 5.4109998
26.299 -11.603 5.4109998
26.326 -11.498 5.414
26.313999 -11.376 5.408
26.326 -11.266 5.4070001
26.361 -11.166 5.4120002
26.357 -11.051 5.408
26.344999 -10.933 5.402
26.355 -10.825 5.401
26.426001 -10.742 5.4130001
26.427999 -10.632 5.4109998
26.447001 -10.53 5.4120002
26.42 -10.41 5.4029999
26.417 -10.3 5.4000001
26.422001 -10.194 5.3979998
9.0279999 -3.4100001 1.842
8.9580002 -3.348 1.827
8.9370003 -3.3050001 1.822
8.9560003 -3.276 1.825
8.9650002 -3.244 1.826
8.9840002 -3.2160001 1.829
9.0749998 -3.214 1.846
26.573999 -9.2080002 5.4029999
26.535 -9.0939999 5.3920002
26.573999 -8.9090004 5.3959999
26.551001 -8.802 5.3889999
26.566999 -8.5159998 5.3850002
26.552 -8.415 5.3800001
26.591 -8.3319998 5.3850002
26.577 -8.2329998 5.3800001
26.575001 -8.1379995 5.3779998
26.566999 -8.0419998 5.3740001
26.555 -7.9450002 5.369
26.587999 -7.8629999 5.3740001
26.604 -7.776 5.375
26.615999 -7.6880002 5.3759999
26.612 -7.5960002 5.3730001
26.627001 -7.5100002 5.3740001
26.603001 -7.414 5.3670001
26.603001 -7.3249998 5.3649998
26.605 -7.237 5.3639998
26.677999 -7.1690001 5.3759999
26.662001 -7.0770001 5.3709998
26.655001 -6.9879999 5.368
26.605 -6.8889999 5.3559999
26.639 -6.8119998 5.3610001
26.632999 -6.7249999 5.3579998
26.618999 -6.6370001 5.3540001
26.643 -6.559 5.3569999
26.643 -6.4749999 5.355
26.627001 -6.388 5.3499999
26.658001 -6.3130002 5.355
26.683001 -6.237 5.3579998
26.639999 -6.145 5.348
26.698 -6.0770001 5.3579998
26.686001 -5.994 5.3540001
26.708 -5.9190001 5.3569999
26.681 -5.8330002 5.3499999
30.886999 3.375 6.4530001
30.881001 3.4519999 6.454
30.874001 3.5309999 6.4549999
30.864 3.6889999 6.4580002
30.792999 3.76 6.4460001
30.969 3.8629999 6.4850001
30.826 3.927 6.4580002
30.812 4.006 6.4580002
30.85 4.0939999 6.4689999
30.857 4.2610002 6.4759998
30.860001 4.3449998 6.48
30.879 4.4320002 6.487
30.832001 4.5089998 6.48
30.872 4.5999999 6.4920001
30.857 4.684 6.4920001
30.968 4.7870002 6.5190001
30.922001 4.8660002 6.513
30.892 4.9489999 6.5100002
30.906 5.0380001 6.5170002
30.896 5.125 6.5180001
30.983 5.2270002 6.54
30.982 5.316 6.5440001
30.944 5.3990002 6.54
26.017 -13.245 5.4850001
26.014999 -13.165 5.4840002
26.049 -13.102 5.4899998
26.099001 -12.726 5.494
26.084 -12.639 5.4889998
26.214001 -11.497 5.4959998
26.228001 -11.423 5.4980001
26.268999 -11.36 5.5050001
26.216 -11.257 5.4920001
26.259001 -11.195 5.5
26.332001 -11.146 5.5139999
26.254 -11.033 5.4959998
26.264 -10.957 5.4970002
26.259001 -10.875 5.494
26.322001 -10.82 5.506
26.298 -10.73 5.5
26.330999 -10.663 5.5050001
26.306 -10.573 5.4980001
26.313999 -10.496 5.4990001
9.0340004 -3.5480001 1.887
8.9689999 -3.4949999 1.872
8.941 -3.457 1.8660001
8.9239998 -3.4230001 1.862
8.9320002 -3.3989999 1.863
8.9469995 -3.378 1.8660001
8.9519997 -3.352 1.8660001
8.9580002 -3.3280001 1.867
8.9700003 -3.3050001 1.869
9.0299997 -3.299 1.881
9.1440001 -3.313 1.904
26.483 -9.0340004 5.506
26.532 -8.9709997 5.5149999
26.559 -8.8999996 5.5190001
26.599001 -8.6719999 5.5229998
26.552999 -8.5769997 5.5120001
26.554001 -8.4969997 5.5110002
26.566 -8.4200001 5.5120001
26.572001 -8.342 5.5110002
26.563 -8.2589998 5.5079999
26.562 -8.1789999 5.506
26.563999 -8.099 5.5050001
26.554001 -8.0159998 5.5019999
26.563 -7.9390001 5.5019999
26.528 -7.848 5.493
26.591 -7.7870002 5.5050001
26.611 -7.7129998 5.507
26.593 -7.6279998 5.5019999
26.605 -7.5510001 5.5029998
26.579 -7.4640002 5.4959998
26.604 -7.3909998 5.5
26.604 -7.3109999 5.4980001
26.583 -7.2249999 5.4920001
26.605 -7.152 5.4949999
26.655001 -7.085 5.5040002
26.688999 -7.0139999 5.5100002
26.725 -6.9429998 5.5149999
26.629999 -6.8390002 5.494
26.658001 -6.7659998 5.4990001
26.664 -6.6880002 5.4980001
26.646 -6.6040001 5.493
26.638 -6.5219998 5.4899998
26.643999 -6.4439998 5.4889998
26.688 -6.375 5.4970002
26.693001 -6.296 5.4970002
26.653 -6.2069998 5.487
26.673 -6.132 5.4889998
26.676001 -6.053 5.4879999
26.653 -5.9679999 5.4819999
26.702999 -5.9000001 5.4910002
26.719999 -5.8239999 5.4920001
26.746 -5.75 5.4959998
26.740999 -5.6690001 5.494
24.767 -16.292 5.3800001
24.843 -16.187 5.3909998
24.927999 -16.087 5.4039998
24.988001 -15.973 5.4130001
25.056999 -15.865 5.4229999
25.136 -15.764 5.4349999
25.18 -15.641 5.4390001
25.23 -15.524 5.4460001
25.285 -15.409 5.4530001
25.344999 -15.299 5.461
25.413 -15.194 5.4710002
25.443001 -15.067 5.473
25.493999 -14.953 5.4790001
25.52 -14.825 5.48
25.593 -14.726 5.4910002
25.618999 -14.6 5.493
25.634001 -14.468 5.4910002
25.738001 -14.387 5.5089998
25.771999 -14.268 5.5120001
25.783001 -14.137 5.5110002
25.802999 -14.012 5.5110002
25.809999 -13.881 5.5079999
25.863001 -13.775 5.5149999
25.868 -13.644 5.5120001
25.908001 -13.532 5.5170002
25.955 -13.426 5.5229998
25.964001 -13.3 5.5209999
25.99 -13.183 5.5229998
26.016001 -13.068 5.5240002
26.047001 -12.955 5.527
26.070999 -12.84 5.5279999
26.111 -12.734 5.533
26.191 -12.647 5.546
26.17 -12.512 5.5380001
26.171 -12.39 5.5349998
26.204 -12.282 5.539
26.193001 -12.155 5.533
26.278999 -12.074 5.5469999
26.351999 -11.512 5.546
26.318001 -11.381 5.5359998
26.346001 -11.278 5.5380001
26.403 -11.187 5.5469999
26.396999 -11.071 5.5430002
26.355 -10.94 5.5310001
26.351999 -10.826 5.527
26.415001 -10.741 5.5370002
26.455 -10.646 5.5430002
26.471001 -10.542 5.5430002
26.438999 -10.42 5.5339999
26.417 -10.302 5.526
26.431999 -10.2 5.526
9.0439997 -3.4170001 1.8890001
8.9919996 -3.3610001 1.877
8.9980001 -3.3280001 1.877
9.0019999 -3.2939999 1.877
9.0120001 -3.2620001 1.878
9.0240002 -3.2309999 1.88
9.0869999 -3.2190001 1.892
26.593 -8.9169998 5.526
26.527 -8.7959995 5.5089998
26.573999 -8.4239998 5.5100002
26.576 -8.3290005 5.5079999
26.556999 -8.2279997 5.5019999
26.569 -8.1379995 5.5019999
26.598 -8.0530005 5.506
26.625999 -7.9679999 5.5089998
26.58 -7.862 5.4980001
26.572001 -7.7680001 5.494
26.631001 -7.6939998 5.5040002
26.587 -7.5900002 5.493
26.617001 -7.5089998 5.4970002
26.6 -7.414 5.4920001
26.579 -7.3200002 5.4860001
26.584999 -7.2329998 5.4850001
26.622999 -7.1550002 5.4910002
26.694 -7.086 5.5029998
26.646 -6.987 5.4920001
26.629999 -6.8959999 5.4860001
26.615999 -6.8070002 5.4819999
26.65 -6.73 5.487
26.615999 -6.6370001 5.4780002
26.646 -6.5599999 5.4829998
26.656 -6.4790001 5.4829998
26.643999 -6.3930001 5.4790001
26.659 -6.3140001 5.48
26.65 -6.23 5.4770002
26.669001 -6.152 5.4790001
26.691 -6.0760002 5.4819999
26.705 -5.9180002 5.4809999
26.709 -5.8390002 5.4809999
30.851999 3.375 6.6129999
30.853001 3.4530001 6.6149998
30.849001 3.852 6.6269999
30.787001 3.9260001 6.6170001
30.809999 4.0100002 6.625
30.858999 4.099 6.638
30.854 4.1810002 6.6399999
30.841999 4.263 6.6409998
30.804001 4.3410001 6.6360002
30.851 4.4320002 6.6490002
30.875999 5.4809999 6.6989999
30.902 5.5749998 6.7080002
30.923 5.6700001 6.717
30.874001 5.7519999 6.711
9.1160002 -3.5539999 1.947
9.052 -3.5020001 1.933
9.0410004 -3.47 1.9299999
9.0699997 -3.4530001 1.936
9.0459995 -3.4170001 1.9299999
