# .PCD v0.7 - Point Cloud Data file format
VERSION 0.7
FIELDS x y z
SIZE 4 4 4
TYPE F F F
COUNT 1 1 1
WIDTH 1806
HEIGHT 1
VIEWPOINT 0 0 0 1 0 0 0
POINTS 1806
DATA ascii
18.000999 5.7750001 0.41499999
18.136 5.8800001 0.419
18.087999 5.9260001 0.41800001
18.152 6.0089998 0.419
18.312 6.125 0.42300001
18.35 6.2010002 0.42399999
18.43 6.2919998 0.426
13.101 5.4419999 0.30500001
12.945 5.4239998 0.30199999
12.857 5.4330001 0.30000001
12.783 5.448 0.29800001
12.727 5.4699998 0.29699999
12.646 5.4809999 0.29499999
12.573 5.4949999 0.294
12.745 5.6160002 0.29800001
9.0109997 -5.3280001 0.31299999
9.0380001 -5.3179998 0.31400001
9.0509996 -5.3000002 0.31400001
9.0550003 -5.276 0.31400001
9.0670004 -5.257 0.315
9.0780001 -5.237 0.315
9.092 -5.2189999 0.31600001
9.0889997 -5.1919999 0.315
9.1120005 -5.178 0.31600001
9.1280003 -5.1620002 0.317
9.1499996 -5.1479998 0.31799999
9.177 -5.1360002 0.31900001
9.1619997 -5.1009998 0.31799999
9.191 -5.0910001 0.31900001
9.1969995 -5.0679998 0.31900001
9.2220001 -5.0549998 0.31999999
9.2220001 -5.0279999 0.31999999
9.2440004 -5.0139999 0.32100001
9.2469997 -4.9889998 0.32100001
9.2849998 -4.9819999 0.322
9.2849998 -4.9549999 0.322
9.2930002 -4.9330001 0.32300001
9.2939997 -4.9060001 0.32300001
9.3100004 -4.888 0.32300001
9.3269997 -4.8699999 0.324
9.3310003 -4.8449998 0.324
9.3579998 -4.8319998 0.32499999
9.3620005 -4.8070002 0.32499999
9.3800001 -4.789 0.32600001
9.4160004 -4.7800002 0.32699999
9.4329996 -4.7610002 0.32699999
9.441 -4.7379999 0.32800001
9.4610004 -4.7199998 0.32800001
9.4770002 -4.7010002 0.329
9.4899998 -4.6799998 0.329
9.5010004 -4.6570001 0.33000001
9.5150003 -4.6360002 0.33000001
9.5290003 -4.6160002 0.331
9.5550003 -4.6009998 0.33199999
9.5629997 -4.5770001 0.33199999
9.566 -4.5500002 0.33199999
9.5930004 -4.5349998 0.333
9.5959997 -4.5079999 0.333
9.6129999 -4.4879999 0.33399999
9.6309996 -4.4689999 0.33399999
9.6339998 -4.4419999 0.33399999
9.6529999 -4.4229999 0.33500001
9.6879997 -4.4109998 0.336
9.6949997 -4.3860002 0.336
9.7220001 -4.369 0.33700001
9.7329998 -4.3460002 0.338
9.7550001 -4.3270001 0.33899999
9.7679996 -4.3039999 0.33899999
9.79 -4.2859998 0.34
9.7889996 -4.256 0.34
9.8219995 -4.2420001 0.34099999
9.823 -4.2140002 0.34099999
9.8260002 -4.1869998 0.34099999
9.8470001 -4.1669998 0.34200001
9.8730001 -4.1490002 0.34299999
9.8870001 -4.1259999 0.34299999
9.9200001 -4.1110001 0.34400001
9.9160004 -4.0809999 0.34400001
9.948 -4.0650001 0.345
9.9770002 -4.0479999 0.34599999
9.9770002 -4.0180001 0.34599999
10.004 -4 0.347
10.021 -3.9779999 0.34799999
10.037 -3.9549999 0.34799999
10.053 -3.9319999 0.34900001
10.049 -3.901 0.34799999
10.08 -3.8840001 0.34999999
10.102 -3.8629999 0.34999999
10.163 -3.8559999 0.352
10.17 -3.829 0.35299999
10.169 -3.8 0.35299999
10.196 -3.78 0.35299999
10.191 -3.7479999 0.35299999
10.217 -3.7279999 0.354
10.223 -3.701 0.354
10.244 -3.6789999 0.35499999
10.257 -3.6530001 0.35600001
10.28 -3.632 0.35600001
10.31 -3.612 0.35699999
10.325 -3.5869999 0.35800001
10.346 -3.5650001 0.35800001
10.385 -3.5480001 0.36000001
10.366 -3.5109999 0.359
10.413 -3.497 0.361
10.425 -3.471 0.361
10.471 -3.4560001 0.36300001
10.497 -3.434 0.36399999
10.515 -3.4089999 0.36399999
10.543 -3.3870001 0.36500001
10.621 -3.382 0.368
10.621 -3.3510001 0.368
10.627 -3.322 0.368
10.647 -3.2969999 0.36899999
10.67 -3.2739999 0.36899999
10.65 -3.237 0.36899999
10.672 -3.2119999 0.36899999
10.73 -3.198 0.37099999
10.761 -3.177 0.37200001
10.833 -3.1659999 0.375
10.871 -3.1459999 0.37599999
10.879 -3.1170001 0.377
10.913 -3.095 0.37799999
10.948 -3.073 0.37900001
10.975 -3.049 0.38
11.01 -3.027 0.38100001
11.049 -3.006 0.382
11.107 -2.9890001 0.384
11.13 -2.9630001 0.38499999
11.167 -2.941 0.38600001
11.182 -2.9119999 0.38699999
11.285 -2.9070001 0.38999999
11.266 -2.869 0.38999999
11.316 -2.849 0.391
11.329 -2.8199999 0.39199999
11.366 -2.796 0.39300001
11.452 -2.7839999 0.396
11.474 -2.757 0.39700001
11.493 -2.7279999 0.39700001
11.527 -2.7030001 0.398
11.569 -2.6789999 0.40000001
11.617 -2.6570001 0.40099999
11.628 -2.6259999 0.40200001
11.663 -2.5999999 0.403
11.67 -2.5680001 0.403
11.705 -2.5420001 0.40400001
11.773 -2.523 0.40700001
11.806 -2.4960001 0.40799999
11.839 -2.4690001 0.40900001
11.872 -2.4419999 0.41
11.912 -2.4159999 0.41100001
11.963 -2.392 0.41299999
12.001 -2.365 0.414
11.993 -2.329 0.414
12.079 -2.3110001 0.417
12.107 -2.2809999 0.41800001
12.154 -2.2550001 0.419
12.179 -2.2249999 0.41999999
12.235 -2.2 0.42199999
12.279 -2.1730001 0.42399999
12.335 -2.1470001 0.426
12.327 -2.1099999 0.42500001
12.376 -2.0829999 0.42699999
12.45 -2.0599999 0.42899999
12.491 -2.0309999 0.43099999
12.606 -2.013 0.435
12.763 -2.0020001 0.44
12.704 -1.956 0.43799999
12.635 -1.909 0.435
12.699 -1.883 0.43799999
12.726 -1.85 0.43900001
12.791 -1.823 0.44100001
12.84 -1.793 0.442
12.955 -1.772 0.44600001
14.682 0.639 0.37099999
14.675 0.662 0.37099999
14.724 0.71200001 0.37099999
14.854 0.74400002 0.375
14.694 0.75999999 0.37
14.752 0.78799999 0.37200001
14.736 0.81300002 0.37099999
14.746 0.83899999 0.37099999
14.82 0.87 0.373
14.764 0.89300001 0.37099999
14.79 0.921 0.37200001
14.881 0.954 0.37400001
14.807 0.977 0.37200001
8.7989998 0.736 0.22
8.6599998 0.74199998 0.21699999
8.6099997 0.75599998 0.215
8.599 0.773 0.215
8.5769997 0.78899997 0.214
8.5749998 0.80699998 0.214
8.5710001 0.82599998 0.214
8.5869999 0.84600002 0.215
8.5959997 0.866 0.215
8.6730003 0.89300001 0.21699999
8.7410002 0.91900003 0.21799999
8.7860003 0.94400001 0.219
8.8100004 0.96700001 0.22
8.849 0.991 0.221
8.9300003 1.021 0.223
15.387 1.76 0.38499999
15.297 1.785 0.382
15.386 1.832 0.384
15.406 1.87 0.38499999
15.495 1.918 0.38699999
15.509 1.957 0.38699999
15.522 1.997 0.38800001
15.511 2.033 0.38699999
15.521 2.073 0.38800001
15.551 2.1159999 0.38800001
15.574 2.158 0.389
15.624 2.204 0.38999999
15.646 2.247 0.391
15.727 2.299 0.39300001
15.766 2.345 0.39399999
15.808 2.392 0.39500001
15.851 2.4400001 0.396
15.856 2.483 0.396
15.906 2.5320001 0.39700001
15.906 2.575 0.39700001
15.958 2.6259999 0.39899999
15.992 2.675 0.40000001
16.018 2.7219999 0.40000001
16.023001 2.767 0.40099999
16.106001 2.826 0.403
16.211 2.8889999 0.405
16.298 2.95 0.40799999
16.298 2.9949999 0.40799999
16.339001 3.049 0.40900001
16.382999 3.1029999 0.41
16.487 3.1700001 0.41299999
16.516001 3.223 0.41299999
16.629999 3.293 0.41600001
16.580999 3.3310001 0.41499999
16.570999 3.378 0.41499999
16.638 3.4400001 0.417
16.631001 3.4879999 0.417
16.738001 3.5599999 0.41999999
16.851 3.6340001 0.42199999
16.84 3.6819999 0.42199999
16.868999 3.7390001 0.42300001
16.889999 3.7950001 0.42399999
16.910999 3.8510001 0.42500001
16.938999 3.9100001 0.42500001
17.014 3.9790001 0.42699999
17.105 4.0539999 0.43000001
7.6919999 1.847 0.193
17.58 4.2210002 0.442
7.4819999 1.8200001 0.18799999
7.402 1.823 0.186
7.3049998 1.823 0.184
7.2309999 1.827 0.182
7.1950002 1.841 0.18099999
7.1589999 1.855 0.18000001
7.1560001 1.877 0.18000001
7.138 1.895 0.18000001
7.1259999 1.915 0.17900001
7.1389999 1.942 0.18000001
7.1560001 1.97 0.18000001
7.1929998 2.0039999 0.18099999
7.3390002 2.069 0.185
18.072001 5.0960002 0.45699999
18.08 5.158 0.45699999
18.028999 5.204 0.456
18.068001 5.276 0.45699999
18.143 5.3590002 0.45899999
18.172001 5.4289999 0.46000001
18.250999 5.5149999 0.463
18.318001 5.598 0.465
18.292 5.6529999 0.46399999
18.377001 5.743 0.46700001
18.371 5.8039999 0.46700001
18.518 5.915 0.47099999
18.437 5.954 0.46900001
18.582001 6.066 0.47299999
18.641001 6.151 0.47499999
18.629999 6.2140002 0.47499999
18.672001 6.2940001 0.47600001
18.731001 6.381 0.47799999
13.005 5.402 0.33700001
12.91 5.4130001 0.33399999
12.85 5.4380002 0.333
12.821 5.4759998 0.333
12.781 5.5100002 0.33199999
12.792 5.5650001 0.33199999
12.482 5.7810001 0.32600001
12.408 5.7979999 0.32499999
12.406 5.848 0.32499999
12.439 5.915 0.32600001
8.6309996 -5.677 0.324
8.665 -5.645 0.32499999
8.7040005 -5.6170001 0.32600001
8.7399998 -5.586 0.32800001
8.7580004 -5.5440001 0.32800001
8.8050003 -5.5209999 0.33000001
8.8369999 -5.4879999 0.331
8.8629999 -5.4510002 0.331
8.8830004 -5.4109998 0.33199999
8.9090004 -5.375 0.333
8.9370003 -5.3410001 0.333
8.9689999 -5.3080001 0.33399999
8.9790001 -5.263 0.33399999
9.0059996 -5.2290001 0.33500001
9.033 -5.1939998 0.336
9.0799999 -5.171 0.338
9.0970001 -5.131 0.338
9.1169996 -5.092 0.33899999
9.1590004 -5.066 0.34
9.1730003 -5.0250001 0.34
9.2030001 -4.993 0.34099999
9.2250004 -4.9569998 0.34200001
9.1929998 -4.8920002 0.34
9.2779999 -4.8889999 0.34299999
9.2959995 -4.8509998 0.34400001
9.3280001 -4.8200002 0.345
9.3599997 -4.789 0.34599999
9.3800001 -4.7529998 0.34599999
9.4119997 -4.7220001 0.347
9.441 -4.6900001 0.34799999
9.4750004 -4.6609998 0.34900001
9.4849997 -4.6199999 0.34999999
9.5109997 -4.5869999 0.34999999
9.5489998 -4.559 0.352
9.5600004 -4.52 0.352
9.5939999 -4.4899998 0.35299999
9.6059999 -4.4520001 0.35299999
9.6359997 -4.421 0.354
9.6660004 -4.3899999 0.35499999
9.6960001 -4.3600001 0.35600001
9.7379999 -4.335 0.35699999
9.7480001 -4.2950001 0.35800001
9.783 -4.2670002 0.359
9.8190002 -4.2399998 0.36000001
9.8380003 -4.204 0.361
9.8549995 -4.1690001 0.361
9.8900003 -4.1409998 0.36199999
9.9189997 -4.1110001 0.36300001
9.934 -4.0739999 0.36399999
9.9840002 -4.053 0.36500001
9.9960003 -4.0149999 0.366
10.044 -3.993 0.36700001
10.061 -3.9579999 0.368
10.078 -3.9230001 0.368
10.117 -3.8970001 0.36899999
10.138 -3.8640001 0.37
10.174 -3.8369999 0.37099999
10.239 -3.8210001 0.37400001
10.268 -3.7909999 0.37400001
10.285 -3.757 0.375
10.285 -3.7160001 0.375
10.328 -3.6919999 0.37599999
10.373 -3.668 0.37799999
10.385 -3.632 0.37799999
10.419 -3.6040001 0.37900001
10.462 -3.5799999 0.38100001
10.497 -3.552 0.382
10.538 -3.527 0.38299999
10.589 -3.5050001 0.38499999
10.653 -3.487 0.38699999
10.658 -3.4489999 0.38699999
10.741 -3.437 0.38999999
10.804 -3.418 0.39199999
10.842 -3.392 0.39399999
10.851 -3.3559999 0.39399999
10.876 -3.325 0.39500001
10.955 -3.3110001 0.398
11.017 -3.2909999 0.40000001
11.034 -3.2579999 0.40000001
11.102 -3.24 0.403
11.138 -3.2119999 0.40400001
11.18 -3.1860001 0.405
11.228 -3.1619999 0.40700001
11.269 -3.1359999 0.40799999
11.328 -3.1140001 0.41
11.362 -3.086 0.41100001
11.39 -3.056 0.412
11.421 -3.027 0.41299999
11.462 -3.0009999 0.41499999
11.494 -2.9719999 0.41600001
11.545 -2.9489999 0.41800001
11.572 -2.918 0.419
11.618 -2.8929999 0.41999999
11.685 -2.8729999 0.42300001
11.715 -2.8440001 0.42399999
11.743 -2.8150001 0.42500001
11.807 -2.793 0.42699999
11.83 -2.7620001 0.428
11.91 -2.7449999 0.43000001
11.951 -2.7179999 0.43200001
11.97 -2.687 0.43200001
12.01 -2.6600001 0.43399999
12.035 -2.6289999 0.435
12.078 -2.6029999 0.43599999
12.138 -2.5810001 0.43799999
12.163 -2.5510001 0.43900001
12.188 -2.52 0.44
12.241 -2.4960001 0.442
12.275 -2.4679999 0.44299999
12.314 -2.441 0.44400001
12.414 -2.4260001 0.44800001
12.448 -2.3970001 0.449
12.474 -2.368 0.44999999
12.512 -2.3399999 0.45100001
12.616 -2.325 0.45500001
12.573 -2.283 0.45300001
12.634 -2.26 0.456
12.684 -2.234 0.45699999
12.717 -2.2060001 0.45899999
12.766 -2.181 0.46000001
12.77 -2.1470001 0.46000001
12.811 -2.1210001 0.46200001
13.665 -1.848 0.49200001
13.766 -1.8279999 0.49599999
13.899 -1.649 0.50099999
13.813 -1.607 0.498
13.983 -1.437 0.50400001
13.99 -1.4069999 0.50400001
14.364 0.197 0.40700001
14.427 0.223 0.40900001
14.476 0.25 0.41
14.557 0.278 0.412
14.532 0.30399999 0.41100001
14.534 0.33199999 0.41100001
14.618 0.361 0.41299999
14.601 0.389 0.41299999
14.593 0.417 0.412
14.621 0.44600001 0.41299999
14.65 0.47600001 0.41299999
14.652 0.505 0.41299999
14.672 0.53500003 0.414
14.656 0.565 0.41299999
14.683 0.59600002 0.414
14.672 0.62599999 0.41299999
14.688 0.65700001 0.41299999
14.744 0.69099998 0.41499999
14.764 0.72299999 0.41499999
14.788 0.75599998 0.41600001
14.776 0.78799999 0.41499999
14.846 0.824 0.417
14.882 0.85900003 0.41800001
14.878 0.89200002 0.41800001
14.917 0.92799997 0.419
14.964 0.96399999 0.41999999
15.119 1.0089999 0.42399999
13.598 1.066 0.38100001
13.541 1.094 0.37900001
8.9580002 0.745 0.25099999
8.7110004 0.74599999 0.244
8.6400003 0.76099998 0.242
8.592 0.778 0.23999999
8.5670004 0.79699999 0.23899999
8.559 0.81699997 0.23899999
8.5649996 0.83899999 0.23899999
8.5819998 0.86299998 0.23999999
8.6190004 0.88800001 0.241
8.6669998 0.91500002 0.242
8.7340002 0.94499999 0.244
8.7849998 0.97299999 0.245
8.8269997 1.001 0.24600001
8.908 1.033 0.249
15.771 1.829 0.44
15.572 1.847 0.435
15.589 1.891 0.435
15.687 1.944 0.43799999
15.719 1.99 0.43900001
15.728 2.0339999 0.43900001
15.723 2.076 0.43900001
15.76 2.1240001 0.44
15.821 2.175 0.44100001
15.848 2.223 0.442
15.89 2.2720001 0.44299999
15.975 2.329 0.44600001
16.021999 2.381 0.447
16.042 2.4289999 0.44800001
16.069 2.4779999 0.44800001
16.107 2.53 0.449
16.152 2.5829999 0.45100001
16.136999 2.6259999 0.44999999
16.223 2.687 0.45300001
16.313999 2.7490001 0.45500001
16.410999 2.813 0.458
16.416 2.862 0.458
16.516001 2.928 0.461
16.518999 2.977 0.461
16.572001 3.036 0.463
16.639999 3.0969999 0.46399999
16.709999 3.1600001 0.46599999
16.833 3.234 0.47
16.865999 3.2909999 0.47099999
16.888 3.346 0.472
16.907 3.401 0.472
16.955999 3.4619999 0.47400001
17.006001 3.5250001 0.47499999
17.080999 3.592 0.477
17.084 3.6459999 0.477
17.129 3.7079999 0.479
17.233 3.7839999 0.48199999
17.236 3.8380001 0.48199999
17.268999 3.8989999 0.48300001
17.370001 3.977 0.486
17.455 4.0510001 0.48800001
17.527 4.1230001 0.49000001
17.656 4.2090001 0.49399999
7.526 1.818 0.20999999
7.3979998 1.811 0.207
7.3039999 1.811 0.204
7.2420001 1.819 0.20299999
7.2030001 1.832 0.20200001
7.177 1.849 0.20100001
7.1469998 1.864 0.2
7.1399999 1.885 0.2
7.1339998 1.9069999 0.2
7.1350002 1.931 0.2
7.1459999 1.957 0.2
7.1690001 1.987 0.20100001
7.2750001 2.04 0.204
18.351 5.2080002 0.51599997
18.431 5.2919998 0.51800001
18.452999 5.421 0.51899999
18.639 5.5380001 0.52399999
18.827 5.7210002 0.52999997
18.766001 5.7649999 0.52899998
18.855 5.8559999 0.53100002
18.818001 5.9720001 0.53100002
18.799 6.0300002 0.52999997
15.741 5.4819999 0.44600001
15.49 5.4489999 0.43900001
15.315 5.441 0.43399999
15.211 5.4559999 0.43099999
15.199 5.506 0.43099999
14.709 5.8470001 0.419
14.774 5.9260001 0.42199999
13.17 5.5180001 0.377
13.001 5.494 0.37200001
12.983 5.533 0.37200001
13.122 5.6389999 0.37599999
12.624 5.6989999 0.36300001
12.377 5.6329999 0.35600001
12.373 5.6760001 0.35699999
12.458 5.7600002 0.359
12.41 5.783 0.35800001
12.317 5.7839999 0.35600001
12.28 5.8119998 0.35499999
12.265 5.849 0.35499999
12.281 5.902 0.35499999
12.347 5.9790001 0.35800001
12.112 6.7930002 0.35699999
11.942 6.7399998 0.352
11.882 6.75 0.34999999
11.963 6.8390002 0.35299999
9.2559996 -5.4770002 0.36399999
9.2690001 -5.4580002 0.36500001
9.2790003 -5.4380002 0.36500001
9.2819996 -5.4130001 0.36500001
9.2910004 -5.3909998 0.366
9.3030005 -5.3709998 0.366
9.3299999 -5.3600001 0.36700001
9.3669996 -5.355 0.36899999
9.3640003 -5.3260002 0.368
9.3599997 -5.2969999 0.368
9.3999996 -5.2919998 0.37
9.4020004 -5.2659998 0.37
9.4169998 -5.2480001 0.37099999
9.4350004 -5.23 0.37099999
9.434 -5.2020001 0.37099999
9.4569998 -5.1880002 0.37200001
9.4720001 -5.1690001 0.373
9.5019999 -5.158 0.37400001
9.493 -5.125 0.373
9.4989996 -5.1009998 0.37400001
9.5150003 -5.0819998 0.37400001
9.526 -5.0599999 0.375
9.5679998 -5.0549998 0.37599999
9.5819998 -5.0339999 0.377
9.6040001 -5.0180001 0.37799999
9.6049995 -4.9910002 0.37799999
9.6120005 -4.967 0.37799999
9.6090002 -4.9369998 0.37799999
9.625 -4.9169998 0.37900001
9.6470003 -4.901 0.37900001
9.6549997 -4.8759999 0.38
9.6759996 -4.8590002 0.38100001
9.6870003 -4.836 0.38100001
9.7119999 -4.8200002 0.382
9.7250004 -4.7989998 0.382
9.7360001 -4.776 0.38299999
9.7309999 -4.7449999 0.38299999
9.7690001 -4.7350001 0.384
9.783 -4.7129998 0.38499999
9.7860003 -4.6859999 0.38499999
9.8109999 -4.6690001 0.38600001
9.8260002 -4.6479998 0.38600001
9.842 -4.6269999 0.38699999
9.8640003 -4.6079998 0.38800001
9.8719997 -4.5830002 0.38800001
9.8850002 -4.5609999 0.389
9.901 -4.539 0.389
9.9300003 -4.5229998 0.38999999
9.9449997 -4.5009999 0.391
9.9639997 -4.4809999 0.39199999
9.9919996 -4.4640002 0.39300001
10.016 -4.4460001 0.39399999
10.054 -4.4330001 0.39500001
10.051 -4.4029999 0.39500001
10.043 -4.3699999 0.39500001
10.06 -4.348 0.39500001
10.064 -4.3200002 0.39500001
10.106 -4.309 0.39700001
10.143 -4.2950001 0.398
10.148 -4.2670002 0.39899999
10.159 -4.2420001 0.39899999
10.173 -4.2179999 0.40000001
10.21 -4.204 0.40099999
10.222 -4.1789999 0.40099999
10.234 -4.1539998 0.40200001
10.256 -4.1329999 0.403
10.277 -4.112 0.403
10.312 -4.0960002 0.405
10.335 -4.0739999 0.40599999
10.319 -4.0380001 0.405
10.375 -4.0300002 0.40700001
10.368 -3.997 0.40700001
10.378 -3.97 0.40700001
10.453 -3.9679999 0.41
10.46 -3.941 0.41
10.48 -3.918 0.41100001
10.493 -3.892 0.412
10.527 -3.8740001 0.41299999
10.564 -3.8570001 0.414
10.58 -3.832 0.41499999
10.613 -3.813 0.41600001
10.639 -3.7909999 0.417
10.66 -3.7679999 0.41800001
10.679 -3.743 0.419
10.718 -3.7260001 0.41999999
10.749 -3.7049999 0.421
10.773 -3.6819999 0.42199999
10.79 -3.6559999 0.42300001
10.849 -3.645 0.42500001
10.886 -3.625 0.42699999
10.912 -3.6029999 0.428
10.961 -3.5869999 0.42899999
10.952 -3.552 0.42899999
10.992 -3.533 0.43099999
11.094 -3.5339999 0.435
11.16 -3.5220001 0.43700001
11.144 -3.4849999 0.43599999
11.129 -3.448 0.43599999
11.125 -3.414 0.43599999
11.169 -3.395 0.43700001
11.203 -3.3729999 0.43900001
11.223 -3.3469999 0.43900001
11.269 -3.3280001 0.44100001
11.287 -3.3 0.442
11.298 -3.2709999 0.442
11.365 -3.257 0.44499999
11.405 -3.2349999 0.44600001
11.415 -3.2049999 0.447
11.428 -3.1760001 0.447
11.463 -3.152 0.44800001
11.494 -3.128 0.44999999
11.535 -3.105 0.45100001
11.557 -3.0780001 0.45199999
11.565 -3.0469999 0.45199999
11.589 -3.0190001 0.45300001
11.675 -3.0079999 0.456
11.652 -2.9679999 0.45500001
11.711 -2.9489999 0.458
11.752 -2.9260001 0.45899999
11.804 -2.905 0.461
11.866 -2.8859999 0.46399999
11.877 -2.8540001 0.46399999
11.916 -2.829 0.465
11.939 -2.8 0.46599999
11.977 -2.7739999 0.46799999
12.028 -2.7509999 0.47
12.038 -2.7190001 0.47
12.126 -2.704 0.47299999
12.115 -2.6670001 0.47299999
12.151 -2.6389999 0.47400001
12.173 -2.609 0.47499999
12.231 -2.586 0.477
12.314 -2.5680001 0.47999999
12.311 -2.5320001 0.47999999
12.371 -2.5090001 0.48300001
12.372 -2.474 0.48300001
12.42 -2.447 0.484
12.477 -2.4230001 0.48699999
12.57 -2.405 0.49000001
12.582 -2.3710001 0.491
12.654 -2.348 0.493
12.754 -2.3299999 0.49700001
13.755 -1.96 0.53500003
13.716 -1.915 0.53399998
13.834 -1.892 0.53799999
13.8 -1.847 0.537
13.945 -1.7869999 0.542
13.925 -1.745 0.54100001
13.919 -1.704 0.54100001
14.022 -1.676 0.54500002
14.067 -1.641 0.54699999
14.046 -1.518 0.546
14.079 -1.482 0.54699999
14.122 -1.446 0.54799998
15.523 0.72799999 0.46599999
15.593 0.75700003 0.46799999
8.7629995 0.73400003 0.26100001
8.6540003 0.74299997 0.25799999
8.5889997 0.755 0.25600001
8.5769997 0.77200001 0.25600001
8.5699997 0.78899997 0.25600001
8.5600004 0.80699998 0.255
8.5699997 0.82599998 0.25600001
8.559 0.84399998 0.255
8.5950003 0.866 0.25600001
8.6309996 0.889 0.257
8.691 0.91500002 0.259
8.7639999 0.94199997 0.26100001
8.8360004 0.97000003 0.26300001
8.9230003 1 0.266
16.445 1.844 0.491
16.302 1.865 0.486
16.275999 1.9 0.486
16.304001 1.942 0.486
16.32 1.983 0.48699999
16.385 2.03 0.48899999
16.417999 2.073 0.49000001
16.440001 2.1159999 0.49000001
16.516001 2.1659999 0.493
16.517 2.207 0.493
16.594999 2.2590001 0.495
16.618999 2.3039999 0.49599999
16.608 2.3440001 0.49599999
16.697001 2.3989999 0.498
16.722 2.4449999 0.49900001
16.775 2.4960001 0.50099999
16.825001 2.5469999 0.50199997
16.886999 2.5999999 0.50400001
16.868999 2.642 0.50400001
17.004999 2.7079999 0.50800002
16.979 2.7490001 0.50700003
17.014 2.8 0.509
17.017 2.8469999 0.509
17.084999 2.904 0.51099998
17.107 2.9549999 0.51200002
17.17 3.013 0.514
17.174 3.0610001 0.514
17.218 3.1170001 0.51499999
17.208 3.1630001 0.51499999
17.278 3.2249999 0.51700002
17.42 3.3 0.52200001
17.434 3.3529999 0.52200001
17.531 3.4219999 0.52600002
17.479 3.4619999 0.52399999
17.584 3.5339999 0.52700001
17.729 3.6140001 0.53200001
17.688 3.658 0.53100002
17.754999 3.724 0.53299999
17.742001 3.7739999 0.53299999
17.771 3.8329999 0.53399998
17.833 3.9000001 0.53600001
17.910999 3.971 0.53899997
18.044001 4.0549998 0.54299998
18.224001 4.151 0.54900002
18.195999 4.1999998 0.54799998
18.478001 4.322 0.55699998
18.360001 4.3509998 0.55299997
7.4320002 1.808 0.22400001
7.336 1.807 0.221
7.2579999 1.811 0.219
7.2030001 1.8200001 0.21699999
7.1900001 1.839 0.21699999
7.1609998 1.855 0.21600001
7.151 1.876 0.21600001
7.1370001 1.895 0.21600001
7.125 1.915 0.21600001
7.1339998 1.941 0.21600001
7.145 1.967 0.21600001
7.177 2 0.21699999
7.277 2.052 0.221
18.969999 5.4120002 0.57599998
19.089001 5.5100002 0.57999998
19.169001 5.7270002 0.58399999
19.176001 5.7940001 0.58399999
15.533 5.4029999 0.47799999
15.336 5.3899999 0.472
15.202 5.3990002 0.46799999
15.096 5.4159999 0.465
15.065 5.46 0.465
14.649 5.803 0.45500001
14.649 5.8590002 0.456
12.43 5.6059999 0.39199999
12.34 5.6149998 0.389
12.419 5.7020001 0.39199999
12.422 5.7529998 0.39300001
12.321 5.757 0.38999999
12.291 5.7930002 0.389
12.274 5.836 0.389
12.295 5.8959999 0.38999999
12.003 6.7849998 0.38999999
11.868 6.763 0.38600001
11.854 6.8070002 0.38600001
12.156 7.0349998 0.39700001
8.8570004 -5.8239999 0.37400001
8.8929996 -5.7919998 0.37599999
8.9379997 -5.7659998 0.377
8.9729996 -5.7329998 0.37900001
8.9829998 -5.6849999 0.37900001
9.0310001 -5.6609998 0.38
9.0550003 -5.6220002 0.38100001
9.085 -5.586 0.382
9.1160002 -5.552 0.38299999
9.1389999 -5.513 0.384
9.1730003 -5.48 0.38499999
9.2060003 -5.447 0.38600001
9.2320004 -5.4099998 0.38699999
9.2670002 -5.3790002 0.38800001
9.2810001 -5.335 0.389
9.3240004 -5.3080001 0.38999999
9.3430004 -5.2680001 0.391
9.368 -5.2309999 0.391
9.3950005 -5.1960001 0.39199999
9.408 -5.152 0.39300001
9.4560003 -5.1290002 0.39399999
9.4759998 -5.0900002 0.39500001
9.5150003 -5.0619998 0.396
9.5299997 -5.02 0.39700001
9.5559998 -4.9850001 0.398
9.5780001 -4.948 0.398
9.6020002 -4.9120002 0.39899999
9.6350002 -4.881 0.40000001
9.6529999 -4.842 0.40099999
9.6899996 -4.8130002 0.40200001
9.6960001 -4.7680001 0.40200001
9.7299995 -4.7379999 0.403
9.7600002 -4.7059999 0.40400001
9.7969999 -4.677 0.40599999
9.8240004 -4.6430001 0.40700001
9.8310003 -4.5999999 0.40700001
9.8620005 -4.5689998 0.40799999
9.8940001 -4.5380001 0.40900001
9.9289999 -4.5089998 0.41
9.9499998 -4.473 0.41100001
10.012 -4.4559999 0.41299999
10.012 -4.4109998 0.41299999
10.071 -4.3920002 0.41499999
10.091 -4.3559999 0.41600001
10.107 -4.3189998 0.41600001
10.134 -4.2859998 0.417
10.16 -4.2529998 0.41800001
10.184 -4.2199998 0.419
10.219 -4.1900001 0.41999999
10.264 -4.1659999 0.42199999
10.288 -4.132 0.42300001
10.337 -4.1090002 0.42500001
10.359 -4.0749998 0.42500001
10.376 -4.039 0.426
10.43 -4.0170002 0.428
10.498 -4.0009999 0.43099999
10.517 -3.9660001 0.43099999
10.541 -3.9330001 0.43200001
10.6 -3.9130001 0.43399999
10.657 -3.892 0.43700001
10.684 -3.8599999 0.43799999
10.751 -3.842 0.44
10.784 -3.812 0.44100001
10.835 -3.789 0.44299999
10.882 -3.7639999 0.44499999
10.904 -3.7309999 0.44600001
10.946 -3.704 0.447
10.995 -3.6789999 0.449
11.039 -3.6530001 0.45100001
11.082 -3.6270001 0.45300001
11.114 -3.5969999 0.454
11.192 -3.5810001 0.45699999
11.32 -3.5810001 0.46200001
11.337 -3.546 0.46200001
11.342 -3.507 0.463
11.352 -3.47 0.463
11.388 -3.441 0.46399999
11.431 -3.415 0.46599999
11.477 -3.388 0.46799999
11.506 -3.358 0.46900001
11.523 -3.323 0.46900001
11.569 -3.2969999 0.47099999
11.615 -3.2709999 0.47299999
11.644 -3.24 0.47400001
11.68 -3.211 0.47499999
11.704 -3.1789999 0.47600001
11.751 -3.1530001 0.47799999
11.796 -3.1270001 0.47999999
11.831 -3.098 0.48100001
11.894 -3.076 0.48300001
11.948 -3.0510001 0.486
11.986 -3.023 0.48699999
12.037 -2.9979999 0.48899999
12.045 -2.9619999 0.48899999
12.118 -2.9419999 0.49200001
12.167 -2.9159999 0.49399999
12.246 -2.8970001 0.49700001
12.289 -2.8699999 0.49900001
12.306 -2.836 0.49900001
12.305 -2.799 0.49900001
12.393 -2.7820001 0.50300002
12.5 -2.7679999 0.50700003
12.525 -2.737 0.50800002
12.583 -2.7119999 0.50999999
12.72 -2.704 0.51599997
13.865 -2.1159999 0.56099999
13.981 -2.099 0.565
13.848 -2.0439999 0.56
14.017 -1.999 0.56699997
13.943 -1.954 0.56400001
13.988 -1.926 0.56599998
14.016 -1.896 0.56699997
14.025 -1.863 0.56699997
14.047 -1.832 0.56800002
14.128 -1.809 0.57099998
14.198 -1.785 0.574
14.184 -1.749 0.57300001
14.22 -1.72 0.57499999
14.203 -1.6849999 0.574
14.159 -1.647 0.57200003
14.248 -1.625 0.57599998
14.271 -1.595 0.57700002
14.289 -1.5650001 0.57700002
14.309 -1.535 0.57800001
15.14 0.20999999 0.50199997
15.158 0.237 0.50199997
15.311 0.26699999 0.50700003
15.283 0.294 0.50599998
15.295 0.32300001 0.50599998
15.255 0.34999999 0.505
15.308 0.38 0.50599998
13.258 0.35499999 0.43799999
13.212 0.37900001 0.43599999
13.204 0.43000001 0.43599999
13.231 0.458 0.43700001
15.442 0.565 0.509
15.438 0.597 0.509
15.415 0.62699997 0.50800002
15.434 0.69199997 0.50800002
15.477 0.727 0.50999999
15.526 0.76200002 0.51099998
15.521 0.79500002 0.51099998
15.628 0.83499998 0.514
8.7399998 0.76999998 0.28600001
8.6309996 0.78200001 0.28299999
8.5799999 0.79799998 0.28099999
8.5539999 0.81699997 0.28
8.5550003 0.83899999 0.28
8.5509996 0.86000001 0.28
8.566 0.88300002 0.28099999
8.5909996 0.90799999 0.28099999
8.625 0.93400002 0.28200001
8.6940002 0.963 0.285
8.7749996 0.995 0.287
8.8640003 1.029 0.28999999
16.662001 1.934 0.546
9.2159996 1.094 0.30199999
16.427999 1.95 0.53799999
16.423 1.993 0.53799999
16.475 2.043 0.54000002
16.5 2.0899999 0.54100001
16.563999 2.1429999 0.54299998
16.638 2.198 0.54500002
16.671 2.247 0.546
16.733 2.3010001 0.54799998
16.791 2.3559999 0.55000001
16.823999 2.4070001 0.551
16.917999 2.467 0.55500001
16.952 2.5190001 0.55599999
17 2.5739999 0.55699998
17.018999 2.625 0.55800003
17.07 2.681 0.56
17.164 2.7449999 0.56300002
17.169001 2.7950001 0.56300002
17.25 2.858 0.56599998
17.250999 2.908 0.56599998
17.349001 2.9749999 0.56900001
17.391001 3.033 0.57099998
17.445999 3.0929999 0.57300001
17.474001 3.1489999 0.574
17.499001 3.2060001 0.574
17.658001 3.2869999 0.57999998
17.802999 3.3670001 0.58499998
18.094999 3.5309999 0.59500003
18.055 3.5780001 0.59299999
18.097 3.641 0.59500003
18.084999 3.6930001 0.59500003
18.171 3.766 0.59799999
18.181999 3.8239999 0.59799999
18.291 3.9030001 0.602
18.490999 4.0029998 0.60900003
18.568001 4.0770001 0.611
18.615 4.145 0.61299998
18.636999 4.2090001 0.61400002
18.68 4.277 0.616
18.697001 4.3390002 0.616
18.754999 4.4120002 0.61799997
7.474 1.7819999 0.24600001
7.382 1.783 0.243
7.2690001 1.779 0.23999999
7.2340002 1.793 0.23899999
7.1999998 1.808 0.237
7.1789999 1.826 0.237
7.1500001 1.842 0.236
7.1420002 1.863 0.236
7.1329999 1.8839999 0.236
7.1329999 1.9069999 0.236
7.1529999 1.936 0.236
7.1799998 1.966 0.237
7.2639999 2.013 0.23999999
19.799 5.75 0.65700001
19.684999 5.783 0.65399998
19.639 5.835 0.65200001
15.737 5.3720002 0.52600002
15.442 5.3239999 0.51700002
15.284 5.323 0.51200002
15.189 5.3429999 0.509
15.068 5.3520002 0.505
15.017 5.3870001 0.50400001
15.084 5.4640002 0.50599998
12.655 5.7589998 0.43200001
12.485 5.7270002 0.42699999
12.487 5.7729998 0.42699999
12.411 5.783 0.42500001
12.317 5.7839999 0.42199999
12.303 5.822 0.42199999
12.285 5.8590002 0.42199999
12.29 5.9050002 0.42199999
12.292 5.9510002 0.42300001
12.343 6.0209999 0.42500001
12.202 6.8870001 0.428
11.943 6.7839999 0.419
11.932 6.8210001 0.419
9.5209999 -5.638 0.419
9.5489998 -5.6279998 0.41999999
9.5579996 -5.605 0.421
9.5419998 -5.5689998 0.41999999
9.5749998 -5.5599999 0.421
9.5690002 -5.5289998 0.421
9.6040001 -5.5219998 0.42199999
9.6339998 -5.5120001 0.42399999
9.6639996 -5.5009999 0.42500001
9.6599998 -5.4710002 0.42500001
9.6669998 -5.447 0.42500001
9.677 -5.4239998 0.426
9.698 -5.408 0.42699999
9.7069998 -5.3850002 0.42699999
9.717 -5.3629999 0.42699999
9.7309999 -5.342 0.428
9.7480001 -5.323 0.42899999
9.7390003 -5.29 0.428
9.7700005 -5.2789998 0.43000001
9.7849998 -5.2579999 0.43000001
9.7959995 -5.2360001 0.43099999
9.802 -5.211 0.43099999
9.8299999 -5.197 0.43200001
9.8520002 -5.1799998 0.433
9.8879995 -5.1700001 0.435
9.8859997 -5.1409998 0.435
9.8640003 -5.0999999 0.43399999
9.8760004 -5.0780001 0.43399999
9.9169998 -5.0700002 0.43599999
9.9460001 -5.0560002 0.43700001
9.9799995 -5.0440001 0.43900001
9.9700003 -5.0100002 0.43799999
9.9949999 -4.993 0.43900001
9.9940004 -4.9640002 0.43900001
10.023 -4.9489999 0.44
10.051 -4.9330001 0.442
10.055 -4.9060001 0.442
10.067 -4.8829999 0.442
10.1 -4.869 0.44400001
10.1 -4.8400002 0.44400001
10.13 -4.8249998 0.44499999
10.143 -4.8010001 0.44499999
10.154 -4.777 0.44600001
10.178 -4.7579999 0.447
10.196 -4.737 0.44800001
10.22 -4.7179999 0.449
10.25 -4.7020001 0.44999999
10.271 -4.6810002 0.45100001
10.293 -4.6609998 0.45199999
10.326 -4.6459999 0.45300001
10.328 -4.6170001 0.45300001
10.367 -4.6040001 0.45500001
10.367 -4.5739999 0.45500001
10.379 -4.5489998 0.45500001
10.4 -4.5279999 0.456
10.439 -4.5139999 0.458
10.443 -4.4850001 0.458
10.483 -4.4720001 0.46000001
10.481 -4.4400001 0.46000001
10.523 -4.427 0.461
10.552 -4.4089999 0.463
10.55 -4.3769999 0.463
10.571 -4.355 0.463
10.604 -4.3379998 0.465
10.616 -4.3109999 0.465
10.674 -4.3039999 0.46799999
10.703 -4.2839999 0.46900001
10.722 -4.2610002 0.47
10.774 -4.25 0.472
10.916 -4.2740002 0.47799999
10.913 -4.2410002 0.47799999
10.929 -4.2150002 0.479
10.931 -4.184 0.479
10.894 -4.138 0.477
10.895 -4.1069999 0.477
10.917 -4.0830002 0.47799999
10.95 -4.0630002 0.479
10.95 -4.0310001 0.479
11.003 -4.0190001 0.48199999
11.021 -3.993 0.48199999
11.039 -3.9679999 0.48300001
11.087 -3.9519999 0.48500001
11.1 -3.925 0.486
11.121 -3.9000001 0.48699999
11.16 -3.881 0.48800001
11.18 -3.855 0.48899999
11.202 -3.8299999 0.49000001
11.268 -3.8199999 0.493
11.278 -3.7909999 0.493
11.291 -3.7620001 0.49399999
11.324 -3.74 0.495
11.351 -3.7160001 0.49599999
11.361 -3.6860001 0.49700001
11.405 -3.6670001 0.498
11.503 -3.665 0.50300002
11.692 -3.691 0.51099998
11.564 -3.618 0.505
11.574 -3.5869999 0.50599998
11.581 -3.556 0.50599998
11.591 -3.5250001 0.50599998
11.588 -3.49 0.50599998
11.624 -3.467 0.50800002
11.662 -3.4449999 0.509
11.682 -3.4170001 0.50999999
11.735 -3.398 0.51200002
11.771 -3.375 0.514
11.766 -3.339 0.51300001
11.789 -3.3110001 0.514
11.817 -3.2850001 0.51599997
11.869 -3.2650001 0.51800001
11.89 -3.2360001 0.51899999
11.896 -3.2030001 0.51899999
11.964 -3.187 0.52200001
11.977 -3.1559999 0.52200001
12.029 -3.135 0.52399999
12.083 -3.1140001 0.52700001
12.088 -3.0799999 0.52700001
12.182 -3.069 0.53100002
12.174 -3.0320001 0.52999997
12.224 -3.0090001 0.53299999
12.23 -2.9749999 0.53299999
12.283 -2.9519999 0.53500003
12.319 -2.925 0.53600001
12.379 -2.904 0.53899997
12.424 -2.878 0.54100001
12.468 -2.852 0.54299998
12.499 -2.823 0.54400003
12.58 -2.8050001 0.54699999
13.586 -2.5599999 0.58999997
13.578 -2.5190001 0.58999997
13.673 -2.4979999 0.59399998
13.628 -2.45 0.59200001
13.662 -2.4170001 0.59299999
13.704 -2.385 0.59500003
13.745 -2.3529999 0.597
13.723 -2.309 0.59600002
13.833 -2.2880001 0.60000002
13.988 -2.1129999 0.60699999
14.014 -2.0769999 0.60799998
14.084 -2.0469999 0.611
14.194 -1.9809999 0.61500001
14.173 -1.937 0.61400002
14.228 -1.904 0.616
14.251 -1.8660001 0.61699998
14.265 -1.786 0.61799997
14.314 -1.751 0.62
14.433 -1.725 0.625
14.427 -1.683 0.625
12.992 0.117 0.45899999
12.992 0.12899999 0.458
12.972 0.141 0.45699999
12.981 0.154 0.45699999
12.987 0.16599999 0.45699999
13.006 0.18000001 0.458
12.996 0.193 0.45699999
12.997 0.207 0.45699999
13.011 0.221 0.45699999
12.993 0.235 0.456
12.988 0.25 0.456
12.983 0.26499999 0.45500001
12.963 0.28 0.454
12.966 0.296 0.454
12.966 0.31200001 0.454
12.941 0.32699999 0.45300001
12.948 0.34400001 0.45300001
12.936 0.361 0.45199999
12.935 0.37799999 0.45199999
12.926 0.39500001 0.45100001
12.925 0.41299999 0.45100001
12.903 0.43099999 0.44999999
12.921 0.44999999 0.45100001
12.908 0.46799999 0.44999999
12.904 0.48699999 0.44999999
12.906 0.50599998 0.44999999
12.903 0.52600002 0.449
12.899 0.54500002 0.449
12.913 0.56599998 0.449
12.905 0.58600003 0.449
12.926 0.60799998 0.44999999
12.946 0.63 0.44999999
12.968 0.653 0.45100001
12.977 0.67500001 0.45100001
13.034 0.69999999 0.45300001
13.074 0.72500002 0.454
8.8070002 0.75700003 0.30500001
8.665 0.76200002 0.30000001
8.6059999 0.77499998 0.29800001
8.5740004 0.79100001 0.29699999
8.5570002 0.80699998 0.296
8.5500002 0.82499999 0.296
8.5480003 0.84399998 0.296
8.5550003 0.86299998 0.296
8.5649996 0.88300002 0.296
8.5810003 0.90399998 0.29699999
8.6140003 0.92699999 0.29800001
8.665 0.95200002 0.30000001
8.7609997 0.98299998 0.303
8.9049997 1.02 0.308
17.417999 1.995 0.60399997
17.101999 1.998 0.59299999
17.084999 2.036 0.59200001
17.105 2.079 0.59299999
17.139 2.1240001 0.59399998
17.167 2.1689999 0.59500003
17.247999 2.221 0.59799999
17.278 2.267 0.59899998
17.377001 2.323 0.60299999
17.427999 2.3729999 0.60500002
17.475 2.4230001 0.60600001
17.516001 2.473 0.60799998
17.540001 2.5209999 0.60900003
17.611 2.576 0.611
17.555 2.6129999 0.61000001
17.631001 2.6700001 0.61199999
17.608999 2.7130001 0.61199999
17.694 2.7720001 0.61500001
17.754999 2.8280001 0.61699998
17.839001 2.8889999 0.62
17.858 2.9400001 0.62099999
17.902 2.9960001 0.62300003
17.976999 3.0569999 0.625
18.080999 3.1240001 0.62900001
18.164 3.188 0.63200003
18.197001 3.244 0.634
18.271999 3.3080001 0.63700002
18.475 3.3970001 0.64399999
18.482 3.45 0.64399999
18.518 3.5090001 0.64600003
18.555 3.569 0.64700001
18.66 3.6429999 0.65100002
18.638 3.6919999 0.65100002
18.645 3.747 0.65100002
18.684 3.809 0.653
18.648001 3.8570001 0.65200001
18.672001 3.9170001 0.653
18.830999 4.006 0.65899998
18.774 4.0500002 0.65700001
18.777 4.1069999 0.65799999
18.809999 4.1700001 0.65899998
18.871 4.2410002 0.662
18.955 4.3179998 0.66500002
18.957001 4.3759999 0.66500002
19.01 4.447 0.667
19.072001 4.52 0.67000002
7.6700001 1.841 0.26899999
7.4159999 1.804 0.26100001
7.3140001 1.802 0.257
7.2399998 1.806 0.255
7.2049999 1.8200001 0.25299999
7.1830001 1.8380001 0.25299999
7.1599998 1.855 0.252
7.1539998 1.876 0.252
7.1339998 1.8940001 0.252
7.1300001 1.916 0.252
7.1279998 1.939 0.252
7.1440001 1.967 0.252
7.165 1.9960001 0.25299999
7.257 2.046 0.257
15.595 5.368 0.56
15.374 5.3470001 0.55299997
15.226 5.3509998 0.54799998
15.123 5.3699999 0.54400003
15.035 5.3940001 0.542
15.063 5.4590001 0.54299998
12.548 5.7600002 0.46399999
12.426 5.7550001 0.46000001
12.374 5.7810001 0.45899999
12.373 5.8319998 0.45899999
12.375 5.8829999 0.46000001
12.355 5.9250002 0.46000001
12.38 5.9879999 0.461
12.214 6.9050002 0.46599999
12.126 6.9089999 0.463
9.1079998 -5.987 0.428
9.1529999 -5.9590001 0.43000001
9.1960001 -5.9299998 0.43099999
9.2139997 -5.8850002 0.43200001
9.2600002 -5.8579998 0.43399999
9.2849998 -5.8179998 0.435
9.3330002 -5.7930002 0.43599999
9.3579998 -5.7519999 0.43700001
9.3870001 -5.7160001 0.43799999
9.4189997 -5.6799998 0.44
9.4540005 -5.6459999 0.44100001
9.4799995 -5.6079998 0.442
9.5 -5.566 0.442
9.5240002 -5.526 0.44299999
9.5570002 -5.493 0.44400001
9.6000004 -5.4640002 0.44600001
9.6309996 -5.4289999 0.447
9.6479998 -5.3870001 0.44800001
9.6780005 -5.3509998 0.449
9.691 -5.3070002 0.449
9.7060003 -5.263 0.44999999
9.7589998 -5.2410002 0.45199999
9.783 -5.2030001 0.45300001
9.8050003 -5.164 0.45300001
9.8369999 -5.131 0.45500001
9.8780003 -5.1020002 0.456
9.9069996 -5.0669999 0.45699999
9.9320002 -5.0300002 0.458
9.9860001 -5.0079999 0.46000001
9.9770002 -4.954 0.46000001
10.017 -4.9250002 0.461
10.07 -4.902 0.46399999
10.086 -4.862 0.46399999
10.121 -4.8309999 0.465
10.139 -4.7919998 0.46599999
10.169 -4.7579999 0.46700001
10.214 -4.7309999 0.46900001
10.259 -4.7049999 0.47099999
10.271 -4.6630001 0.47099999
10.319 -4.638 0.47299999
10.344 -4.6020002 0.47400001
10.38 -4.572 0.47499999
10.43 -4.5479999 0.47799999
10.461 -4.5149999 0.479
10.481 -4.4780002 0.479
10.519 -4.448 0.48100001
10.543 -4.4130001 0.48199999
10.592 -4.388 0.484
10.631 -4.3590002 0.48500001
10.666 -4.3280001 0.48699999
10.716 -4.303 0.48899999
10.767 -4.2789998 0.491
10.819 -4.2550001 0.493
10.898 -4.2410002 0.49700001
10.988 -4.2319999 0.50099999
11.053 -4.2119999 0.50300002
11.062 -4.171 0.50400001
11.046 -4.1209998 0.50300002
11.069 -4.085 0.50300002
11.072 -4.0430002 0.50300002
11.123 -4.0180001 0.50599998
11.179 -3.9949999 0.50800002
11.204 -3.961 0.509
11.245 -3.9319999 0.51099998
11.284 -3.9030001 0.51200002
11.314 -3.8699999 0.51300001
11.362 -3.8440001 0.51499999
11.393 -3.812 0.51700002
11.418 -3.7780001 0.51800001
11.471 -3.753 0.51999998
11.502 -3.7219999 0.52100003
11.54 -3.6919999 0.523
11.742 -3.7149999 0.53200001
11.693 -3.6570001 0.52899998
11.723 -3.625 0.53100002
11.728 -3.585 0.53100002
11.733 -3.5450001 0.53100002
11.783 -3.5190001 0.53299999
11.808 -3.4860001 0.53399998
11.889 -3.4690001 0.537
11.929 -3.4400001 0.53899997
12.005 -3.421 0.542
12.005 -3.3800001 0.542
12.014 -3.3429999 0.542
12.079 -3.3210001 0.54500002
12.163 -3.303 0.54900002
12.193 -3.2720001 0.55000001
12.22 -3.2390001 0.551
12.268 -3.2119999 0.55299997
12.332 -3.1889999 0.55599999
12.38 -3.161 0.55800003
12.42 -3.132 0.56
12.524 -3.119 0.56400001
13.506 -3.0309999 0.60799998
13.436 -2.9749999 0.60399997
13.501 -2.95 0.60699999
13.64 -2.9000001 0.61299998
13.603 -2.8529999 0.611
13.617 -2.816 0.61199999
13.642 -2.7820001 0.61299998
13.682 -2.7509999 0.61500001
13.886 -2.714 0.62400001
13.734 -2.6459999 0.61699998
13.787 -2.6170001 0.61900002
13.839 -2.589 0.62099999
13.908 -2.526 0.62400001
13.871 -2.4809999 0.62300003
13.91 -2.451 0.62400001
13.976 -2.425 0.62699997
14.014 -2.3940001 0.62900001
14.229 -2.2449999 0.63800001
14.233 -2.2090001 0.63800001
14.203 -2.168 0.63700002
14.254 -2.1400001 0.639
14.3 -2.1110001 0.64099997
14.314 -2.0769999 0.64200002
14.417 -2.056 0.64600003
14.392 -2.017 0.64499998
14.362 -1.978 0.64399999
14.378 -1.9450001 0.64399999
14.414 -1.915 0.64600003
14.449 -1.885 0.64700001
14.501 -1.857 0.64999998
14.491 -1.822 0.64899999
14.581 -1.799 0.653
13.114 0.155 0.58999997
13.066 0.17200001 0.588
13.055 0.189 0.588
13.037 0.206 0.58700001
13.018 0.223 0.58600003
13.014 0.23899999 0.58600003
13.029 0.25600001 0.58700001
13.037 0.273 0.588
13.04 0.289 0.588
13.028 0.30500001 0.58700001
13.006 0.32100001 0.58700001
13.019 0.33700001 0.58700001
13.027 0.35299999 0.588
13.06 0.36899999 0.58899999
13.068 0.38499999 0.58999997
13.094 0.40099999 0.59100002
13.109 0.41600001 0.59200001
13.15 0.43200001 0.59399998
12.83 0.17900001 0.48699999
12.844 0.20299999 0.48699999
12.841 0.226 0.48699999
12.856 0.249 0.48699999
12.852 0.273 0.48699999
12.864 0.29699999 0.48699999
12.868 0.32100001 0.48699999
12.845 0.345 0.486
12.853 0.37 0.486
12.842 0.39500001 0.48500001
12.848 0.421 0.48500001
12.841 0.44600001 0.48500001
12.835 0.47099999 0.48500001
12.843 0.498 0.48500001
12.856 0.52499998 0.48500001
12.847 0.551 0.48500001
12.844 0.57800001 0.484
12.862 0.60600001 0.48500001
12.905 0.63499999 0.486
12.91 0.66299999 0.48699999
12.932 0.69199997 0.48699999
12.98 0.72299999 0.48899999
13.014 0.75400001 0.49000001
13.046 0.78500003 0.491
13.017 0.81199998 0.49000001
13.09 0.84600002 0.493
13.168 0.88099998 0.49599999
13.145 0.91000003 0.495
13.159 0.94099998 0.495
13.111 0.96799999 0.493
13.135 1.001 0.49399999
13.115 1.031 0.493
13.113 1.062 0.493
13.107 1.0930001 0.493
13.11 1.125 0.493
13.162 1.161 0.495
8.7220001 0.79100001 0.32800001
13.254 1.202 0.498
8.6169996 0.80299997 0.324
8.5760002 0.81999999 0.322
8.5600004 0.83999997 0.322
8.5389996 0.85900003 0.32100001
8.5430002 0.88099998 0.32100001
8.5469999 0.90399998 0.32100001
8.559 0.92699999 0.322
8.5839996 0.95200002 0.322
8.6269999 0.97899997 0.324
8.6990004 1.01 0.32699999
8.8599997 1.052 0.333
17.518 2.0799999 0.65899998
17.368999 2.109 0.653
17.405001 2.1589999 0.65499997
17.412001 2.207 0.65499997
17.507 2.266 0.65799999
17.572001 2.322 0.66100001
17.562 2.368 0.66100001
17.6 2.4219999 0.662
17.6 2.47 0.662
17.655001 2.526 0.66399997
17.75 2.589 0.66799998
17.879 2.658 0.67299998
17.865999 2.7060001 0.67299998
18.007999 2.7780001 0.67799997
18.041 2.835 0.67900002
18.075001 2.891 0.68099999
18.114 2.95 0.68199998
18.160999 3.0090001 0.68400002
18.215 3.0710001 0.68599999
18.278 3.135 0.68900001
18.459999 3.22 0.69599998
18.594 3.2969999 0.70099998
18.584 3.3499999 0.70099998
18.645 3.4159999 0.70300001
18.691 3.48 0.70499998
18.778999 3.552 0.70899999
18.806 3.6140001 0.70999998
18.787001 3.6659999 0.70999998
18.923 3.75 0.71499997
18.93 3.809 0.71499997
19.004999 3.881 0.71799999
19.066999 3.9519999 0.72100002
19.162001 4.0310001 0.72500002
19.125999 4.0819998 0.72399998
19.233 4.164 0.72799999
19.250999 4.2280002 0.72899997
19.320999 4.303 0.73199999
19.533001 4.4109998 0.74000001
19.487 4.4619999 0.73900002
19.573 4.5430002 0.74199998
7.592 1.8099999 0.28799999
7.368 1.78 0.27900001
7.2810001 1.7819999 0.27599999
7.2189999 1.79 0.27399999
7.198 1.808 0.273
7.1750002 1.825 0.273
7.1620002 1.845 0.27200001
7.1459999 1.864 0.27200001
7.1440001 1.887 0.27200001
7.1209998 1.904 0.271
7.1409998 1.932 0.27200001
7.1609998 1.961 0.273
7.1820002 1.99 0.27399999
7.3569999 2.063 0.28099999
15.505 5.3460002 0.59799999
15.348 5.3449998 0.59299999
15.234 5.3579998 0.58899999
15.158 5.3839998 0.58600003
15.105 5.4180002 0.58499998
15.234 5.5180001 0.58999997
14.699 5.8429999 0.57300001
14.595 5.8530002 0.56999999
10.783 7.4450002 0.45699999
10.781 7.4790001 0.45699999
10.756 7.4970002 0.45699999
10.679 7.4780002 0.454
10.651 7.493 0.45300001
10.609 7.4970002 0.45199999
10.586 7.5149999 0.45100001
10.556 7.527 0.45100001
10.544 7.552 0.45100001
10.519 7.5669999 0.44999999
10.511 7.5939999 0.44999999
10.488 7.6100001 0.44999999
10.468 7.6279998 0.44999999
9.9169998 -5.8779998 0.48199999
9.9060001 -5.8429999 0.48199999
9.934 -5.8309999 0.48300001
9.9490004 -5.8109999 0.484
9.941 -5.7779999 0.48300001
9.9820004 -5.7729998 0.48500001
9.9870005 -5.7470002 0.486
10.007 -5.7290001 0.48699999
10.005 -5.6989999 0.486
10.032 -5.6859999 0.48800001
10.015 -5.6469998 0.48699999
10.044 -5.6339998 0.48800001
10.053 -5.6110001 0.48899999
10.067 -5.5890002 0.48899999
10.086 -5.5700002 0.49000001
10.096 -5.5469999 0.491
10.111 -5.526 0.491
10.134 -5.5089998 0.49200001
10.154 -5.4899998 0.493
10.161 -5.4640002 0.49399999
10.187 -5.4489999 0.495
10.229 -5.4419999 0.49700001
10.241 -5.4180002 0.49700001
10.248 -5.3920002 0.498
10.26 -5.368 0.498
10.249 -5.3330002 0.498
10.277 -5.3179998 0.49900001
10.308 -5.3039999 0.50099999
10.314 -5.277 0.50099999
10.318 -5.2490001 0.50099999
10.354 -5.237 0.50300002
10.357 -5.2080002 0.50300002
10.38 -5.1890001 0.50400001
10.375 -5.1560001 0.50300002
10.427 -5.152 0.50599998
10.429 -5.1220002 0.50599998
10.487 -5.1199999 0.509
10.467 -5.0799999 0.50800002
10.479 -5.0549998 0.50800002
10.512 -5.04 0.50999999
10.518 -5.0120001 0.50999999
10.562 -5.0029998 0.51200002
10.589 -4.9840002 0.51300001
10.584 -4.9510002 0.51300001
10.593 -4.9239998 0.514
10.627 -4.9089999 0.51499999
10.65 -4.888 0.51599997
10.67 -4.8660002 0.51700002
10.708 -4.8520002 0.51899999
10.725 -4.829 0.51999998
10.743 -4.8049998 0.52100003
10.757 -4.7800002 0.52100003
10.763 -4.7509999 0.52100003
10.794 -4.7329998 0.523
10.852 -4.7270002 0.52600002
10.869 -4.7030001 0.52600002
10.906 -4.6869998 0.528
10.931 -4.6659999 0.52899998
10.929 -4.6329999 0.52899998
10.929 -4.6009998 0.52899998
10.973 -4.5869999 0.53100002
10.976 -4.5560002 0.53100002
11.013 -4.54 0.53299999
11.053 -4.5229998 0.53500003
11.057 -4.493 0.53500003
11.103 -4.4790001 0.537
11.114 -4.4510002 0.53799999
11.159 -4.4359999 0.54000002
11.231 -4.4320002 0.54299998
11.373 -4.4549999 0.55000001
11.389 -4.395 0.551
11.34 -4.3429999 0.54799998
11.273 -4.2839999 0.54500002
11.289 -4.257 0.546
11.313 -4.2329998 0.54699999
11.342 -4.211 0.54799998
11.372 -4.1890001 0.54900002
11.394 -4.164 0.55000001
11.416 -4.138 0.551
11.434 -4.1110001 0.55199999
11.448 -4.0830002 0.55299997
11.489 -4.0640001 0.55500001
11.505 -4.0359998 0.55500001
11.55 -4.0180001 0.55800003
11.547 -3.983 0.55699998
11.591 -3.9649999 0.55900002
11.606 -3.9360001 0.56
11.616 -3.9059999 0.56099999
11.662 -3.8870001 0.56300002
11.68 -3.859 0.56300002
11.722 -3.839 0.565
11.73 -3.8069999 0.56599998
11.768 -3.786 0.56699997
11.826 -3.77 0.56999999
11.974 -3.7820001 0.57700002
11.969 -3.7449999 0.57700002
11.977 -3.7130001 0.57700002
11.944 -3.668 0.57599998
11.985 -3.6459999 0.57700002
11.996 -3.6140001 0.57800001
12.003 -3.582 0.57800001
12.028 -3.5539999 0.579
12.082 -3.5350001 0.58200002
12.13 -3.5139999 0.58399999
12.182 -3.493 0.58600003
12.249 -3.477 0.58999997
12.276 -3.4489999 0.59100002
12.303 -3.421 0.59200001
12.381 -3.4070001 0.59600002
12.483 -3.3989999 0.60100001
12.527 -3.3740001 0.60299999
12.495 -3.329 0.60100001
12.595 -3.319 0.60600001
12.674 -3.303 0.60900003
13.461 -3.119 0.64600003
13.481 -3.085 0.64700001
13.483 -3.046 0.64700001
13.491 -3.0090001 0.64700001
13.537 -2.98 0.64999998
13.56 -2.9460001 0.65100002
13.591 -2.914 0.65200001
13.624 -2.881 0.653
13.666 -2.8510001 0.65499997
13.712 -2.8210001 0.65700001
13.735 -2.786 0.65799999
13.816 -2.763 0.662
13.794 -2.7179999 0.66100001
13.839 -2.687 0.66299999
13.933 -2.665 0.66799998
13.911 -2.6210001 0.66600001
13.947 -2.5880001 0.66799998
14.014 -2.5599999 0.671
13.999 -2.517 0.67000002
14.057 -2.487 0.67299998
14.078 -2.45 0.67400002
14.135 -2.4189999 0.676
14.153 -2.381 0.67699999
14.29 -2.2809999 0.68300003
14.306 -2.243 0.68400002
14.343 -2.207 0.68599999
14.385 -2.1719999 0.68800002
14.501 -2.148 0.69300002
14.465 -2.1010001 0.69099998
14.487 -2.063 0.69199997
14.575 -2.033 0.69599998
14.536 -1.9859999 0.69400001
14.545 -1.946 0.69499999
14.66 -1.919 0.69999999
14.749 -1.888 0.704
12.955 0.23100001 0.61199999
12.903 0.26699999 0.61000001
12.895 0.30399999 0.60900003
12.897 0.34099999 0.60900003
12.889 0.37799999 0.60900003
12.873 0.414 0.60799998
12.89 0.45100001 0.60799998
12.891 0.48800001 0.60799998
12.889 0.52499998 0.60799998
12.897 0.56199998 0.60799998
12.884 0.59899998 0.60699999
12.896 0.63599998 0.60799998
12.905 0.67299998 0.60799998
12.9 0.70999998 0.60799998
12.909 0.74699998 0.60799998
12.936 0.78600001 0.60900003
12.916 0.82200003 0.60799998
12.921 0.85900003 0.60799998
12.882 0.89300001 0.60600001
12.805 0.119 0.51300001
12.791 0.13 0.51200002
12.79 0.142 0.51200002
12.796 0.154 0.51200002
12.792 0.167 0.51099998
12.787 0.18000001 0.51099998
12.79 0.193 0.51099998
12.771 0.206 0.50999999
12.773 0.22 0.509
12.759 0.234 0.509
12.762 0.248 0.50800002
12.759 0.26300001 0.50800002
12.758 0.278 0.50800002
12.745 0.29300001 0.50700003
12.746 0.30899999 0.50700003
12.75 0.32499999 0.50700003
12.738 0.34099999 0.50599998
12.744 0.35800001 0.50599998
12.743 0.375 0.50599998
12.733 0.39199999 0.505
12.736 0.40900001 0.505
12.727 0.42699999 0.505
12.724 0.44499999 0.50400001
12.734 0.46399999 0.50400001
12.719 0.48199999 0.50400001
12.721 0.50099999 0.50400001
12.711 0.51999998 0.50300002
12.725 0.54000002 0.50300002
12.709 0.55900002 0.50300002
12.718 0.57999998 0.50300002
12.714 0.60000002 0.50300002
12.715 0.62099999 0.50300002
12.712 0.64200002 0.50199997
12.731 0.66399997 0.50300002
12.761 0.68699998 0.50400001
12.823 0.713 0.50599998
12.887 0.73900002 0.509
12.921 0.764 0.50999999
12.964 0.78899997 0.51200002
12.96 0.81199998 0.51099998
12.95 0.83600003 0.51099998
12.958 0.86000001 0.51099998
12.966 0.88499999 0.51099998
12.942 0.90799999 0.50999999
12.934 0.93199998 0.50999999
12.908 0.95499998 0.509
12.904 0.98000002 0.509
12.911 1.006 0.509
12.918 1.0319999 0.509
12.919 1.059 0.509
12.926 1.085 0.50999999
12.943 1.113 0.50999999
8.7720003 0.773 0.34599999
12.952 1.141 0.51099998
8.6470003 0.77999997 0.34099999
12.989 1.1720001 0.51200002
8.6020002 0.79400003 0.33899999
13.022 1.202 0.51300001
8.5710001 0.80900002 0.338
13.042 1.232 0.514
8.5579996 0.82700002 0.33700001
