# .PCD v0.7 - Point Cloud Data file format
VERSION 0.7
FIELDS x y z
SIZE 4 4 4
TYPE F F F
COUNT 1 1 1
WIDTH 1962
HEIGHT 1
VIEWPOINT 0 0 0 1 0 0 0
POINTS 1962
DATA ascii
14.055 -5.1290002 1.016
14.026 -5.0640001 1.0140001
14.087 -5.0310001 1.018
14.212 -5.0209999 1.026
14.189 -4.9590001 1.024
14.379 -4.9710002 1.038
12.417 -1.3329999 0.88
12.333 -1.2970001 0.87400001
12.289 -1.265 0.87099999
12.277 -1.2359999 0.87
12.32 -1.214 0.87300003
12.388 -1.193 0.87800002
12.471 -1.175 0.884
12.497 -1.15 0.88599998
12.53 -1.126 0.88800001
12.727 -1.117 0.90200001
12.977 -0.354 0.92000002
12.95 -0.33199999 0.91799998
12.953 -0.31099999 0.91799998
12.952 -0.289 0.91799998
12.91 -0.26699999 0.91500002
12.898 -0.24600001 0.91399997
12.944 -0.226 0.91799998
13.091 -0.208 0.92799997
13.015 -0.16599999 0.92299998
13.038 -0.146 0.92500001
13.314 0.86900002 0.88
13.259 0.89499998 0.87599999
13.238 0.92400002 0.875
13.239 0.95499998 0.875
13.223 0.98400003 0.87400001
13.173 1.074 0.87099999
13.215 1.109 0.87400001
22.465 2.1040001 1.4859999
22.336 2.1470001 1.478
22.337999 2.2030001 1.478
22.382 2.2639999 1.482
22.382 2.3199999 1.482
22.396999 2.3789999 1.483
22.419001 2.438 1.485
22.599001 2.516 1.497
23.062 2.6270001 1.528
23.041 2.6849999 1.527
22.889999 2.727 1.517
22.799999 2.777 1.512
22.768 2.8329999 1.51
22.815001 2.9000001 1.5140001
22.587999 2.9319999 1.499
22.433001 2.9719999 1.489
22.378 3.026 1.4859999
22.337 3.0810001 1.484
22.287001 3.135 1.4809999
22.327 3.2019999 1.484
22.403 3.2750001 1.489
22.438999 3.3429999 1.492
23.009001 4.3579998 1.539
23.103001 4.4439998 1.546
23.348 4.7020001 1.5650001
23.249001 4.7529998 1.559
23.356001 4.8460002 1.567
10.354 2.211 0.69499999
10.228 2.2160001 0.68699998
10.163 2.233 0.68300003
10.08 2.2460001 0.67799997
10.03 2.267 0.67500001
10.009 2.293 0.67400002
9.9809999 2.3180001 0.67199999
9.9490004 2.342 0.671
9.9469995 2.3729999 0.671
9.9169998 2.3970001 0.66900003
9.9130001 2.427 0.66900003
9.9110003 2.4590001 0.67000002
9.9209995 2.493 0.671
9.9370003 2.529 0.67199999
9.967 2.5680001 0.67500001
10.079 2.6300001 0.68300003
11.659 3.3870001 0.79500002
11.496 3.378 0.78500003
11.503 3.418 0.78600001
11.658 3.503 0.79699999
11.508 3.5350001 0.78799999
11.401 3.5409999 0.78100002
11.367 3.569 0.77999997
11.367 3.608 0.77999997
11.347 3.6400001 0.77899998
11.353 3.681 0.78100002
11.352 3.7190001 0.78100002
11.387 3.7690001 0.78399998
11.454 3.8310001 0.78899997
9.3999996 3.2409999 0.64999998
9.2460003 3.22 0.639
9.0959997 3.1989999 0.63
8.9940004 3.1949999 0.62300003
8.934 3.204 0.62
8.9250002 3.2320001 0.61900002
8.9490004 3.2720001 0.62199998
8.9440002 3.302 0.62199998
8.948 3.335 0.62300003
8.9350004 3.3610001 0.62199998
8.9379997 3.3940001 0.62300003
8.9420004 3.427 0.62400001
8.9359999 3.457 0.62400001
8.9449997 3.4920001 0.62599999
8.9960003 3.5439999 0.63
9.0489998 3.5969999 0.634
9.059 3.6329999 0.63599998
9.0900002 3.678 0.63800001
9.1780005 3.7460001 0.64499998
13.352 -6.427 1.013
13.351 -6.3870001 1.013
13.344 -6.3439999 1.012
13.385 -6.3239999 1.015
13.469 -6.3249998 1.021
13.561 -6.3280001 1.028
13.625 -6.3179998 1.033
13.747 -6.3330002 1.0420001
13.774 -6.3049998 1.044
13.911 -6.3270001 1.054
14.142 -6.0149999 1.0700001
14.07 -5.9429998 1.064
14.133 -5.928 1.069
14.162 -5.8150001 1.0700001
14.232 -5.8010001 1.076
14.261 -5.645 1.077
14.322 -5.6269999 1.082
14.685 -5.165 1.1059999
14.764 -5.1500001 1.112
12.454 -1.411 0.92199999
12.288 -1.357 0.90899998
12.268 -1.319 0.90799999
12.308 -1.288 0.91000003
12.439 -1.266 0.92000002
12.496 -1.2359999 0.92400002
12.646 -1.214 0.935
13.07 -0.35299999 0.95999998
13.09 -0.31600001 0.96100003
13.272 0.84200001 0.89899999
13.283 0.86699998 0.89999998
13.186 0.88499999 0.89300001
13.163 0.90799999 0.89200002
13.158 0.93199998 0.89200002
13.18 0.95899999 0.89300001
13.205 0.986 0.89499998
13.133 1.006 0.88999999
13.098 1.029 0.88800001
13.078 1.054 0.88700002
13.132 1.084 0.88999999
13.168 1.114 0.89300001
13.233 1.147 0.89700001
13.311 1.322 0.90399998
13.175 1.3380001 0.89499998
13.265 1.376 0.90100002
23.281 3.4749999 1.592
23.226 3.527 1.589
23.188999 3.5810001 1.587
23.188999 3.642 1.5880001
23.184999 3.7019999 1.5880001
23.165001 3.7609999 1.5880001
23.146999 3.819 1.587
23.169001 3.885 1.589
23.16 3.9460001 1.59
23.136999 4.0050001 1.589
23.141001 4.0689998 1.59
23.121 4.1290002 1.59
23.124001 4.1939998 1.591
23.179001 4.2690001 1.595
23.336 4.6290002 1.6109999
23.386999 4.7059999 1.6160001
23.278999 4.7519999 1.609
23.216999 4.8070002 1.6059999
23.240999 4.881 1.609
10.328 2.1989999 0.71499997
10.219 2.2060001 0.708
10.175 2.227 0.70599997
10.128 2.247 0.70300001
10.075 2.266 0.69999999
10.03 2.286 0.69700003
9.9969997 2.309 0.69499999
9.9689999 2.3340001 0.69400001
9.9460001 2.359 0.69300002
9.9320002 2.3859999 0.69199997
9.9219999 2.415 0.69199997
9.8990002 2.4400001 0.69099998
9.9139996 2.4749999 0.69300002
9.9040003 2.5039999 0.69300002
9.9359999 2.5439999 0.69499999
9.9580002 2.5810001 0.69800001
10.032 2.6329999 0.70300001
10.232 2.7179999 0.71799999
11.532 3.4070001 0.81599998
11.445 3.4200001 0.81099999
11.491 3.473 0.815
11.833 3.6159999 0.83999997
11.524 3.562 0.81900001
11.41 3.566 0.81099999
11.347 3.585 0.80800003
11.343 3.6240001 0.80800003
11.346 3.664 0.80900002
11.349 3.7049999 0.81
11.351 3.7460001 0.81099999
11.39 3.799 0.815
11.489 3.8729999 0.82300001
9.4770002 3.2620001 0.68000001
9.2880001 3.2309999 0.667
9.1850004 3.2279999 0.66100001
9.007 3.198 0.64899999
8.9379997 3.2060001 0.64399999
8.9239998 3.234 0.64399999
8.9540005 3.2780001 0.64700001
8.9540005 3.3110001 0.648
8.9329996 3.336 0.64700001
8.941 3.3729999 0.648
8.941 3.4059999 0.64899999
8.9320002 3.4360001 0.64899999
8.9490004 3.477 0.65100002
8.9790001 3.5220001 0.65399998
9.0340004 3.5780001 0.65899998
9.0579996 3.6229999 0.662
9.1070004 3.677 0.66600001
9.3249998 3.8010001 0.68300003
11.848 -7.776 0.94400001
11.897 -7.7340002 0.94700003
11.956 -7.6989999 0.95099998
12.032 -7.6739998 0.95599997
12.06 -7.619 0.958
12.126 -7.5869999 0.96200001
12.155 -7.533 0.963
12.16 -7.4640002 0.963
12.207 -7.421 0.96600002
12.199 -7.3460002 0.96499997
12.233 -7.296 0.96700001
12.245 -7.2329998 0.96700001
12.268 -7.178 0.96799999
12.282 -7.1170001 0.96799999
12.283 -7.0500002 0.96799999
12.32 -7.0029998 0.97000003
12.356 -6.9559999 0.972
12.405 -6.9169998 0.97500002
12.429 -6.8629999 0.97600001
12.461 -6.8150001 0.97799999
12.521 -6.7810001 0.98199999
12.67 -6.796 0.99299997
13.112 -6.8309999 1.026
13.08 -6.7480001 1.022
13.234 -6.7610002 1.034
13.217 -6.6859999 1.0319999
13.24 -6.632 1.033
13.261 -6.5780001 1.034
13.41 -6.586 1.045
13.292 -6.4650002 1.035
13.325 -6.4169998 1.0369999
13.287 -6.335 1.034
13.341 -6.2979999 1.0369999
13.396 -6.2610002 1.041
13.5 -6.2470002 1.048
13.592 -6.2270002 1.0549999
13.705 -6.2160001 1.063
13.826 -6.2080002 1.072
13.943 -6.198 1.08
14.035 -6.1760001 1.087
14.093 -6.1399999 1.091
14.059 -6.0630002 1.0880001
14.084 -6.0120001 1.089
14.161 -5.9829998 1.094
14.177 -5.9289999 1.095
14.163 -5.862 1.0930001
14.192 -5.8140001 1.095
14.224 -5.7680001 1.097
14.255 -5.7199998 1.099
14.275 -5.6690001 1.1
14.327 -5.631 1.103
14.388 -5.5949998 1.108
14.377 -5.533 1.1059999
14.498 -5.5209999 1.115
14.527 -5.474 1.117
14.522 -5.414 1.1160001
14.529 -5.3590002 1.1160001
14.623 -5.336 1.123
14.693 -5.3039999 1.128
14.738 -5.263 1.131
14.759 -5.2140002 1.132
14.816 -5.178 1.136
14.789 -5.112 1.133
14.825 -5.0689998 1.135
14.936 -5.0510001 1.143
14.943 -4.9980001 1.1440001
12.403 -1.332 0.93300003
12.308 -1.294 0.926
12.281 -1.2640001 0.92400002
12.276 -1.2359999 0.92299998
12.317 -1.214 0.926
12.364 -1.191 0.93000001
12.443 -1.1720001 0.93599999
12.489 -1.149 0.93900001
12.511 -1.125 0.94099998
12.606 -1.107 0.94800001
13.049 0.19599999 0.926
13.052 0.219 0.926
13.045 0.242 0.926
13.063 0.266 0.92699999
13.06 0.28999999 0.926
13.042 0.31400001 0.92500001
13.067 0.33899999 0.92699999
13.097 0.36399999 0.92799997
13.106 0.38999999 0.92900002
13.072 0.414 0.926
13.037 0.43799999 0.92400002
13.091 0.46599999 0.92699999
13.068 0.491 0.926
13.124 0.51999998 0.93000001
13.088 0.54500002 0.92699999
13.092 0.57200003 0.92699999
13.119 0.60100001 0.92900002
13.132 0.62900001 0.93000001
13.131 0.65700001 0.93000001
13.117 0.68400002 0.92900002
13.172 0.71499997 0.93300003
13.162 0.74299997 0.93199998
13.121 0.76999998 0.92900002
13.164 0.801 0.93199998
13.128 0.82800001 0.92900002
13.132 0.85799998 0.93000001
13.126 0.88800001 0.92900002
13.101 0.91600001 0.92799997
13.072 0.94400001 0.926
13.057 0.97299999 0.92500001
13.07 1.005 0.926
13.022 1.0319999 0.92199999
13.012 1.062 0.92199999
13.02 1.094 0.92199999
13.057 1.128 0.92500001
13.072 1.161 0.926
13.098 1.1950001 0.92799997
13.182 1.235 0.93400002
13.153 1.265 0.93199998
13.152 1.298 0.93199998
13.146 1.33 0.93199998
13.118 1.3609999 0.93000001
13.097 1.392 0.92900002
13.212 1.438 0.93699998
23.232 2.9549999 1.652
23.177999 3.01 1.648
23.195 3.075 1.65
23.226999 3.142 1.653
23.167999 3.197 1.649
23.159 3.2590001 1.649
23.134001 3.3199999 1.648
23.171 3.3889999 1.651
23.108 3.5090001 1.648
23.083 3.5699999 1.647
23.084 3.635 1.647
23.091 3.7019999 1.648
23.073 3.7650001 1.648
23.069 3.8299999 1.648
23.075001 3.898 1.649
23.07 3.964 1.65
23.087999 4.0339999 1.652
23.070999 4.098 1.651
23.091 4.1690001 1.653
23.082001 4.2360001 1.654
23.167 4.3200002 1.66
23.336 4.6300001 1.676
23.35 4.704 1.678
23.242001 4.7519999 1.671
23.216 4.8179998 1.67
10.351 2.1789999 0.745
10.201 2.1789999 0.73400003
10.172 2.204 0.73299998
10.128 2.2260001 0.73000002
10.079 2.247 0.727
10.018 2.2639999 0.72299999
10.006 2.293 0.722
9.9720001 2.316 0.72000003
9.948 2.342 0.71899998
9.9350004 2.3699999 0.71899998
9.9180002 2.398 0.71799999
9.9239998 2.431 0.71899998
9.9160004 2.46 0.71899998
9.9280005 2.4949999 0.72000003
9.9449997 2.5309999 0.722
9.9919996 2.575 0.72600001
10.06 2.625 0.73100001
11.536 3.3900001 0.84500003
11.454 3.404 0.83899999
11.477 3.4489999 0.84200001
11.645 3.539 0.85500002
11.515 3.5380001 0.84600002
11.439 3.553 0.84100002
11.368 3.5699999 0.83600003
11.348 3.602 0.83600003
11.351 3.641 0.83700001
11.355 3.681 0.838
11.357 3.721 0.838
11.369 3.7639999 0.83999997
11.422 3.8199999 0.84500003
11.644 3.9349999 0.86199999
9.4259996 3.25 0.699
9.3950005 3.2720001 0.69700003
9.1800003 3.2290001 0.68199998
9.0209999 3.204 0.671
8.9449997 3.2090001 0.66600001
8.9160004 3.23 0.66399997
8.9320002 3.266 0.66600001
8.941 3.3010001 0.667
8.9350004 3.3310001 0.66799998
8.9200001 3.3559999 0.667
8.9350004 3.3929999 0.66900003
8.9359999 3.425 0.67000002
8.9379997 3.4579999 0.67000002
8.9390001 3.49 0.671
8.9680004 3.533 0.67400002
9.0129995 3.5829999 0.67799997
9.0430002 3.6270001 0.68099999
9.0679998 3.6689999 0.68400002
9.1590004 3.7390001 0.69099998
14.211 -6.5089998 1.142
14.148 -6.4380002 1.136
14.156 -6.4000001 1.137
14.236 -6.395 1.143
14.291 -6.3769999 1.147
14.32 -6.348 1.149
14.333 -6.3109999 1.15
14.414 -6.3039999 1.156
14.451 -6.1500001 1.159
14.527 -6.1389999 1.165
14.446 -6.0619998 1.158
14.508 -6.046 1.163
14.507 -6.0019999 1.1619999
14.541 -5.974 1.165
14.57 -5.9419999 1.1670001
14.62 -5.9200001 1.171
14.679 -5.9000001 1.175
14.691 -5.862 1.176
14.639 -5.7979999 1.1720001
14.643 -5.756 1.1720001
14.765 -5.7610002 1.181
14.706 -5.6939998 1.176
14.895 -5.724 1.191
14.794 -5.598 1.183
14.828 -5.5669999 1.1849999
12.404 -1.404 0.972
12.264 -1.353 0.96100003
12.253 -1.317 0.95999998
12.298 -1.286 0.963
12.412 -1.262 0.972
12.468 -1.232 0.97600001
12.547 -1.204 0.98199999
13.123 0.31799999 0.954
13.094 0.33399999 0.95200002
13.123 0.35100001 0.954
13.156 0.368 0.95599997
13.14 0.38499999 0.95499998
13.103 0.40099999 0.95200002
13.144 0.43799999 0.954
13.15 0.456 0.954
13.109 0.47299999 0.95099998
13.27 0.498 0.963
13.156 0.51300001 0.954
13.154 0.55199999 0.954
13.112 0.56999999 0.95099998
13.144 0.59200001 0.95300001
13.144 0.61299998 0.95300001
13.137 0.63300002 0.95200002
13.121 0.65399998 0.95099998
13.143 0.676 0.95200002
13.104 0.69599998 0.94999999
13.087 0.71700001 0.94800001
13.067 0.73799998 0.94700003
13.045 0.75999999 0.94499999
13.054 0.78299999 0.94599998
13.054 0.80599999 0.94599998
13.054 0.82999998 0.94599998
13.037 0.852 0.94499999
13.005 0.87400001 0.94199997
12.978 0.89600003 0.94
12.958 0.91900003 0.93900001
12.94 0.94300002 0.93800002
12.909 0.96499997 0.935
12.901 0.99000001 0.935
12.887 1.0140001 0.93400002
12.887 1.04 0.93400002
12.897 1.066 0.935
12.895 1.092 0.935
12.918 1.1210001 0.93699998
12.945 1.15 0.93900001
12.948 1.177 0.93900001
23.1 2.0999999 1.676
13.006 1.21 0.94400001
23.098 2.1489999 1.676
13.068 1.243 0.94800001
23.121 2.2 1.678
12.992 1.2640001 0.94300002
23.125 2.25 1.679
13.013 1.294 0.94499999
23.117001 2.299 1.679
13.037 1.325 0.94700003
13.054 1.355 0.94800001
13.125 1.392 0.954
13.185 1.428 0.958
23.188 2.5120001 1.686
13.256 1.466 0.96399999
23.025999 2.546 1.674
22.983999 2.5940001 1.6720001
22.997999 2.648 1.673
13.177 1.548 0.95899999
22.99 2.701 1.673
13.102 1.5700001 0.954
23.006001 2.757 1.675
13.015 1.59 0.94800001
23.027 2.813 1.677
13.018 1.6210001 0.94800001
23.039 2.8699999 1.678
13.106 1.664 0.95499998
23.011 2.921 1.677
23.01 2.977 1.677
23.014999 3.033 1.678
23.014999 3.0899999 1.679
23.003 3.145 1.679
23.009001 3.2030001 1.6799999
23.025 3.263 1.682
23.047001 3.3239999 1.684
23.127001 3.3940001 1.691
23.025999 3.4389999 1.684
23.025999 3.4979999 1.6849999
23.01 3.5550001 1.6849999
22.999001 3.6140001 1.6849999
23.028 3.6789999 1.688
23.01 3.737 1.687
23.024 3.8 1.689
23.018 3.8610001 1.689
23.018999 3.924 1.691
23.032 3.9879999 1.692
23.048 4.0539999 1.6950001
23.037001 4.1160002 1.6950001
23.058001 4.1830001 1.697
23.052 4.2459998 1.698
23.146 4.329 1.706
23.386999 4.6399999 1.728
23.339001 4.698 1.725
23.344999 4.7670002 1.727
23.389999 4.8439999 1.732
10.454 2.1960001 0.77399999
10.195 2.171 0.75599998
10.151 2.1919999 0.75300002
10.127 2.217 0.75199997
10.125 2.247 0.75199997
10.077 2.267 0.74900001
10.036 2.2880001 0.74599999
10 2.3099999 0.74400002
9.9519997 2.3299999 0.741
9.948 2.359 0.74199998
9.9230003 2.3840001 0.74000001
9.9169998 2.414 0.741
9.9119997 2.444 0.741
9.9110003 2.4749999 0.741
9.9230003 2.5090001 0.74299997
9.927 2.5420001 0.74400002
9.9510002 2.5799999 0.74599999
10.004 2.6259999 0.75099999
10.133 2.6919999 0.76099998
11.48 3.431 0.87099999
11.433 3.4549999 0.86799997
11.484 3.51 0.87300003
11.528 3.563 0.87699997
11.437 3.575 0.87099999
11.352 3.5869999 0.86500001
11.329 3.619 0.86400002
11.342 3.6630001 0.866
11.354 3.707 0.86799997
11.359 3.7490001 0.86900002
11.378 3.7950001 0.87199998
11.453 3.8610001 0.87900001
11.658 3.9719999 0.89499998
11.533 3.97 0.88700002
11.466 3.9890001 0.88200003
9.2060003 3.2360001 0.70899999
9.0039997 3.198 0.69400001
8.9259996 3.2019999 0.68900001
8.9029999 3.227 0.68800002
8.9160004 3.2639999 0.69
8.9350004 3.3039999 0.69199997
8.9259996 3.3340001 0.69199997
8.9209995 3.365 0.69300002
8.915 3.3970001 0.69300002
8.9350004 3.438 0.69599998
8.9350004 3.4719999 0.69700003
8.9589996 3.5150001 0.699
9.0120001 3.5699999 0.704
9.04 3.615 0.70700002
9.0790005 3.6659999 0.71100003
9.2069998 3.753 0.722
12.603 -8.2700005 1.063
12.656 -8.2259998 1.066
12.727 -8.1940002 1.071
12.818 -8.1739998 1.0779999
12.856 -8.1199999 1.08
12.899 -8.0690002 1.0829999
12.984 -8.0450001 1.089
13.01 -7.9850001 1.09
13.069 -7.9439998 1.094
13.133 -7.9070001 1.099
13.154 -7.8449998 1.1
13.243 -7.822 1.1059999
13.269 -7.7620001 1.108
13.424 -7.7779999 1.12
13.601 -7.3649998 1.1289999
13.601 -7.2950001 1.128
13.678 -7.2649999 1.1339999
13.673 -7.1919999 1.132
13.739 -7.1560001 1.137
13.778 -7.1069999 1.14
13.867 -7.0830002 1.146
13.888 -7.0250001 1.147
14.226 -6.5170002 1.168
14.26 -6.4679999 1.17
14.217 -6.3839998 1.166
14.247 -6.3330002 1.168
14.318 -6.3010001 1.173
14.383 -6.2649999 1.178
14.464 -6.237 1.184
14.493 -6.1859999 1.186
14.542 -6.1440001 1.189
14.521 -6.072 1.187
14.526 -6.013 1.187
14.543 -5.9569998 1.187
14.583 -5.9130001 1.1900001
14.638 -5.8730001 1.194
14.65 -5.8179998 1.194
14.828 -5.8270001 1.2079999
14.826 -5.7659998 1.207
14.81 -5.6989999 1.206
14.852 -5.6550002 1.2079999
14.925 -5.6230001 1.214
15.11 -5.6329999 1.228
15.014 -5.5380001 1.22
12.423 -1.334 0.98799998
12.308 -1.294 0.97899997
12.269 -1.263 0.97600001
12.266 -1.235 0.97600001
12.279 -1.21 0.977
12.331 -1.188 0.98100001
12.415 -1.169 0.98699999
12.463 -1.147 0.991
12.478 -1.122 0.99199998
12.516 -1.099 0.995
12.648 -1.084 1.006
12.909 0.19599999 0.977
12.927 0.219 0.97799999
12.957 0.243 0.98000002
12.942 0.266 0.97899997
12.938 0.289 0.97799999
12.965 0.31400001 0.98000002
12.976 0.338 0.98100001
12.991 0.36300001 0.98199999
12.994 0.38800001 0.98199999
12.99 0.41299999 0.98199999
13.006 0.43900001 0.98299998
13.029 0.46599999 0.98400003
13.04 0.49200001 0.98500001
13.03 0.51800001 0.98400003
13.05 0.54500002 0.986
13.046 0.57200003 0.98500001
13.054 0.59899998 0.986
13.044 0.62599999 0.98500001
13.064 0.65499997 0.986
13.062 0.68300003 0.986
13.025 0.70899999 0.98299998
13.023 0.73699999 0.98299998
13.012 0.76499999 0.98199999
13.008 0.79299998 0.98199999
13.01 0.82200003 0.98199999
12.989 0.85000002 0.98100001
12.97 0.87800002 0.97899997
12.944 0.90600002 0.977
12.932 0.935 0.977
12.894 0.96200001 0.97399998
12.873 0.991 0.972
12.864 1.02 0.972
12.847 1.049 0.97100002
12.854 1.081 0.97100002
12.863 1.112 0.972
12.884 1.146 0.97399998
12.925 1.181 0.977
12.931 1.2130001 0.97799999
23.056999 2.1630001 1.743
12.946 1.247 0.97899997
23.049999 2.22 1.743
13.037 1.288 0.986
23.059999 2.2780001 1.744
12.957 1.312 0.98000002
23.063 2.336 1.745
13.019 1.352 0.98500001
13.012 1.3839999 0.98500001
13.078 1.424 0.99000001
13.136 1.464 0.99400002
23.202 2.5869999 1.757
13.179 1.503 0.99800003
22.972 2.6210001 1.74
22.954 2.6789999 1.739
13.181 1.572 0.99900001
22.934999 2.7360001 1.738
13.066 1.5930001 0.99000001
22.962999 2.8 1.7410001
12.971 1.6160001 0.98299998
22.962 2.8610001 1.7410001
12.969 1.65 0.98299998
22.996 2.9260001 1.744
13.068 1.698 0.991
22.989 2.987 1.744
22.971001 3.0469999 1.743
22.974001 3.109 1.744
22.969 3.171 1.744
22.964001 3.234 1.745
22.966999 3.2969999 1.745
22.987 3.3640001 1.748
23.042999 3.4360001 1.752
23.004999 3.4949999 1.75
22.986 3.556 1.749
22.983999 3.6210001 1.75
22.989 3.687 1.751
22.985001 3.7520001 1.752
22.997 3.8199999 1.753
23.013 3.8889999 1.755
22.996 3.9519999 1.755
23.007 4.0209999 1.756
23.014999 4.0890002 1.758
23.016001 4.1570001 1.7589999
23.033001 4.2280002 1.761
23.066999 4.302 1.7640001
23.296 4.414 1.783
10.257 2.1600001 0.78799999
10.158 2.1700001 0.77999997
10.127 2.1949999 0.77899998
10.112 2.223 0.778
10.082 2.2479999 0.77600002
10.046 2.2709999 0.77399999
10.002 2.2920001 0.77100003
9.9549999 2.312 0.76800001
9.948 2.342 0.76800001
9.9280005 2.369 0.76700002
9.9280005 2.4000001 0.76700002
9.9139996 2.428 0.76700002
9.927 2.4630001 0.76800001
9.9309998 2.4960001 0.76899999
9.9429998 2.5309999 0.76999998
9.9709997 2.5699999 0.773
10.021 2.615 0.77700001
10.183 2.691 0.79100001
11.521 3.424 0.90100002
11.456 3.4430001 0.89700001
11.456 3.4820001 0.898
11.5 3.5339999 0.90200001
11.438 3.553 0.898
11.362 3.5680001 0.89300001
11.334 3.598 0.89099997
11.324 3.6329999 0.89099997
11.345 3.6789999 0.89399999
11.35 3.7190001 0.89499998
11.37 3.7639999 0.89700001
11.407 3.816 0.90100002
11.485 3.881 0.90799999
11.511 3.9300001 0.91100001
11.451 3.9489999 0.90700001
11.447 3.987 0.90700001
9.0939999 3.1989999 0.722
8.9770002 3.1889999 0.713
8.9169998 3.1989999 0.70899999
8.8979998 3.223 0.708
8.8889999 3.2509999 0.708
8.9099998 3.29 0.70999998
8.9209995 3.325 0.71200001
8.9020004 3.3499999 0.71100003
8.9139996 3.3859999 0.713
8.9219999 3.4200001 0.71399999
8.9359999 3.457 0.71600002
8.9379997 3.49 0.71700001
8.9510002 3.526 0.71899998
8.9639997 3.563 0.72000003
9.0179996 3.6170001 0.72600001
9.0310001 3.654 0.727
9.092 3.711 0.73299998
14.647 -6.756 1.243
14.745 -6.7579999 1.251
14.744 -6.7140002 1.251
14.714 -6.6129999 1.248
14.703 -6.5650001 1.247
14.69 -6.5159998 1.2460001
14.774 -6.5089998 1.252
14.895 -6.2540002 1.261
14.873 -6.2010002 1.2589999
12.398 -1.403 1.026
12.285 -1.355 1.016
12.239 -1.314 1.012
12.275 -1.283 1.015
12.36 -1.256 1.022
12.437 -1.228 1.028
12.48 -1.196 1.031
12.586 -1.17 1.04
13.073 0.23100001 1.0140001
13.151 0.24600001 1.02
13.149 0.26100001 1.0190001
13.096 0.27399999 1.015
13.093 0.289 1.0140001
13.126 0.30500001 1.016
13.122 0.32100001 1.016
13.181 0.338 1.02
13.076 0.368 1.011
13.148 0.38699999 1.017
13.113 0.403 1.0140001
13.235 0.42500001 1.023
13.092 0.43799999 1.012
13.102 0.456 1.012
13.142 0.47600001 1.015
13.206 0.49700001 1.02
13.134 0.514 1.0140001
13.121 0.53299999 1.013
13.174 0.55500001 1.017
13.14 0.57300001 1.0140001
13.086 0.59100002 1.01
13.103 0.61199999 1.011
13.089 0.63300002 1.01
13.094 0.65399998 1.01
13.09 0.67500001 1.01
13.089 0.69700003 1.01
13.094 0.71899998 1.01
13.052 0.73900002 1.007
13.035 0.76099998 1.005
13.036 0.78399998 1.006
13.035 0.80699998 1.005
13.01 0.82800001 1.0039999
12.996 0.85100001 1.003
12.974 0.87400001 1.001
12.93 0.89499998 0.99800003
12.905 0.917 0.99599999
12.869 0.93900001 0.99299997
12.825 0.95999998 0.99000001
12.801 0.98299998 0.98799998
12.787 1.007 0.98699999
12.802 1.034 0.98799998
12.798 1.059 0.98799998
12.804 1.086 0.98900002
12.82 1.113 0.99000001
12.859 1.143 0.99299997
23.024 2.0469999 1.779
12.95 1.178 1
22.996 2.0929999 1.777
12.905 1.201 0.99699998
22.98 2.1400001 1.776
12.978 1.2359999 1.003
23.038 2.194 1.781
12.999 1.266 1.005
23.183001 2.2579999 1.7920001
13.022 1.296 1.007
13.032 1.326 1.008
13.073 1.359 1.011
13.134 1.3940001 1.016
13.154 1.426 1.018
23.059 2.5 1.785
13.371 1.479 1.035
22.948 2.539 1.777
22.919001 2.589 1.775
22.903999 2.6389999 1.775
13.116 1.5420001 1.016
22.921 2.6949999 1.777
13.044 1.564 1.011
22.917999 2.7479999 1.777
13.014 1.591 1.0089999
22.934999 2.8039999 1.779
13.064 1.628 1.013
22.947001 2.8599999 1.78
22.934999 2.9130001 1.78
22.934 2.9679999 1.781
22.955999 3.027 1.783
22.948 3.082 1.783
22.948999 3.1389999 1.784
22.959999 3.198 1.786
22.981001 3.2579999 1.788
23 3.319 1.79
23.028999 3.382 1.794
22.997999 3.4360001 1.7920001
22.988001 3.494 1.7920001
22.981001 3.552 1.7920001
22.98 3.612 1.793
23 3.6760001 1.796
23 3.7360001 1.7970001
23.004 3.7980001 1.798
23.006001 3.8610001 1.799
22.992001 3.9200001 1.799
22.995001 3.983 1.8
23.007999 4.0479999 1.802
23.021999 4.1139998 1.804
23.023001 4.178 1.8049999
23.018 4.2410002 1.806
23.048 4.3109999 1.8099999
23.221001 4.4089999 1.824
10.426 2.1900001 0.82300001
10.181 2.1689999 0.80400002
10.092 2.1800001 0.79799998
10.06 2.2030001 0.796
10.045 2.23 0.79500002
10.049 2.2609999 0.796
10.038 2.289 0.796
9.9899998 2.3080001 0.792
9.9580002 2.332 0.79100001
9.9259996 2.355 0.78899997
9.9169998 2.3829999 0.78899997
9.908 2.4119999 0.78799999
9.9060001 2.4430001 0.78899997
9.9099998 2.4749999 0.79000002
9.9250002 2.51 0.792
9.9250002 2.5409999 0.79299998
9.9420004 2.5780001 0.79500002
9.9750004 2.618 0.79799998
10.059 2.6730001 0.80500001
10.234 2.7520001 0.81999999
11.675 3.4890001 0.94400001
11.457 3.4630001 0.92699999
11.423 3.4920001 0.92500001
11.45 3.539 0.92799997
11.426 3.5710001 0.92699999
11.349 3.5869999 0.92199999
11.328 3.619 0.921
11.327 3.6589999 0.92199999
11.332 3.7 0.92400002
11.344 3.744 0.926
11.37 3.793 0.92900002
11.409 3.8469999 0.93300003
11.473 3.9089999 0.93900001
11.448 3.941 0.93800002
11.449 3.983 0.93900001
9.1929998 3.2309999 0.755
8.9949999 3.1949999 0.74000001
8.927 3.2030001 0.73500001
8.882 3.2190001 0.73199999
8.8859997 3.2539999 0.73299998
8.8999996 3.2920001 0.73500001
8.9110003 3.329 0.73699999
8.9130001 3.3629999 0.73799998
8.9130001 3.3959999 0.73900002
8.9209995 3.4330001 0.741
8.9429998 3.4749999 0.74299997
8.9429998 3.5090001 0.74400002
8.9809999 3.5580001 0.74900001
9.0059996 3.602 0.75199997
9.0459995 3.6530001 0.75599998
9.1370001 3.7249999 0.764
13.233 -8.6820002 1.177
13.304 -8.6459999 1.183
13.386 -8.6169996 1.189
13.434 -8.566 1.192
13.483 -8.5150003 1.1950001
13.551 -8.4759998 1.2
13.578 -8.4130001 1.202
13.642 -8.3719997 1.206
13.699 -8.3260002 1.21
13.718 -8.2589998 1.211
13.784 -8.2189999 1.216
13.841 -8.1739998 1.22
13.899 -8.1300001 1.224
14.047 -7.9060001 1.233
14.052 -7.8330002 1.233
14.127 -7.7989998 1.239
14.101 -7.71 1.2359999
14.185 -7.6810002 1.242
14.234 -7.6329999 1.245
14.221 -7.553 1.243
14.328 -7.5359998 1.252
14.239 -7.4159999 1.243
14.341 -7.3969998 1.251
14.332 -7.3200002 1.25
14.395 -7.2810001 1.255
14.435 -7.23 1.257
14.438 -7.1599998 1.257
14.48 -7.1110001 1.26
14.494 -7.0479999 1.26
14.468 -6.9660001 1.257
12.006 -5.723 1.0420001
12.022 -5.6750002 1.043
14.697 -6.8000002 1.274
14.594 -6.6849999 1.2640001
14.649 -6.6440001 1.268
14.729 -6.6129999 1.274
14.816 -6.585 1.281
14.802 -6.513 1.279
14.802 -6.447 1.279
14.87 -6.4120002 1.284
14.926 -6.3699999 1.288
14.919 -6.303 1.2869999
15.014 -6.2779999 1.294
15.001 -6.2090001 1.2920001
12.41 -1.332 1.041
12.307 -1.294 1.0319999
12.276 -1.263 1.03
12.247 -1.233 1.027
12.258 -1.2079999 1.028
12.288 -1.184 1.03
12.367 -1.165 1.0369999
12.434 -1.1440001 1.043
12.455 -1.12 1.044
12.47 -1.095 1.045
12.52 -1.073 1.05
12.593 -1.053 1.056
12.899 0.198 1.0369999
12.911 0.221 1.038
12.914 0.244 1.038
12.942 0.26800001 1.04
12.942 0.29100001 1.039
12.961 0.315 1.041
12.989 0.34 1.043
12.989 0.36500001 1.043
13.007 0.38999999 1.044
13.018 0.41600001 1.045
13.014 0.44100001 1.044
13.022 0.46700001 1.045
13.026 0.493 1.045
13.025 0.51899999 1.045
13.025 0.546 1.045
13.023 0.57200003 1.045
13.022 0.59899998 1.044
13.043 0.62800002 1.046
13.04 0.65499997 1.046
13.042 0.68300003 1.046
13.043 0.71100003 1.046
13.018 0.73799998 1.044
13.019 0.76700002 1.044
13.015 0.79500002 1.044
13.007 0.824 1.043
12.984 0.85100001 1.041
12.956 0.87900001 1.039
12.917 0.90600002 1.036
12.888 0.93300003 1.034
12.84 0.95999998 1.03
12.794 0.986 1.027
12.755 1.013 1.024
12.756 1.043 1.024
12.79 1.077 1.027
12.791 1.107 1.027
12.82 1.141 1.029
12.856 1.176 1.0319999
12.968 1.2180001 1.0420001
12.941 1.247 1.04
13.059 1.291 1.049
12.994 1.317 1.044
13.071 1.358 1.051
13.076 1.392 1.051
13.141 1.432 1.057
13.159 1.4680001 1.059
23.077 2.575 1.857
22.926001 2.6170001 1.845
22.909 2.675 1.844
22.893 2.733 1.8430001
13.128 1.602 1.057
22.927999 2.7980001 1.847
13.078 1.63 1.053
22.914 2.8570001 1.846
13.116 1.67 1.057
22.91 2.9170001 1.846
22.927 2.9809999 1.848
22.927999 3.043 1.849
22.921 3.1040001 1.849
22.922001 3.1659999 1.85
22.929001 3.23 1.851
22.934999 3.2939999 1.852
22.961 3.3610001 1.855
23.003 3.431 1.859
22.958 3.4890001 1.8559999
22.951 3.552 1.8559999
22.971001 3.6199999 1.859
22.981001 3.687 1.86
22.98 3.7520001 1.8609999
22.98 3.8180001 1.862
22.972 3.8829999 1.862
22.985001 3.9519999 1.864
23.004 4.0219998 1.8660001
22.993 4.0869999 1.8660001
22.986 4.1529999 1.867
23.004 4.224 1.869
23.013 4.2940001 1.8710001
23.094 4.3769999 1.8789999
10.266 2.1619999 0.838
10.124 2.164 0.82700002
10.065 2.1819999 0.82300001
10.024 2.204 0.81999999
10.024 2.2349999 0.81999999
10.02 2.2650001 0.81999999
9.9919996 2.29 0.81900001
9.9540005 2.313 0.81599998
9.9230003 2.3369999 0.81400001
9.9110003 2.365 0.81400001
9.901 2.3940001 0.81300002
9.9160004 2.4289999 0.815
9.9169998 2.461 0.81599998
9.934 2.497 0.81800002
9.9399996 2.5309999 0.81900001
9.9420004 2.563 0.81999999
9.9910002 2.608 0.824
10.076 2.6630001 0.83200002
10.223 2.7349999 0.84500003
11.503 3.4579999 0.958
11.423 3.4719999 0.95200002
11.43 3.513 0.954
11.417 3.5469999 0.95300001
11.375 3.573 0.95099998
11.349 3.6029999 0.949
11.315 3.631 0.94700003
11.321 3.671 0.949
11.329 3.7119999 0.94999999
11.349 3.7579999 0.95300001
11.377 3.806 0.95599997
11.399 3.8529999 0.95899999
11.435 3.904 0.96200001
11.443 3.9460001 0.96399999
11.468 3.9949999 0.96700001
9.2519999 3.2550001 0.78100002
9.0270004 3.207 0.76300001
8.9379997 3.207 0.75599998
8.8979998 3.223 0.75300002
8.8800001 3.2479999 0.75199997
8.8900003 3.283 0.75400001
8.8929996 3.3150001 0.755
8.8879995 3.345 0.755
8.8979998 3.3800001 0.75700003
8.915 3.418 0.759
8.9329996 3.4560001 0.76099998
8.9460001 3.493 0.76300001
8.934 3.52 0.76300001
8.9580002 3.5610001 0.76599997
8.9919996 3.6070001 0.76999998
9.0120001 3.6470001 0.77200001
9.0600004 3.6989999 0.77700001
9.2959995 3.829 0.79799998
12.376 -1.4 1.0779999
12.26 -1.351 1.068
12.237 -1.313 1.066
12.256 -1.28 1.067
12.322 -1.251 1.072
12.432 -1.226 1.082
12.442 -1.191 1.082
12.506 -1.161 1.0880001
13.094 -0.34799999 1.132
13.058 -0.31 1.128
13.047 -0.27200001 1.127
13.111 -0.235 1.132
12.963 0.177 1.1160001
12.934 0.214 1.113
13.135 0.255 1.13
13.158 0.17 1.085
13.105 0.182 1.08
13.08 0.19400001 1.077
13.107 0.207 1.079
13.062 0.22 1.075
13.061 0.233 1.075
13.076 0.24699999 1.075
13.062 0.26100001 1.074
13.115 0.27700001 1.0779999
13.165 0.29300001 1.082
13.051 0.30599999 1.072
13.054 0.32100001 1.072
13.039 0.33700001 1.0700001
13.014 0.352 1.068
13.067 0.37 1.072
13.011 0.38499999 1.067
13.02 0.40200001 1.068
13.082 0.42199999 1.072
13.156 0.57599998 1.077
13.102 0.59399998 1.073
13.11 0.61500001 1.073
13.112 0.63599998 1.073
13.177 0.66000003 1.0779999
13.136 0.67900002 1.075
13.105 0.69999999 1.072
13.077 0.72000003 1.0700001
13.071 0.74199998 1.0700001
13.057 0.764 1.068
13.035 0.78500003 1.067
13.028 0.80800003 1.066
13 0.829 1.064
12.97 0.85100001 1.061
12.954 0.87400001 1.0599999
12.925 0.89600003 1.058
12.884 0.917 1.0549999
12.87 0.94 1.053
12.824 0.96200001 1.05
12.781 0.98299998 1.046
12.781 1.008 1.0470001
12.789 1.034 1.0470001
12.802 1.061 1.049
12.806 1.087 1.049
12.823 1.115 1.051
12.878 1.146 1.0549999
12.928 1.178 1.0599999
23.083 2.1029999 1.892
12.957 1.207 1.062
23.041 2.148 1.8890001
13.039 1.243 1.069
13.002 1.267 1.066
13.059 1.301 1.071
13.025 1.326 1.069
13.054 1.358 1.071
13.084 1.39 1.074
13.14 1.425 1.079
22.987 2.494 1.888
13.249 1.467 1.0880001
22.882999 2.5339999 1.88
22.879 2.586 1.88
13.132 1.5140001 1.08
22.889 2.6400001 1.882
13.185 1.551 1.084
22.899 2.694 1.883
22.9 2.747 1.8839999
22.892 2.8 1.8839999
22.906 2.8570001 1.886
22.905001 2.911 1.887
22.909 2.967 1.888
22.914 3.023 1.8890001
22.919001 3.0799999 1.89
22.921 3.1370001 1.891
22.93 3.1949999 1.892
22.929001 3.2520001 1.893
22.944 3.312 1.895
23.009001 3.3800001 1.902
22.972 3.4330001 1.899
22.959 3.4909999 1.899
22.951 3.549 1.9
22.965 3.6110001 1.902
22.968 3.6719999 1.903
22.981001 3.7349999 1.905
22.972 3.7950001 1.905
22.983 3.858 1.9069999
22.961 3.9159999 1.9069999
22.976 3.9809999 1.909
22.983999 4.0450001 1.911
22.975 4.1069999 1.911
22.993999 4.1739998 1.914
23.007999 4.2410002 1.916
23.004 4.3039999 1.9170001
23.018 4.3720002 1.92
23.058001 4.4450002 1.924
23.249001 4.5479999 1.941
10.177 2.168 0.85299999
10.062 2.174 0.84399998
10.017 2.194 0.84100002
10.009 2.2219999 0.84100002
9.9969997 2.25 0.84100002
9.9980001 2.28 0.84100002
9.9689999 2.3039999 0.83999997
9.941 2.3280001 0.838
9.9239998 2.355 0.83700001
9.9040003 2.381 0.83600003
9.9060001 2.4119999 0.83700001
9.901 2.4419999 0.83700001
9.9169998 2.477 0.83899999
9.9399996 2.5139999 0.84200001
9.9379997 2.5450001 0.84299999
9.9469995 2.579 0.84399998
9.96 2.615 0.84600002
10.019 2.6619999 0.852
10.151 2.7309999 0.86400002
11.685 3.5320001 1.0039999
11.439 3.497 0.98400003
11.387 3.52 0.98100001
11.383 3.5580001 0.98100001
11.372 3.5940001 0.98100001
11.339 3.6229999 0.98000002
11.32 3.6570001 0.97899997
11.317 3.6960001 0.98000002
11.322 3.737 0.98100001
11.353 3.7869999 0.98500001
11.379 3.8369999 0.98799998
11.402 3.885 0.991
11.429 3.9349999 0.995
11.461 3.9879999 0.99900001
9.0600004 3.2179999 0.79100001
8.948 3.211 0.78299999
8.8950005 3.224 0.77899998
8.8769999 3.2509999 0.778
8.8920002 3.289 0.77999997
8.8920002 3.322 0.78100002
8.8970003 3.3570001 0.78299999
8.8979998 3.391 0.78399998
8.9230003 3.434 0.787
8.9449997 3.4760001 0.79000002
8.9440002 3.5090001 0.79100001
8.9639997 3.5510001 0.79400003
8.993 3.5969999 0.79699999
9.0290003 3.6459999 0.801
9.1190004 3.7179999 0.81099999
11.089 6.9289999 1.067
10.919 6.8730001 1.052
10.944 6.9400001 1.057
27.635 19.789 2.7550001
27.448999 19.791 2.7420001
13.989 -8.8330002 1.3049999
14.045 -8.7840004 1.309
14.064 -8.7119999 1.3099999
14.062 -8.6280003 1.308
14.136 -8.5909996 1.314
14.197 -8.5459995 1.319
14.232 -8.4849997 1.321
14.341 -8.4680004 1.33
14.394 -8.4189997 1.334
14.473 -8.3839998 1.34
14.509 -8.3240004 1.342
12.492 -1.369 1.102
12.32 -1.323 1.087
12.272 -1.29 1.082
12.24 -1.26 1.08
12.244 -1.233 1.08
12.269 -1.209 1.082
12.291 -1.184 1.084
12.35 -1.163 1.089
12.415 -1.142 1.095
12.433 -1.118 1.096
12.459 -1.094 1.098
12.487 -1.0700001 1.101
12.532 -1.0470001 1.105
12.977 -0.35299999 1.1440001
12.942 -0.331 1.141
12.871 -0.308 1.135
12.82 -0.285 1.13
12.775 -0.26300001 1.126
12.761 -0.242 1.125
12.761 -0.222 1.125
12.761 -0.20200001 1.125
12.769 -0.18099999 1.126
12.784 -0.162 1.127
12.804 -0.142 1.1289999
12.883 -0.123 1.136
13.042 -0.104 1.151
13.141 0.067000002 1.16
13.114 0.086000003 1.158
12.873 0.199 1.095
12.888 0.222 1.096
12.888 0.245 1.096
12.89 0.26800001 1.096
12.886 0.292 1.095
12.906 0.31600001 1.097
12.936 0.34099999 1.099
12.989 0.36700001 1.104
13.041 0.39300001 1.108
13.085 0.41999999 1.1109999
13.111 0.44600001 1.114
13.17 0.47400001 1.118
13.145 0.49900001 1.1160001
13.092 0.52399999 1.112
13.067 0.54900002 1.11
13.046 0.57499999 1.108
13.027 0.60100001 1.1059999
13.022 0.62800002 1.1059999
13.075 0.65799999 1.11
13.055 0.685 1.108
13.041 0.71200001 1.107
13.061 0.74199998 1.109
13.026 0.76800001 1.1059999
13.009 0.796 1.105
12.999 0.824 1.104
12.971 0.852 1.101
12.954 0.88 1.1
12.928 0.90799999 1.098
12.891 0.935 1.095
12.865 0.963 1.0930001
12.819 0.98900002 1.089
12.777 1.016 1.086
12.778 1.046 1.086
12.793 1.0779999 1.087
12.814 1.1109999 1.089
12.832 1.143 1.091
12.886 1.1799999 1.096
12.939 1.216 1.1
12.977 1.252 1.104
13.028 1.289 1.108
13.024 1.321 1.108
13.045 1.3559999 1.11
13.045 1.39 1.1109999
13.073 1.426 1.113
13.109 1.464 1.117
22.969999 2.5650001 1.957
13.23 1.511 1.127
22.875999 2.6140001 1.949
13.217 1.544 1.126
22.851999 2.6700001 1.948
13.043 1.558 1.112
22.872999 2.733 1.95
13.158 1.6059999 1.122
22.877001 2.793 1.951
13.159 1.641 1.122
22.868 2.8529999 1.951
22.882999 2.915 1.9529999
22.882 2.977 1.9529999
22.888 3.039 1.955
22.874001 3.099 1.954
22.895 3.164 1.957
22.889 3.2260001 1.957
22.893999 3.29 1.9579999
22.91 3.3559999 1.96
22.973 3.4289999 1.966
22.933001 3.487 1.964
22.921 3.549 1.9630001
22.931 3.6159999 1.965
22.955999 3.6849999 1.9680001
22.959 3.75 1.969
22.938999 3.813 1.9680001
22.962999 3.8829999 1.971
22.948999 3.947 1.971
22.966999 4.0170002 1.974
22.968 4.0840001 1.975
22.975 4.152 1.976
22.976999 4.2199998 1.978
22.969999 4.2870002 1.978
22.993 4.3590002 1.9809999
23.013 4.4320002 1.984
23.068001 4.5120001 1.99
23.249001 4.6170001 2.006
10.379 2.187 0.89700001
10.124 2.164 0.87599999
10.034 2.1760001 0.86900002
10.005 2.2 0.86699998
9.9790001 2.2260001 0.86500001
9.9809999 2.257 0.866
9.9680004 2.2850001 0.86500001
9.9469995 2.312 0.86400002
9.9209995 2.3369999 0.86199999
9.9139996 2.3670001 0.86199999
9.9049997 2.3959999 0.86199999
9.915 2.4300001 0.86400002
9.9259996 2.464 0.86500001
9.941 2.5 0.86699998
9.9370003 2.53 0.86699998
9.9549999 2.5669999 0.87
9.9910002 2.609 0.87300003
10.045 2.655 0.87900001
10.191 2.727 0.89200002
11.466 3.4860001 1.013
11.411 3.507 1.0089999
11.377 3.5350001 1.007
11.359 3.5680001 1.006
11.345 3.602 1.006
11.318 3.632 1.0039999
11.322 3.6719999 1.005
11.328 3.7130001 1.007
11.348 3.7579999 1.0089999
11.373 3.8050001 1.013
11.387 3.849 1.015
11.426 3.902 1.0190001
11.452 3.95 1.023
11.528 4.0159998 1.03
9.0780001 3.2260001 0.81300002
8.9610004 3.2149999 0.80299997
8.9139996 3.23 0.80000001
8.8789997 3.2479999 0.79699999
8.8780003 3.279 0.79799998
8.8809996 3.3110001 0.79900002
8.8789997 3.342 0.80000001
8.8909998 3.3770001 0.80199999
8.9029999 3.414 0.80400002
8.9200001 3.4519999 0.80599999
8.9289999 3.487 0.80800003
8.9460001 3.5250001 0.81
8.9580002 3.562 0.81199998
8.9910002 3.6070001 0.81599998
9.0150003 3.6489999 0.81900001
9.0609999 3.7 0.824
11.293 6.7870002 1.098
11.188 6.7639999 1.089
11.179 6.7989998 1.09
11.17 6.8340001 1.091
11.174 6.8759999 1.0930001
10.924 7.1830001 1.087
10.817 7.1500001 1.0779999
10.91 7.2490001 1.0880001
12.3 -1.39 1.125
12.238 -1.348 1.119
12.216 -1.3099999 1.117
12.264 -1.28 1.1210001
12.338 -1.252 1.128
12.413 -1.224 1.1339999
12.432 -1.1900001 1.136
12.483 -1.158 1.14
12.977 -0.45500001 1.179
12.897 -0.41499999 1.171
12.809 -0.37599999 1.163
12.742 -0.33700001 1.156
12.731 -0.30000001 1.155
12.716 -0.26300001 1.153
12.713 -0.226 1.153
12.733 -0.19 1.154
12.735 -0.153 1.154
12.808 -0.117 1.161
12.989 -0.082000002 1.177
13.093 0.149 1.142
13.145 0.161 1.146
13.099 0.17200001 1.141
13.128 0.185 1.143
13.129 0.197 1.143
13.141 0.20999999 1.1440001
13.12 0.223 1.141
13.074 0.236 1.137
13.071 0.25 1.136
13.057 0.26300001 1.135
13.092 0.27900001 1.137
13.134 0.294 1.141
13.091 0.30899999 1.136
13.052 0.32300001 1.133
13.013 0.338 1.1289999
12.939 0.352 1.122
12.892 0.36700001 1.118
12.867 0.38299999 1.1160001
12.845 0.39899999 1.113
12.854 0.41600001 1.114
12.904 0.435 1.118
12.974 0.456 1.124
13.282 0.523 1.15
13.243 0.54100001 1.146
13.182 0.55900002 1.141
13.146 0.57700002 1.138
13.142 0.597 1.137
13.072 0.61500001 1.131
13.049 0.634 1.1289999
13.031 0.65399998 1.128
13.066 0.67699999 1.13
13.139 0.70300001 1.137
13.123 0.72399998 1.135
13.089 0.745 1.132
13.079 0.76700002 1.132
13.053 0.78799999 1.1289999
13.028 0.80900002 1.127
13.023 0.83200002 1.127
12.978 0.85299999 1.123
12.944 0.87400001 1.12
12.936 0.898 1.119
12.922 0.921 1.118
12.904 0.94400001 1.117
12.882 0.96700001 1.115
12.889 0.99299997 1.1160001
12.901 1.0190001 1.117
12.903 1.045 1.117
12.908 1.071 1.118
12.915 1.098 1.119
12.938 1.126 1.1210001
12.957 1.154 1.123
12.966 1.182 1.124
13.02 1.215 1.1289999
13.009 1.2410001 1.128
12.985 1.267 1.126
13.031 1.299 1.13
13.061 1.331 1.133
13.072 1.3609999 1.135
13.084 1.391 1.136
22.992001 2.4449999 1.997
13.156 1.428 1.143
22.881001 2.484 1.988
13.2 1.4630001 1.147
22.849001 2.5320001 1.985
13.188 1.4910001 1.146
22.847 2.5840001 1.9859999
13.109 1.513 1.14
22.870001 2.6389999 1.989
13.091 1.541 1.138
22.868999 2.6919999 1.989
13.133 1.576 1.143
22.872999 2.7460001 1.99
13.297 1.628 1.1569999
22.867001 2.799 1.99
22.878 2.855 1.992
22.886999 2.911 1.994
22.862 2.9630001 1.992
22.881001 3.0209999 1.995
22.889 3.0780001 1.9960001
22.889999 3.1340001 1.997
22.895 3.1919999 1.999
22.902 3.25 2
22.926001 3.3110001 2.003
22.959 3.3740001 2.007
22.938999 3.4300001 2.006
22.92 3.4860001 2.006
22.927 3.5469999 2.007
22.938 3.608 2.0090001
22.950001 3.6700001 2.0109999
22.940001 3.73 2.0120001
22.962 3.7939999 2.0150001
22.938 3.852 2.0139999
22.938999 3.914 2.0150001
22.945999 3.977 2.017
22.962 4.0430002 2.0190001
22.957001 4.105 2.02
22.969 4.171 2.0220001
22.983999 4.2379999 2.0250001
22.974001 4.3000002 2.0250001
22.976 4.3649998 2.027
22.978001 4.4310002 2.029
22.975 4.4959998 2.03
23.01 4.5679998 2.0339999
23.028999 4.6389999 2.0369999
23.055 4.711 2.0409999
23.068001 4.7810001 2.0439999
23.056999 4.8460002 2.0439999
10.345 2.2049999 0.91799998
23.096001 4.9229999 2.049
10.113 2.1849999 0.898
10.034 2.198 0.89099997
9.9949999 2.22 0.889
9.9720001 2.2449999 0.88700002
9.9619999 2.273 0.88700002
9.9610004 2.303 0.88800001
9.9379997 2.3280001 0.88599998
9.9280005 2.3559999 0.88599998
9.9139996 2.3840001 0.88599998
9.9130001 2.414 0.88599998
9.9130001 2.4449999 0.88700002
9.9230003 2.4790001 0.889
9.9320002 2.513 0.88999999
9.927 2.543 0.89099997
9.9569998 2.582 0.89399999
9.9729996 2.619 0.89600003
10.012 2.661 0.90100002
10.096 2.7160001 0.90899998
10.291 2.802 0.92799997
11.571 3.5380001 1.053
11.391 3.5220001 1.038
11.371 3.5550001 1.0369999
11.36 3.5910001 1.038
11.344 3.625 1.0369999
11.315 3.6559999 1.036
11.318 3.6960001 1.0369999
11.32 3.737 1.038
11.357 3.789 1.043
11.375 3.836 1.046
11.397 3.8840001 1.049
11.423 3.934 1.053
11.478 3.994 1.059
9.1610003 3.2539999 0.847
8.9700003 3.2190001 0.82999998
8.908 3.23 0.82599998
8.8929996 3.257 0.82499999
8.882 3.286 0.82499999
8.8909998 3.322 0.82700002
8.8830004 3.352 0.82700002
8.8959999 3.3900001 0.82999998
8.908 3.428 0.83200002
8.9320002 3.471 0.83499998
8.948 3.5120001 0.838
8.9680004 3.5539999 0.84100002
9.0059996 3.6029999 0.84500003
9.0319996 3.648 0.84899998
9.1260004 3.721 0.85900003
11.359 6.375 1.13
11.261 6.3699999 1.122
11.206 6.3889999 1.118
11.199 6.4359999 1.12
11.181 6.4749999 1.12
11.209 6.5419998 1.124
28.333 19.597 2.964
28.216999 19.655001 2.9579999
28.000999 19.641001 2.941
27.902 19.709 2.9360001
27.808001 19.780001 2.9319999
27.598 19.766001 2.915
27.406 19.764999 2.901
12.54 -1.432 1.161
12.321 -1.378 1.14
12.294 -1.348 1.138
12.265 -1.317 1.135
12.261 -1.289 1.135
12.253 -1.261 1.1339999
12.249 -1.233 1.133
12.264 -1.2079999 1.135
12.316 -1.186 1.1390001
12.375 -1.165 1.145
12.434 -1.1440001 1.15
12.428 -1.117 1.149
12.44 -1.092 1.15
12.474 -1.068 1.154
12.528 -1.0470001 1.158
12.678 -1.033 1.1720001
12.969 -0.37400001 1.199
12.882 -0.34999999 1.191
12.818 -0.32699999 1.1849999
12.746 -0.30399999 1.179
12.711 -0.28200001 1.175
12.697 -0.26100001 1.174
12.682 -0.23999999 1.173
12.681 -0.22 1.173
12.685 -0.2 1.173
12.7 -0.18000001 1.175
12.704 -0.16 1.175
12.727 -0.141 1.177
12.77 -0.121 1.182
12.89 -0.103 1.193
13.121 -0.085000001 1.214
12.871 0.20100001 1.155
12.85 0.223 1.153
12.849 0.24600001 1.153
12.839 0.26899999 1.152
12.824 0.292 1.15
12.808 0.315 1.149
12.826 0.34 1.15
12.862 0.36500001 1.153
12.933 0.39199999 1.159
13.039 0.41999999 1.169
13.164 0.44999999 1.1799999
13.158 0.47499999 1.179
13.083 0.49900001 1.1720001
13.07 0.52399999 1.171
13.032 0.54900002 1.168
13.045 0.57700002 1.169
13.021 0.60299999 1.1670001
13.017 0.63 1.166
13.036 0.65799999 1.168
13.055 0.68699998 1.17
13.084 0.71600002 1.1720001
13.073 0.74400002 1.171
13.063 0.77200001 1.17
13.056 0.80000001 1.17
13.017 0.82700002 1.166
13.004 0.85500002 1.165
12.961 0.88200003 1.1619999
12.934 0.90899998 1.159
12.917 0.93800002 1.158
12.885 0.96499997 1.155
12.888 0.99599999 1.156
12.886 1.026 1.156
12.907 1.058 1.158
12.932 1.091 1.16
12.927 1.122 1.16
12.95 1.155 1.1619999
12.951 1.187 1.1619999
12.963 1.22 1.164
13.013 1.256 1.168
12.989 1.2869999 1.166
12.989 1.319 1.1670001
13.068 1.36 1.174
13.075 1.3940001 1.175
13.091 1.429 1.177
22.940001 2.5050001 2.062
13.138 1.4680001 1.181
22.836 2.552 2.0539999
13.265 1.516 1.193
22.832001 2.6099999 2.0539999
13.22 1.546 1.189
22.827999 2.6689999 2.0539999
13.154 1.572 1.184
22.823999 2.7290001 2.0539999
13.152 1.607 1.184
22.832001 2.79 2.056
22.846001 2.852 2.0580001
22.841999 2.9119999 2.0580001
22.857 2.9749999 2.0599999
22.843 3.0350001 2.059
22.853001 3.098 2.0610001
22.871 3.1630001 2.063
22.877001 3.2260001 2.0650001
22.877001 3.289 2.066
22.878 3.352 2.066
22.921 3.4219999 2.0710001
22.909 3.4849999 2.0710001
22.906 3.549 2.072
22.914 3.6140001 2.073
22.924 3.681 2.075
22.92 3.7460001 2.076
22.92 3.8110001 2.0769999
22.931 3.8789999 2.079
22.945 3.948 2.0810001
22.927999 4.0110002 2.0799999
22.948999 4.0819998 2.0829999
22.962 4.151 2.086
22.947001 4.2160001 2.085
22.964001 4.2870002 2.0880001
22.959999 4.355 2.089
22.976999 4.4260001 2.0910001
22.976 4.4949999 2.092
22.983 4.5650001 2.0940001
23 4.638 2.0969999
23.006001 4.7090001 2.099
23.018 4.7810001 2.1010001
23.021999 4.8520002 2.1029999
10.233 2.188 0.935
23.094999 4.9390001 2.1110001
10.069 2.184 0.921
10.006 2.201 0.91500002
9.9770002 2.2260001 0.91299999
9.9680004 2.2550001 0.91299999
9.948 2.2809999 0.912
9.9429998 2.3110001 0.912
9.9209995 2.3369999 0.91100001
9.9230003 2.369 0.91100001
9.9069996 2.3970001 0.91100001
9.9250002 2.4330001 0.91299999
9.9130001 2.461 0.912
9.9300003 2.497 0.91500002
9.9460001 2.533 0.917
9.974 2.572 0.92000002
10.009 2.6140001 0.92400002
10.039 2.654 0.92799997
10.118 2.7079999 0.93599999
11.709 3.5599999 1.0930001
11.426 3.513 1.067
11.358 3.53 1.062
11.344 3.5639999 1.061
11.331 3.598 1.061
11.323 3.6340001 1.061
11.309 3.668 1.061
11.336 3.7160001 1.064
11.351 3.76 1.067
11.382 3.809 1.071
11.401 3.8540001 1.073
11.418 3.9000001 1.076
11.456 3.9519999 1.081
11.575 4.033 1.0930001
9.2040005 3.2709999 0.87099999
8.9940004 3.2279999 0.852
8.9320002 3.237 0.847
8.8999996 3.256 0.84500003
8.8789997 3.28 0.84299999
8.8850002 3.313 0.84500003
8.8789997 3.342 0.84500003
8.8850002 3.3759999 0.847
8.9099998 3.4170001 0.85000002
8.9160004 3.451 0.85100001
8.9399996 3.4909999 0.85399997
8.9390001 3.523 0.85500002
8.9680004 3.566 0.85900003
9.0089998 3.615 0.86400002
9.0200005 3.651 0.866
9.1059999 3.7190001 0.875
11.221 6.6240001 1.149
11.082 6.5819998 1.136
11.035 6.5939999 1.133
11.014 6.6209998 1.132
10.994 6.6479998 1.132
10.974 6.6750002 1.131
10.974 6.7150002 1.133
10.974 6.7540002 1.135
10.999 6.809 1.1390001
12.409 -1.473 1.1900001
12.273 -1.4220001 1.177
12.254 -1.3839999 1.175
12.23 -1.346 1.1720001
12.226 -1.3099999 1.171
12.282 -1.281 1.176
12.349 -1.252 1.183
12.408 -1.222 1.188
12.412 -1.187 1.188
12.463 -1.155 1.193
12.945 -0.45300001 1.232
12.848 -0.412 1.222
12.75 -0.37200001 1.2130001
12.706 -0.33399999 1.2079999
12.701 -0.29800001 1.207
12.687 -0.26100001 1.206
12.705 -0.22400001 1.207
12.725 -0.18799999 1.209
12.742 -0.152 1.21
12.838 -0.116 1.219
13.082 -0.079999998 1.2410001
13.229 0.82300001 1.207
13.164 0.84299999 1.201
13.147 0.866 1.199
13.114 0.88700002 1.196
13.037 0.90600002 1.189
13.011 0.92900002 1.187
13.001 0.95300001 1.186
12.991 0.977 1.186
12.991 1.002 1.186
13.038 1.031 1.1900001
13.083 1.061 1.1950001
13.101 1.0880001 1.196
13.132 1.117 1.199
13.13 1.1440001 1.199
13.091 1.168 1.196
13.137 1.199 1.201
13.2 1.233 1.207
13.18 1.2589999 1.205
13.307 1.299 1.217
13.287 1.355 1.216
22.945 2.3399999 2.0999999
13.252 1.381 1.2130001
22.870001 2.3829999 2.0940001
22.844 2.431 2.092
22.827 2.48 2.0910001
22.848 2.5339999 2.0929999
22.834 2.5840001 2.0929999
22.854 2.6389999 2.095
22.849001 2.6919999 2.096
22.858 2.7460001 2.0969999
22.849001 2.799 2.0969999
22.874001 2.8559999 2.0999999
22.865999 2.9100001 2.0999999
22.855 2.9630001 2.0999999
22.874001 3.0209999 2.1029999
22.868 3.076 2.1029999
22.860001 3.132 2.1029999
22.875999 3.191 2.1059999
22.896999 3.2509999 2.109
22.900999 3.309 2.1099999
22.966999 3.3770001 2.1170001
22.943001 3.4319999 2.1159999
22.902 3.4849999 2.1129999
22.903999 3.5450001 2.115
22.924999 3.608 2.118
22.93 3.6689999 2.119
22.934999 3.73 2.1210001
22.938 3.7920001 2.1229999
22.943001 3.8540001 2.1240001
22.936001 3.915 2.125
22.934 3.977 2.1259999
22.955999 4.0430002 2.1289999
22.959999 4.1069999 2.131
22.954 4.1690001 2.132
22.961 4.2350001 2.1340001
22.962999 4.2989998 2.135
22.969999 4.3649998 2.1370001
22.971001 4.4310002 2.1389999
22.978001 4.4970002 2.141
22.993999 4.5669999 2.1440001
22.983999 4.631 2.145
22.992001 4.6989999 2.1470001
22.999001 4.7680001 2.1489999
23.003 4.836 2.151
23.035 4.9109998 2.1559999
10.226 2.21 0.95700002
23.108999 4.9949999 2.164
10.063 2.2049999 0.94300002
10 2.221 0.93800002
9.9700003 2.2449999 0.93599999
9.9619999 2.273 0.93599999
9.9399996 2.2980001 0.93400002
9.9390001 2.3280001 0.935
9.9239998 2.3559999 0.93400002
9.9230003 2.3859999 0.935
9.9259996 2.418 0.93599999
9.9230003 2.448 0.93699998
9.927 2.48 0.93800002
9.934 2.5139999 0.93900001
9.9460001 2.5480001 0.94099998
9.9639997 2.585 0.94400001
9.9910002 2.6240001 0.94700003
10.021 2.664 0.95099998
10.071 2.71 0.95700002
10.294 2.803 0.97899997
11.489 3.553 1.105
11.372 3.556 1.095
11.344 3.586 1.0930001
11.308 3.6140001 1.091
11.319 3.6570001 1.0930001
11.319 3.697 1.094
11.329 3.74 1.097
11.36 3.7909999 1.101
11.387 3.8410001 1.105
11.42 3.892 1.109
11.436 3.9389999 1.112
11.551 4.02 1.125
9.0310001 3.2409999 0.88200003
8.9379997 3.2409999 0.87400001
8.9049997 3.2620001 0.87199998
8.8970003 3.2920001 0.87199998
8.8900003 3.322 0.87300003
8.8999996 3.359 0.875
8.8959999 3.391 0.87599999
8.9180002 3.4330001 0.87900001
8.9399996 3.4749999 0.88200003
8.9580002 3.516 0.88499999
8.9720001 3.5550001 0.88800001
