# .PCD v0.7 - Point Cloud Data file format
VERSION 0.7
FIELDS x y z
SIZE 4 4 4
TYPE F F F
COUNT 1 1 1
WIDTH 1653
HEIGHT 1
VIEWPOINT 0 0 0 1 0 0 0
POINTS 1653
DATA ascii
6.698 -2.0599999 -0.366
6.6900001 -2.039 -0.366
6.7010002 -2.023 -0.366
6.7059999 -2.006 -0.366
6.7199998 -1.9910001 -0.36700001
6.7249999 -1.973 -0.36700001
6.73 -1.956 -0.36700001
6.7350001 -1.938 -0.36700001
6.7540002 -1.924 -0.368
6.7659998 -1.908 -0.36899999
6.77 -1.89 -0.36899999
6.783 -1.875 -0.36899999
6.7880001 -1.857 -0.36899999
6.8200002 -1.846 -0.37099999
6.8249998 -1.8279999 -0.37099999
6.829 -1.809 -0.37099999
6.842 -1.794 -0.37200001
6.8390002 -1.773 -0.37099999
6.8579998 -1.7589999 -0.37200001
6.869 -1.742 -0.373
6.868 -1.722 -0.37200001
6.9060001 -1.712 -0.37400001
6.9029999 -1.692 -0.37400001
6.9050002 -1.673 -0.37400001
6.9349999 -1.66 -0.375
6.928 -1.6390001 -0.375
6.9489999 -1.624 -0.37599999
6.9679999 -1.609 -0.37599999
6.9840002 -1.5930001 -0.377
6.9970002 -1.576 -0.37799999
7.0170002 -1.561 -0.37900001
7.0349998 -1.545 -0.37900001
7.0240002 -1.522 -0.37900001
7.0409999 -1.506 -0.37900001
7.0669999 -1.492 -0.38100001
7.0609999 -1.47 -0.38
7.0879998 -1.456 -0.38100001
7.1129999 -1.441 -0.382
7.1199999 -1.4220001 -0.38299999
7.1360002 -1.405 -0.38299999
7.1570001 -1.3890001 -0.384
7.1630001 -1.37 -0.384
7.1669998 -1.351 -0.384
7.1890001 -1.334 -0.38499999
7.211 -1.318 -0.38600001
7.2199998 -1.299 -0.38699999
7.2319999 -1.281 -0.38699999
7.257 -1.265 -0.38800001
7.2690001 -1.2460001 -0.389
7.29 -1.229 -0.38999999
7.2849998 -1.2079999 -0.389
7.2969999 -1.189 -0.38999999
7.3299999 -1.174 -0.391
7.342 -1.155 -0.39199999
7.3649998 -1.138 -0.39300001
7.3660002 -1.117 -0.39300001
7.3920002 -1.1 -0.39399999
7.4089999 -1.082 -0.39500001
7.4190001 -1.063 -0.39500001
7.4429998 -1.045 -0.396
7.4369998 -1.023 -0.39500001
7.4569998 -1.005 -0.396
7.4889998 -0.98799998 -0.398
7.4860001 -0.96700001 -0.39700001
7.513 -0.949 -0.39899999
7.5300002 -0.93000001 -0.39899999
7.533 -0.90899998 -0.39899999
7.5630002 -0.89099997 -0.40099999
7.5830002 -0.87199998 -0.40200001
7.5900002 -0.852 -0.40200001
7.605 -0.83200002 -0.40200001
7.631 -0.81300002 -0.40400001
7.6490002 -0.79400003 -0.40400001
7.6830001 -0.77600002 -0.40599999
7.6859999 -0.75400001 -0.40599999
7.7290001 -0.73699999 -0.40799999
7.7259998 -0.71499997 -0.40799999
7.7550001 -0.69499999 -0.40900001
7.7740002 -0.67500001 -0.41
7.7820001 -0.65399998 -0.41
7.7810001 -0.63200003 -0.41
7.8150001 -0.61299998 -0.41100001
7.8590002 -0.59399998 -0.41299999
7.842 -0.57099998 -0.412
7.8909998 -0.55199999 -0.41499999
7.8839998 -0.52999997 -0.414
7.9349999 -0.51099998 -0.417
7.9530001 -0.48899999 -0.417
7.9679999 -0.46799999 -0.41800001
7.9899998 -0.447 -0.419
8.0290003 -0.426 -0.421
8.0419998 -0.40400001 -0.421
8.0790005 -0.384 -0.42300001
8.1260004 -0.36300001 -0.42500001
8.217 -0.34400001 -0.43000001
8.2110004 -0.32100001 -0.42899999
7.9320002 0.219 -0.565
7.9320002 0.23100001 -0.565
7.8769999 0.241 -0.56099999
7.8670001 0.25299999 -0.56099999
7.8610001 0.26499999 -0.56099999
7.8369999 0.27599999 -0.55900002
7.8189998 0.28799999 -0.55800003
7.8070002 0.30000001 -0.55699998
7.803 0.31299999 -0.55699998
7.8119998 0.32600001 -0.55800003
7.8010001 0.33899999 -0.55699998
7.8039999 0.352 -0.55800003
7.7909999 0.36500001 -0.55699998
7.7870002 0.37799999 -0.55699998
7.796 0.39199999 -0.55800003
7.7839999 0.40599999 -0.55699998
7.7789998 0.419 -0.55699998
7.7690001 0.433 -0.55699998
7.7719998 0.44800001 -0.55699998
7.79 0.463 -0.55900002
7.7729998 0.477 -0.55800003
7.7839999 0.493 -0.55900002
7.7740002 0.50700003 -0.55800003
7.7649999 0.52200001 -0.55800003
7.7540002 0.53600001 -0.55800003
7.75 0.551 -0.55800003
7.7519999 0.56699997 -0.55800003
7.7459998 0.58200002 -0.55800003
7.7459998 0.59799999 -0.55800003
7.7459998 0.61400002 -0.55900002
7.7509999 0.63099998 -0.55900002
7.763 0.64899999 -0.56099999
7.7410002 0.66299999 -0.55900002
7.7550001 0.68099999 -0.56099999
7.7659998 0.699 -0.56199998
7.7490001 0.71399999 -0.56099999
7.763 0.73299998 -0.56199998
7.7839999 0.75199997 -0.56400001
7.7820001 0.76999998 -0.56400001
7.7779999 0.787 -0.565
7.7729998 0.80400002 -0.565
7.7750001 0.82200003 -0.565
7.763 0.83899999 -0.565
7.777 0.85900003 -0.56599998
7.7750001 0.87699997 -0.56599998
7.77 0.89499998 -0.56599998
7.7779999 0.91500002 -0.56800002
7.7680001 0.93199998 -0.56699997
7.7690001 0.95099998 -0.56800002
7.7709999 0.97100002 -0.56800002
7.7719998 0.99000001 -0.56900001
7.7870002 1.011 -0.57099998
7.7680001 1.028 -0.56999999
7.7709999 1.049 -0.56999999
7.7789998 1.0700001 -0.57099998
7.789 1.091 -0.57300001
7.8010001 1.113 -0.574
7.7950001 1.132 -0.574
7.8109999 1.155 -0.57599998
7.8049998 1.174 -0.57599998
7.8130002 1.196 -0.57700002
7.8249998 1.219 -0.579
7.8340001 1.242 -0.57999998
7.8429999 1.2640001 -0.58099997
7.842 1.285 -0.58099997
7.8379998 1.306 -0.58200002
7.8610001 1.332 -0.58399999
7.8429999 1.35 -0.583
7.869 1.377 -0.58600003
7.8569999 1.397 -0.58600003
7.868 1.421 -0.58700001
7.8699999 1.444 -0.588
7.8790002 1.4680001 -0.58899999
7.8899999 1.492 -0.58999997
7.8839998 1.5140001 -0.59100002
7.8959999 1.539 -0.59200001
7.8889999 1.561 -0.59200001
7.9120002 1.589 -0.59500003
7.9070001 1.6109999 -0.59500003
7.9070001 1.635 -0.59600002
7.902 1.6569999 -0.59600002
7.9190001 1.6849999 -0.59799999
7.9289999 1.711 -0.59899998
7.921 1.733 -0.60000002
7.9239998 1.758 -0.60000002
7.934 1.784 -0.602
7.9460001 1.812 -0.60399997
7.9790001 1.844 -0.60699999
7.9749999 1.868 -0.60699999
7.9619999 1.89 -0.60699999
7.961 1.914 -0.60799998
7.9840002 1.9450001 -0.61000001
7.9910002 1.972 -0.61199999
7.9910002 1.998 -0.61199999
7.987 2.0220001 -0.61299998
8.0190001 2.056 -0.616
8 2.0780001 -0.61500001
8.0139999 2.1070001 -0.61699998
8.0129995 2.1329999 -0.61799997
8.0249996 2.1630001 -0.62
8.0369997 2.1930001 -0.62199998
8.0319996 2.2179999 -0.62199998
8.0220003 2.2420001 -0.62199998
8.0439997 2.2750001 -0.625
8.0500002 2.3039999 -0.62599999
8.066 2.335 -0.62800002
8.0679998 2.3629999 -0.62900001
8.0860004 2.3959999 -0.63099998
8.1009998 2.428 -0.63300002
8.099 2.4560001 -0.634
8.0970001 2.483 -0.63499999
8.0939999 2.51 -0.63599998
8.0959997 2.539 -0.63700002
8.1190004 2.575 -0.639
8.1300001 2.6070001 -0.64099997
8.1269999 2.6340001 -0.64200002
8.1330004 2.665 -0.64300001
8.1359997 2.6949999 -0.64499998
8.1459999 2.7279999 -0.64600003
8.1569996 2.7609999 -0.648
8.1719999 2.7950001 -0.64999998
8.1829996 2.829 -0.65200001
8.1829996 2.858 -0.653
8.1949997 2.8929999 -0.65499997
8.2139997 2.9289999 -0.65799999
8.2069998 2.957 -0.65799999
8.2320004 2.997 -0.66100001
8.2360001 3.029 -0.66299999
8.2390003 3.0599999 -0.66399997
8.2600002 3.099 -0.667
8.2519999 3.1270001 -0.667
8.257 3.1600001 -0.66900003
8.2770004 3.1989999 -0.67199999
8.2849998 3.234 -0.67299998
8.2770004 3.2620001 -0.67400002
8.309 3.3069999 -0.67699999
8.3299999 3.3469999 -0.68000001
8.3299999 3.3789999 -0.68099999
8.3310003 3.4119999 -0.68300003
8.3719997 3.461 -0.68699998
8.3870001 3.5 -0.69
8.3730001 3.5280001 -0.69
8.3959999 3.5699999 -0.69300002
8.3959999 3.6040001 -0.69400001
8.4250002 3.6489999 -0.69800001
8.4490004 3.6930001 -0.70099998
8.4940004 3.747 -0.70599997
8.4879999 3.779 -0.70700002
8.4709997 3.8050001 -0.70599997
8.4799995 3.8429999 -0.708
8.5120001 3.8929999 -0.71200001
8.5089998 3.9260001 -0.713
8.5089998 3.96 -0.71499997
8.5200005 4.0009999 -0.71700001
8.5109997 4.0320001 -0.71700001
8.5410004 4.0809999 -0.72100002
8.5579996 4.1240001 -0.72399998
8.5629997 4.1620002 -0.72600001
8.573 4.2030001 -0.72799999
8.5950003 4.25 -0.73100001
8.6029997 4.29 -0.73299998
8.6199999 4.336 -0.736
8.6070004 4.3660002 -0.736
8.618 4.4070001 -0.73900002
8.618 4.4450002 -0.74000001
8.6210003 4.4829998 -0.74199998
8.6239996 4.5219998 -0.74400002
8.6499996 4.572 -0.74699998
8.6529999 4.6110001 -0.74900001
8.6680002 4.6570001 -0.75199997
8.684 4.704 -0.755
8.6890001 4.744 -0.75599998
8.6879997 4.7820001 -0.75800002
8.691 4.822 -0.75999999
8.724 4.8790002 -0.764
8.7180004 4.915 -0.76499999
8.7379999 4.9650002 -0.76800001
8.7390003 5.0040002 -0.76999998
8.7620001 5.0570002 -0.77399999
8.7469997 5.0869999 -0.77399999
8.7629995 5.1360002 -0.77700001
8.7749996 5.1830001 -0.77899998
8.776 5.223 -0.78100002
8.7790003 5.2649999 -0.78299999
8.7930002 5.3140001 -0.78600001
8.7679996 5.3390002 -0.78500003
8.7910004 5.3940001 -0.78899997
8.8009996 5.4400001 -0.792
8.8140001 5.4889998 -0.79400003
8.8000002 5.5209999 -0.79500002
8.7969999 5.5599999 -0.796
8.8210001 5.6170001 -0.80000001
8.8290005 5.664 -0.80199999
8.8190002 5.698 -0.80299997
8.8389997 5.7529998 -0.80699998
8.8260002 5.7859998 -0.80699998
8.8290005 5.8299999 -0.80900002
8.8439999 5.882 -0.81199998
8.8470001 5.927 -0.815
8.8380003 5.9629998 -0.815
8.8540001 6.0170002 -0.81900001
8.8430004 6.0510001 -0.81900001
8.842 6.0929999 -0.82099998
8.8470001 6.1399999 -0.82300001
8.8280001 6.1700001 -0.824
8.8140001 6.2030001 -0.824
8.8149996 6.2470002 -0.82599998
8.7869997 6.27 -0.82499999
8.7889996 6.3150001 -0.82700002
8.7480001 6.329 -0.82499999
5.527 -3.668 -0.30700001
5.5419998 -3.6429999 -0.30700001
5.5560002 -3.6170001 -0.308
5.5770001 -3.596 -0.308
5.5830002 -3.5650001 -0.308
5.6149998 -3.5510001 -0.31
5.638 -3.5320001 -0.31099999
5.6409998 -3.4990001 -0.31
5.6690001 -3.483 -0.31200001
5.677 -3.454 -0.31200001
5.6880002 -3.427 -0.31200001
5.6999998 -3.402 -0.31200001
5.7210002 -3.381 -0.31299999
5.75 -3.365 -0.31400001
5.7800002 -3.3499999 -0.31600001
5.8010001 -3.3299999 -0.31600001
5.8080001 -3.302 -0.31600001
5.822 -3.277 -0.317
5.8410001 -3.256 -0.317
5.8559999 -3.233 -0.31799999
5.8699999 -3.2090001 -0.31799999
5.888 -3.188 -0.31900001
5.9070001 -3.1659999 -0.31999999
5.927 -3.1459999 -0.32100001
5.9450002 -3.125 -0.32100001
5.9569998 -3.0999999 -0.322
5.9640002 -3.0739999 -0.322
5.9899998 -3.056 -0.32300001
6.013 -3.0380001 -0.324
6.026 -3.0139999 -0.324
6.04 -2.9920001 -0.324
6.0560002 -2.97 -0.32499999
6.0609999 -2.9430001 -0.32499999
6.072 -2.9189999 -0.32499999
6.1030002 -2.904 -0.32699999
6.1079998 -2.878 -0.32699999
6.125 -2.8570001 -0.32699999
6.1440001 -2.8369999 -0.32800001
6.1550002 -2.813 -0.32800001
6.1589999 -2.7869999 -0.32800001
6.1739998 -2.7650001 -0.329
6.1989999 -2.7479999 -0.33000001
6.21 -2.7249999 -0.33000001
6.2150002 -2.6989999 -0.33000001
6.2490001 -2.6860001 -0.33199999
6.2709999 -2.668 -0.33199999
6.2950001 -2.651 -0.333
6.3119998 -2.6300001 -0.33399999
6.3189998 -2.6059999 -0.33399999
6.3379998 -2.5869999 -0.33500001
6.3660002 -2.5710001 -0.336
6.3829999 -2.5510001 -0.33700001
6.3920002 -2.5280001 -0.33700001
6.4070001 -2.507 -0.338
6.4359999 -2.4920001 -0.33899999
6.4419999 -2.467 -0.33899999
6.474 -2.4530001 -0.34
6.4819999 -2.4300001 -0.34
6.487 -2.4059999 -0.34
6.507 -2.388 -0.34099999
6.5320001 -2.3710001 -0.34200001
6.5440001 -2.349 -0.34299999
6.566 -2.332 -0.34400001
6.573 -2.309 -0.34400001
6.5929999 -2.29 -0.345
6.5939999 -2.266 -0.34400001
6.625 -2.2509999 -0.34599999
6.631 -2.2279999 -0.34599999
6.6409998 -2.2060001 -0.34599999
6.645 -2.1830001 -0.34599999
6.6700001 -2.1659999 -0.347
6.6869998 -2.148 -0.34799999
6.6939998 -2.125 -0.34799999
6.7049999 -2.105 -0.34799999
6.723 -2.086 -0.34900001
6.7379999 -2.066 -0.34999999
6.7480001 -2.046 -0.34999999
6.7659998 -2.027 -0.35100001
6.7750001 -2.006 -0.35100001
6.7969999 -1.989 -0.352
6.789 -1.9630001 -0.35100001
6.8080001 -1.9450001 -0.352
6.8299999 -1.928 -0.35299999
6.8460002 -1.91 -0.35299999
6.868 -1.892 -0.354
6.8709998 -1.87 -0.354
6.8870001 -1.852 -0.35499999
6.8979998 -1.832 -0.35499999
6.908 -1.812 -0.35600001
6.9250002 -1.794 -0.35600001
6.9439998 -1.776 -0.35699999
6.9640002 -1.7589999 -0.35800001
6.9759998 -1.739 -0.35800001
6.9860001 -1.72 -0.359
7.006 -1.702 -0.36000001
7.0079999 -1.681 -0.359
7.0370002 -1.666 -0.361
7.0599999 -1.65 -0.36199999
7.0799999 -1.632 -0.36300001
7.086 -1.612 -0.36300001
7.0910001 -1.592 -0.36300001
7.1160002 -1.576 -0.36399999
7.118 -1.5549999 -0.36399999
7.131 -1.5369999 -0.36399999
7.1560001 -1.521 -0.36500001
7.1739998 -1.5039999 -0.366
7.1849999 -1.485 -0.36700001
7.2069998 -1.4680001 -0.36700001
7.2309999 -1.452 -0.368
7.2350001 -1.432 -0.36899999
7.2540002 -1.416 -0.36899999
7.263 -1.397 -0.37
7.2680001 -1.377 -0.37
7.2940001 -1.362 -0.37099999
7.3150001 -1.345 -0.37200001
7.3010001 -1.323 -0.37099999
7.309 -1.304 -0.37099999
7.329 -1.288 -0.37200001
7.342 -1.27 -0.373
7.3470001 -1.251 -0.373
7.3649998 -1.234 -0.373
7.3889999 -1.219 -0.37400001
7.3979998 -1.201 -0.375
7.4250002 -1.186 -0.37599999
7.4190001 -1.165 -0.37599999
7.4380002 -1.149 -0.37599999
7.46 -1.133 -0.377
7.467 -1.115 -0.37799999
7.4780002 -1.098 -0.37799999
7.4959998 -1.082 -0.37900001
7.513 -1.0650001 -0.37900001
7.5159998 -1.0470001 -0.37900001
7.5339999 -1.031 -0.38
7.5450001 -1.0140001 -0.38100001
7.552 -0.99599999 -0.38100001
7.5640001 -0.97899997 -0.38100001
7.579 -0.963 -0.382
7.5960002 -0.94700003 -0.38299999
7.6030002 -0.93000001 -0.38299999
7.6199999 -0.91399997 -0.384
7.6199999 -0.89600003 -0.38299999
7.625 -0.87900001 -0.384
7.645 -0.86299998 -0.384
7.6620002 -0.84799999 -0.38499999
7.6810002 -0.83200002 -0.38600001
7.671 -0.81300002 -0.38499999
7.6700001 -0.796 -0.38499999
7.7010002 -0.78200001 -0.38699999
7.7059999 -0.76499999 -0.38699999
7.711 -0.74900001 -0.38699999
7.7399998 -0.73500001 -0.38800001
7.7490001 -0.71899998 -0.389
7.7639999 -0.70300001 -0.389
7.7729998 -0.68699998 -0.38999999
7.796 -0.67299998 -0.391
7.8070002 -0.65700001 -0.391
7.8049998 -0.63999999 -0.391
7.8390002 -0.62699997 -0.39300001
7.8520002 -0.611 -0.39300001
7.8600001 -0.59600002 -0.39300001
7.8670001 -0.57999998 -0.39399999
7.8909998 -0.56599998 -0.39500001
7.8899999 -0.55000001 -0.39500001
7.9070001 -0.53500003 -0.39500001
7.9169998 -0.51999998 -0.396
7.9299998 -0.505 -0.396
7.9520001 -0.491 -0.39700001
7.9520001 -0.47499999 -0.39700001
7.9679999 -0.461 -0.398
7.9910002 -0.447 -0.39899999
8.0059996 -0.43200001 -0.40000001
8.0080004 -0.417 -0.40000001
8.0410004 -0.40400001 -0.40099999
8.0600004 -0.38999999 -0.40200001
8.066 -0.375 -0.40200001
8.0839996 -0.361 -0.403
8.1040001 -0.347 -0.40400001
8.092 -0.33199999 -0.403
8.1199999 -0.31799999 -0.405
8.1499996 -0.30500001 -0.40599999
8.177 -0.29100001 -0.40700001
8.1999998 -0.278 -0.40900001
8.2379999 -0.26499999 -0.41
8.2650003 -0.25099999 -0.412
7.9060001 0.086000003 -0.542
7.8940001 0.1 -0.542
7.9000001 0.12899999 -0.542
7.8610001 0.14399999 -0.54000002
7.8509998 0.15899999 -0.53899997
7.8449998 0.17399999 -0.53899997
7.8379998 0.189 -0.53899997
7.816 0.204 -0.537
7.789 0.219 -0.53600001
7.7659998 0.234 -0.53399998
7.7950001 0.25099999 -0.53600001
7.7740002 0.266 -0.53500003
7.7729998 0.28200001 -0.53500003
7.7529998 0.29800001 -0.53399998
7.763 0.315 -0.53500003
7.7529998 0.331 -0.53500003
7.7639999 0.34799999 -0.53600001
7.7470002 0.36399999 -0.53500003
7.756 0.382 -0.53600001
7.7620001 0.39899999 -0.53600001
7.7550001 0.41600001 -0.53600001
7.7480001 0.433 -0.53600001
7.7550001 0.45100001 -0.537
7.737 0.46799999 -0.53600001
7.744 0.486 -0.53600001
7.7490001 0.505 -0.537
7.7420001 0.52200001 -0.537
7.7309999 0.54000002 -0.537
7.7389998 0.55900002 -0.537
7.737 0.57700002 -0.53799999
7.7220001 0.59500003 -0.537
7.7179999 0.61299998 -0.537
7.7249999 0.63300002 -0.53799999
7.717 0.65100002 -0.53799999
7.7150002 0.67000002 -0.53799999
7.7280002 0.69099998 -0.53899997
7.7290001 0.70999998 -0.53899997
7.737 0.73000002 -0.54000002
7.7220001 0.74900001 -0.54000002
7.73 0.76899999 -0.54100001
7.7389998 0.79000002 -0.542
7.7729998 0.81400001 -0.54400003
7.7979999 0.83700001 -0.54699999
7.7810001 0.85500002 -0.546
7.7729998 0.875 -0.546
7.7740002 0.89600003 -0.546
7.7719998 0.91600001 -0.546
7.79 0.93900001 -0.54799998
7.7800002 0.95899999 -0.54799998
7.7930002 0.98199999 -0.54900002
7.7690001 1 -0.54799998
7.7729998 1.022 -0.54900002
7.802 1.0470001 -0.551
7.7810001 1.066 -0.55000001
7.79 1.089 -0.551
7.8080001 1.114 -0.55299997
7.8270001 1.138 -0.55500001
7.823 1.16 -0.55500001
7.8379998 1.184 -0.55699998
7.8530002 1.209 -0.55800003
7.8520002 1.2309999 -0.55900002
7.8670001 1.256 -0.56
7.869 1.28 -0.56099999
7.888 1.306 -0.56300002
7.8909998 1.329 -0.56400001
7.901 1.354 -0.565
7.9099998 1.3789999 -0.56599998
7.9029999 1.401 -0.56599998
7.9159999 1.427 -0.56800002
7.921 1.452 -0.56900001
7.941 1.479 -0.56999999
7.9450002 1.5039999 -0.57099998
7.9640002 1.5319999 -0.57300001
7.96 1.5549999 -0.574
7.9860001 1.584 -0.57599998
7.9850001 1.608 -0.57700002
7.9949999 1.635 -0.57800001
7.9879999 1.658 -0.57800001
8.0109997 1.688 -0.57999998
8.0159998 1.714 -0.58099997
8.0530005 1.747 -0.58499998
8.0459995 1.771 -0.58499998
8.0509996 1.7970001 -0.58600003
8.0819998 1.829 -0.58899999
8.0869999 1.8559999 -0.58999997
8.1049995 1.886 -0.59200001
8.1199999 1.915 -0.59399998
8.1120005 1.939 -0.59399998
8.1199999 1.967 -0.59500003
8.1379995 1.998 -0.597
8.1479998 2.026 -0.59799999
8.1470003 2.053 -0.59899998
8.1540003 2.0810001 -0.60000002
8.1809998 2.1140001 -0.60299999
8.1750002 2.1400001 -0.60299999
8.1750002 2.1659999 -0.60399997
8.1960001 2.1989999 -0.60600001
8.1780005 2.221 -0.60600001
8.2139997 2.2579999 -0.60900003
8.2080002 2.283 -0.61000001
8.2259998 2.316 -0.61199999
8.243 2.348 -0.61400002
8.25 2.3770001 -0.61500001
8.2700005 2.411 -0.61699998
8.2740002 2.4400001 -0.61799997
8.2810001 2.47 -0.62
8.2910004 2.5009999 -0.62099999
8.2840004 2.527 -0.62199998
8.3149996 2.5650001 -0.625
8.3269997 2.5969999 -0.62599999
8.3369999 2.628 -0.62800002
8.3319998 2.655 -0.62900001
8.3369999 2.6849999 -0.63
8.3710003 2.7249999 -0.63300002
8.3319998 2.7409999 -0.63099998
8.3540001 2.777 -0.634
8.3850002 2.816 -0.63700002
8.4029999 2.852 -0.639
8.4040003 2.881 -0.63999999
8.4069996 2.9119999 -0.64099997
8.4379997 2.9519999 -0.64499998
8.46 2.9890001 -0.64700001
8.4560003 3.017 -0.648
8.474 3.053 -0.64999998
8.4729996 3.0829999 -0.65100002
8.474 3.1129999 -0.65200001
8.4820004 3.1459999 -0.65399998
8.5030003 3.184 -0.65600002
8.507 3.2149999 -0.65700001
8.5190001 3.25 -0.65899998
8.5120001 3.2780001 -0.66000003
8.5299997 3.3150001 -0.662
8.5469999 3.352 -0.66399997
8.5480003 3.3829999 -0.66600001
8.5679998 3.4219999 -0.66799998
8.5819998 3.4579999 -0.67000002
8.5889997 3.4909999 -0.67199999
8.6049995 3.529 -0.67400002
8.6140003 3.563 -0.676
8.625 3.599 -0.67799997
8.6339998 3.6340001 -0.67900002
8.6389999 3.668 -0.68099999
8.6680002 3.711 -0.68400002
8.6739998 3.7449999 -0.68599999
8.6949997 3.786 -0.68900001
8.6940002 3.8169999 -0.69
8.7019997 3.852 -0.69099998
8.7069998 3.8859999 -0.69300002
8.7119999 3.9189999 -0.69400001
8.7460003 3.967 -0.69800001
8.7639999 4.007 -0.70099998
8.7709999 4.0419998 -0.70200002
8.7729998 4.0749998 -0.704
8.7620001 4.1020002 -0.704
8.783 4.1440001 -0.70700002
8.7650003 4.1669998 -0.70700002
8.783 4.2080002 -0.70899999
8.7959995 4.2459998 -0.71100003
8.809 4.2849998 -0.71399999
8.8249998 4.3249998 -0.71600002
8.8310003 4.3600001 -0.71799999
8.842 4.3979998 -0.72000003
8.835 4.427 -0.72100002
8.8400002 4.4619999 -0.722
8.8290005 4.4889998 -0.72299999
8.8620005 4.5380001 -0.72600001
8.8549995 4.5669999 -0.727
8.8620005 4.6030002 -0.72899997
8.8830004 4.6459999 -0.73199999
8.8940001 4.6849999 -0.73400003
8.9049997 4.723 -0.736
8.8940001 4.75 -0.73699999
8.9139996 4.7930002 -0.74000001
8.9090004 4.823 -0.74000001
8.9379997 4.8709998 -0.74400002
8.9259996 4.8969998 -0.74400002
8.9359999 4.9349999 -0.74599999
8.9449997 4.973 -0.74900001
8.9639997 5.0159998 -0.75099999
8.9680004 5.0510001 -0.75300002
8.993 5.098 -0.75700003
9.0170002 5.145 -0.75999999
8.9770002 5.1539998 -0.75800002
8.9980001 5.1989999 -0.76099998
8.9890003 5.2259998 -0.76200002
8.993 5.2610002 -0.76300001
8.9899998 5.2919998 -0.764
8.9820004 5.3200002 -0.76499999
8.9960003 5.3600001 -0.76800001
9.007 5.3990002 -0.76999998
9.0270004 5.4429998 -0.773
9.0229998 5.473 -0.77399999
9.0509996 5.5229998 -0.778
9.0240002 5.5380001 -0.77700001
9.0380001 5.579 -0.77999997
9.0489998 5.618 -0.78200001
9.0710001 5.6630001 -0.78500003
9.0830002 5.7030001 -0.78799999
9.0740004 5.7290001 -0.78799999
9.0930004 5.7740002 -0.79100001
9.1199999 5.823 -0.79500002
9.0950003 5.8379998 -0.79400003
9.1199999 5.8860002 -0.79799998
9.1470003 5.9349999 -0.80199999
9.1490002 5.9679999 -0.80400002
9.1379995 5.993 -0.80400002
9.1309996 6.0190001 -0.80500001
9.1490002 6.0630002 -0.80800003
9.1560001 6.099 -0.81
9.165 6.1360002 -0.81199998
9.1569996 6.1609998 -0.81300002
9.1700001 6.2010002 -0.81599998
9.1619997 6.2259998 -0.81699997
9.1619997 6.257 -0.81800002
9.184 6.303 -0.82200003
9.1929998 6.3390002 -0.824
9.1890001 6.3660002 -0.82499999
9.2089996 6.4109998 -0.82800001
9.2019997 6.4349999 -0.829
9.2279997 6.4829998 -0.833
9.25 6.5289998 -0.83700001
9.2279997 6.5430002 -0.83600003
9.2390003 6.5799999 -0.83899999
9.2670002 6.6290002 -0.84299999
5.8790002 -3.4260001 -0.30599999
5.8779998 -3.4089999 -0.30500001
5.8870001 -3.398 -0.30599999
5.9050002 -3.392 -0.30700001
5.902 -3.3740001 -0.30599999
5.9200001 -3.368 -0.30700001
5.921 -3.352 -0.30700001
5.941 -3.346 -0.308
5.9530001 -3.3369999 -0.308
5.9580002 -3.323 -0.30899999
5.9679999 -3.312 -0.30899999
5.9749999 -3.299 -0.30899999
5.9759998 -3.283 -0.30899999
5.9759998 -3.266 -0.30899999
5.987 -3.256 -0.30899999
5.9899998 -3.24 -0.30899999
6.0009999 -3.23 -0.31
6.0089998 -3.217 -0.31
6.0190001 -3.2049999 -0.31099999
6.0300002 -3.194 -0.31099999
6.0250001 -3.175 -0.31099999
6.0310001 -3.161 -0.31099999
6.046 -3.152 -0.31099999
6.0500002 -3.1370001 -0.31200001
6.0500002 -3.1199999 -0.31099999
6.0599999 -3.1070001 -0.31200001
6.0689998 -3.095 -0.31200001
6.0869999 -3.0869999 -0.31299999
6.1020002 -3.0769999 -0.31299999
6.1079998 -3.063 -0.31400001
6.1149998 -3.049 -0.31400001
6.1110001 -3.03 -0.31400001
6.1479998 -3.0309999 -0.315
6.1539998 -3.017 -0.31600001
6.1669998 -3.0050001 -0.31600001
6.1680002 -2.9879999 -0.31600001
6.1719999 -2.973 -0.31600001
6.1950002 -2.9660001 -0.317
6.1950002 -2.9489999 -0.317
6.2049999 -2.9360001 -0.317
6.2140002 -2.9219999 -0.31799999
6.2259998 -2.9100001 -0.31799999
6.2160001 -2.888 -0.317
6.2309999 -2.8770001 -0.31799999
6.2379999 -2.8629999 -0.31799999
6.2550001 -2.8529999 -0.31900001
6.2649999 -2.839 -0.31900001
6.2820001 -2.829 -0.31999999
6.2859998 -2.813 -0.31999999
6.2979999 -2.8010001 -0.32100001
6.3140001 -2.79 -0.32100001
6.3309999 -2.779 -0.322
6.3400002 -2.7650001 -0.322
6.3470001 -2.75 -0.32300001
6.3569999 -2.7360001 -0.32300001
6.3800001 -2.7279999 -0.324
6.3759999 -2.7079999 -0.324
6.3930001 -2.697 -0.324
6.3990002 -2.681 -0.324
6.4089999 -2.6670001 -0.32499999
6.4260001 -2.6559999 -0.32600001
6.4330001 -2.6400001 -0.32600001
6.4330001 -2.622 -0.32600001
6.4569998 -2.6129999 -0.32699999
6.46 -2.596 -0.32699999
6.4780002 -2.585 -0.32699999
6.4780002 -2.566 -0.32699999
6.4980001 -2.556 -0.32800001
6.5079999 -2.5409999 -0.32800001
6.5219998 -2.5280001 -0.329
6.5430002 -2.5179999 -0.33000001
6.5479999 -2.5009999 -0.33000001
6.5539999 -2.4849999 -0.33000001
6.559 -2.467 -0.33000001
6.5679998 -2.4519999 -0.331
6.5739999 -2.4360001 -0.331
6.579 -2.4189999 -0.331
6.586 -2.402 -0.331
6.6059999 -2.391 -0.33199999
6.6199999 -2.3770001 -0.33199999
6.631 -2.362 -0.333
6.638 -2.346 -0.333
6.638 -2.3269999 -0.333
6.6420002 -2.309 -0.333
6.6550002 -2.2950001 -0.333
6.6659999 -2.28 -0.33399999
6.6859999 -2.267 -0.33500001
6.6869998 -2.2479999 -0.33500001
6.7059999 -2.2360001 -0.33500001
6.71 -2.2179999 -0.33500001
6.7020001 -2.1960001 -0.33500001
6.7179999 -2.1819999 -0.33500001
6.7350001 -2.1689999 -0.336
6.7259998 -2.1470001 -0.336
6.7529998 -2.1359999 -0.33700001
6.7509999 -2.1159999 -0.336
6.7690001 -2.102 -0.33700001
6.783 -2.0869999 -0.338
6.776 -2.066 -0.33700001
6.7940001 -2.052 -0.338
6.8049998 -2.036 -0.338
6.816 -2.02 -0.33899999
6.829 -2.0039999 -0.33899999
6.8410001 -1.988 -0.34
6.8460002 -1.97 -0.34
6.8520002 -1.952 -0.34
6.8559999 -1.934 -0.34
6.8759999 -1.92 -0.34099999
6.8800001 -1.902 -0.34099999
6.9000001 -1.888 -0.34200001
6.9190001 -1.873 -0.34200001
6.915 -1.852 -0.34200001
6.9289999 -1.836 -0.34299999
6.9429998 -1.821 -0.34299999
6.9439998 -1.801 -0.34299999
6.9780002 -1.79 -0.34400001
6.974 -1.7690001 -0.34400001
6.9860001 -1.752 -0.345
7.0149999 -1.74 -0.34599999
7.0159998 -1.72 -0.34599999
7.0349998 -1.704 -0.34599999
7.0450001 -1.687 -0.347
7.0580001 -1.67 -0.347
7.0669999 -1.652 -0.347
7.0939999 -1.638 -0.34900001
7.1059999 -1.6210001 -0.34900001
7.1170001 -1.603 -0.34900001
7.1360002 -1.587 -0.34999999
7.1490002 -1.5700001 -0.35100001
7.1589999 -1.552 -0.35100001
7.1690001 -1.534 -0.35100001
7.1880002 -1.517 -0.352
7.1929998 -1.498 -0.352
7.2160001 -1.482 -0.35299999
7.2350001 -1.466 -0.354
7.2389998 -1.446 -0.354
7.27 -1.432 -0.35499999
7.276 -1.4119999 -0.35499999
7.2779999 -1.392 -0.35499999
7.3039999 -1.376 -0.35600001
7.3150001 -1.358 -0.35699999
7.3330002 -1.34 -0.35699999
7.3429999 -1.321 -0.35800001
7.3600001 -1.304 -0.35800001
7.3709998 -1.285 -0.359
7.382 -1.266 -0.359
7.3909998 -1.2460001 -0.359
7.4099998 -1.229 -0.36000001
7.4289999 -1.211 -0.361
7.4530001 -1.194 -0.36199999
7.4619999 -1.174 -0.36199999
7.4790001 -1.156 -0.36300001
7.5040002 -1.138 -0.36399999
7.5209999 -1.119 -0.36399999
7.5370002 -1.101 -0.36500001
7.5489998 -1.081 -0.36500001
7.5710001 -1.063 -0.366
7.5749998 -1.0420001 -0.366
7.6079998 -1.025 -0.368
7.6170001 -1.005 -0.368
7.619 -0.98400003 -0.368
7.6479998 -0.96600002 -0.36899999
7.6599998 -0.94599998 -0.36899999
7.6859999 -0.92699999 -0.37
7.6999998 -0.90700001 -0.37099999
7.7249999 -0.88800001 -0.37200001
7.723 -0.866 -0.37200001
7.7350001 -0.84600002 -0.37200001
7.77 -0.82800001 -0.37400001
7.7849998 -0.80699998 -0.37400001
7.8080001 -0.78799999 -0.375
7.8270001 -0.76800001 -0.37599999
7.862 -0.74900001 -0.377
7.8759999 -0.72799999 -0.37799999
7.9089999 -0.70899999 -0.37900001
7.9239998 -0.68800002 -0.38
7.9330001 -0.66600001 -0.38
7.9419999 -0.64499998 -0.38
7.974 -0.625 -0.38100001
8.0030003 -0.60399997 -0.38299999
8.0179996 -0.583 -0.38299999
8.059 -0.56300002 -0.38499999
8.0719995 -0.54100001 -0.38499999
8.0869999 -0.51999998 -0.38600001
8.1029997 -0.498 -0.38600001
8.1330004 -0.477 -0.38800001
8.1739998 -0.456 -0.389
8.1870003 -0.43399999 -0.38999999
8.2299995 -0.41299999 -0.39199999
8.2819996 -0.39199999 -0.39399999
8.3190002 -0.37099999 -0.39500001
8.3929996 -0.34999999 -0.39899999
8.1599998 0.204 -0.53600001
8.0530005 0.213 -0.52999997
8.0579996 0.22499999 -0.52999997
8.0380001 0.236 -0.52899998
8.0150003 0.24699999 -0.52700001
8.0100002 0.259 -0.52700001
8.0010004 0.271 -0.52700001
8 0.28400001 -0.52700001
7.9699998 0.29499999 -0.52499998
7.9840002 0.30899999 -0.52600002
7.9749999 0.32100001 -0.52600002
7.9699998 0.33399999 -0.52600002
7.9640002 0.347 -0.52499998
7.9580002 0.36000001 -0.52499998
7.9349999 0.373 -0.52399999
7.9359999 0.38699999 -0.52399999
7.928 0.40000001 -0.52399999
7.9330001 0.41499999 -0.52399999
7.9390001 0.42899999 -0.52499998
7.9239998 0.44299999 -0.52399999
7.947 0.45899999 -0.52600002
7.9429998 0.47400001 -0.52600002
7.9289999 0.48800001 -0.52499998
7.9190001 0.50199997 -0.52499998
7.934 0.51899999 -0.52600002
7.941 0.53500003 -0.52700001
7.9380002 0.55000001 -0.52700001
7.9510002 0.56699997 -0.528
7.9419999 0.58200002 -0.528
7.948 0.59899998 -0.52899998
7.9239998 0.61299998 -0.52700001
7.9380002 0.63099998 -0.52899998
7.9390001 0.64700001 -0.52899998
7.9219999 0.66299999 -0.528
7.9419999 0.68099999 -0.52999997
7.9400001 0.69800001 -0.52999997
7.9580002 0.71700001 -0.53200001
7.9559999 0.73400003 -0.53200001
7.948 0.75099999 -0.53200001
7.961 0.76999998 -0.53299999
7.948 0.787 -0.53299999
7.967 0.80699998 -0.53399998
7.9619999 0.82499999 -0.53399998
7.9590001 0.84299999 -0.53399998
7.9580002 0.861 -0.53500003
7.9549999 0.87900001 -0.53500003
7.9559999 0.898 -0.53500003
7.9640002 0.91799998 -0.53600001
7.967 0.93800002 -0.537
7.974 0.958 -0.53799999
7.9710002 0.977 -0.53799999
7.9559999 0.99400002 -0.53799999
7.9809999 1.017 -0.54000002
7.987 1.038 -0.54100001
7.9759998 1.056 -0.54000002
7.9770002 1.077 -0.54100001
7.9889998 1.099 -0.542
7.9879999 1.119 -0.54299998
7.9920001 1.14 -0.54299998
7.9889998 1.161 -0.54400003
7.994 1.182 -0.54500002
7.9949999 1.2029999 -0.54500002
8.0059996 1.226 -0.546
8.0200005 1.25 -0.54799998
8.0200005 1.271 -0.54799998
8.0349998 1.295 -0.55000001
8.0480003 1.319 -0.55199999
8.0570002 1.3430001 -0.55299997
8.0530005 1.364 -0.55299997
8.0760002 1.391 -0.55500001
8.0699997 1.4119999 -0.55500001
8.0740004 1.4349999 -0.55599999
8.0769997 1.459 -0.55699998
8.0880003 1.484 -0.55800003
8.0950003 1.508 -0.55900002
8.0970001 1.5319999 -0.56
8.1210003 1.5599999 -0.56199998
8.1110001 1.581 -0.56199998
8.1330004 1.609 -0.56400001
8.1409998 1.635 -0.56599998
8.1269999 1.656 -0.565
8.1569996 1.686 -0.56800002
8.1520004 1.71 -0.56800002
8.1619997 1.7359999 -0.56999999
8.1829996 1.765 -0.57200003
8.1750002 1.788 -0.57200003
8.184 1.8150001 -0.57300001
8.1999998 1.844 -0.57499999
8.1960001 1.868 -0.57599998
8.2080002 1.897 -0.57700002
8.2139997 1.923 -0.57800001
8.2349997 1.954 -0.58099997
8.2440004 1.982 -0.58200002
8.2489996 2.0090001 -0.583
8.2530003 2.0369999 -0.58399999
8.2790003 2.069 -0.58700001
8.2770004 2.095 -0.58700001
8.2919998 2.1259999 -0.58899999
8.2880001 2.152 -0.58999997
8.2930002 2.1800001 -0.59100002
8.3009996 2.2090001 -0.59200001
8.3199997 2.2420001 -0.59399998
8.3179998 2.2690001 -0.59500003
8.3199997 2.2969999 -0.59600002
8.3369999 2.329 -0.59799999
8.3699999 2.3659999 -0.60100001
8.3649998 2.3929999 -0.602
8.3789997 2.425 -0.60299999
8.3850002 2.4560001 -0.60500002
8.3889999 2.4849999 -0.60600001
8.4029999 2.5179999 -0.60799998
8.4130001 2.55 -0.60900003
8.4180002 2.5810001 -0.611
8.4300003 2.6140001 -0.61199999
8.4399996 2.6459999 -0.61400002
8.4370003 2.675 -0.61500001
8.4490004 2.7079999 -0.616
8.4530001 2.7390001 -0.61799997
8.4700003 2.7750001 -0.62
8.4750004 2.8069999 -0.62099999
8.4840002 2.8399999 -0.62300003
8.5050001 2.8770001 -0.625
8.5050001 2.908 -0.62599999
8.5139999 2.9419999 -0.62800002
8.5500002 2.9860001 -0.63200003
8.552 3.017 -0.63300002
8.5699997 3.0550001 -0.63499999
8.5909996 3.0940001 -0.63800001
8.5830002 3.1229999 -0.63800001
8.6099997 3.165 -0.64099997
8.6129999 3.198 -0.64200002
8.6289997 3.2360001 -0.64499998
8.6409998 3.273 -0.64700001
8.6440001 3.3069999 -0.648
8.6689997 3.349 -0.65100002
8.6599998 3.3789999 -0.65100002
8.6689997 3.415 -0.653
8.6990004 3.461 -0.65600002
8.7180004 3.5020001 -0.65899998
8.7119999 3.533 -0.66000003
8.7320004 3.575 -0.662
8.7519999 3.6170001 -0.66500002
8.7449999 3.6489999 -0.66600001
8.7639999 3.691 -0.66799998
8.8030005 3.7420001 -0.67199999
8.8030005 3.776 -0.67299998
8.8199997 3.819 -0.676
8.8319998 3.859 -0.67799997
8.8409996 3.8989999 -0.68000001
8.8629999 3.944 -0.68300003
8.8909998 3.9920001 -0.68599999
8.9069996 4.0349998 -0.68900001
8.8909998 4.0640001 -0.68900001
8.8850002 4.0970001 -0.68900001
8.8950005 4.1389999 -0.69199997
8.8920002 4.1739998 -0.69300002
8.9289999 4.2280002 -0.69700003
8.9259996 4.263 -0.69800001
8.9519997 4.3130002 -0.70099998
8.9460001 4.3470001 -0.70200002
8.96 4.3909998 -0.704
8.9519997 4.4250002 -0.70499998
8.9870005 4.48 -0.70899999
8.9960003 4.5229998 -0.71100003
9.0050001 4.5650001 -0.713
9.0190001 4.6110001 -0.71600002
9.0310001 4.6550002 -0.71799999
9.0249996 4.691 -0.71899998
9.0279999 4.7309999 -0.72100002
9.04 4.777 -0.72299999
9.0620003 4.8280001 -0.72600001
9.0749998 4.8740001 -0.72899997
9.0620003 4.9070001 -0.72899997
9.0539999 4.9419999 -0.73000002
9.0839996 4.9980001 -0.73400003
9.1199999 5.0580001 -0.73799998
9.1429996 5.1110001 -0.741
9.1190004 5.138 -0.741
9.1079998 5.1719999 -0.74199998
9.1029997 5.211 -0.74299997
9.0979996 5.2480001 -0.74400002
9.0939999 5.2870002 -0.745
9.1090002 5.336 -0.74800003
9.092 5.368 -0.74800003
9.1199999 5.4260001 -0.75199997
9.1239996 5.4699998 -0.75400001
9.1260004 5.513 -0.755
9.1379995 5.5619998 -0.75800002
9.1350002 5.6020002 -0.759
9.1309996 5.6420002 -0.76099998
9.1529999 5.698 -0.764
9.1499996 5.7379999 -0.76499999
9.1409998 5.776 -0.76599997
9.1569996 5.8280001 -0.76899999
9.1660004 5.8769999 -0.77200001
9.151 5.9109998 -0.77200001
9.1719999 5.967 -0.77600002
9.1709995 6.0100002 -0.77700001
9.1669998 6.0510001 -0.77899998
9.1639996 6.0929999 -0.77999997
9.1560001 6.131 -0.78100002
9.1459999 6.1680002 -0.78200001
9.1479998 6.2140002 -0.78399998
9.1409998 6.2529998 -0.78500003
9.1239996 6.2849998 -0.78500003
9.1300001 6.3340001 -0.787
9.1120005 6.3660002 -0.78799999
9.1059999 6.4060001 -0.78899997
9.1079998 6.4520001 -0.79100001
9.0810003 6.4770002 -0.79000002
9.0600004 6.507 -0.79000002
9.0229998 6.5250001 -0.78899997
5.6100001 -3.721 -0.28200001
5.6389999 -3.7049999 -0.28400001
5.651 -3.6760001 -0.28400001
5.6719999 -3.655 -0.28400001
5.6799998 -3.625 -0.285
5.7210002 -3.6159999 -0.28600001
5.743 -3.595 -0.287
5.7399998 -3.5580001 -0.287
5.7680001 -3.5409999 -0.28799999
5.7859998 -3.5179999 -0.28799999
5.7909999 -3.487 -0.28799999
5.8130002 -3.467 -0.289
5.8280001 -3.4430001 -0.289
5.848 -3.421 -0.28999999
5.862 -3.3959999 -0.28999999
5.8709998 -3.368 -0.28999999
5.8979998 -3.3510001 -0.29100001
5.9070001 -3.3239999 -0.292
5.9180002 -3.2969999 -0.292
5.9260001 -3.27 -0.292
5.9450002 -3.2479999 -0.29300001
5.9590001 -3.224 -0.29300001
5.9790001 -3.2030001 -0.294
5.9920001 -3.1789999 -0.294
6.0149999 -3.1600001 -0.29499999
6.0289998 -3.1359999 -0.29499999
6.0500002 -3.1159999 -0.296
6.0770001 -3.099 -0.29699999
6.092 -3.076 -0.29699999
6.1129999 -3.0569999 -0.29800001
6.1300001 -3.0350001 -0.29899999
6.1279998 -3.0039999 -0.29800001
6.1479998 -2.983 -0.29899999
6.165 -2.9619999 -0.30000001
6.1880002 -2.9430001 -0.30000001
6.1939998 -2.9170001 -0.30000001
6.2179999 -2.8989999 -0.301
6.2350001 -2.8770001 -0.30199999
6.2410002 -2.8510001 -0.30199999
6.2649999 -2.8329999 -0.303
6.289 -2.8150001 -0.30399999
6.3049998 -2.7939999 -0.30399999
6.322 -2.773 -0.30500001
6.3540001 -2.7579999 -0.30599999
6.3530002 -2.73 -0.30599999
6.3740001 -2.711 -0.30599999
6.3959999 -2.6919999 -0.30700001
6.4089999 -2.6700001 -0.308
6.4369998 -2.654 -0.30899999
6.4499998 -2.632 -0.30899999
6.4619999 -2.609 -0.30899999
6.4829998 -2.5899999 -0.31
6.5079999 -2.573 -0.31099999
6.5159998 -2.549 -0.31099999
6.5409999 -2.5309999 -0.31200001
6.5549998 -2.51 -0.31299999
6.5700002 -2.4890001 -0.31299999
6.5809999 -2.467 -0.31299999
6.5869999 -2.4419999 -0.31299999
6.6079998 -2.424 -0.31400001
6.638 -2.4089999 -0.315
6.6469998 -2.3859999 -0.31600001
6.6570001 -2.3629999 -0.31600001
6.6690001 -2.342 -0.31600001
6.6739998 -2.3180001 -0.31600001
6.698 -2.3010001 -0.317
6.7059999 -2.2780001 -0.317
6.7189999 -2.257 -0.31799999
6.7420001 -2.2390001 -0.31900001
6.7550001 -2.2190001 -0.31900001
6.7709999 -2.1989999 -0.31900001
6.7870002 -2.1789999 -0.31999999
6.7849998 -2.154 -0.31999999
6.8130002 -2.138 -0.32100001
6.8210001 -2.1159999 -0.32100001
6.8400002 -2.0969999 -0.322
6.8439999 -2.0739999 -0.322
6.882 -2.0610001 -0.32300001
6.8870001 -2.039 -0.32300001
6.881 -2.013 -0.32300001
6.901 -1.995 -0.324
6.9159999 -1.976 -0.324
6.9289999 -1.956 -0.324
6.9530001 -1.939 -0.32499999
6.9660001 -1.919 -0.32600001
6.9860001 -1.901 -0.32699999
6.9920001 -1.88 -0.32699999
7.0089998 -1.8609999 -0.32699999
7.0180001 -1.84 -0.32699999
7.04 -1.823 -0.32800001
7.0419998 -1.801 -0.32800001
7.0630002 -1.784 -0.329
7.0739999 -1.7640001 -0.329
7.0999999 -1.748 -0.33000001
7.119 -1.73 -0.331
7.1440001 -1.714 -0.33199999
7.1529999 -1.693 -0.33199999
7.1900001 -1.6799999 -0.33399999
7.1939998 -1.659 -0.33399999
7.197 -1.637 -0.33399999
7.21 -1.619 -0.33399999
7.2490001 -1.605 -0.336
7.2480001 -1.5829999 -0.336
7.2449999 -1.561 -0.33500001
7.2800002 -1.5470001 -0.33700001
7.2880001 -1.528 -0.33700001
7.3150001 -1.512 -0.338
7.3049998 -1.488 -0.33700001
7.3299999 -1.472 -0.338
7.3569999 -1.457 -0.34
7.3730001 -1.439 -0.34
7.3790002 -1.419 -0.34
7.3870001 -1.4 -0.34
7.4120002 -1.3839999 -0.34099999
7.4260001 -1.3660001 -0.34200001
7.4190001 -1.344 -0.34099999
7.4460001 -1.329 -0.34299999
7.454 -1.3099999 -0.34299999
7.473 -1.293 -0.34299999
7.4920001 -1.276 -0.34400001
7.507 -1.258 -0.345
7.5219998 -1.2410001 -0.345
7.5430002 -1.225 -0.34599999
7.5539999 -1.207 -0.34599999
7.5510001 -1.186 -0.34599999
7.566 -1.169 -0.347
7.5840001 -1.153 -0.347
7.599 -1.135 -0.34799999
7.6020002 -1.1160001 -0.34799999
7.631 -1.102 -0.34900001
7.6430001 -1.084 -0.34999999
7.6479998 -1.066 -0.34999999
7.6630001 -1.049 -0.34999999
7.671 -1.031 -0.35100001
7.6760001 -1.013 -0.35100001
7.691 -0.99599999 -0.35100001
7.7049999 -0.98000002 -0.352
7.717 -0.963 -0.352
7.7399998 -0.94700003 -0.35299999
7.7480001 -0.93000001 -0.35299999
7.7589998 -0.91299999 -0.354
7.763 -0.89499998 -0.354
7.7919998 -0.88 -0.35499999
7.7940001 -0.86299998 -0.35499999
7.7839999 -0.84399998 -0.354
7.8249998 -0.83099997 -0.35600001
7.8260002 -0.81300002 -0.35600001
7.8369999 -0.79699999 -0.35600001
7.8460002 -0.77999997 -0.35699999
7.8610001 -0.764 -0.35699999
7.8850002 -0.74900001 -0.35800001
7.901 -0.73299998 -0.359
7.902 -0.71600002 -0.359
7.9310002 -0.70200002 -0.36000001
7.9429998 -0.68599999 -0.36000001
7.9559999 -0.67000002 -0.361
7.954 -0.653 -0.361
7.98 -0.639 -0.36199999
8.0100002 -0.625 -0.36300001
8.0319996 -0.61000001 -0.36399999
8.0909996 -0.59799999 -0.36700001
8.0830002 -0.58099997 -0.366
8.0450001 -0.56099999 -0.36399999
8.0710001 -0.54699999 -0.36500001
8.0799999 -0.53200001 -0.366
8.0970001 -0.51700002 -0.366
8.118 -0.50199997 -0.36700001
8.1350002 -0.48699999 -0.368
8.1440001 -0.472 -0.368
8.1560001 -0.45699999 -0.36899999
8.158 -0.442 -0.36899999
8.1820002 -0.42699999 -0.37
8.2040005 -0.41299999 -0.37099999
8.2309999 -0.39899999 -0.37200001
8.2360001 -0.384 -0.37200001
8.2629995 -0.37 -0.373
8.276 -0.35600001 -0.37400001
8.2919998 -0.34099999 -0.37400001
8.3400002 -0.32800001 -0.37599999
8.3789997 -0.315 -0.37799999
8.4020004 -0.301 -0.37900001
8.4230003 -0.287 -0.38
8.4460001 -0.273 -0.38100001
7.9510002 0.086999997 -0.50199997
7.9990001 0.102 -0.505
8.0139999 0.117 -0.50599998
8.026 0.133 -0.50700003
8.0039997 0.148 -0.50599998
7.9920001 0.163 -0.505
8.0100002 0.178 -0.50599998
8.0120001 0.19400001 -0.50700003
7.9970002 0.20999999 -0.50599998
7.987 0.22499999 -0.505
7.9959998 0.242 -0.50599998
8.0100002 0.259 -0.50700003
8.0080004 0.27500001 -0.50700003
8 0.29100001 -0.50700003
8.0050001 0.308 -0.50800002
8 0.32499999 -0.50700003
7.9920001 0.34200001 -0.50700003
7.9829998 0.359 -0.50700003
7.9970002 0.377 -0.50800002
7.9819999 0.39399999 -0.50700003
7.9959998 0.412 -0.50800002
8.0089998 0.43099999 -0.509
8.0050001 0.44800001 -0.509
8.0050001 0.46700001 -0.50999999
8.0179996 0.486 -0.51099998
8.0039997 0.50300002 -0.50999999
8.0039997 0.52200001 -0.51099998
8.0240002 0.542 -0.51200002
8.0139999 0.56 -0.51200002
8.0229998 0.57999998 -0.51300001
8.0380001 0.60000002 -0.514
8.0469999 0.62 -0.51499999
8.0349998 0.639 -0.514
8.0469999 0.66000003 -0.51599997
8.0430002 0.67900002 -0.51599997
8.0380001 0.699 -0.51599997
8.0579996 0.72000003 -0.51700002
8.0769997 0.74199998 -0.51899999
8.0649996 0.76200002 -0.51800001
8.0629997 0.78200001 -0.51899999
8.0609999 0.80199999 -0.51899999
8.0530005 0.82200003 -0.51899999
8.0640001 0.84399998 -0.51999998
8.0810003 0.86699998 -0.52100003
8.0760002 0.88800001 -0.52200001
8.0570002 0.90700001 -0.52100003
8.059 0.92900002 -0.52100003
8.0749998 0.95200002 -0.523
8.0690002 0.97299999 -0.523
8.0810003 0.99599999 -0.52399999
8.085 1.0190001 -0.52499998
8.0970001 1.0420001 -0.52600002
8.0909996 1.064 -0.52600002
8.0970001 1.087 -0.52700001
8.1160002 1.112 -0.528
8.1110001 1.1339999 -0.52899998
8.0959997 1.155 -0.528
8.1169996 1.1799999 -0.52999997
8.1210003 1.204 -0.53100002
8.1160002 1.226 -0.53100002
8.1269999 1.251 -0.53200001
8.1400003 1.276 -0.53299999
8.1409998 1.3 -0.53399998
8.1429996 1.324 -0.53500003
8.1630001 1.351 -0.53600001
8.1560001 1.374 -0.53600001
8.1700001 1.4 -0.53799999
8.1759996 1.425 -0.53899997
8.177 1.45 -0.53899997
8.1850004 1.475 -0.54100001
8.1949997 1.502 -0.542
8.2080002 1.528 -0.54299998
8.2030001 1.552 -0.54299998
8.2220001 1.581 -0.54500002
8.2180004 1.605 -0.546
8.2329998 1.633 -0.54699999
8.2309999 1.658 -0.54799998
8.2379999 1.684 -0.54900002
8.2519999 1.7130001 -0.55000001
8.2510004 1.738 -0.551
8.2679996 1.767 -0.55199999
8.2679996 1.793 -0.55299997
8.2819996 1.822 -0.55500001
8.2779999 1.847 -0.55500001
8.2840004 1.874 -0.55599999
8.3000002 1.904 -0.55800003
8.2989998 1.9299999 -0.55800003
8.3059998 1.959 -0.55900002
8.3149996 1.987 -0.56099999
8.3299999 2.017 -0.56199998
8.3299999 2.0439999 -0.56300002
8.3500004 2.076 -0.565
8.3599997 2.1059999 -0.56599998
8.3739996 2.1359999 -0.56800002
8.3859997 2.1670001 -0.56999999
8.3879995 2.1949999 -0.57099998
8.3669996 2.2160001 -0.56999999
8.3999996 2.253 -0.57300001
8.3959999 2.279 -0.57300001
8.4060001 2.3099999 -0.57499999
8.4309998 2.345 -0.57700002
8.427 2.372 -0.57800001
8.4510002 2.4070001 -0.57999998
8.4549999 2.4360001 -0.58099997
8.4639997 2.467 -0.58200002
8.474 2.4979999 -0.58399999
8.4870005 2.5309999 -0.58499998
8.4820004 2.5580001 -0.58600003
8.4759998 2.585 -0.58600003
8.4799995 2.615 -0.58700001
8.4989996 2.6500001 -0.58899999
8.5050001 2.6800001 -0.59100002
8.5089998 2.711 -0.59200001
8.5120001 2.7409999 -0.59299999
8.5439997 2.78 -0.59600002
8.526 2.8039999 -0.59500003
8.54 2.8380001 -0.597
8.5679998 2.8770001 -0.60000002
8.573 2.908 -0.60100001
8.5810003 2.941 -0.60299999
8.6049995 2.9790001 -0.60500002
8.6099997 3.0109999 -0.60600001
8.6230001 3.0450001 -0.60799998
8.6529999 3.086 -0.611
8.658 3.118 -0.61199999
8.6730003 3.154 -0.61400002
8.6870003 3.1900001 -0.616
8.6929998 3.223 -0.61799997
8.6859999 3.2509999 -0.61799997
8.7040005 3.289 -0.62
8.7110004 3.322 -0.62199998
8.7309999 3.3610001 -0.62400001
8.7259998 3.3900001 -0.625
8.7360001 3.425 -0.62599999
8.7690001 3.4690001 -0.63
8.7589998 3.4960001 -0.63
8.7860003 3.539 -0.63300002
8.7930002 3.573 -0.634
8.8009996 3.608 -0.63599998
8.8179998 3.6459999 -0.63800001
8.842 3.688 -0.64099997
8.8520002 3.724 -0.64300001
8.8579998 3.7590001 -0.64399999
8.8839998 3.802 -0.64700001
8.8839998 3.8340001 -0.648
8.9029999 3.875 -0.65100002
8.9160004 3.9119999 -0.65200001
8.9390001 3.9549999 -0.65499997
8.9440002 3.99 -0.65700001
8.9729996 4.0349998 -0.66000003
8.9680004 4.066 -0.66100001
9 4.1129999 -0.66399997
8.9849997 4.1389999 -0.66399997
8.9879999 4.1729999 -0.66500002
9.0100002 4.2160001 -0.66799998
9.0089998 4.2490001 -0.66900003
9.0310001 4.2919998 -0.67199999
9.0670004 4.342 -0.676
9.0810003 4.382 -0.67799997
9.0900002 4.4200001 -0.68000001
9.0970001 4.4559999 -0.68099999
9.1149998 4.4980001 -0.68400002
9.1129999 4.5310001 -0.685
9.118 4.5669999 -0.68599999
9.1370001 4.6100001 -0.68900001
9.1339998 4.6420002 -0.69
9.158 4.6880002 -0.69300002
9.191 4.7379999 -0.69700003
9.1789999 4.7649999 -0.69700003
9.1899996 4.8049998 -0.699
9.2110004 4.8499999 -0.70200002
9.2229996 4.8899999 -0.704
9.2360001 4.9299998 -0.70599997
9.2600002 4.9770002 -0.70899999
9.2670002 5.0149999 -0.71100003
9.2910004 5.0619998 -0.71399999
9.2869997 5.0939999 -0.71499997
9.3210001 5.1459999 -0.71899998
9.3599997 5.2020001 -0.72299999
9.3809996 5.2480001 -0.72600001
9.3739996 5.2779999 -0.727
9.3739996 5.3119998 -0.72799999
9.3859997 5.3530002 -0.73000002
9.3879995 5.388 -0.73199999
9.4090004 5.434 -0.73500001
9.4230003 5.4770002 -0.73699999
9.4320002 5.5159998 -0.73900002
9.4370003 5.553 -0.741
9.4689999 5.6059999 -0.745
9.4870005 5.6500001 -0.74800003
9.4949999 5.6890001 -0.75
9.5059996 5.73 -0.75199997
9.5159998 5.77 -0.75400001
9.5369997 5.8169999 -0.75700003
9.5340004 5.849 -0.75800002
9.5629997 5.901 -0.76200002
9.5579996 5.9320002 -0.76300001
9.5860004 5.9829998 -0.76700002
9.6059999 6.0289998 -0.76999998
9.6040001 6.0619998 -0.77100003
9.6160002 6.1030002 -0.773
9.6260004 6.1430001 -0.77499998
9.6379995 6.1849999 -0.778
9.6260004 6.211 -0.778
9.6289997 6.2459998 -0.77999997
9.6529999 6.2950001 -0.78299999
9.6490002 6.3249998 -0.78500003
9.6560001 6.3629999 -0.787
9.6750002 6.4089999 -0.79000002
9.698 6.4569998 -0.79299998
9.7130003 6.5 -0.796
9.7049999 6.5279999 -0.796
9.717 6.5679998 -0.79900002
9.7390003 6.6160002 -0.80199999
9.724 6.638 -0.80199999
9.7609997 6.6960001 -0.80699998
9.7510004 6.7210002 -0.80800003
9.7410002 6.7459998 -0.80800003
9.7810001 6.8060002 -0.81300002
9.7989998 6.8509998 -0.81599998
9.8310003 6.9050002 -0.81999999
5.974 -3.484 -0.28
5.9970002 -3.4809999 -0.28099999
5.9990001 -3.4660001 -0.28099999
6.0110002 -3.4560001 -0.28200001
6.013 -3.4400001 -0.28200001
6.0240002 -3.4289999 -0.28200001
6.033 -3.418 -0.28299999
6.0359998 -3.4030001 -0.28299999
6.0479999 -3.3929999 -0.28299999
6.0549998 -3.3800001 -0.28299999
6.0359998 -3.352 -0.28200001
6.0430002 -3.339 -0.28200001
6.0469999 -3.3239999 -0.28200001
6.0700002 -3.3199999 -0.28299999
6.0830002 -3.3099999 -0.28400001
6.079 -3.2909999 -0.28400001
6.105 -3.2869999 -0.285
6.1059999 -3.2709999 -0.285
6.125 -3.2639999 -0.285
6.132 -3.2509999 -0.28600001
6.1290002 -3.2309999 -0.285
6.1479998 -3.224 -0.28600001
6.151 -3.2079999 -0.28600001
6.1539998 -3.1930001 -0.28600001
6.1680002 -3.1819999 -0.287
6.177 -3.1700001 -0.287
6.1820002 -3.155 -0.287
6.1810002 -3.1370001 -0.287
6.2010002 -3.1300001 -0.28799999
6.2160001 -3.119 -0.28799999
6.2249999 -3.1059999 -0.28799999
6.2379999 -3.095 -0.289
6.2379999 -3.0769999 -0.289
6.2449999 -3.063 -0.289
6.257 -3.0510001 -0.289
6.2639999 -3.0369999 -0.28999999
6.2779999 -3.026 -0.28999999
6.2909999 -3.0139999 -0.29100001
6.2919998 -2.997 -0.29100001
6.2919998 -2.9790001 -0.28999999
6.3179998 -2.973 -0.29100001
6.3260002 -2.9590001 -0.292
6.3470001 -2.951 -0.29300001
6.3470001 -2.9319999 -0.292
6.3610001 -2.921 -0.29300001
6.3590002 -2.902 -0.29300001
6.3730001 -2.8900001 -0.29300001
6.3889999 -2.8789999 -0.294
6.3930001 -2.8629999 -0.294
6.4070001 -2.8510001 -0.294
6.4289999 -2.842 -0.29499999
6.4330001 -2.826 -0.29499999
6.441 -2.8110001 -0.29499999
6.4460001 -2.7950001 -0.296
6.467 -2.7850001 -0.296
6.4650002 -2.766 -0.296
6.4660001 -2.7479999 -0.296
6.4840002 -2.737 -0.29699999
6.493 -2.7219999 -0.29699999
6.5139999 -2.7119999 -0.29800001
6.5209999 -2.697 -0.29800001
6.533 -2.6830001 -0.29800001
6.5469999 -2.6700001 -0.29899999
6.552 -2.6530001 -0.29899999
6.5689998 -2.641 -0.30000001
6.5710001 -2.6229999 -0.30000001
6.585 -2.6099999 -0.30000001
6.6020002 -2.598 -0.301
6.6110001 -2.5829999 -0.301
6.619 -2.5669999 -0.301
6.6360002 -2.5550001 -0.30199999
6.6430001 -2.5380001 -0.30199999
6.6399999 -2.5179999 -0.30199999
6.664 -2.5079999 -0.303
6.6599998 -2.4879999 -0.30199999
6.6700001 -2.473 -0.303
6.6880002 -2.46 -0.303
6.6799998 -2.438 -0.303
6.7020001 -2.427 -0.30399999
6.7049999 -2.4089999 -0.30399999
6.71 -2.391 -0.30399999
6.7329998 -2.3800001 -0.30500001
6.73 -2.3599999 -0.30399999
6.7379999 -2.3440001 -0.30500001
6.7420001 -2.326 -0.30500001
6.7709999 -2.316 -0.30599999
6.7820001 -2.3010001 -0.30599999
6.7880001 -2.283 -0.30599999
6.8080001 -2.2709999 -0.30700001
6.7880001 -2.2449999 -0.30599999
6.822 -2.2360001 -0.30700001
6.8189998 -2.2160001 -0.30700001
6.8280001 -2.1989999 -0.30700001
6.8429999 -2.1849999 -0.308
6.848 -2.1670001 -0.308
6.8590002 -2.151 -0.308
6.8740001 -2.1359999 -0.30899999
6.8899999 -2.1210001 -0.30899999
6.8920002 -2.102 -0.30899999
6.8959999 -2.0840001 -0.30899999
6.9089999 -2.0680001 -0.31
6.928 -2.0539999 -0.31
6.9349999 -2.036 -0.31099999
6.9400001 -2.0179999 -0.31099999
6.9460001 -2 -0.31099999
6.96 -1.984 -0.31099999
6.9819999 -1.97 -0.31200001
6.9850001 -1.951 -0.31200001
6.9920001 -1.933 -0.31200001
7.0089998 -1.918 -0.31299999
7.0240002 -1.902 -0.31299999
7.0339999 -1.885 -0.31400001
7.0450001 -1.868 -0.31400001
7.0669999 -1.853 -0.315
7.0609999 -1.832 -0.31400001
7.0949998 -1.8200001 -0.31600001
7.1020002 -1.802 -0.31600001
7.1149998 -1.785 -0.31600001
7.1399999 -1.771 -0.317
7.145 -1.752 -0.317
7.1669998 -1.737 -0.31799999
7.2010002 -1.725 -0.31900001
7.1950002 -1.7029999 -0.31900001
7.2189999 -1.688 -0.31999999
7.2329998 -1.671 -0.31999999
7.2309999 -1.65 -0.31999999
7.2529998 -1.6339999 -0.32100001
7.276 -1.619 -0.322
7.289 -1.601 -0.322
7.2919998 -1.581 -0.322
7.302 -1.562 -0.322
