# .PCD v0.7 - Point Cloud Data file format
VERSION 0.7
FIELDS x y z
SIZE 4 4 4
TYPE F F F
COUNT 1 1 1
WIDTH 1804
HEIGHT 1
VIEWPOINT 0 0 0 1 0 0 0
POINTS 1804
DATA ascii
9.184 2.7939999 -0.223
9.1960001 2.829 -0.223
9.1920004 2.859 -0.22400001
9.0649996 2.8499999 -0.221
9.0120001 2.8640001 -0.22
8.9969997 2.8900001 -0.22
9.0190001 2.928 -0.221
9.1090002 2.9879999 -0.22400001
11.565 3.8340001 -0.285
11.584 3.8800001 -0.28600001
11.624 3.934 -0.287
11.601 3.9660001 -0.287
11.6 4.006 -0.28799999
11.607 4.0489998 -0.28799999
11.631 4.098 -0.28999999
11.652 4.1459999 -0.29100001
11.669 4.1919999 -0.292
11.698 4.244 -0.29300001
11.702 4.2859998 -0.294
11.732 4.3390002 -0.29499999
11.755 4.3889999 -0.296
11.779 4.4390001 -0.29699999
11.793 4.4860001 -0.29800001
11.819 4.5380001 -0.30000001
11.812 4.5770001 -0.30000001
11.855 4.6360002 -0.30199999
11.899 4.6950002 -0.30399999
11.914 4.744 -0.30500001
11.936 4.7950001 -0.30599999
11.946 4.842 -0.30700001
11.965 4.8930001 -0.308
11.966 4.9359999 -0.308
12.005 4.9949999 -0.31
12.005 5.0380001 -0.31099999
12.059 5.1040001 -0.31299999
12.071 5.1529999 -0.31400001
12.084 5.2020001 -0.315
12.102 5.2540002 -0.31600001
12.118 5.3039999 -0.317
12.125 5.3509998 -0.31799999
12.123 5.3940001 -0.31799999
12.143 5.447 -0.31999999
12.124 5.4819999 -0.31999999
12.144 5.5359998 -0.32100001
12.158 5.586 -0.322
12.192 5.6459999 -0.324
12.201 5.6950002 -0.32499999
12.219 5.7480001 -0.32600001
12.229 5.7969999 -0.32699999
12.246 5.8499999 -0.32800001
12.262 5.902 -0.329
12.254 5.9429998 -0.33000001
12.302 6.0110002 -0.33199999
12.314 6.0619998 -0.333
12.324 6.112 -0.33399999
12.359 6.1739998 -0.33500001
12.362 6.2210002 -0.336
12.31 6.2399998 -0.336
12.236 6.2470002 -0.33399999
12.214 6.2810001 -0.33399999
12.306 6.3730001 -0.338
12.236 6.4260001 -0.33700001
12.213 6.4580002 -0.33700001
12.311 6.5549998 -0.34099999
6.0539999 3.3559999 -0.17
5.9349999 3.312 -0.167
5.8860002 3.306 -0.16599999
5.8520002 3.3080001 -0.16500001
5.8330002 3.3180001 -0.16500001
5.8179998 3.3310001 -0.16500001
5.7989998 3.3410001 -0.16500001
5.776 3.348 -0.164
5.7620001 3.3610001 -0.164
5.7579999 3.3789999 -0.16500001
5.7490001 3.395 -0.16500001
5.7249999 3.401 -0.164
5.7309999 3.425 -0.16500001
5.7270002 3.4430001 -0.16500001
5.7360001 3.47 -0.16599999
5.7270002 3.4849999 -0.16599999
5.7199998 3.5009999 -0.16599999
5.7189999 3.5209999 -0.167
5.71 3.5350001 -0.167
5.7189999 3.5610001 -0.167
5.723 3.5829999 -0.168
5.723 3.6040001 -0.168
5.7280002 3.6270001 -0.169
5.723 3.6440001 -0.169
5.7270002 3.6659999 -0.17
5.7399998 3.6949999 -0.17
5.7470002 3.7190001 -0.171
5.7680001 3.7520001 -0.17200001
5.8629999 3.835 -0.175
9.6239996 6.651 -0.29499999
9.5380001 6.6220002 -0.29300001
9.4729996 6.6079998 -0.292
9.4370003 6.6139998 -0.292
9.4200001 6.632 -0.292
9.401 6.6490002 -0.292
9.3990002 6.677 -0.292
9.3920002 6.7020001 -0.29300001
9.3909998 6.7309999 -0.294
9.3889999 6.7589998 -0.294
9.3920002 6.79 -0.29499999
9.3879995 6.816 -0.29499999
9.3900003 6.8460002 -0.296
7.0079999 -4.1129999 -0.054000001
7.0229998 -4.1020002 -0.054000001
7.0250001 -4.0840001 -0.054000001
7.0440001 -4.0749998 -0.054000001
7.0549998 -4.0619998 -0.054000001
7.0609999 -4.0450001 -0.054000001
7.0710001 -4.0310001 -0.054000001
7.0609999 -4.0050001 -0.054000001
7.0819998 -3.997 -0.054000001
7.086 -3.9790001 -0.054000001
7.0949998 -3.964 -0.054000001
7.1090002 -3.9519999 -0.054000001
7.112 -3.9330001 -0.054000001
7.1170001 -3.9159999 -0.054000001
7.1290002 -3.902 -0.054000001
7.1469998 -3.892 -0.054000001
7.1589999 -3.878 -0.054000001
7.1669998 -3.862 -0.054000001
7.1729999 -3.8440001 -0.054000001
7.197 -3.8369999 -0.054000001
7.1989999 -3.8169999 -0.054000001
7.2069998 -3.8010001 -0.054000001
7.1719999 -3.7620001 -0.054000001
7.1669998 -3.7390001 -0.054000001
7.1869998 -3.7290001 -0.054000001
7.2399998 -3.7360001 -0.054000001
7.2680001 -3.7290001 -0.054000001
7.27 -3.71 -0.054000001
7.2800002 -3.694 -0.054000001
7.2930002 -3.6800001 -0.054000001
7.2930002 -3.6589999 -0.054000001
7.3150001 -3.6489999 -0.054000001
7.3239999 -3.632 -0.054000001
7.3400002 -3.619 -0.054000001
7.342 -3.599 -0.054000001
7.3590002 -3.586 -0.054000001
7.3629999 -3.5669999 -0.054000001
7.3730001 -3.55 -0.054000001
7.382 -3.5339999 -0.054000001
7.4089999 -3.5250001 -0.054000001
7.4029999 -3.5009999 -0.054000001
7.4330001 -3.494 -0.054000001
7.434 -3.473 -0.054000001
7.4390001 -3.454 -0.054000001
7.4640002 -3.444 -0.054000001
7.4660001 -3.4230001 -0.054000001
7.4829998 -3.4100001 -0.054000001
7.4879999 -3.391 -0.054000001
7.494 -3.3710001 -0.054000001
7.5120001 -3.358 -0.054000001
7.5339999 -3.346 -0.054000001
7.5419998 -3.3280001 -0.054000001
7.5479999 -3.309 -0.054000001
7.5689998 -3.2969999 -0.054000001
7.585 -3.2809999 -0.054000001
7.585 -3.26 -0.054000001
7.6069999 -3.247 -0.054000001
7.6149998 -3.2290001 -0.054000001
7.6300001 -3.2130001 -0.054000001
7.6420002 -3.1960001 -0.054000001
7.6630001 -3.1819999 -0.054000001
7.6690001 -3.1630001 -0.054000001
7.6729999 -3.142 -0.054000001
7.697 -3.1300001 -0.054000001
7.7080002 -3.1129999 -0.054000001
7.7329998 -3.0999999 -0.054000001
7.724 -3.0739999 -0.054000001
7.7389998 -3.0580001 -0.054000001
7.7579999 -3.043 -0.054000001
7.7740002 -3.027 -0.054000001
7.7919998 -3.0120001 -0.054000001
7.7979999 -2.9909999 -0.054000001
7.8099999 -2.973 -0.054000001
7.822 -2.9549999 -0.054000001
7.8369999 -2.9389999 -0.054000001
7.8579998 -2.924 -0.054000001
7.8569999 -2.901 -0.054000001
7.8740001 -2.8840001 -0.054000001
7.8860002 -2.8659999 -0.054000001
7.8959999 -2.8469999 -0.054000001
7.9039998 -2.8269999 -0.054000001
7.9390001 -2.8169999 -0.055
7.9489999 -2.7969999 -0.055
7.9749999 -2.783 -0.055
7.9850001 -2.7639999 -0.055
7.9840002 -2.74 -0.054000001
8.0109997 -2.727 -0.055
8.0120001 -2.704 -0.055
8.0480003 -2.6930001 -0.055
8.0600004 -2.674 -0.055
8.0710001 -2.654 -0.055
8.092 -2.638 -0.055
8.1020002 -2.618 -0.055
8.1219997 -2.6010001 -0.055
8.1409998 -2.5829999 -0.055
8.151 -2.563 -0.055
8.1719999 -2.546 -0.055
8.1899996 -2.5280001 -0.055
8.2049999 -2.5090001 -0.055
8.2309999 -2.494 -0.055
8.2460003 -2.474 -0.055
8.3009996 -2.467 -0.055
8.2910004 -2.441 -0.055
8.3109999 -2.4219999 -0.055
8.3190002 -2.401 -0.055
8.3190002 -2.3770001 -0.055
8.3579998 -2.3640001 -0.055
8.3649998 -2.342 -0.055
8.3789997 -2.322 -0.055
8.3830004 -2.299 -0.055
8.408 -2.2820001 -0.055
8.4350004 -2.2650001 -0.055
8.4580002 -2.247 -0.055
8.4809999 -2.2290001 -0.055
8.4879999 -2.2060001 -0.055
8.5229998 -2.191 -0.056000002
8.54 -2.171 -0.056000002
8.5480003 -2.148 -0.056000002
8.5670004 -2.128 -0.056000002
8.5810003 -2.1070001 -0.056000002
8.5769997 -2.082 -0.055
8.6009998 -2.063 -0.056000002
8.6330004 -2.046 -0.056000002
8.6669998 -2.029 -0.056000002
8.6789999 -2.007 -0.056000002
8.6820002 -1.983 -0.056000002
8.71 -1.965 -0.056000002
8.7299995 -1.944 -0.056000002
8.7639999 -1.927 -0.056000002
8.8039999 -1.91 -0.056000002
8.8299999 -1.891 -0.056000002
8.8380003 -1.867 -0.056000002
8.8400002 -1.842 -0.056000002
8.8450003 -1.818 -0.056000002
8.8909998 -1.802 -0.056000002
8.8940001 -1.778 -0.056000002
8.9099998 -1.755 -0.056000002
8.9420004 -1.7359999 -0.056000002
8.9619999 -1.714 -0.056000002
8.9860001 -1.693 -0.056000002
8.9919996 -1.669 -0.056000002
9.0100002 -1.646 -0.056000002
9.0419998 -1.627 -0.056000002
9.052 -1.602 -0.056000002
9.066 -1.579 -0.056000002
9.0959997 -1.558 -0.057
9.1160002 -1.536 -0.057
9.1499996 -1.515 -0.057
9.1940002 -1.497 -0.057
9.2139997 -1.474 -0.057
9.2259998 -1.449 -0.057
9.2399998 -1.425 -0.057
9.2819996 -1.405 -0.057
9.3009996 -1.382 -0.057
9.3330002 -1.36 -0.057
9.3660002 -1.3380001 -0.057
9.3809996 -1.314 -0.057
9.408 -1.291 -0.057
9.4219999 -1.266 -0.057
9.4580002 -1.244 -0.057
9.4720001 -1.219 -0.057
9.5109997 -1.197 -0.057999998
9.5100002 -1.169 -0.057999998
9.5679998 -1.149 -0.057999998
9.5880003 -1.124 -0.057999998
9.6110001 -1.1 -0.057999998
9.6560001 -1.0779999 -0.057999998
9.6820002 -1.053 -0.057999998
9.7130003 -1.029 -0.057999998
9.71 -1.001 -0.057999998
9.7419996 -0.977 -0.057999998
9.7919998 -0.954 -0.057999998
9.8109999 -0.92799997 -0.057999998
9.8360004 -0.90200001 -0.057999998
9.8800001 -0.87800002 -0.059
9.9259996 -0.85399997 -0.059
9.9899998 -0.83099997 -0.059
10.008 -0.80500001 -0.059
10.066 -0.78100002 -0.059
10.091 -0.75400001 -0.059
10.15 -0.73000002 -0.059999999
10.199 -0.704 -0.059999999
10.211 -0.676 -0.059999999
10.3 -0.653 -0.059999999
10.209 0.17200001 -0.19
10.22 0.184 -0.19
10.155 0.19499999 -0.189
10.166 0.208 -0.189
10.169 0.221 -0.189
10.136 0.233 -0.189
10.144 0.24699999 -0.189
10.108 0.25999999 -0.189
10.103 0.273 -0.189
10.1 0.287 -0.189
10.103 0.30199999 -0.189
10.094 0.31600001 -0.189
10.098 0.331 -0.189
10.12 0.34599999 -0.19
10.126 0.36199999 -0.19
9.3699999 0.34900001 -0.176
9.1929998 0.35699999 -0.17299999
9.1029997 0.368 -0.171
9.0749998 0.38100001 -0.171
9.026 0.39399999 -0.17
9.0170002 0.40799999 -0.17
9.0050001 0.42199999 -0.17
9.0100002 0.43799999 -0.17
9.0360003 0.45500001 -0.171
9.1040001 0.47400001 -0.17200001
10.095 0.54299998 -0.191
8.8590002 0.49200001 -0.168
8.7060003 0.49900001 -0.16500001
8.6330004 0.51099998 -0.164
8.6280003 0.52600002 -0.164
8.6059999 0.54100001 -0.164
8.6079998 0.55699998 -0.164
8.6140003 0.574 -0.164
8.6870003 0.59600002 -0.16599999
8.8549995 0.625 -0.169
10.208 0.74000001 -0.19499999
10.22 0.76099998 -0.19599999
10.24 0.78299999 -0.197
10.244 0.80400002 -0.197
10.243 0.82499999 -0.197
10.256 0.847 -0.198
10.279 0.87099999 -0.198
10.265 0.89099997 -0.198
10.302 0.91600001 -0.199
10.303 0.93900001 -0.199
10.321 0.963 -0.2
10.323 0.98500001 -0.2
10.328 1.0089999 -0.20100001
10.353 1.034 -0.20100001
10.376 1.0599999 -0.20200001
10.388 1.084 -0.20299999
10.395 1.109 -0.20299999
10.422 1.136 -0.204
10.458 1.164 -0.205
10.44 1.186 -0.205
10.445 1.211 -0.205
10.454 1.237 -0.206
10.479 1.265 -0.206
10.517 1.295 -0.207
10.503 1.319 -0.207
10.529 1.348 -0.208
10.547 1.376 -0.20900001
10.579 1.4069999 -0.20999999
10.548 1.429 -0.20900001
10.56 1.457 -0.20999999
10.554 1.483 -0.20999999
10.577 1.5140001 -0.211
10.584 1.5420001 -0.211
10.616 1.574 -0.212
10.641 1.6059999 -0.213
10.653 1.635 -0.214
10.678 1.6670001 -0.215
10.687 1.697 -0.215
10.714 1.73 -0.21600001
10.715 1.7589999 -0.21600001
10.725 1.79 -0.21699999
10.748 1.823 -0.21799999
10.761 1.855 -0.21799999
10.779 1.888 -0.219
10.815 1.924 -0.22
10.831 1.957 -0.221
10.864 1.994 -0.222
10.875 2.027 -0.222
10.881 2.059 -0.223
10.891 2.092 -0.22400001
10.915 2.128 -0.22400001
10.955 2.168 -0.226
10.987 2.2060001 -0.227
11.017 2.244 -0.228
11.028 2.279 -0.228
11.044 2.3150001 -0.229
11.071 2.3540001 -0.23
11.076 2.388 -0.23100001
11.094 2.425 -0.23100001
11.125 2.4660001 -0.23199999
11.115 2.497 -0.233
11.154 2.54 -0.234
11.171 2.579 -0.235
11.201 2.6199999 -0.236
11.235 2.6630001 -0.237
11.237 2.698 -0.237
11.255 2.7379999 -0.23800001
11.27 2.777 -0.23899999
11.308 2.823 -0.23999999
11.323 2.862 -0.241
11.372 2.911 -0.242
11.345 2.941 -0.242
11.372 2.984 -0.243
11.392 3.027 -0.244
11.402 3.0669999 -0.245
11.447 3.1159999 -0.24600001
11.438 3.152 -0.24699999
11.466 3.197 -0.248
11.477 3.2379999 -0.248
11.504 3.2850001 -0.25
11.528 3.3299999 -0.25099999
11.564 3.3800001 -0.252
11.602 3.4300001 -0.25299999
9.3290005 2.79 -0.204
9.2119999 2.786 -0.20200001
9.177 2.8069999 -0.20100001
9.1850004 2.8410001 -0.20200001
9.2049999 2.8800001 -0.20299999
9.0819998 2.872 -0.2
9.0059996 2.8800001 -0.199
8.9919996 2.9070001 -0.199
9.0030003 2.9419999 -0.2
9.1429996 3.0209999 -0.204
11.88 3.967 -0.26499999
11.915 4.0209999 -0.266
11.882 4.053 -0.266
11.892 4.099 -0.26699999
11.904 4.1459999 -0.26800001
11.951 4.2059999 -0.27000001
11.959 4.2529998 -0.27000001
11.939 4.289 -0.27000001
11.965 4.342 -0.27200001
11.998 4.3990002 -0.273
12.016 4.4499998 -0.27399999
12.048 4.507 -0.27500001
12.056 4.5549998 -0.27599999
12.078 4.6079998 -0.27700001
12.06 4.6469998 -0.27700001
12.131 4.7199998 -0.28
12.153 4.7750001 -0.28099999
12.168 4.8270001 -0.28200001
12.176 4.8769999 -0.28299999
12.176 4.9239998 -0.28299999
12.197 4.98 -0.28400001
12.215 5.0339999 -0.285
12.216 5.0819998 -0.28600001
12.238 5.1389999 -0.287
12.27 5.2010002 -0.289
12.302 5.263 -0.28999999
12.31 5.3150001 -0.29100001
12.325 5.3699999 -0.292
12.35 5.4299998 -0.29300001
12.356 5.4819999 -0.294
12.361 5.5339999 -0.29499999
12.404 5.6030002 -0.29699999
12.405 5.6539998 -0.29699999
12.407 5.7049999 -0.29800001
12.388 5.7470002 -0.29800001
12.405 5.8049998 -0.29899999
12.44 5.8730001 -0.301
12.458 5.9330001 -0.30199999
12.508 6.0079999 -0.30399999
12.509 6.0609999 -0.30500001
12.543 6.1290002 -0.30599999
12.6 6.21 -0.30899999
12.616 6.2709999 -0.31
12.552 6.2919998 -0.30899999
12.247 6.191 -0.30199999
12.23 6.2340002 -0.30199999
12.143 6.3449998 -0.30199999
12.139 6.395 -0.303
6.1300001 3.3889999 -0.155
5.9759998 3.3310001 -0.152
5.8860002 3.3069999 -0.15000001
5.849 3.312 -0.149
5.8299999 3.3269999 -0.149
5.7989998 3.335 -0.149
5.783 3.352 -0.149
5.7659998 3.368 -0.149
5.744 3.381 -0.148
5.7280002 3.3970001 -0.148
5.7259998 3.4219999 -0.149
5.71 3.4389999 -0.149
5.7189999 3.47 -0.149
5.7069998 3.49 -0.149
5.7080002 3.516 -0.15000001
5.7020001 3.539 -0.15000001
5.6950002 3.5610001 -0.15000001
5.6849999 3.5810001 -0.15000001
5.6799998 3.605 -0.15099999
5.6789999 3.631 -0.15099999
5.6820002 3.6589999 -0.15099999
5.6929998 3.6930001 -0.152
5.6859999 3.7149999 -0.152
5.6849999 3.7409999 -0.153
5.6900001 3.7720001 -0.153
5.6999998 3.806 -0.154
5.7399998 3.859 -0.155
5.8439999 3.9579999 -0.15899999
9.6049995 6.8309999 -0.266
9.5229998 6.8200002 -0.26499999
9.4110003 6.7859998 -0.26199999
6.7049999 -4.4260001 -0.035999998
6.724 -4.3959999 -0.035999998
6.7610002 -4.3779998 -0.035999998
6.7919998 -4.3559999 -0.037
6.8000002 -4.3189998 -0.037
6.8299999 -4.2969999 -0.037
6.842 -4.263 -0.037
6.8649998 -4.237 -0.037
6.8850002 -4.2080002 -0.037
6.9039998 -4.1789999 -0.037
6.9190001 -4.1479998 -0.037
6.9439998 -4.1230001 -0.037
6.9619999 -4.0939999 -0.037
6.9790001 -4.0640001 -0.037
7.0050001 -4.0409999 -0.037
7.026 -4.013 -0.037
7.0479999 -3.987 -0.037
7.072 -3.9619999 -0.037
7.1009998 -3.9400001 -0.037
7.0749998 -3.8870001 -0.035999998
7.0910001 -3.859 -0.035999998
7.1409998 -3.848 -0.037
7.1680002 -3.825 -0.037
7.1859999 -3.7969999 -0.037
7.2080002 -3.7720001 -0.037
7.2350001 -3.7490001 -0.037
7.2550001 -3.7219999 -0.037
7.2750001 -3.6960001 -0.037
7.2919998 -3.6689999 -0.037
7.3010001 -3.6370001 -0.037
7.3270001 -3.6129999 -0.037
7.329 -3.579 -0.037
7.3670001 -3.562 -0.037
7.3870001 -3.536 -0.037
7.3979998 -3.506 -0.037
7.4359999 -3.4890001 -0.037
7.4419999 -3.457 -0.037
7.4510002 -3.427 -0.037
7.4749999 -3.4030001 -0.037
7.4959998 -3.378 -0.037
7.5120001 -3.352 -0.037
7.546 -3.3329999 -0.037
7.5640001 -3.3069999 -0.037
7.5900002 -3.2839999 -0.037
7.6020002 -3.256 -0.037
7.618 -3.23 -0.037
7.6459999 -3.2079999 -0.037
7.6609998 -3.181 -0.037
7.7030001 -3.1659999 -0.037
7.7160001 -3.1389999 -0.037
7.7399998 -3.115 -0.037
7.75 -3.0869999 -0.037
7.7579999 -3.0580001 -0.037
7.7919998 -3.039 -0.037
7.8200002 -3.0179999 -0.037
7.8309999 -2.99 -0.037
7.8499999 -2.9660001 -0.037
7.888 -2.9489999 -0.037
7.8979998 -2.921 -0.037
7.9250002 -2.9000001 -0.037
7.9349999 -2.872 -0.037
7.948 -2.846 -0.037
7.9819999 -2.8269999 -0.037
8.007 -2.8050001 -0.037
8.0450001 -2.7869999 -0.037
8.0539999 -2.76 -0.037
8.0909996 -2.7420001 -0.037
8.1169996 -2.721 -0.037
8.1289997 -2.694 -0.037
8.158 -2.674 -0.037
8.1730003 -2.6489999 -0.037
8.217 -2.6329999 -0.037
8.2189999 -2.6040001 -0.037
8.2539997 -2.585 -0.037
8.283 -2.5650001 -0.037
8.2989998 -2.54 -0.037
8.342 -2.5239999 -0.037999999
8.3730001 -2.5039999 -0.037999999
8.3640003 -2.4719999 -0.037999999
8.3940001 -2.4519999 -0.037999999
8.4280005 -2.4330001 -0.037999999
8.4280005 -2.404 -0.037999999
8.4639997 -2.3859999 -0.037999999
8.4910002 -2.365 -0.037999999
8.5109997 -2.342 -0.037999999
8.5550003 -2.325 -0.037999999
8.5819998 -2.3050001 -0.037999999
8.6009998 -2.2809999 -0.037999999
8.6169996 -2.2579999 -0.037999999
8.6300001 -2.233 -0.037999999
8.6590004 -2.2130001 -0.037999999
8.6859999 -2.1919999 -0.037999999
8.6990004 -2.1670001 -0.037999999
8.7139997 -2.1429999 -0.037999999
8.7729998 -2.131 -0.037999999
8.7810001 -2.105 -0.037999999
8.8030005 -2.0829999 -0.037999999
8.8439999 -2.066 -0.037999999
8.8409996 -2.0380001 -0.037999999
8.8760004 -2.0190001 -0.037999999
8.9519997 -2.0090001 -0.037999999
8.9989996 -1.993 -0.039000001
8.9899998 -1.964 -0.037999999
8.9659996 -1.932 -0.037999999
8.9770002 -1.908 -0.037999999
9.0139999 -1.89 -0.037999999
9.0240002 -1.8660001 -0.037999999
9.0430002 -1.844 -0.037999999
9.0710001 -1.823 -0.037999999
9.0830002 -1.8 -0.037999999
9.1160002 -1.78 -0.037999999
9.1450005 -1.76 -0.037999999
9.1490002 -1.7359999 -0.037999999
9.1660004 -1.7130001 -0.037999999
9.2110004 -1.696 -0.037999999
9.1890001 -1.6670001 -0.037999999
9.2290001 -1.649 -0.037999999
9.2399998 -1.626 -0.037999999
9.2709999 -1.607 -0.037999999
9.2969999 -1.586 -0.037999999
9.3149996 -1.564 -0.037999999
9.3400002 -1.544 -0.037999999
9.3710003 -1.525 -0.039000001
9.4049997 -1.506 -0.039000001
9.3929996 -1.479 -0.037999999
9.4049997 -1.457 -0.037999999
9.4440002 -1.439 -0.039000001
9.4809999 -1.42 -0.039000001
9.4870005 -1.397 -0.039000001
9.5209999 -1.3789999 -0.039000001
9.5439997 -1.358 -0.039000001
9.5500002 -1.335 -0.039000001
9.6009998 -1.319 -0.039000001
9.6079998 -1.296 -0.039000001
9.6309996 -1.276 -0.039000001
9.665 -1.257 -0.039000001
9.6820002 -1.2359999 -0.039000001
9.7010002 -1.215 -0.039000001
9.717 -1.1950001 -0.039000001
9.7209997 -1.1720001 -0.039000001
9.75 -1.153 -0.039000001
9.7679996 -1.132 -0.039000001
9.8140001 -1.115 -0.039000001
9.8439999 -1.096 -0.039000001
9.8579998 -1.075 -0.039000001
9.849 -1.052 -0.039000001
9.8990002 -1.035 -0.039000001
9.9110003 -1.0140001 -0.039000001
9.948 -0.99599999 -0.039000001
9.9440002 -0.97399998 -0.039000001
9.9820004 -0.95599997 -0.039000001
10.011 -0.93699998 -0.039000001
10.02 -0.91600001 -0.039000001
10.05 -0.89700001 -0.039000001
10.067 -0.87699997 -0.039000001
10.091 -0.85799998 -0.039000001
10.114 -0.83899999 -0.039000001
10.145 -0.81999999 -0.039000001
10.174 -0.80199999 -0.039000001
10.162 -0.77999997 -0.039000001
10.249 -0.76599997 -0.039000001
10.278 -0.74699998 -0.039000001
10.31 -0.72899997 -0.039999999
10.31 -0.708 -0.039000001
10.356 -0.69099998 -0.039999999
10.421 -0.67400002 -0.039999999
10.495 -0.65899998 -0.039999999
10.495 -0.63800001 -0.039999999
9.9449997 0.123 -0.15700001
9.9779997 0.141 -0.15800001
10.002 0.16 -0.15899999
9.993 0.178 -0.15899999
10.015 0.197 -0.15899999
10.019 0.21600001 -0.15899999
10.008 0.235 -0.15899999
10.006 0.25400001 -0.15899999
10.013 0.27399999 -0.16
10.026 0.294 -0.16
10.037 0.315 -0.161
10.03 0.33500001 -0.161
10.072 0.35600001 -0.161
9.2040005 0.345 -0.148
9.1239996 0.361 -0.147
9.0719995 0.37799999 -0.146
9.04 0.39500001 -0.146
9.0139999 0.41299999 -0.145
9.0050001 0.43200001 -0.145
8.9969997 0.45199999 -0.145
9.0360003 0.47299999 -0.146
9.0979996 0.49700001 -0.147
9.2810001 0.52700001 -0.15099999
8.802 0.51999998 -0.14300001
8.6780005 0.53200001 -0.141
8.6219997 0.54799998 -0.14
8.6000004 0.56699997 -0.14
8.6009998 0.58700001 -0.14
8.6149998 0.60799998 -0.141
8.6730003 0.63300002 -0.142
8.8760004 0.66799998 -0.146
10.204 0.79299998 -0.168
10.229 0.81900001 -0.168
10.253 0.84600002 -0.169
10.26 0.87199998 -0.169
10.267 0.898 -0.17
10.292 0.92500001 -0.17
10.307 0.95200002 -0.171
10.287 0.97600001 -0.171
10.336 1.007 -0.17200001
10.347 1.034 -0.17200001
10.357 1.062 -0.17299999
10.409 1.094 -0.17399999
10.4 1.12 -0.17399999
10.424 1.15 -0.17399999
10.45 1.1799999 -0.175
10.479 1.211 -0.176
10.503 1.2410001 -0.177
10.508 1.27 -0.177
10.509 1.298 -0.177
10.54 1.331 -0.178
10.561 1.362 -0.17900001
10.588 1.3940001 -0.17900001
10.599 1.425 -0.18000001
10.627 1.4579999 -0.18099999
10.635 1.488 -0.18099999
10.657 1.521 -0.182
10.662 1.551 -0.182
10.66 1.581 -0.183
10.7 1.617 -0.184
10.733 1.653 -0.184
10.734 1.683 -0.185
10.78 1.721 -0.186
10.799 1.756 -0.186
10.826 1.791 -0.18700001
10.827 1.823 -0.18799999
10.864 1.8609999 -0.189
10.878 1.895 -0.189
10.896 1.9299999 -0.19
10.924 1.967 -0.191
10.968 2.0079999 -0.192
11.01 2.0480001 -0.193
11.036 2.086 -0.19400001
11.038 2.1199999 -0.19400001
11.089 2.1630001 -0.19499999
11.126 2.204 -0.19599999
11.157 2.244 -0.197
11.184 2.2839999 -0.198
11.212 2.3239999 -0.199
11.244 2.365 -0.2
11.275 2.4059999 -0.20100001
11.307 2.448 -0.20200001
11.325 2.487 -0.20200001
11.345 2.527 -0.20299999
11.38 2.5710001 -0.204
11.369 2.6040001 -0.204
11.406 2.648 -0.205
11.435 2.691 -0.206
11.486 2.74 -0.208
11.512 2.783 -0.20900001
11.548 2.8280001 -0.20999999
11.594 2.8770001 -0.211
11.609 2.918 -0.212
11.617 2.957 -0.212
11.64 3.0009999 -0.213
11.655 3.043 -0.214
11.663 3.0829999 -0.214
11.711 3.1340001 -0.21600001
11.718 3.174 -0.21600001
11.724 3.214 -0.21699999
11.751 3.2609999 -0.21799999
11.796 3.312 -0.219
11.848 3.3659999 -0.22
11.928 3.428 -0.222
11.95 3.474 -0.223
9.3249998 2.7420001 -0.17399999
9.2139997 2.7409999 -0.17299999
9.1870003 2.7639999 -0.17299999
9.1639996 2.7880001 -0.17200001
9.2040005 2.8310001 -0.17399999
9.1280003 2.8380001 -0.17299999
9.0349998 2.8399999 -0.171
8.9890003 2.8559999 -0.171
8.9770002 2.8829999 -0.171
9.0220003 2.928 -0.17200001
12.582 4.0840001 -0.23999999
9.165 3.006 -0.175
12.209 4.0050001 -0.233
12.226 4.052 -0.234
12.239 4.099 -0.235
12.252 4.145 -0.236
12.265 4.1919999 -0.237
12.288 4.243 -0.237
12.301 4.29 -0.23800001
12.314 4.3369999 -0.23899999
12.323 4.3829999 -0.23999999
12.351 4.4369998 -0.241
12.399 4.4970002 -0.242
12.386 4.5359998 -0.243
12.388 4.5799999 -0.243
12.399 4.6279998 -0.244
12.399 4.6719999 -0.244
12.451 4.7350001 -0.24600001
12.468 4.7859998 -0.24699999
12.486 4.8369999 -0.248
12.49 4.8829999 -0.249
12.526 4.9419999 -0.25
12.535 4.9899998 -0.25099999
12.554 5.0419998 -0.25099999
12.563 5.0910001 -0.252
12.59 5.1469998 -0.25299999
12.61 5.1999998 -0.25400001
12.644 5.2589998 -0.25600001
12.63 5.2989998 -0.25600001
12.648 5.3520002 -0.257
12.651 5.3990002 -0.25799999
12.69 5.461 -0.259
12.727 5.5229998 -0.25999999
12.719 5.566 -0.26100001
12.722 5.6129999 -0.26100001
12.737 5.6659999 -0.26199999
12.766 5.7249999 -0.264
12.766 5.7709999 -0.264
12.808 5.8369999 -0.266
12.834 5.895 -0.26699999
12.83 5.9400001 -0.26699999
12.867 6.0040002 -0.26899999
12.906 6.0689998 -0.27000001
12.909 6.118 -0.271
12.926 6.1729999 -0.27200001
12.973 6.243 -0.27399999
12.987 6.2969999 -0.27500001
13.015 6.3579998 -0.27599999
13.036 6.4159999 -0.27700001
13.063 6.4770002 -0.278
13.073 6.5300002 -0.27900001
12.284 6.1799998 -0.26300001
12.187 6.1760001 -0.26100001
12.243 6.2490001 -0.26300001
12.247 6.3410001 -0.26499999
12.155 6.3379998 -0.26300001
12.079 6.342 -0.26199999
12.061 6.3769999 -0.26199999
12.239 6.5159998 -0.26699999
12.242 6.6059999 -0.26800001
12.152 6.6020002 -0.26699999
12.23 6.6890001 -0.26899999
6.1960001 3.411 -0.13699999
6.0219998 3.3380001 -0.133
5.9320002 3.309 -0.131
5.8769999 3.3 -0.131
5.8470001 3.3039999 -0.13
5.822 3.3110001 -0.13
5.7930002 3.316 -0.13
5.7810001 3.3299999 -0.13
5.7670002 3.3429999 -0.13
5.7420001 3.349 -0.12899999
5.7410002 3.369 -0.13
5.7379999 3.388 -0.13
5.711 3.392 -0.13
5.7119999 3.4130001 -0.13
5.6989999 3.4260001 -0.13
5.7020001 3.448 -0.13
5.6989999 3.467 -0.131
5.6900001 3.4820001 -0.131
5.6890001 3.5009999 -0.131
5.6799998 3.516 -0.131
5.6690001 3.529 -0.131
5.665 3.546 -0.132
5.6739998 3.572 -0.132
5.6750002 3.5929999 -0.132
5.6929998 3.6240001 -0.133
5.6999998 3.648 -0.134
5.723 3.6830001 -0.13500001
5.7319999 3.7079999 -0.13500001
5.7540002 3.743 -0.13600001
5.7919998 3.7880001 -0.13699999
5.881 3.8659999 -0.14
9.6949997 6.698 -0.236
9.6450005 6.6950002 -0.236
9.5690002 6.6739998 -0.235
9.4860001 6.6469998 -0.233
9.4359999 6.6420002 -0.23199999
9.3970003 6.645 -0.23199999
9.3610001 6.6490002 -0.23199999
9.3369999 6.6620002 -0.23199999
9.3260002 6.6830001 -0.23199999
9.3240004 6.711 -0.233
9.3109999 6.73 -0.233
9.3140001 6.7620001 -0.233
9.3149996 6.7909999 -0.234
7.1760001 -4.2150002 -0.021
7.1890001 -4.2030001 -0.021
7.1859999 -4.1810002 -0.021
7.1939998 -4.165 -0.021
7.2080002 -4.1529999 -0.021
7.224 -4.1420002 -0.021
7.2259998 -4.1220002 -0.021
7.243 -4.1110001 -0.021
7.2509999 -4.0949998 -0.021
7.25 -4.0739999 -0.021
7.2680001 -4.0640001 -0.021
7.29 -4.0560002 -0.021
7.2950001 -4.0370002 -0.021
7.2950001 -4.0170002 -0.02
7.302 -4 -0.02
7.3169999 -3.987 -0.02
7.322 -3.9690001 -0.02
7.336 -3.9560001 -0.02
7.3499999 -3.9419999 -0.02
7.3530002 -3.9230001 -0.02
7.362 -3.9070001 -0.02
7.3390002 -3.8729999 -0.02
7.2969999 -3.8299999 -0.02
7.2810001 -3.8010001 -0.02
7.303 -3.7920001 -0.02
7.3730001 -3.8069999 -0.02
7.4260001 -3.813 -0.02
7.4320002 -3.7950001 -0.02
7.4499998 -3.783 -0.02
7.46 -3.767 -0.02
7.4689999 -3.7490001 -0.02
7.4759998 -3.7309999 -0.02
7.4860001 -3.7149999 -0.02
7.4949999 -3.698 -0.02
7.5170002 -3.687 -0.02
7.5229998 -3.6689999 -0.02
7.5320001 -3.651 -0.018999999
7.5310001 -3.6289999 -0.018999999
7.5560002 -3.619 -0.018999999
7.5739999 -3.6059999 -0.018999999
7.5710001 -3.5829999 -0.018999999
7.5739999 -3.563 -0.018999999
7.585 -3.546 -0.018999999
7.605 -3.533 -0.018999999
7.618 -3.517 -0.018999999
7.6399999 -3.506 -0.018999999
7.6420002 -3.4849999 -0.018999999
7.664 -3.4719999 -0.018999999
7.6729999 -3.454 -0.018999999
7.6869998 -3.438 -0.018999999
7.6960001 -3.4200001 -0.018999999
7.7090001 -3.404 -0.018999999
7.7150002 -3.3840001 -0.018999999
7.7329998 -3.3699999 -0.018999999
7.7449999 -3.352 -0.018999999
7.756 -3.335 -0.018999999
7.777 -3.3210001 -0.018999999
7.7719998 -3.2969999 -0.018999999
7.7930002 -3.283 -0.018999999
7.8179998 -3.2709999 -0.018999999
7.823 -3.2509999 -0.017999999
7.8309999 -3.2309999 -0.017999999
7.8530002 -3.2179999 -0.017999999
7.8590002 -3.198 -0.017999999
7.868 -3.1789999 -0.017999999
7.8899999 -3.165 -0.017999999
7.9089999 -3.1500001 -0.017999999
7.914 -3.1289999 -0.017999999
7.9450002 -3.118 -0.017999999
7.947 -3.096 -0.017999999
7.9679999 -3.0810001 -0.017999999
7.974 -3.0599999 -0.017999999
8.0030003 -3.0480001 -0.017999999
8.0179996 -3.0309999 -0.017999999
8.0469999 -3.0190001 -0.017999999
8.0459995 -2.9949999 -0.017999999
8.0600004 -2.977 -0.017999999
8.0719995 -2.9579999 -0.017999999
8.0970001 -2.944 -0.017999999
8.1009998 -2.9219999 -0.017999999
8.1239996 -2.9070001 -0.017999999
8.1429996 -2.8900001 -0.017999999
8.1529999 -2.8699999 -0.017999999
8.1730003 -2.8540001 -0.017999999
8.1850004 -2.8340001 -0.017999999
8.1949997 -2.8139999 -0.017999999
8.243 -2.8069999 -0.017999999
8.2299995 -2.779 -0.017000001
8.243 -2.7590001 -0.017000001
8.2690001 -2.744 -0.017000001
8.2700005 -2.721 -0.017000001
8.2860003 -2.7019999 -0.017000001
8.3050003 -2.684 -0.017000001
8.3199997 -2.665 -0.017000001
8.3380003 -2.6470001 -0.017000001
8.368 -2.632 -0.017000001
8.3789997 -2.612 -0.017000001
8.4139996 -2.598 -0.017000001
8.415 -2.575 -0.017000001
8.4309998 -2.5550001 -0.017000001
8.4630003 -2.5409999 -0.017000001
8.4840002 -2.5220001 -0.017000001
8.4879999 -2.4990001 -0.017000001
8.5109997 -2.4809999 -0.017000001
8.5319996 -2.4630001 -0.017000001
8.5310001 -2.438 -0.017000001
8.5539999 -2.4200001 -0.017000001
8.566 -2.3989999 -0.017000001
8.5780001 -2.378 -0.017000001
8.6169996 -2.3640001 -0.017000001
8.6459999 -2.3469999 -0.017000001
8.6590004 -2.325 -0.017000001
8.6750002 -2.3050001 -0.016000001
8.684 -2.283 -0.016000001
8.6940002 -2.26 -0.016000001
8.7309999 -2.2449999 -0.016000001
8.7489996 -2.224 -0.016000001
8.7709999 -2.2049999 -0.016000001
8.7930002 -2.1849999 -0.016000001
8.8079996 -2.1630001 -0.016000001
8.8310003 -2.1440001 -0.016000001
8.8339996 -2.119 -0.016000001
8.8730001 -2.1029999 -0.016000001
8.9040003 -2.085 -0.016000001
8.9189997 -2.063 -0.016000001
8.9359999 -2.0409999 -0.016000001
8.9610004 -2.0220001 -0.016000001
8.9750004 -1.999 -0.016000001
9.0159998 -1.982 -0.016000001
9.0740004 -1.969 -0.016000001
9.0819998 -1.9450001 -0.016000001
9.0799999 -1.918 -0.016000001
9.0900002 -1.895 -0.016000001
9.1049995 -1.872 -0.016000001
9.1239996 -1.85 -0.016000001
9.1379995 -1.826 -0.016000001
9.1669998 -1.806 -0.016000001
9.2040005 -1.7869999 -0.016000001
9.2209997 -1.7640001 -0.015
9.2559996 -1.744 -0.015
9.2729998 -1.721 -0.015
9.2919998 -1.698 -0.015
9.3260002 -1.677 -0.015
9.316 -1.649 -0.015
9.3540001 -1.6289999 -0.015
9.3809996 -1.607 -0.015
9.4130001 -1.586 -0.015
9.434 -1.562 -0.015
9.4650002 -1.541 -0.015
9.4750004 -1.515 -0.015
9.5159998 -1.495 -0.015
9.5489998 -1.473 -0.015
9.5760002 -1.45 -0.015
9.6049995 -1.427 -0.015
9.6210003 -1.402 -0.015
9.6630001 -1.38 -0.015
9.7080002 -1.359 -0.015
9.724 -1.334 -0.015
9.7580004 -1.3099999 -0.015
9.79 -1.2869999 -0.015
9.8249998 -1.263 -0.015
9.849 -1.239 -0.015
9.8850002 -1.215 -0.015
9.9259996 -1.192 -0.015
9.9799995 -1.17 -0.015
9.9899998 -1.143 -0.014
10.008 -1.1160001 -0.014
10.053 -1.0930001 -0.014
10.09 -1.068 -0.014
10.125 -1.043 -0.014
10.182 -1.02 -0.014
10.215 -0.99400002 -0.014
10.226 -0.96600002 -0.014
10.276 -0.94199997 -0.014
10.309 -0.91600001 -0.014
10.374 -0.89200002 -0.014
10.451 -0.86900002 -0.014
10.446 -0.83899999 -0.014
10.519 -0.815 -0.014
10.635 -0.79400003 -0.014
10.664 0.234 -0.145
10.517 0.245 -0.14300001
10.466 0.257 -0.14300001
10.45 0.271 -0.142
10.451 0.285 -0.14300001
10.464 0.30000001 -0.14300001
10.462 0.315 -0.14300001
10.433 0.329 -0.14300001
10.421 0.34299999 -0.14300001
10.427 0.359 -0.14300001
10.448 0.375 -0.14300001
10.395 0.389 -0.14300001
10.446 0.40700001 -0.14399999
9.323 0.37799999 -0.12800001
9.1230001 0.38499999 -0.126
9.0550003 0.396 -0.125
9.0200005 0.41 -0.125
8.9989996 0.42399999 -0.125
8.9980001 0.43900001 -0.125
8.9860001 0.454 -0.125
8.9899998 0.46900001 -0.125
8.9960003 0.48500001 -0.125
8.9619999 0.49900001 -0.125
8.7550001 0.50400001 -0.122
8.658 0.514 -0.121
8.6120005 0.52700001 -0.12
8.5930004 0.542 -0.12
8.5799999 0.55699998 -0.12
8.5930004 0.574 -0.121
8.6219997 0.59299999 -0.121
8.7080002 0.61500001 -0.123
10.534 0.76499999 -0.149
10.521 0.78500003 -0.149
10.526 0.80599999 -0.149
10.551 0.82999998 -0.149
10.549 0.85100001 -0.15000001
10.565 0.87400001 -0.15000001
10.566 0.89600003 -0.15000001
10.585 0.92000002 -0.15099999
10.58 0.94199997 -0.15099999
10.614 0.96799999 -0.152
10.623 0.99199998 -0.152
10.636 1.016 -0.153
10.649 1.041 -0.153
10.646 1.064 -0.153
10.686 1.092 -0.154
10.705 1.118 -0.154
10.71 1.143 -0.155
10.726 1.17 -0.155
10.741 1.196 -0.156
10.766 1.224 -0.156
10.775 1.25 -0.15700001
10.77 1.275 -0.15700001
10.778 1.302 -0.15700001
10.811 1.332 -0.15800001
10.805 1.358 -0.15800001
10.847 1.3890001 -0.15899999
10.857 1.418 -0.16
10.877 1.447 -0.16
10.869 1.473 -0.16
10.903 1.505 -0.161
10.92 1.535 -0.162
10.938 1.566 -0.162
10.959 1.597 -0.163
10.973 1.628 -0.163
10.997 1.66 -0.164
11.027 1.693 -0.16500001
11.029 1.723 -0.16500001
11.051 1.755 -0.16599999
11.053 1.785 -0.16599999
11.083 1.8200001 -0.167
11.085 1.85 -0.167
11.115 1.886 -0.168
11.157 1.923 -0.169
11.202 1.962 -0.17
11.232 1.999 -0.171
11.26 2.0350001 -0.171
11.274 2.069 -0.17200001
11.295 2.105 -0.17200001
11.313 2.141 -0.17299999
11.339 2.178 -0.17399999
11.373 2.217 -0.175
11.407 2.257 -0.176
11.428 2.2950001 -0.176
11.454 2.3329999 -0.177
11.499 2.3759999 -0.178
11.511 2.4130001 -0.17900001
11.541 2.454 -0.17900001
11.55 2.49 -0.18000001
11.583 2.5320001 -0.18099999
11.61 2.573 -0.182
11.624 2.612 -0.182
11.654 2.654 -0.183
11.673 2.694 -0.184
11.709 2.7390001 -0.185
11.75 2.7850001 -0.186
11.756 2.823 -0.186
11.8 2.8699999 -0.18700001
11.804 2.9089999 -0.18799999
11.809 2.947 -0.18799999
11.827 2.9890001 -0.189
11.888 3.043 -0.19
11.891 3.082 -0.191
11.937 3.132 -0.192
11.932 3.1700001 -0.192
11.975 3.221 -0.193
12.006 3.2679999 -0.19400001
12.03 3.3139999 -0.19499999
12.058 3.362 -0.19599999
12.091 3.411 -0.197
12.1 3.454 -0.198
12.11 3.4979999 -0.198
12.141 3.5480001 -0.199
9.3940001 2.777 -0.154
9.2180004 2.756 -0.152
9.1780005 2.7750001 -0.15099999
9.1459999 2.7969999 -0.15099999
9.1750002 2.8380001 -0.152
9.1829996 2.872 -0.153
9.0430002 2.8599999 -0.15099999
8.9899998 2.8740001 -0.15000001
8.9720001 2.9000001 -0.15000001
8.9910002 2.938 -0.15099999
9.1300001 3.016 -0.153
12.379 4.0890002 -0.208
12.371 4.1300001 -0.20900001
12.401 4.184 -0.20999999
12.402 4.23 -0.20999999
12.41 4.277 -0.211
12.434 4.3299999 -0.212
12.437 4.3759999 -0.212
12.456 4.428 -0.213
12.478 4.4819999 -0.214
12.504 4.5370002 -0.215
12.52 4.5890002 -0.21600001
12.561 4.651 -0.21699999
12.56 4.697 -0.21799999
12.594 4.757 -0.219
12.643 4.823 -0.22
12.684 4.8860002 -0.221
12.715 4.947 -0.222
12.724 4.9980001 -0.223
12.752 5.0580001 -0.22400001
12.758 5.1090002 -0.22499999
12.749 5.1550002 -0.22499999
12.772 5.2129998 -0.226
12.798 5.2729998 -0.227
12.811 5.3280001 -0.228
12.834 5.388 -0.229
12.864 5.4510002 -0.23
12.893 5.5139999 -0.23100001
12.921 5.5770001 -0.23199999
12.907 5.6220002 -0.233
12.938 5.6869998 -0.234
12.993 5.7639999 -0.235
13.01 5.823 -0.236
13.03 5.8850002 -0.237
13.032 5.9380002 -0.23800001
13.053 6.0009999 -0.23899999
13.074 6.0630002 -0.23999999
13.108 6.1329999 -0.241
13.138 6.2010002 -0.242
13.138 6.2550001 -0.243
13.155 6.3169999 -0.244
13.174 6.381 -0.245
13.216 6.4569998 -0.24600001
13.235 6.5209999 -0.24699999
12.366 6.145 -0.23199999
12.221 6.1240001 -0.23
12.308 6.2199998 -0.23199999
12.231 6.2849998 -0.23199999
12.166 6.303 -0.23100001
12.066 6.303 -0.23
12.103 6.375 -0.23100001
12.274 6.5710001 -0.236
12.16 6.5619998 -0.234
12.178 6.625 -0.235
6.1570001 3.3770001 -0.119
6.0050001 3.319 -0.116
5.928 3.303 -0.115
5.8639998 3.293 -0.114
5.8340001 3.303 -0.114
5.8099999 3.3150001 -0.114
5.783 3.325 -0.114
5.7719998 3.345 -0.114
5.7480001 3.3570001 -0.114
5.737 3.3759999 -0.114
5.7179999 3.391 -0.114
5.7090001 3.411 -0.114
5.7030001 3.434 -0.114
5.697 3.4560001 -0.114
5.6849999 3.4749999 -0.114
5.6739998 3.494 -0.114
5.6669998 3.516 -0.114
5.6570001 3.536 -0.115
5.6459999 3.556 -0.115
5.6329999 3.5739999 -0.115
5.6269999 3.596 -0.115
5.638 3.6300001 -0.115
5.6599998 3.671 -0.116
5.671 3.704 -0.117
5.6760001 3.7349999 -0.117
5.6820002 3.7650001 -0.118
5.7020001 3.806 -0.119
5.7389998 3.858 -0.12
5.8319998 3.9489999 -0.122
9.6599998 6.7740002 -0.205
9.6070004 6.7839999 -0.205
9.552 6.7919998 -0.204
9.4989996 6.8010001 -0.204
9.4250002 6.7940001 -0.20299999
6.8660002 -4.5300002 -0.0040000002
6.8930001 -4.5040002 -0.0040000002
6.9200001 -4.4790001 -0.0040000002
6.947 -4.4530001 -0.0040000002
6.974 -4.428 -0.0040000002
7.0139999 -4.4099998 -0.0040000002
7.0300002 -4.3779998 -0.0040000002
7.0500002 -4.349 -0.003
7.0689998 -4.3179998 -0.003
7.0900002 -4.29 -0.003
7.1069999 -4.2589998 -0.003
7.1300001 -4.2319999 -0.003
7.1560001 -4.2059999 -0.003
7.1719999 -4.1750002 -0.003
7.191 -4.1459999 -0.003
7.2129998 -4.119 -0.003
7.2249999 -4.086 -0.003
7.2420001 -4.0560002 -0.003
7.244 -4.0170002 -0.003
7.1859999 -3.947 -0.003
7.21 -3.9219999 -0.003
7.2550001 -3.908 -0.003
7.3340001 -3.9119999 -0.003
7.375 -3.895 -0.0020000001
7.3850002 -3.8629999 -0.0020000001
7.3940001 -3.8299999 -0.0020000001
7.4229999 -3.8069999 -0.0020000001
7.4439998 -3.7809999 -0.0020000001
7.4530001 -3.7479999 -0.0020000001
7.4809999 -3.7249999 -0.0020000001
7.5009999 -3.698 -0.0020000001
7.5170002 -3.6689999 -0.0020000001
7.5359998 -3.642 -0.0020000001
7.5630002 -3.619 -0.0020000001
7.5780001 -3.5899999 -0.0020000001
7.6110001 -3.5699999 -0.0020000001
7.6220002 -3.539 -0.0020000001
7.638 -3.5109999 -0.0020000001
7.6700001 -3.4909999 -0.0020000001
7.6830001 -3.4619999 -0.001
7.697 -3.4330001 -0.001
7.723 -3.4100001 -0.001
7.7490001 -3.3859999 -0.001
7.776 -3.3640001 -0.001
7.7880001 -3.335 -0.001
7.8200002 -3.3139999 -0.001
7.8280001 -3.2839999 -0.001
7.8499999 -3.2590001 -0.001
7.8660002 -3.2320001 -0.001
7.895 -3.21 -0.001
7.9180002 -3.1860001 -0.001
7.9239998 -3.1559999 -0.001
7.9619999 -3.138 -0.001
7.9749999 -3.1099999 -0.001
8.0109997 -3.0910001 -0.001
8.0349998 -3.0669999 -0
8.066 -3.0469999 -0
8.0900002 -3.023 -0
8.1129999 -3 -0
8.1370001 -2.9760001 -0
8.1529999 -2.95 -0
8.191 -2.9319999 -0
8.2010002 -2.904 -0
8.2290001 -2.882 -0
8.2550001 -2.8599999 -0
8.2629995 -2.8310001 -0
8.3000002 -2.812 -0
8.323 -2.789 -0
8.3389997 -2.763 -0
8.3570004 -2.7379999 -0
8.3830004 -2.7160001 -0
8.4029999 -2.6919999 -0
8.4320002 -2.671 -0
8.4610004 -2.6500001 -0
8.4960003 -2.6300001 -0
8.5150003 -2.6059999 -0
8.5570002 -2.589 -0
8.5830002 -2.566 -0
8.5780001 -2.5350001 -0
8.6059999 -2.513 -0
8.6190004 -2.4879999 -0
8.6359997 -2.4630001 -0
8.684 -2.447 -0
8.7150002 -2.427 -0
8.7270002 -2.401 -0
8.7559996 -2.3800001 0.001
8.7770004 -2.3570001 0.001
8.7959995 -2.3329999 0.001
8.8310003 -2.313 0.001
8.8540001 -2.2909999 0.001
8.8739996 -2.267 0.001
8.8959999 -2.244 0.001
8.915 -2.221 0.001
8.9560003 -2.2030001 0.001
8.9709997 -2.178 0.001
8.9980001 -2.1570001 0.001
9.0279999 -2.1359999 0.001
9.066 -2.118 0.001
9.0839996 -2.0940001 0.001
9.099 -2.0699999 0.001
9.125 -2.0480001 0.0020000001
9.1569996 -2.0280001 0.0020000001
9.1719999 -2.0039999 0.0020000001
9.1920004 -1.9809999 0.0020000001
9.2040005 -1.956 0.0020000001
9.2399998 -1.937 0.0020000001
9.2559996 -1.914 0.0020000001
9.29 -1.8940001 0.0020000001
9.3140001 -1.872 0.0020000001
9.3360004 -1.85 0.0020000001
9.3380003 -1.824 0.0020000001
9.3959999 -1.809 0.0020000001
9.4139996 -1.786 0.0020000001
9.4440002 -1.765 0.0020000001
9.4940004 -1.748 0.003
9.4910002 -1.722 0.003
9.5080004 -1.699 0.003
9.5360003 -1.678 0.003
9.5439997 -1.654 0.003
9.5649996 -1.632 0.003
9.6059999 -1.614 0.003
9.6309996 -1.592 0.003
9.6759996 -1.575 0.003
9.7650003 -1.564 0.003
9.7910004 -1.5420001 0.003
9.7340002 -1.508 0.003
9.7589998 -1.487 0.003
9.7810001 -1.466 0.003
9.8000002 -1.444 0.0040000002
9.8380003 -1.425 0.0040000002
9.8620005 -1.404 0.0040000002
9.8900003 -1.383 0.0040000002
9.9469995 -1.367 0.0040000002
9.967 -1.345 0.0040000002
9.9890003 -1.324 0.0040000002
9.9969997 -1.301 0.0040000002
10.021 -1.28 0.0040000002
10.055 -1.26 0.0040000002
10.085 -1.24 0.0040000002
10.111 -1.22 0.0040000002
10.121 -1.197 0.0040000002
10.147 -1.177 0.0049999999
10.183 -1.158 0.0049999999
10.2 -1.136 0.0049999999
10.247 -1.118 0.0049999999
10.298 -1.101 0.0049999999
10.306 -1.0779999 0.0049999999
10.341 -1.059 0.0049999999
10.377 -1.04 0.0049999999
10.4 -1.0190001 0.0049999999
10.431 -0.99900001 0.0049999999
10.458 -0.97899997 0.0049999999
10.496 -0.95999998 0.0049999999
10.551 -0.94300002 0.0049999999
10.559 -0.921 0.0060000001
10.614 -0.903 0.0060000001
10.599 -0.88 0.0060000001
10.63 -0.86000001 0.0060000001
10.668 -0.84100002 0.0060000001
10.669 -0.81999999 0.0060000001
10.729 -0.80199999 0.0060000001
10.836 -0.78799999 0.0060000001
10.908 -0.75 0.0060000001
10.912 -0.72899997 0.0060000001
10.932 -0.708 0.0060000001
11.034 -0.69300002 0.0070000002
11.062 -0.67400002 0.0070000002
11.105 -0.65499997 0.0070000002
10.36 0.12899999 -0.112
10.372 0.148 -0.112
10.357 0.167 -0.112
10.395 0.18700001 -0.113
10.384 0.206 -0.113
10.425 0.226 -0.113
10.425 0.24600001 -0.113
10.417 0.266 -0.114
10.441 0.287 -0.114
10.443 0.308 -0.114
10.443 0.329 -0.114
10.449 0.34999999 -0.115
10.474 0.37200001 -0.115
9.1890001 0.345 -0.101
9.0839996 0.36000001 -0.1
9.0310001 0.377 -0.1
9 0.39500001 -0.098999999
8.9809999 0.41299999 -0.098999999
8.9700003 0.43200001 -0.098999999
8.9650002 0.45100001 -0.1
8.9729996 0.47099999 -0.1
8.901 0.48699999 -0.098999999
8.7159996 0.49599999 -0.097000003
8.6339998 0.51099998 -0.097000003
8.599 0.528 -0.096000001
8.5860004 0.54699999 -0.096000001
8.5819998 0.56599998 -0.096000001
8.6079998 0.588 -0.097000003
8.6599998 0.61199999 -0.097999997
8.8710003 0.648 -0.1
10.625 0.801 -0.12
10.639 0.82700002 -0.121
10.652 0.85399997 -0.121
10.67 0.88099998 -0.122
10.686 0.90899998 -0.122
10.714 0.93699998 -0.123
10.717 0.96399999 -0.123
10.735 0.99299997 -0.123
10.741 1.02 -0.124
10.769 1.05 -0.124
10.783 1.079 -0.125
10.806 1.108 -0.125
10.816 1.137 -0.125
10.834 1.1670001 -0.126
10.824 1.194 -0.126
10.849 1.225 -0.127
10.886 1.258 -0.127
10.893 1.288 -0.12800001
10.919 1.3200001 -0.12800001
10.934 1.351 -0.12899999
10.93 1.38 -0.12899999
10.962 1.414 -0.12899999
10.99 1.447 -0.13
11.017 1.4809999 -0.131
11.032 1.513 -0.131
11.058 1.548 -0.132
11.064 1.579 -0.132
11.097 1.615 -0.133
11.11 1.648 -0.133
11.114 1.6799999 -0.133
11.158 1.7180001 -0.134
11.183 1.7539999 -0.13500001
11.189 1.7869999 -0.13500001
11.226 1.825 -0.13600001
11.253 1.862 -0.13699999
11.292 1.901 -0.13699999
11.332 1.941 -0.138
11.36 1.979 -0.139
11.401 2.02 -0.14
11.398 2.053 -0.14
11.445 2.095 -0.141
11.456 2.131 -0.141
11.489 2.1719999 -0.142
11.524 2.2130001 -0.14300001
11.555 2.2539999 -0.14300001
11.596 2.2969999 -0.14399999
11.619 2.3369999 -0.145
11.671 2.3829999 -0.146
11.69 2.4230001 -0.146
11.717 2.464 -0.147
11.745 2.506 -0.148
11.768 2.5480001 -0.148
11.801 2.592 -0.149
11.834 2.6359999 -0.15000001
11.87 2.681 -0.15099999
11.909 2.727 -0.152
11.923 2.7679999 -0.152
11.941 2.8099999 -0.153
11.972 2.855 -0.154
12.004 2.901 -0.154
12.005 2.9400001 -0.155
12.025 2.983 -0.155
12.047 3.0280001 -0.156
12.093 3.0780001 -0.15700001
12.144 3.131 -0.15800001
12.13 3.1659999 -0.15800001
12.146 3.21 -0.15899999
12.167 3.2550001 -0.15899999
12.189 3.3010001 -0.16
12.199 3.3440001 -0.161
12.222 3.391 -0.161
12.234 3.434 -0.162
12.25 3.4790001 -0.163
12.281 3.529 -0.163
12.293 3.5739999 -0.164
9.4250002 2.7709999 -0.126
12.323 3.6229999 -0.16500001
9.2290001 2.7449999 -0.124
9.1680002 2.757 -0.123
9.1549997 2.7839999 -0.123
9.1590004 2.816 -0.124
9.1969995 2.859 -0.124
12.556 3.904 -0.17
9.1219997 2.8670001 -0.124
12.584 3.9549999 -0.171
9.0190001 2.865 -0.123
8.9790001 2.8829999 -0.122
8.9630003 2.9089999 -0.122
8.9809999 2.9449999 -0.123
12.777 4.1900001 -0.175
9.1339998 3.027 -0.125
12.543 4.1570001 -0.17200001
12.523 4.1929998 -0.17299999
12.544 4.243 -0.17299999
12.551 4.289 -0.17399999
12.548 4.3309999 -0.17399999
12.574 4.3839998 -0.175
12.583 4.4310002 -0.176
12.606 4.4829998 -0.176
12.634 4.5370002 -0.177
12.651 4.5879998 -0.178
12.683 4.6440001 -0.17900001
12.721 4.7020001 -0.18000001
12.758 4.7610002 -0.18099999
12.787 4.8169999 -0.182
12.814 4.8720002 -0.183
12.851 4.9320002 -0.184
12.895 4.994 -0.185
12.935 5.0560002 -0.186
12.958 5.1110001 -0.18700001
12.971 5.1620002 -0.18700001
12.993 5.217 -0.18799999
12.977 5.2579999 -0.189
12.992 5.3099999 -0.189
13.02 5.368 -0.19
13.05 5.427 -0.191
13.069 5.4819999 -0.192
13.082 5.5349998 -0.193
13.104 5.5910001 -0.19400001
13.135 5.652 -0.19400001
13.221 5.7360001 -0.19599999
13.26 5.8010001 -0.197
13.265 5.8509998 -0.198
13.335 5.9299998 -0.2
13.308 5.967 -0.2
13.331 6.0250001 -0.20100001
13.359 6.0869999 -0.20200001
13.382 6.1459999 -0.20299999
13.394 6.1999998 -0.20299999
13.415 6.2579999 -0.204
13.445 6.3210001 -0.205
13.462 6.3790002 -0.206
13.468 6.4299998 -0.207
13.475 6.4829998 -0.207
13.507 6.5469999 -0.208
13.552 6.619 -0.20999999
12.417 6.2010002 -0.19400001
12.22 6.1469998 -0.191
12.229 6.1960001 -0.192
12.218 6.2800002 -0.193
12.25 6.3410001 -0.19400001
12.249 6.3850002 -0.19400001
12.078 6.3400002 -0.192
12.033 6.3610001 -0.192
12.1 6.4400001 -0.193
12.142 6.507 -0.19499999
12.137 6.5479999 -0.19499999
12.185 6.619 -0.19599999
12.171 6.6560001 -0.197
6.039 3.3239999 -0.097999997
5.9299998 3.286 -0.096000001
5.8790002 3.279 -0.096000001
5.8590002 3.289 -0.096000001
5.8249998 3.2909999 -0.094999999
5.7969999 3.296 -0.094999999
5.7909999 3.3139999 -0.094999999
5.7690001 3.322 -0.094999999
5.7659998 3.3410001 -0.094999999
5.75 3.3529999 -0.094999999
5.7470002 3.372 -0.096000001
5.7329998 3.3840001 -0.096000001
5.7189999 3.3959999 -0.096000001
5.7129998 3.4130001 -0.096000001
5.7059999 3.4300001 -0.096000001
5.697 3.4449999 -0.096000001
5.6880002 3.46 -0.096000001
5.684 3.477 -0.096000001
5.6680002 3.487 -0.096000001
5.6659999 3.507 -0.097000003
5.665 3.526 -0.097000003
5.6659999 3.5469999 -0.097000003
5.6739998 3.5710001 -0.097999997
5.6849999 3.599 -0.097999997
5.7030001 3.6289999 -0.098999999
5.7090001 3.6530001 -0.098999999
5.73 3.687 -0.1
5.75 3.72 -0.1
5.8099999 3.7780001 -0.102
6.1030002 3.99 -0.107
9.7639999 6.809 -0.178
9.6359997 6.7509999 -0.176
9.5830002 6.7449999 -0.176
9.559 6.7579999 -0.176
9.5349998 6.7719998 -0.176
9.5030003 6.7789998 -0.176
9.4980001 6.8060002 -0.176
9.4969997 6.835 -0.177
9.4910002 6.8590002 -0.177
9.474 6.8769999 -0.177
9.4989996 6.9239998 -0.178
7.3369999 -4.3140001 0.013
7.348 -4.2989998 0.013
7.3579998 -4.2839999 0.013
7.369 -4.27 0.013
7.3699999 -4.2490001 0.013
7.3899999 -4.2399998 0.013
7.3959999 -4.2220001 0.013
7.4099998 -4.21 0.013
7.4239998 -4.197 0.013
7.4390001 -4.184 0.013
7.4460001 -4.1659999 0.013
7.4439998 -4.1440001 0.013
7.4549999 -4.1290002 0.014
7.4559999 -4.1090002 0.014
7.4780002 -4.099 0.014
7.4910002 -4.085 0.014
7.4879999 -4.0619998 0.014
7.506 -4.0500002 0.014
7.513 -4.0320001 0.014
7.5359998 -4.0240002 0.014
7.5440001 -4.006 0.014
7.5359998 -3.98 0.014
7.5450001 -3.9630001 0.014
7.5489998 -3.944 0.014
7.5419998 -3.9189999 0.014
7.5669999 -3.9100001 0.015
7.586 -3.898 0.015
7.6009998 -3.8840001 0.015
7.6149998 -3.869 0.015
7.618 -3.849 0.015
7.6399999 -3.8380001 0.015
7.6269999 -3.809 0.015
7.638 -3.793 0.015
7.6609998 -3.7820001 0.015
7.6690001 -3.7639999 0.015
7.6900001 -3.7520001 0.015
7.698 -3.734 0.016000001
7.7150002 -3.72 0.016000001
7.7420001 -3.711 0.016000001
7.7319999 -3.684 0.016000001
7.7509999 -3.6700001 0.016000001
7.763 -3.6530001 0.016000001
7.7779999 -3.638 0.016000001
7.7820001 -3.618 0.016000001
7.7950001 -3.6010001 0.016000001
7.803 -3.5829999 0.016000001
7.8249998 -3.5699999 0.016000001
7.8390002 -3.5539999 0.017000001
7.8520002 -3.5369999 0.017000001
7.8499999 -3.513 0.017000001
7.8649998 -3.497 0.017000001
7.8860002 -3.484 0.017000001
7.901 -3.4679999 0.017000001
7.9200001 -3.4530001 0.017000001
7.9180002 -3.4289999 0.017000001
7.9400001 -3.4159999 0.017000001
7.9689999 -3.405 0.017000001
7.9819999 -3.388 0.017000001
8.0010004 -3.3729999 0.017999999
8.0120001 -3.3540001 0.017999999
8.0170002 -3.3329999 0.017999999
8.0290003 -3.3150001 0.017999999
8.0360003 -3.2950001 0.017999999
8.0469999 -3.276 0.017999999
8.066 -3.26 0.017999999
8.092 -3.247 0.017999999
8.0959997 -3.2260001 0.017999999
8.1169996 -3.21 0.017999999
8.1400003 -3.1960001 0.018999999
8.1459999 -3.175 0.018999999
8.1619997 -3.1570001 0.018999999
8.2019997 -3.1489999 0.018999999
8.2089996 -3.128 0.018999999
8.2390003 -3.1159999 0.018999999
8.2530003 -3.0969999 0.018999999
8.2600002 -3.076 0.018999999
8.276 -3.0580001 0.018999999
8.276 -3.0339999 0.018999999
8.2810001 -3.0120001 0.02
8.3050003 -2.997 0.02
8.3190002 -2.9779999 0.02
8.3369999 -2.96 0.02
8.3620005 -2.9449999 0.02
8.3789997 -2.927 0.02
8.3769999 -2.902 0.02
8.4040003 -2.8870001 0.02
8.4239998 -2.8699999 0.02
8.4259996 -2.846 0.02
8.4580002 -2.832 0.021
8.4890003 -2.8180001 0.021
8.4820004 -2.7909999 0.021
8.5 -2.773 0.021
8.5240002 -2.756 0.021
8.5489998 -2.74 0.021
8.5670004 -2.721 0.021
8.5740004 -2.698 0.021
8.5869999 -2.677 0.021
8.6079998 -2.6589999 0.022
8.6619997 -2.651 0.022
8.6630001 -2.6259999 0.022
8.6610003 -2.6010001 0.022
8.6940002 -2.586 0.022
8.6969995 -2.5610001 0.022
8.7270002 -2.5450001 0.022
8.7589998 -2.529 0.022
8.7559996 -2.503 0.022
8.7869997 -2.487 0.023
8.8199997 -2.471 0.023
8.868 -2.4590001 0.023
8.8739996 -2.4349999 0.023
8.8739996 -2.4089999 0.023
8.901 -2.391 0.023
8.9139996 -2.369 0.023
8.9289999 -2.3469999 0.023
8.9490004 -2.3269999 0.024
8.9820004 -2.3099999 0.024
9.0019999 -2.289 0.024
9.0150003 -2.267 0.024
9.0489998 -2.2490001 0.024
9.0410004 -2.221 0.024
9.0769997 -2.204 0.024
9.0930004 -2.1819999 0.024
9.1210003 -2.1619999 0.025
9.1210003 -2.1359999 0.025
9.1590004 -2.119 0.025
9.1820002 -2.098 0.025
9.2150002 -2.079 0.025
9.2349997 -2.0569999 0.025
9.2510004 -2.0339999 0.025
9.2729998 -2.0120001 0.025
9.2980003 -1.9910001 0.026000001
9.3129997 -1.9680001 0.026000001
9.3360004 -1.946 0.026000001
9.3760004 -1.928 0.026000001
9.3699999 -1.899 0.026000001
9.4280005 -1.8839999 0.026000001
9.4569998 -1.863 0.026000001
9.4809999 -1.841 0.027000001
9.5190001 -1.821 0.027000001
