# .PCD v0.7 - Point Cloud Data file format
VERSION 0.7
FIELDS x y z
SIZE 4 4 4
TYPE F F F
COUNT 1 1 1
WIDTH 1752
HEIGHT 1
VIEWPOINT 0 0 0 1 0 0 0
POINTS 1752
DATA ascii
10.151 1.858 -0.28400001
10.172 1.893 -0.285
10.195 1.928 -0.28600001
10.227 1.964 -0.287
10.249 2 -0.28799999
10.278 2.036 -0.289
10.31 2.0739999 -0.29100001
10.333 2.1099999 -0.292
10.344 2.1440001 -0.29300001
10.379 2.184 -0.294
10.384 2.217 -0.29499999
10.411 2.2550001 -0.296
10.407 2.286 -0.296
10.437 2.326 -0.29699999
10.471 2.3659999 -0.29899999
10.503 2.4059999 -0.30000001
10.508 2.4400001 -0.301
10.522 2.477 -0.30199999
10.533 2.513 -0.303
10.533 2.5469999 -0.303
10.577 2.5910001 -0.30500001
10.606 2.6329999 -0.30599999
10.631 2.6730001 -0.30700001
10.631 2.707 -0.308
10.651 2.747 -0.30899999
10.71 2.7969999 -0.31099999
10.737 2.839 -0.31200001
10.757 2.8800001 -0.31299999
10.783 2.9219999 -0.315
10.791 2.96 -0.315
10.808 3 -0.31600001
10.833 3.043 -0.31799999
10.849 3.0829999 -0.31900001
10.875 3.1270001 -0.31999999
10.902 3.171 -0.32100001
10.921 3.2130001 -0.322
10.937 3.2550001 -0.324
10.965 3.3 -0.32499999
11.005 3.349 -0.32699999
11.021 3.391 -0.32800001
11.074 3.4449999 -0.33000001
11.101 3.4909999 -0.331
11.096 3.527 -0.33199999
11.14 3.579 -0.33399999
11.156 3.6229999 -0.33500001
11.156 3.661 -0.33500001
9.3059998 3.086 -0.28
9.1000004 3.049 -0.27399999
9.0459995 3.062 -0.273
9.0170002 3.0829999 -0.273
9.0240002 3.1170001 -0.27399999
9.0450001 3.1559999 -0.27500001
8.8450003 3.1170001 -0.26899999
8.75 3.1140001 -0.26699999
8.7119999 3.131 -0.266
8.6850004 3.152 -0.266
8.6899996 3.184 -0.266
8.7279997 3.2279999 -0.26800001
8.8249998 3.296 -0.271
11.343 4.276 -0.34999999
11.352 4.3200002 -0.35100001
11.378 4.3699999 -0.352
11.391 4.415 -0.35299999
11.431 4.4710002 -0.35499999
11.453 4.5209999 -0.35600001
11.458 4.5630002 -0.35699999
11.486 4.6160002 -0.359
11.538 4.678 -0.361
11.571 4.7319999 -0.36300001
11.592 4.783 -0.36399999
11.625 4.8379998 -0.366
11.623 4.8790002 -0.36700001
11.666 4.9390001 -0.36899999
11.665 4.9809999 -0.36899999
11.677 5.0279999 -0.37099999
11.728 5.092 -0.373
11.716 5.1300001 -0.373
11.744 5.184 -0.375
11.775 5.2410002 -0.377
11.794 5.2919998 -0.37799999
11.823 5.348 -0.38
11.822 5.3899999 -0.38
11.837 5.4400001 -0.382
11.848 5.4879999 -0.38299999
11.853 5.5339999 -0.384
11.89 5.5949998 -0.38600001
11.898 5.6409998 -0.38699999
11.903 5.6869998 -0.38800001
11.937 5.7470002 -0.38999999
11.945 5.7950001 -0.391
11.946 5.8390002 -0.391
11.957 5.888 -0.39300001
11.968 5.9369998 -0.39399999
11.981 5.987 -0.39500001
12.019 6.0500002 -0.39700001
12.03 6.0999999 -0.398
12.039 6.1479998 -0.39899999
12.06 6.2030001 -0.40099999
12.075 6.2550001 -0.40200001
12.093 6.3080001 -0.40400001
12.138 6.3769999 -0.40599999
12.152 6.428 -0.40700001
12.184 6.4889998 -0.40900001
12.194 6.54 -0.41100001
12.171 6.5710001 -0.41100001
12.221 6.6430001 -0.41299999
12.246 6.7020001 -0.41499999
12.299 6.7750001 -0.41800001
12.317 6.8299999 -0.419
12.342 6.888 -0.421
12.354 6.9400001 -0.42199999
12.349 6.9819999 -0.42300001
12.391 7.0510001 -0.42500001
12.497 7.1560001 -0.43000001
10.576 6.5120001 -0.373
10.521 6.5149999 -0.37200001
10.519 6.5510001 -0.373
9.6169996 6.7719998 -0.359
9.5530005 6.7579999 -0.35800001
9.4919996 6.7449999 -0.35600001
9.4639997 6.7540002 -0.35600001
9.448 6.7729998 -0.35600001
9.4189997 6.7810001 -0.35600001
9.408 6.803 -0.35600001
9.401 6.8270001 -0.35699999
9.3710003 6.8340001 -0.35600001
6.855 -4.02 -0.086000003
6.8629999 -4.006 -0.086000003
6.869 -3.99 -0.086000003
6.8740001 -3.974 -0.086000003
6.8899999 -3.964 -0.086000003
6.902 -3.951 -0.086000003
6.9070001 -3.934 -0.086000003
6.902 -3.9119999 -0.086000003
6.9159999 -3.9000001 -0.086000003
6.9219999 -3.8840001 -0.086000003
6.934 -3.8710001 -0.086000003
6.947 -3.859 -0.086000003
6.9520001 -3.842 -0.086000003
6.9580002 -3.825 -0.086000003
6.9689999 -3.812 -0.086000003
6.9679999 -3.7909999 -0.086000003
6.9879999 -3.7820001 -0.086000003
7 -3.7690001 -0.086000003
7.0180001 -3.7590001 -0.086999997
7.026 -3.743 -0.086999997
7.0339999 -3.727 -0.086999997
7.0430002 -3.7119999 -0.086999997
7.0359998 -3.688 -0.086000003
7.059 -3.6800001 -0.086999997
7.0549998 -3.658 -0.086000003
7.0770001 -3.6489999 -0.086999997
7.0869999 -3.6340001 -0.086999997
7.0900002 -3.615 -0.086999997
7.0999999 -3.5999999 -0.086999997
7.1079998 -3.5840001 -0.086999997
7.1230001 -3.5710001 -0.086999997
7.152 -3.5650001 -0.086999997
7.1729999 -3.5550001 -0.086999997
7.1869998 -3.5409999 -0.086999997
7.1960001 -3.5250001 -0.086999997
7.2090001 -3.5109999 -0.086999997
7.2090001 -3.49 -0.086999997
7.211 -3.47 -0.086999997
7.2199998 -3.454 -0.086999997
7.2410002 -3.4430001 -0.086999997
7.2360001 -3.4200001 -0.086999997
7.2729998 -3.4170001 -0.088
7.25 -3.385 -0.086999997
7.2680001 -3.372 -0.086999997
7.3010001 -3.3670001 -0.088
7.309 -3.349 -0.088
7.3099999 -3.329 -0.088
7.3280001 -3.316 -0.088
7.3520002 -3.306 -0.088
7.3590002 -3.2880001 -0.088
7.369 -3.2709999 -0.088
7.3839998 -3.256 -0.088
7.381 -3.234 -0.088
7.3979998 -3.22 -0.088
7.4200001 -3.2079999 -0.088
7.428 -3.1900001 -0.088
7.441 -3.174 -0.088
7.4349999 -3.1500001 -0.088
7.4380002 -3.1300001 -0.088
7.4619999 -3.119 -0.088
7.4840002 -3.1059999 -0.089000002
7.4899998 -3.0880001 -0.089000002
7.5149999 -3.076 -0.089000002
7.5219998 -3.0569999 -0.089000002
7.5339999 -3.04 -0.089000002
7.5489998 -3.0250001 -0.089000002
7.5619998 -3.0079999 -0.089000002
7.559 -2.9849999 -0.089000002
7.579 -2.971 -0.089000002
7.6069999 -2.96 -0.089000002
7.6079998 -2.9389999 -0.089000002
7.6350002 -2.927 -0.089000002
7.6420002 -2.908 -0.089000002
7.6420002 -2.8859999 -0.089000002
7.6630001 -2.872 -0.089000002
7.684 -2.8570001 -0.090000004
7.6989999 -2.8410001 -0.090000004
7.7049999 -2.8210001 -0.090000004
7.717 -2.803 -0.090000004
7.7319999 -2.786 -0.090000004
7.7389998 -2.767 -0.090000004
7.7579999 -2.7509999 -0.090000004
7.7670002 -2.7320001 -0.090000004
7.7870002 -2.7160001 -0.090000004
7.8049998 -2.7 -0.090000004
7.809 -2.6789999 -0.090000004
7.8210001 -2.661 -0.090000004
7.8369999 -2.6440001 -0.090000004
7.849 -2.625 -0.090000004
7.868 -2.609 -0.090000004
7.8909998 -2.5940001 -0.090999998
7.895 -2.573 -0.090999998
7.9109998 -2.5550001 -0.090999998
7.9310002 -2.5380001 -0.090999998
7.9400001 -2.5190001 -0.090999998
7.9499998 -2.4990001 -0.090999998
7.974 -2.484 -0.090999998
7.9910002 -2.4660001 -0.090999998
8.0039997 -2.447 -0.090999998
8.0240002 -2.4300001 -0.090999998
8.0299997 -2.4089999 -0.090999998
8.0550003 -2.3929999 -0.090999998
8.0769997 -2.3770001 -0.092
8.0900002 -2.3570001 -0.092
8.1049995 -2.3380001 -0.092
8.125 -2.3210001 -0.092
8.1490002 -2.3039999 -0.092
8.1700001 -2.2869999 -0.092
8.1899996 -2.2690001 -0.092
8.2040005 -2.2490001 -0.092
8.21 -2.227 -0.092
8.2159996 -2.2049999 -0.092
8.2340002 -2.187 -0.092
8.2539997 -2.168 -0.092
8.2709999 -2.1489999 -0.093000002
8.2919998 -2.131 -0.093000002
8.2969999 -2.108 -0.093000002
8.3330002 -2.0940001 -0.093000002
8.3669996 -2.0780001 -0.093000002
8.3719997 -2.056 -0.093000002
8.3780003 -2.033 -0.093000002
8.3859997 -2.0109999 -0.093000002
8.4099998 -1.993 -0.093000002
8.4289999 -1.973 -0.093000002
8.4560003 -1.955 -0.093999997
8.4820004 -1.937 -0.093999997
8.4870005 -1.914 -0.093999997
8.5050001 -1.8940001 -0.093999997
8.5319996 -1.875 -0.093999997
8.5340004 -1.852 -0.093999997
8.5699997 -1.835 -0.093999997
8.5979996 -1.816 -0.094999999
8.6079998 -1.794 -0.094999999
8.6230001 -1.772 -0.094999999
8.6420002 -1.752 -0.094999999
8.6639996 -1.7309999 -0.094999999
8.6899996 -1.712 -0.094999999
8.7150002 -1.692 -0.094999999
8.7189999 -1.668 -0.094999999
8.7449999 -1.648 -0.094999999
8.7700005 -1.628 -0.096000001
8.7600002 -1.601 -0.094999999
8.8000002 -1.5829999 -0.096000001
8.809 -1.5599999 -0.096000001
8.8290005 -1.538 -0.096000001
8.842 -1.515 -0.096000001
8.8699999 -1.495 -0.096000001
8.9090004 -1.476 -0.096000001
8.9160004 -1.452 -0.096000001
8.9499998 -1.432 -0.097000003
8.9680004 -1.409 -0.097000003
8.9790001 -1.385 -0.097000003
9.0200005 -1.3660001 -0.097000003
9.0299997 -1.342 -0.097000003
9.0539999 -1.3200001 -0.097000003
9.0579996 -1.294 -0.097000003
9.0939999 -1.274 -0.097000003
9.1099997 -1.25 -0.097000003
9.1409998 -1.228 -0.097999997
9.1669998 -1.206 -0.097999997
9.1820002 -1.182 -0.097999997
9.2159996 -1.16 -0.097999997
9.2460003 -1.137 -0.097999997
9.2729998 -1.114 -0.098999999
9.309 -1.092 -0.098999999
9.3260002 -1.068 -0.098999999
9.3660002 -1.046 -0.098999999
9.3669996 -1.0190001 -0.098999999
9.3959999 -0.99599999 -0.098999999
9.4110003 -0.97100002 -0.098999999
9.4399996 -0.94700003 -0.1
9.4540005 -0.92199999 -0.1
9.4809999 -0.89700001 -0.1
9.5220003 -0.87400001 -0.1
9.5570002 -0.85000002 -0.1
9.6009998 -0.82700002 -0.101
9.6440001 -0.80299997 -0.101
9.6389999 -0.77600002 -0.101
9.6479998 -0.74900001 -0.101
9.7030001 -0.72600001 -0.101
9.7259998 -0.69999999 -0.102
9.7740002 -0.676 -0.102
9.8339996 -0.65200001 -0.102
9.8719997 -0.62699997 -0.103
9.941 -0.60299999 -0.103
10.028 -0.57999998 -0.104
10.024 -0.551 -0.104
9.9359999 0.227 -0.235
9.8179998 0.237 -0.233
9.7609997 0.249 -0.23100001
9.7480001 0.26199999 -0.23100001
9.7659998 0.27599999 -0.23199999
9.7469997 0.289 -0.23199999
9.7440004 0.303 -0.23199999
9.717 0.31600001 -0.23100001
9.7130003 0.331 -0.23100001
9.7290001 0.34599999 -0.23199999
9.7159996 0.36000001 -0.23199999
9.7119999 0.375 -0.23199999
9.7119999 0.391 -0.23199999
9.7139997 0.40599999 -0.23199999
9.7259998 0.42199999 -0.23199999
9.7180004 0.43799999 -0.23199999
9.7119999 0.454 -0.233
9.7229996 0.47099999 -0.233
9.7360001 0.48800001 -0.233
9.7360001 0.505 -0.234
9.7290001 0.52200001 -0.234
9.7309999 0.53899997 -0.234
9.7390003 0.55699998 -0.234
9.7329998 0.57499999 -0.234
9.7440004 0.59299999 -0.235
9.7589998 0.61199999 -0.235
9.7819996 0.63200003 -0.236
9.7670002 0.64999998 -0.236
9.7810001 0.67000002 -0.237
9.7989998 0.69 -0.237
9.8039999 0.70999998 -0.23800001
9.8210001 0.73000002 -0.23800001
9.8369999 0.75099999 -0.23899999
9.8559999 0.773 -0.23999999
9.8529997 0.79299998 -0.23999999
9.8649998 0.81400001 -0.23999999
9.8579998 0.83399999 -0.23999999
9.868 0.85600001 -0.241
9.882 0.87800002 -0.241
9.8850002 0.89899999 -0.242
9.8809996 0.92000002 -0.242
9.9200001 0.94599998 -0.243
9.9390001 0.97000003 -0.244
9.934 0.991 -0.244
9.9429998 1.0140001 -0.245
9.967 1.039 -0.245
9.9860001 1.064 -0.24600001
10.008 1.09 -0.24699999
10.038 1.1160001 -0.248
10.038 1.14 -0.248
10.035 1.163 -0.249
10.054 1.189 -0.249
10.076 1.216 -0.25
10.084 1.2410001 -0.25099999
10.097 1.267 -0.25099999
10.121 1.295 -0.252
10.124 1.321 -0.25299999
10.15 1.349 -0.25400001
10.146 1.374 -0.25400001
10.163 1.402 -0.255
10.18 1.4299999 -0.255
10.198 1.459 -0.25600001
10.226 1.489 -0.257
10.226 1.516 -0.257
10.245 1.545 -0.25799999
10.259 1.574 -0.259
10.293 1.607 -0.25999999
10.313 1.637 -0.26100001
10.341 1.67 -0.26199999
10.364 1.701 -0.26300001
10.371 1.7309999 -0.264
10.381 1.761 -0.264
10.412 1.794 -0.26499999
10.417 1.824 -0.266
10.428 1.855 -0.26699999
10.433 1.885 -0.26699999
10.463 1.92 -0.26800001
10.481 1.9529999 -0.26899999
10.493 1.985 -0.27000001
10.496 2.016 -0.27000001
10.533 2.053 -0.27200001
10.533 2.0840001 -0.27200001
10.565 2.1210001 -0.273
10.599 2.1589999 -0.27500001
10.647 2.2 -0.27599999
10.65 2.233 -0.27700001
10.672 2.2690001 -0.278
10.68 2.303 -0.27900001
10.697 2.339 -0.27900001
10.714 2.375 -0.28
10.742 2.414 -0.28200001
10.759 2.45 -0.28200001
10.778 2.4879999 -0.28299999
10.823 2.5320001 -0.285
10.83 2.5669999 -0.28600001
10.858 2.608 -0.287
10.887 2.6489999 -0.28799999
10.9 2.6860001 -0.289
10.909 2.723 -0.28999999
10.93 2.763 -0.29100001
10.96 2.806 -0.292
10.96 2.8410001 -0.29300001
10.984 2.8829999 -0.294
11.009 2.9260001 -0.29499999
11.018 2.964 -0.296
11.069 3.0139999 -0.29800001
11.057 3.0469999 -0.29800001
11.088 3.092 -0.29899999
11.101 3.1329999 -0.30000001
11.139 3.181 -0.30199999
11.16 3.224 -0.303
11.135 3.2550001 -0.303
11.169 3.303 -0.30399999
11.193 3.348 -0.30500001
11.24 3.4000001 -0.30700001
11.283 3.4519999 -0.30899999
11.287 3.4920001 -0.31
11.344 3.549 -0.31200001
11.316 3.5799999 -0.31200001
11.334 3.625 -0.31299999
11.367 3.6760001 -0.31400001
11.382 3.721 -0.315
11.389 3.7639999 -0.31600001
9.2349997 3.085 -0.257
9.0679998 3.0610001 -0.25299999
9.0220003 3.0780001 -0.252
9.007 3.105 -0.252
8.948 3.1170001 -0.25099999
8.7989998 3.0969999 -0.24699999
8.7349997 3.1070001 -0.24600001
8.6990004 3.1259999 -0.245
8.6999998 3.158 -0.24600001
8.7150002 3.1960001 -0.24699999
8.8129997 3.2639999 -0.25
11.549 4.3210001 -0.32800001
11.554 4.3660002 -0.329
11.574 4.4169998 -0.33000001
11.61 4.4749999 -0.33199999
11.634 4.5279999 -0.333
11.645 4.5770001 -0.33399999
11.657 4.6259999 -0.33500001
11.717 4.6950002 -0.338
11.745 4.7509999 -0.33899999
11.772 4.8070002 -0.34099999
11.786 4.8590002 -0.34200001
11.787 4.9050002 -0.34299999
11.797 4.9549999 -0.34400001
11.845 5.0219998 -0.34599999
11.852 5.072 -0.347
11.886 5.1329999 -0.34900001
11.895 5.184 -0.34999999
11.912 5.2389998 -0.35100001
11.93 5.2950001 -0.352
11.931 5.3429999 -0.35299999
11.944 5.3969998 -0.354
11.98 5.4619999 -0.35600001
11.958 5.5 -0.35600001
11.994 5.566 -0.35800001
12 5.6170001 -0.359
12.008 5.6700001 -0.36000001
12.038 5.7340002 -0.36199999
12.049 5.789 -0.36300001
12.037 5.8340001 -0.36300001
12.038 5.8839998 -0.36399999
12.078 5.954 -0.366
12.096 6.0139999 -0.368
12.11 6.0710001 -0.36899999
12.126 6.131 -0.37
12.125 6.1820002 -0.37099999
12.146 6.244 -0.373
12.184 6.316 -0.375
12.276 6.4159999 -0.37799999
12.264 6.6220002 -0.38100001
12.262 6.6750002 -0.382
12.332 6.7659998 -0.38499999
12.352 6.8319998 -0.38699999
12.367 6.895 -0.38800001
12.401 6.9679999 -0.38999999
12.423 7.0359998 -0.39199999
12.43 7.0949998 -0.39300001
12.529 7.2080002 -0.39700001
10.503 6.375 -0.33899999
10.378 6.3470001 -0.33500001
10.385 6.3990002 -0.336
10.417 6.467 -0.338
10.405 6.5079999 -0.33899999
10.349 6.5209999 -0.338
10.352 6.5710001 -0.33899999
10.393 6.6459999 -0.34099999
10.435 6.7220001 -0.34299999
6.5609999 -4.3330002 -0.068000004
6.5819998 -4.3049998 -0.068000004
6.6230001 -4.29 -0.068000004
6.6420002 -4.2610002 -0.068000004
6.658 -4.2309999 -0.068000004
6.6830001 -4.2059999 -0.068000004
6.704 -4.1789999 -0.068000004
6.7199998 -4.1490002 -0.068000004
6.7319999 -4.1160002 -0.068000004
6.7480001 -4.0869999 -0.068000004
6.7800002 -4.066 -0.068999998
6.7950001 -4.0359998 -0.068999998
6.8130002 -4.0079999 -0.068999998
6.8410001 -3.9860001 -0.068999998
6.8590002 -3.9579999 -0.068999998
6.882 -3.9330001 -0.068999998
6.888 -3.898 -0.068999998
6.9130001 -3.875 -0.068999998
6.9239998 -3.8429999 -0.068999998
6.941 -3.816 -0.068999998
6.974 -3.796 -0.068999998
6.98 -3.763 -0.068999998
6.9980001 -3.7360001 -0.068999998
7.02 -3.711 -0.068999998
7.0339999 -3.6819999 -0.068999998
7.0679998 -3.664 -0.07
7.086 -3.6370001 -0.07
7.1100001 -3.6140001 -0.07
7.1360002 -3.5910001 -0.07
7.1560001 -3.566 -0.07
7.178 -3.5409999 -0.07
7.178 -3.507 -0.07
7.1989999 -3.4820001 -0.07
7.2259998 -3.46 -0.07
7.2399998 -3.4319999 -0.07
7.2719998 -3.4130001 -0.07
7.2930002 -3.3889999 -0.071000002
7.2909999 -3.3540001 -0.07
7.3309999 -3.339 -0.071000002
7.3429999 -3.3110001 -0.071000002
7.368 -3.289 -0.071000002
7.3930001 -3.266 -0.071000002
7.4070001 -3.2390001 -0.071000002
7.4330001 -3.217 -0.071000002
7.4499998 -3.1919999 -0.071000002
7.4619999 -3.164 -0.071000002
7.48 -3.1389999 -0.071000002
7.5050001 -3.118 -0.071000002
7.5419998 -3.0999999 -0.071999997
7.5469999 -3.0710001 -0.071999997
7.5710001 -3.049 -0.071999997
7.5799999 -3.02 -0.071999997
7.5929999 -2.994 -0.071999997
7.6129999 -2.97 -0.071999997
7.6399999 -2.9489999 -0.071999997
7.665 -2.928 -0.071999997
7.6810002 -2.9030001 -0.071999997
7.7129998 -2.8840001 -0.071999997
7.7389998 -2.8629999 -0.071999997
7.756 -2.8380001 -0.071999997
7.783 -2.8180001 -0.072999999
7.7979999 -2.793 -0.072999999
7.802 -2.7639999 -0.072999999
7.822 -2.7409999 -0.072999999
7.8649998 -2.7260001 -0.072999999
7.8699999 -2.697 -0.072999999
7.9099998 -2.681 -0.072999999
7.9159999 -2.654 -0.072999999
7.9349999 -2.631 -0.072999999
7.967 -2.612 -0.072999999
7.9959998 -2.592 -0.074000001
8.0190001 -2.5699999 -0.074000001
8.033 -2.5450001 -0.074000001
8.0469999 -2.5209999 -0.074000001
8.0670004 -2.4979999 -0.074000001
8.0979996 -2.4790001 -0.074000001
8.1420002 -2.464 -0.074000001
8.165 -2.4419999 -0.074000001
8.1709995 -2.415 -0.074000001
8.1949997 -2.3940001 -0.075000003
8.2279997 -2.3759999 -0.075000003
8.25 -2.3540001 -0.075000003
8.283 -2.335 -0.075000003
8.3050003 -2.313 -0.075000003
8.2889996 -2.2809999 -0.075000003
8.3389997 -2.267 -0.075000003
8.368 -2.247 -0.075000003
8.3809996 -2.223 -0.075999998
8.4110003 -2.204 -0.075999998
8.427 -2.181 -0.075999998
8.4420004 -2.1570001 -0.075999998
8.4619999 -2.135 -0.075999998
8.4750004 -2.112 -0.075999998
8.474 -2.085 -0.075999998
8.5159998 -2.0680001 -0.075999998
8.5629997 -2.053 -0.075999998
8.5539999 -2.0239999 -0.075999998
8.6040001 -2.01 -0.077
8.6029997 -1.983 -0.075999998
8.6359997 -1.965 -0.077
8.6700001 -1.946 -0.077
8.691 -1.925 -0.077
8.7229996 -1.906 -0.077
8.7279997 -1.881 -0.077
8.7519999 -1.86 -0.077
8.7740002 -1.839 -0.077
8.7779999 -1.8150001 -0.077
8.8109999 -1.796 -0.078000002
8.816 -1.772 -0.078000002
8.8470001 -1.753 -0.078000002
8.8830004 -1.735 -0.078000002
8.901 -1.7130001 -0.078000002
8.9049997 -1.689 -0.078000002
8.9379997 -1.671 -0.078000002
8.9499998 -1.648 -0.078000002
8.9329996 -1.62 -0.078000002
8.9639997 -1.602 -0.078000002
8.9829998 -1.581 -0.078000002
9.0019999 -1.5599999 -0.078000002
9.026 -1.54 -0.078000002
9.059 -1.521 -0.079000004
9.0539999 -1.4960001 -0.079000004
9.0950003 -1.479 -0.079000004
9.1149998 -1.459 -0.079000004
9.1230001 -1.436 -0.079000004
9.1490002 -1.4170001 -0.079000004
9.1700001 -1.397 -0.079000004
9.198 -1.378 -0.079000004
9.2049999 -1.355 -0.079000004
9.2259998 -1.335 -0.079000004
9.2440004 -1.3150001 -0.079000004
9.276 -1.2970001 -0.079999998
9.2790003 -1.274 -0.079999998
9.3030005 -1.255 -0.079999998
9.3129997 -1.233 -0.079999998
9.3290005 -1.2130001 -0.079999998
9.3430004 -1.193 -0.079999998
9.3640003 -1.173 -0.079999998
9.382 -1.153 -0.079999998
9.3979998 -1.133 -0.079999998
9.4230003 -1.114 -0.079999998
9.4519997 -1.095 -0.079999998
9.4770002 -1.076 -0.081
9.4799995 -1.0549999 -0.079999998
9.5089998 -1.0369999 -0.081
9.5170002 -1.016 -0.081
9.5319996 -0.99599999 -0.081
9.566 -0.97799999 -0.081
9.5810003 -0.95899999 -0.081
9.5880003 -0.93800002 -0.081
9.6049995 -0.91900003 -0.081
9.6199999 -0.89999998 -0.081
9.6540003 -0.88200003 -0.081
9.6680002 -0.86199999 -0.081
9.6700001 -0.84200001 -0.081
9.6809998 -0.82300001 -0.081
9.7220001 -0.80599999 -0.082000002
9.7340002 -0.78600001 -0.082000002
9.7639999 -0.76899999 -0.082000002
9.8240004 -0.75300002 -0.082000002
9.8540001 -0.73500001 -0.082000002
9.8479996 -0.71499997 -0.082000002
9.8710003 -0.69700003 -0.082000002
9.8940001 -0.67900002 -0.082999997
9.9399996 -0.662 -0.082999997
9.9530001 -0.64300001 -0.082999997
9.9580002 -0.62400001 -0.082999997
10.013 -0.60799998 -0.082999997
9.9949999 -0.588 -0.082999997
10.069 -0.57300001 -0.083999999
10.081 -0.55400002 -0.083999999
10.082 -0.53600001 -0.083999999
10.133 -0.51899999 -0.083999999
9.6660004 0.118 -0.20200001
9.6879997 0.13600001 -0.20299999
9.6800003 0.153 -0.20299999
9.7069998 0.17200001 -0.20299999
9.7209997 0.19 -0.204
9.717 0.208 -0.204
9.7200003 0.227 -0.204
9.7349997 0.24600001 -0.205
9.7189999 0.26499999 -0.204
9.7460003 0.285 -0.205
9.7460003 0.30399999 -0.205
9.7510004 0.324 -0.206
9.7530003 0.34400001 -0.206
9.7629995 0.36399999 -0.206
9.7720003 0.38499999 -0.207
9.79 0.40599999 -0.207
9.7799997 0.42699999 -0.207
9.8059998 0.449 -0.208
9.8050003 0.47 -0.208
9.7969999 0.491 -0.208
9.8140001 0.51300001 -0.20900001
9.8170004 0.53500003 -0.20900001
9.8210001 0.55699998 -0.20900001
9.8260002 0.57999998 -0.20999999
9.8330002 0.602 -0.20999999
9.8459997 0.62599999 -0.211
9.8640003 0.64899999 -0.211
9.8859997 0.67400002 -0.212
9.8959999 0.69800001 -0.212
9.9189997 0.72299999 -0.213
9.9289999 0.74699998 -0.214
9.9499998 0.77200001 -0.214
9.9610004 0.79699999 -0.215
9.9879999 0.824 -0.21600001
9.9709997 0.847 -0.215
10.006 0.87400001 -0.21600001
10.009 0.89899999 -0.21699999
10.005 0.92400002 -0.21699999
10.037 0.95200002 -0.21799999
10.041 0.97799999 -0.21799999
10.059 1.005 -0.219
10.078 1.033 -0.22
10.085 1.059 -0.22
10.113 1.089 -0.221
10.143 1.118 -0.222
10.172 1.148 -0.223
10.186 1.177 -0.223
10.181 1.2029999 -0.22400001
10.207 1.233 -0.22400001
10.216 1.262 -0.22499999
10.234 1.2920001 -0.226
10.263 1.323 -0.227
10.268 1.352 -0.227
10.282 1.382 -0.228
10.307 1.414 -0.229
10.313 1.443 -0.229
10.332 1.474 -0.23
10.353 1.506 -0.23100001
10.351 1.535 -0.23100001
10.389 1.5700001 -0.23199999
10.402 1.602 -0.233
10.419 1.6339999 -0.233
10.429 1.665 -0.234
10.476 1.7029999 -0.235
10.504 1.738 -0.236
10.537 1.774 -0.237
10.55 1.807 -0.23800001
10.567 1.841 -0.23899999
10.585 1.875 -0.23999999
10.599 1.909 -0.23999999
10.609 1.942 -0.241
10.642 1.98 -0.242
10.646 2.013 -0.242
10.663 2.0480001 -0.243
10.695 2.086 -0.244
10.712 2.122 -0.245
10.744 2.161 -0.24600001
10.776 2.201 -0.24699999
10.825 2.244 -0.249
10.845 2.2809999 -0.25
10.868 2.3199999 -0.25099999
10.875 2.355 -0.25099999
10.874 2.3889999 -0.252
10.885 2.425 -0.252
10.922 2.4679999 -0.25400001
10.956 2.51 -0.255
11.009 2.556 -0.257
11.019 2.5940001 -0.257
11.045 2.635 -0.25799999
11.059 2.674 -0.259
11.068 2.711 -0.25999999
11.089 2.7520001 -0.26100001
11.118 2.7950001 -0.26199999
11.15 2.839 -0.26300001
11.144 2.8740001 -0.26300001
11.155 2.9130001 -0.264
11.192 2.9590001 -0.26499999
11.22 3.003 -0.26699999
11.223 3.0409999 -0.26699999
11.25 3.085 -0.26800001
11.266 3.1270001 -0.26899999
11.289 3.1700001 -0.27000001
11.306 3.2119999 -0.271
11.319 3.2539999 -0.27200001
11.331 3.2950001 -0.273
11.373 3.346 -0.27399999
11.417 3.3970001 -0.27599999
11.435 3.4400001 -0.27700001
11.476 3.4909999 -0.278
11.523 3.5450001 -0.28
11.564 3.596 -0.28099999
11.58 3.641 -0.28200001
11.564 3.675 -0.28200001
11.563 3.714 -0.28299999
11.572 3.757 -0.28400001
11.527 3.7820001 -0.28299999
11.563 3.8329999 -0.285
9.2790003 3.108 -0.229
9.0670004 3.0680001 -0.22400001
9.0089998 3.0799999 -0.223
8.9709997 3.098 -0.222
8.8760004 3.096 -0.22
8.7779999 3.092 -0.21799999
8.724 3.1040001 -0.21799999
8.7060003 3.128 -0.21799999
8.7069998 3.1589999 -0.21799999
8.7189999 3.194 -0.219
8.7749996 3.2449999 -0.221
11.929 4.4120002 -0.30000001
11.786 4.4000001 -0.29699999
11.773 4.4369998 -0.29699999
11.796 4.487 -0.29800001
11.802 4.5310001 -0.29899999
11.809 4.5760002 -0.30000001
11.857 4.6370001 -0.30199999
11.884 4.6900001 -0.303
11.937 4.7529998 -0.30500001
11.938 4.796 -0.30599999
11.962 4.849 -0.30700001
11.972 4.8959999 -0.308
11.993 4.947 -0.30899999
12.004 4.9949999 -0.31
12.015 5.0419998 -0.31099999
12.04 5.0960002 -0.31200001
12.058 5.1469998 -0.31299999
12.091 5.2049999 -0.315
12.097 5.2509999 -0.31600001
12.123 5.3060002 -0.317
12.133 5.355 -0.31799999
12.115 5.3909998 -0.31799999
12.124 5.4380002 -0.31900001
12.14 5.4899998 -0.31999999
12.142 5.5349998 -0.32100001
12.183 5.598 -0.32300001
12.192 5.6459999 -0.324
12.2 5.6939998 -0.32499999
12.195 5.7360001 -0.32499999
12.217 5.7909999 -0.32699999
12.252 5.8530002 -0.32800001
12.253 5.8979998 -0.329
12.262 5.947 -0.33000001
12.291 6.006 -0.331
12.319 6.0650001 -0.333
12.345 6.1220002 -0.33399999
12.343 6.1659999 -0.33500001
12.363 6.2220001 -0.336
12.317 6.244 -0.336
12.224 6.2410002 -0.33399999
12.214 6.2810001 -0.33399999
12.226 6.4650002 -0.338
12.35 6.5760002 -0.34200001
12.806 7.053 -0.359
12.779 7.0840001 -0.359
12.812 7.1490002 -0.36000001
12.834 7.2080002 -0.36199999
12.873 7.277 -0.36399999
12.959 7.3720002 -0.36700001
10.72 6.3309999 -0.308
10.534 6.2589998 -0.303
10.459 6.2519999 -0.30199999
10.406 6.257 -0.301
10.266 6.21 -0.29699999
10.27 6.2490001 -0.29800001
10.221 6.256 -0.29699999
10.157 6.2519999 -0.296
10.133 6.2729998 -0.296
10.206 6.355 -0.29899999
10.432 6.5320001 -0.30599999
9.6330004 6.6570001 -0.296
9.5500002 6.631 -0.294
9.4860001 6.6170001 -0.292
9.4429998 6.618 -0.292
9.4099998 6.625 -0.29100001
9.3959999 6.645 -0.292
9.3959999 6.6750002 -0.292
9.3879995 6.6989999 -0.29300001
9.3879995 6.7290001 -0.29300001
9.3909998 6.7600002 -0.294
9.3900003 6.789 -0.29499999
9.3979998 6.823 -0.296
9.3950005 6.8499999 -0.296
7.0120001 -4.1149998 -0.054000001
7.0300002 -4.1059999 -0.054000001
7.039 -4.092 -0.054000001
7.0419998 -4.0739999 -0.054000001
7.0619998 -4.0650001 -0.054000001
7.0700002 -4.0500002 -0.054000001
7.073 -4.0320001 -0.054000001
7.0739999 -4.013 -0.054000001
7.0960002 -4.0050001 -0.054000001
7.073 -3.9719999 -0.054000001
7.105 -3.97 -0.054000001
7.1220002 -3.9590001 -0.054000001
7.1149998 -3.9349999 -0.054000001
7.1279998 -3.9219999 -0.054000001
7.1339998 -3.905 -0.054000001
7.145 -3.8900001 -0.054000001
7.164 -3.8800001 -0.054000001
7.1700001 -3.8629999 -0.054000001
7.1729999 -3.8440001 -0.054000001
7.1900001 -3.8329999 -0.054000001
7.2090001 -3.823 -0.054000001
7.2069998 -3.8010001 -0.054000001
7.2080002 -3.7809999 -0.054000001
7.1830001 -3.7479999 -0.054000001
7.2059999 -3.7390001 -0.054000001
7.244 -3.7379999 -0.054000001
7.2680001 -3.7290001 -0.054000001
7.263 -3.7060001 -0.054000001
7.2789998 -3.6930001 -0.054000001
7.3010001 -3.6830001 -0.054000001
7.309 -3.6670001 -0.054000001
7.3099999 -3.6459999 -0.054000001
7.3239999 -3.632 -0.054000001
7.3400002 -3.619 -0.054000001
7.342 -3.599 -0.054000001
7.3600001 -3.5869999 -0.054000001
7.3709998 -3.5710001 -0.054000001
7.3709998 -3.55 -0.054000001
7.3850002 -3.5350001 -0.054000001
7.4159999 -3.529 -0.054000001
7.408 -3.5039999 -0.054000001
7.4260001 -3.4909999 -0.054000001
7.434 -3.473 -0.054000001
7.4330001 -3.451 -0.054000001
7.4499998 -3.438 -0.054000001
7.4689999 -3.425 -0.054000001
7.487 -3.4119999 -0.054000001
7.4990001 -3.3959999 -0.054000001
7.493 -3.3710001 -0.054000001
7.5170002 -3.3599999 -0.054000001
7.52 -3.3399999 -0.054000001
7.539 -3.3269999 -0.054000001
7.5479999 -3.309 -0.054000001
7.572 -3.2980001 -0.054000001
7.5970001 -3.286 -0.054000001
7.5869999 -3.26 -0.054000001
7.6129999 -3.2490001 -0.054000001
7.6220002 -3.2320001 -0.054000001
7.625 -3.211 -0.054000001
7.6500001 -3.1989999 -0.054000001
7.6550002 -3.1789999 -0.054000001
7.6789999 -3.1670001 -0.054000001
7.6890001 -3.1489999 -0.054000001
7.711 -3.1359999 -0.054000001
7.7080002 -3.112 -0.054000001
7.7220001 -3.096 -0.054000001
7.743 -3.082 -0.054000001
7.7420001 -3.059 -0.054000001
7.756 -3.0420001 -0.054000001
7.7789998 -3.029 -0.054000001
7.79 -3.01 -0.054000001
7.8080001 -2.9949999 -0.054000001
7.8109999 -2.974 -0.054000001
7.829 -2.9579999 -0.054000001
7.8429999 -2.941 -0.054000001
7.855 -2.9230001 -0.054000001
7.8660002 -2.904 -0.054000001
7.8709998 -2.8829999 -0.054000001
7.8839998 -2.865 -0.054000001
7.8940001 -2.846 -0.054000001
7.9120002 -2.8299999 -0.054000001
7.9419999 -2.8180001 -0.055
7.954 -2.799 -0.055
7.9699998 -2.7809999 -0.055
7.9850001 -2.7639999 -0.055
7.9920001 -2.743 -0.055
8.0050001 -2.7249999 -0.055
8.0089998 -2.7030001 -0.055
8.0369997 -2.6889999 -0.055
8.0600004 -2.674 -0.055
8.0839996 -2.658 -0.055
8.0939999 -2.638 -0.055
8.1070004 -2.619 -0.055
8.1280003 -2.6029999 -0.055
8.1409998 -2.5829999 -0.055
8.151 -2.563 -0.055
8.1759996 -2.5480001 -0.055
8.1809998 -2.526 -0.055
8.2019997 -2.5079999 -0.055
8.2370005 -2.4949999 -0.055
8.25 -2.4760001 -0.055
8.2910004 -2.464 -0.055
8.2939997 -2.441 -0.055
8.309 -2.4219999 -0.055
8.3299999 -2.404 -0.055
8.3430004 -2.3840001 -0.055
8.3640003 -2.3659999 -0.055
8.3839998 -2.3469999 -0.055
8.3839998 -2.323 -0.055
8.4119997 -2.3069999 -0.055
8.4169998 -2.2839999 -0.055
8.4440002 -2.267 -0.055
8.4619999 -2.2479999 -0.055
8.4870005 -2.23 -0.055
8.5100002 -2.2119999 -0.056000002
8.54 -2.1949999 -0.056000002
8.5430002 -2.171 -0.056000002
8.5550003 -2.1500001 -0.056000002
8.5719995 -2.1300001 -0.056000002
8.5869999 -2.109 -0.056000002
8.5839996 -2.0840001 -0.056000002
8.6059999 -2.0639999 -0.056000002
8.6470003 -2.049 -0.056000002
8.6560001 -2.027 -0.056000002
8.6719999 -2.006 -0.056000002
8.7010002 -1.987 -0.056000002
8.7309999 -1.969 -0.056000002
8.7349997 -1.9450001 -0.056000002
8.7709999 -1.928 -0.056000002
8.8450003 -1.919 -0.056000002
8.8330002 -1.891 -0.056000002
8.8409996 -1.868 -0.056000002
8.8529997 -1.845 -0.056000002
8.8640003 -1.822 -0.056000002
8.8839998 -1.801 -0.056000002
8.8879995 -1.776 -0.056000002
8.9160004 -1.756 -0.056000002
8.9390001 -1.735 -0.056000002
8.974 -1.717 -0.056000002
8.9989996 -1.696 -0.056000002
9.0109997 -1.6720001 -0.056000002
9.0229998 -1.649 -0.056000002
9.0530005 -1.628 -0.057
9.0539999 -1.603 -0.056000002
9.085 -1.5829999 -0.057
9.1020002 -1.559 -0.057
9.1359997 -1.539 -0.057
9.1689997 -1.5190001 -0.057
9.1940002 -1.497 -0.057
9.2200003 -1.475 -0.057
9.2180004 -1.448 -0.057
9.2419996 -1.426 -0.057
9.2810001 -1.405 -0.057
9.2959995 -1.381 -0.057
9.3240004 -1.359 -0.057
9.3769999 -1.34 -0.057
9.3879995 -1.314 -0.057
9.4200001 -1.2920001 -0.057
9.4219999 -1.266 -0.057
9.4420004 -1.242 -0.057
9.4879999 -1.221 -0.057999998
9.526 -1.198 -0.057999998
9.5159998 -1.17 -0.057999998
9.5579996 -1.148 -0.057999998
9.599 -1.126 -0.057999998
9.6190004 -1.101 -0.057999998
9.6700001 -1.079 -0.057999998
9.6850004 -1.053 -0.057999998
9.6940002 -1.027 -0.057999998
9.7220001 -1.002 -0.057999998
9.7449999 -0.977 -0.057999998
9.7629995 -0.95099998 -0.057999998
9.8079996 -0.92799997 -0.057999998
9.8400002 -0.903 -0.057999998
9.8839998 -0.87900001 -0.059
9.96 -0.85699999 -0.059
9.9750004 -0.82999998 -0.059
9.993 -0.80299997 -0.059
10.088 -0.78200001 -0.059
10.124 -0.75599998 -0.059999999
10.182 -0.73199999 -0.059999999
10.229 -0.70599997 -0.059999999
10.195 -0.67500001 -0.059999999
10.306 -0.653 -0.059999999
10.191 0.184 -0.189
10.253 0.197 -0.191
10.184 0.208 -0.189
10.159 0.221 -0.189
10.127 0.233 -0.189
10.132 0.24699999 -0.189
10.141 0.26100001 -0.189
10.114 0.27399999 -0.189
10.134 0.28799999 -0.189
10.093 0.301 -0.189
10.088 0.31600001 -0.189
10.084 0.33000001 -0.189
10.099 0.34599999 -0.189
10.11 0.361 -0.19
10.111 0.377 -0.19
10.154 0.39399999 -0.191
10.123 0.40900001 -0.19
10.109 0.42500001 -0.19
10.094 0.44 -0.19
10.087 0.45699999 -0.19
10.076 0.47299999 -0.19
10.1 0.491 -0.191
10.104 0.50800002 -0.191
10.084 0.52499998 -0.191
10.103 0.54400003 -0.191
10.095 0.56099999 -0.191
10.106 0.57999998 -0.192
10.12 0.59899998 -0.192
10.125 0.61799997 -0.193
10.145 0.63800001 -0.193
10.161 0.65799999 -0.19400001
10.172 0.67799997 -0.19400001
10.175 0.69800001 -0.19400001
10.188 0.71899998 -0.19499999
10.207 0.74000001 -0.19499999
10.217 0.76099998 -0.19599999
10.225 0.78200001 -0.19599999
10.25 0.80500001 -0.197
10.242 0.82499999 -0.197
10.247 0.847 -0.197
10.264 0.87 -0.198
10.282 0.89300001 -0.199
10.316 0.91799998 -0.199
10.303 0.93900001 -0.199
10.31 0.96200001 -0.2
10.326 0.986 -0.2
10.325 1.008 -0.20100001
10.353 1.034 -0.20100001
10.36 1.058 -0.20200001
10.388 1.084 -0.20299999
10.392 1.108 -0.20299999
10.416 1.135 -0.204
10.437 1.161 -0.204
10.455 1.188 -0.205
10.47 1.214 -0.206
10.464 1.238 -0.206
10.475 1.265 -0.206
10.497 1.293 -0.207
10.526 1.322 -0.208
10.535 1.349 -0.208
10.541 1.376 -0.20900001
10.569 1.406 -0.20999999
10.573 1.433 -0.20999999
10.563 1.4579999 -0.20999999
10.585 1.488 -0.211
10.577 1.5140001 -0.211
10.588 1.5420001 -0.212
10.63 1.576 -0.213
10.633 1.604 -0.213
10.66 1.636 -0.214
10.675 1.6670001 -0.215
10.687 1.697 -0.215
10.711 1.73 -0.21600001
10.712 1.7589999 -0.21600001
10.752 1.794 -0.21699999
10.75 1.824 -0.21799999
10.765 1.8559999 -0.21799999
10.796 1.891 -0.219
10.823 1.926 -0.22
10.821 1.956 -0.221
10.845 1.99 -0.222
10.885 2.029 -0.223
10.867 2.056 -0.223
10.882 2.0899999 -0.223
10.92 2.1289999 -0.22499999
10.923 2.161 -0.22499999
10.973 2.2030001 -0.226
10.979 2.2360001 -0.227
11.031 2.28 -0.228
11.029 2.312 -0.229
11.076 2.355 -0.23
11.086 2.3900001 -0.23100001
11.095 2.425 -0.23100001
11.1 2.46 -0.23199999
11.121 2.4990001 -0.233
11.152 2.54 -0.234
11.174 2.579 -0.235
11.19 2.6170001 -0.235
11.22 2.6589999 -0.236
11.241 2.6989999 -0.237
11.246 2.7360001 -0.23800001
11.284 2.7809999 -0.23899999
11.302 2.8210001 -0.23999999
11.333 2.865 -0.241
11.371 2.911 -0.242
11.355 2.9430001 -0.242
11.365 2.983 -0.243
11.376 3.023 -0.244
11.411 3.069 -0.245
11.442 3.115 -0.24600001
11.438 3.152 -0.24699999
11.448 3.1919999 -0.24699999
11.471 3.237 -0.248
11.507 3.2850001 -0.25
11.545 3.335 -0.25099999
11.557 3.378 -0.252
11.608 3.4319999 -0.25299999
11.609 3.4719999 -0.25400001
11.643 3.5220001 -0.255
11.7 3.579 -0.257
11.765 3.6389999 -0.259
11.805 3.6930001 -0.25999999
11.801 3.733 -0.26100001
11.795 3.7720001 -0.26100001
11.795 3.8139999 -0.26199999
11.811 3.8599999 -0.26199999
11.802 3.8989999 -0.26300001
11.894 3.9719999 -0.26499999
9.2209997 3.112 -0.206
12.035 4.0619998 -0.26899999
9.0319996 3.0810001 -0.20200001
8.9449997 3.0829999 -0.20100001
8.8400002 3.079 -0.199
8.7650003 3.085 -0.198
8.7360001 3.1070001 -0.197
8.7209997 3.1329999 -0.197
8.7180004 3.164 -0.198
8.7700005 3.2149999 -0.199
12.285 4.5040002 -0.27900001
12.092 4.4780002 -0.27599999
12.043 4.5050001 -0.27500001
12.05 4.553 -0.27599999
12.035 4.592 -0.27599999
12.06 4.6469998 -0.27700001
12.109 4.7119999 -0.27900001
12.15 4.7740002 -0.28099999
12.184 4.8340001 -0.28200001
12.184 4.8800001 -0.28299999
12.185 4.928 -0.28299999
12.215 4.987 -0.285
12.213 5.033 -0.285
12.23 5.0879998 -0.28600001
12.263 5.1500001 -0.28799999
12.267 5.1989999 -0.289
12.305 5.2639999 -0.28999999
12.329 5.323 -0.29100001
12.33 5.3720002 -0.292
12.343 5.427 -0.29300001
12.36 5.4840002 -0.294
12.387 5.546 -0.29499999
12.405 5.6040001 -0.29699999
12.402 5.652 -0.29699999
12.405 5.704 -0.29800001
12.404 5.7540002 -0.29899999
12.417 5.8109999 -0.30000001
12.456 5.8800001 -0.301
12.491 5.948 -0.303
12.5 6.0040002 -0.30399999
12.515 6.0630002 -0.30500001
12.521 6.119 -0.30599999
12.59 6.2049999 -0.308
12.638 6.2810001 -0.31
12.55 6.29 -0.30899999
12.263 6.1989999 -0.30199999
12.235 6.2360001 -0.303
12.161 6.3540001 -0.303
12.139 6.395 -0.303
12.367 6.5679998 -0.31
12.305 6.5890002 -0.30899999
12.309 6.645 -0.31
13.077 7.2309999 -0.33199999
12.988 7.2389998 -0.33000001
13.049 7.3299999 -0.33199999
13.086 7.4099998 -0.33399999
13.139 7.4980001 -0.336
10.545 6.2550001 -0.273
10.446 6.243 -0.27200001
10.384 6.2540002 -0.271
10.32 6.2620001 -0.27000001
10.208 6.2420001 -0.26699999
10.157 6.257 -0.26699999
10.111 6.2750001 -0.266
10.036 6.2750001 -0.26499999
9.9770002 6.2849998 -0.264
9.9919996 6.3410001 -0.26499999
10.095 6.4530001 -0.26899999
10.294 6.6290002 -0.27500001
9.6190004 6.842 -0.26699999
9.507 6.8080001 -0.264
9.4230003 6.7950001 -0.26300001
6.7049999 -4.4260001 -0.035999998
6.73 -4.4000001 -0.035999998
6.7680001 -4.3829999 -0.037
6.79 -4.3540001 -0.037
6.8119998 -4.3270001 -0.037
6.8429999 -4.3049998 -0.037
6.855 -4.2709999 -0.037
6.8699999 -4.2389998 -0.037
6.888 -4.21 -0.037
6.9089999 -4.1820002 -0.037
6.934 -4.1570001 -0.037
6.9569998 -4.131 -0.037
6.974 -4.1009998 -0.037
7 -4.0770001 -0.037
7.0139999 -4.046 -0.037
7.0409999 -4.0219998 -0.037
7.0489998 -3.9879999 -0.037
7.0749998 -3.964 -0.037
7.1149998 -3.947 -0.037
7.0780001 -3.8889999 -0.035999998
7.1100001 -3.869 -0.037
7.1350002 -3.845 -0.037
7.1760001 -3.829 -0.037
7.204 -3.8069999 -0.037
7.2199998 -3.7780001 -0.037
7.2420001 -3.7520001 -0.037
7.276 -3.733 -0.037
7.2880001 -3.7019999 -0.037
7.2950001 -3.6700001 -0.037
7.3189998 -3.6459999 -0.037
7.3449998 -3.622 -0.037
7.348 -3.5880001 -0.037
7.3709998 -3.5639999 -0.037
7.3920002 -3.539 -0.037
7.415 -3.5139999 -0.037
7.4349999 -3.4890001 -0.037
7.4549999 -3.4630001 -0.037
7.4650002 -3.4330001 -0.037
7.494 -3.4119999 -0.037
7.507 -3.3829999 -0.037
7.5229998 -3.3570001 -0.037
7.5440001 -3.332 -0.037
7.5619998 -3.306 -0.037
7.5819998 -3.2809999 -0.037
7.6020002 -3.256 -0.037
7.6259999 -3.233 -0.037
7.6589999 -3.214 -0.037
7.671 -3.1860001 -0.037
7.7049999 -3.1670001 -0.037
7.7140002 -3.1370001 -0.037
7.744 -3.1170001 -0.037
7.756 -3.089 -0.037
7.7670002 -3.0610001 -0.037
7.7919998 -3.039 -0.037
7.823 -3.0190001 -0.037
7.8390002 -2.994 -0.037
7.8569999 -2.9690001 -0.037
7.8940001 -2.951 -0.037
7.8899999 -2.918 -0.037
7.9219999 -2.898 -0.037
7.9460001 -2.8759999 -0.037
7.9619999 -2.8510001 -0.037
7.9780002 -2.825 -0.037
8.0179996 -2.809 -0.037
8.0509996 -2.789 -0.037
8.066 -2.7639999 -0.037
8.0839996 -2.74 -0.037
8.1230001 -2.723 -0.037
8.1529999 -2.7019999 -0.037
8.165 -2.6760001 -0.037
8.1879997 -2.654 -0.037
8.21 -2.631 -0.037
8.2370005 -2.609 -0.037
8.2539997 -2.585 -0.037
8.2889996 -2.5669999 -0.037
8.3149996 -2.5450001 -0.037999999
8.3540001 -2.5280001 -0.037999999
8.3839998 -2.507 -0.037999999
8.3699999 -2.474 -0.037999999
8.4060001 -2.4549999 -0.037999999
8.434 -2.4349999 -0.037999999
8.4420004 -2.408 -0.037999999
8.4659996 -2.3859999 -0.037999999
8.4969997 -2.3659999 -0.037999999
8.533 -2.348 -0.037999999
8.5550003 -2.325 -0.037999999
8.5889997 -2.306 -0.037999999
8.6020002 -2.2820001 -0.037999999
8.6169996 -2.257 -0.037999999
8.6499996 -2.2379999 -0.037999999
8.6540003 -2.211 -0.037999999
8.6780005 -2.1900001 -0.037999999
8.7010002 -2.168 -0.037999999
8.7220001 -2.1459999 -0.037999999
8.7609997 -2.128 -0.037999999
8.7939997 -2.108 -0.037999999
8.8000002 -2.0829999 -0.037999999
8.8330002 -2.063 -0.037999999
8.8400002 -2.0380001 -0.037999999
8.8809996 -2.02 -0.037999999
8.9530001 -2.0090001 -0.037999999
8.9960003 -1.992 -0.037999999
8.9890003 -1.964 -0.037999999
8.9659996 -1.932 -0.037999999
8.9770002 -1.908 -0.037999999
9.0089998 -1.8890001 -0.037999999
9.0310001 -1.867 -0.037999999
9.0369997 -1.842 -0.037999999
9.0679998 -1.823 -0.037999999
9.0799999 -1.799 -0.037999999
9.1190004 -1.781 -0.037999999
9.1420002 -1.76 -0.037999999
9.1490002 -1.7359999 -0.037999999
9.1709995 -1.714 -0.037999999
9.2069998 -1.6950001 -0.037999999
9.21 -1.671 -0.037999999
9.2349997 -1.65 -0.037999999
9.25 -1.628 -0.037999999
9.2709999 -1.607 -0.037999999
9.2930002 -1.585 -0.037999999
9.3360004 -1.568 -0.039000001
9.3459997 -1.545 -0.037999999
9.3710003 -1.525 -0.039000001
9.4040003 -1.505 -0.039000001
9.4069996 -1.482 -0.039000001
9.4060001 -1.457 -0.037999999
9.4420004 -1.439 -0.039000001
9.4790001 -1.42 -0.039000001
9.4910002 -1.398 -0.039000001
9.5380001 -1.381 -0.039000001
9.5170002 -1.354 -0.039000001
9.559 -1.337 -0.039000001
9.5740004 -1.3150001 -0.039000001
9.6160002 -1.2970001 -0.039000001
9.6309996 -1.276 -0.039000001
9.658 -1.256 -0.039000001
9.6820002 -1.2359999 -0.039000001
9.691 -1.214 -0.039000001
9.7019997 -1.193 -0.039000001
9.7539997 -1.176 -0.039000001
9.7670002 -1.155 -0.039000001
9.7729998 -1.133 -0.039000001
9.802 -1.114 -0.039000001
9.8360004 -1.095 -0.039000001
9.8559999 -1.075 -0.039000001
9.8730001 -1.0549999 -0.039000001
9.8920002 -1.034 -0.039000001
9.9099998 -1.0140001 -0.039000001
9.9540005 -0.99699998 -0.039000001
9.9560003 -0.97500002 -0.039000001
9.9759998 -0.95499998 -0.039000001
9.9940004 -0.935 -0.039000001
10.04 -0.91799998 -0.039000001
10.041 -0.89700001 -0.039000001
10.059 -0.87699997 -0.039000001
10.122 -0.861 -0.039000001
10.12 -0.83899999 -0.039000001
10.148 -0.82099998 -0.039000001
10.187 -0.80299997 -0.039000001
10.164 -0.77999997 -0.039000001
10.226 -0.764 -0.039000001
10.284 -0.74699998 -0.039999999
10.267 -0.72600001 -0.039000001
10.323 -0.70899999 -0.039999999
10.363 -0.69099998 -0.039999999
10.398 -0.67299998 -0.039999999
10.519 -0.66000003 -0.039999999
9.9329996 0.123 -0.15700001
9.9659996 0.141 -0.15800001
9.9949999 0.16 -0.15800001
9.9809999 0.178 -0.15800001
10.007 0.197 -0.15899999
10 0.21600001 -0.15899999
10.012 0.235 -0.15899999
10.002 0.25400001 -0.15899999
10.011 0.27399999 -0.16
10.031 0.294 -0.16
10.025 0.31400001 -0.16
10.039 0.33500001 -0.161
10.036 0.35499999 -0.161
10.059 0.377 -0.161
10.064 0.398 -0.162
10.075 0.419 -0.162
10.071 0.44 -0.162
10.07 0.46200001 -0.162
10.078 0.484 -0.163
10.074 0.50599998 -0.163
10.085 0.528 -0.163
10.075 0.55000001 -0.163
10.071 0.57200003 -0.163
10.087 0.59600002 -0.164
10.113 0.62 -0.16500001
10.112 0.64300001 -0.16500001
10.143 0.66900003 -0.16500001
10.169 0.69400001 -0.16599999
10.173 0.71799999 -0.16599999
10.199 0.74400002 -0.167
10.199 0.76800001 -0.167
10.218 0.79400003 -0.168
10.232 0.81999999 -0.168
10.247 0.84600002 -0.169
10.273 0.87300003 -0.169
10.283 0.89899999 -0.17
10.295 0.926 -0.17
10.287 0.95099998 -0.17
10.317 0.97899997 -0.171
10.33 1.006 -0.17200001
10.345 1.034 -0.17200001
10.361 1.062 -0.17299999
10.394 1.092 -0.17299999
10.412 1.1210001 -0.17399999
10.423 1.15 -0.17399999
10.448 1.1799999 -0.175
10.468 1.21 -0.176
10.498 1.2410001 -0.177
10.503 1.2690001 -0.177
10.503 1.298 -0.177
10.538 1.33 -0.178
10.564 1.362 -0.17900001
10.579 1.393 -0.17900001
10.598 1.424 -0.18000001
10.626 1.4579999 -0.18099999
10.641 1.489 -0.18099999
10.64 1.518 -0.182
10.657 1.551 -0.182
10.687 1.585 -0.183
10.707 1.618 -0.184
10.747 1.655 -0.185
10.748 1.686 -0.185
10.771 1.72 -0.186
10.786 1.753 -0.186
10.808 1.788 -0.18700001
10.829 1.823 -0.18799999
10.867 1.8609999 -0.189
10.881 1.896 -0.189
10.897 1.9299999 -0.19
10.935 1.969 -0.191
10.97 2.0079999 -0.192
11.021 2.05 -0.193
11.032 2.086 -0.19400001
11.053 2.1229999 -0.19400001
11.08 2.161 -0.19499999
11.115 2.2019999 -0.19599999
11.158 2.244 -0.197
11.181 2.283 -0.198
11.211 2.3239999 -0.199
11.241 2.3640001 -0.2
11.266 2.404 -0.20100001
11.3 2.447 -0.20200001
11.305 2.483 -0.20200001
11.341 2.526 -0.20299999
11.368 2.5680001 -0.204
11.39 2.609 -0.205
11.426 2.6530001 -0.206
11.439 2.6919999 -0.206
11.478 2.7379999 -0.208
11.493 2.7780001 -0.208
11.53 2.8239999 -0.20900001
11.583 2.8740001 -0.211
11.603 2.9159999 -0.211
11.608 2.9549999 -0.212
11.632 2.9990001 -0.213
11.648 3.0409999 -0.214
11.683 3.0880001 -0.215
11.694 3.1289999 -0.215
11.705 3.171 -0.21600001
11.74 3.2190001 -0.21699999
11.748 3.26 -0.21799999
11.784 3.309 -0.219
11.835 3.362 -0.22
11.932 3.4300001 -0.222
11.955 3.4760001 -0.223
11.963 3.5179999 -0.22400001
11.995 3.5680001 -0.22499999
12.017 3.615 -0.226
12.024 3.658 -0.226
12.061 3.7090001 -0.228
12.059 3.75 -0.228
12.103 3.8050001 -0.229
12.109 3.848 -0.23
12.142 3.9000001 -0.23100001
12.16 3.947 -0.23199999
12.192 3.9990001 -0.233
12.22 4.0500002 -0.234
9.2200003 3.0869999 -0.177
12.293 4.1170001 -0.236
8.9659996 3.033 -0.17200001
8.8260002 3.017 -0.17
8.7790003 3.0309999 -0.17
8.743 3.049 -0.169
8.7279997 3.0739999 -0.169
8.7200003 3.102 -0.169
8.757 3.1459999 -0.171
12.653 4.5450001 -0.24699999
8.8579998 3.2130001 -0.17299999
12.455 4.5180001 -0.243
12.394 4.539 -0.243
12.388 4.5799999 -0.243
12.401 4.6290002 -0.244
12.412 4.677 -0.245
12.437 4.73 -0.24600001
12.453 4.7800002 -0.24699999
12.489 4.8379998 -0.248
12.521 4.895 -0.249
12.528 4.9429998 -0.25
12.538 4.9910002 -0.25099999
12.576 5.0510001 -0.252
12.564 5.0910001 -0.252
12.59 5.1469998 -0.25299999
12.62 5.204 -0.255
12.633 5.2550001 -0.255
12.63 5.2989998 -0.25600001
12.659 5.3569999 -0.257
12.678 5.4099998 -0.25799999
12.708 5.4689999 -0.259
12.725 5.5229998 -0.25999999
12.729 5.5700002 -0.26100001
12.74 5.6209998 -0.26199999
12.767 5.6789999 -0.26300001
12.764 5.724 -0.264
12.796 5.7849998 -0.26499999
12.795 5.8309999 -0.26499999
12.842 5.8990002 -0.26699999
12.843 5.9460001 -0.26800001
12.88 6.0100002 -0.26899999
12.917 6.0739999 -0.271
12.909 6.118 -0.271
12.951 6.1849999 -0.273
12.985 6.2490001 -0.27399999
13.001 6.3039999 -0.27500001
13.027 6.3639998 -0.27599999
13.058 6.427 -0.27700001
13.063 6.4770002 -0.278
13.083 6.5349998 -0.27900001
12.306 6.1919999 -0.26300001
12.187 6.1760001 -0.26100001
12.266 6.2610002 -0.264
12.241 6.3379998 -0.264
12.157 6.3390002 -0.26300001
12.07 6.3379998 -0.26199999
12.056 6.3740001 -0.26199999
12.242 6.5170002 -0.26699999
12.228 6.599 -0.26800001
12.156 6.605 -0.26699999
12.212 6.6799998 -0.26899999
13.653 7.6170001 -0.303
13.65 7.664 -0.30399999
13.694 7.7389998 -0.30599999
10.609 6.1880002 -0.23999999
10.507 6.1659999 -0.23800001
10.437 6.1620002 -0.237
10.358 6.1529999 -0.236
10.296 6.1529999 -0.235
10.22 6.1440001 -0.234
10.149 6.138 -0.233
10.097 6.1430001 -0.23199999
10.044 6.1459999 -0.23100001
9.9919996 6.1500001 -0.23100001
9.9399996 6.1529999 -0.23
9.9119997 6.171 -0.23
9.9309998 6.217 -0.23100001
10.025 6.3109999 -0.234
9.7250004 6.7189999 -0.237
9.6000004 6.665 -0.235
9.5369997 6.652 -0.234
9.4779997 6.6409998 -0.233
9.4139996 6.6259999 -0.23199999
9.3850002 6.6360002 -0.23199999
9.3470001 6.6389999 -0.23100001
9.3269997 6.6550002 -0.23100001
9.3109999 6.6719999 -0.23199999
9.3120003 6.7020001 -0.23199999
9.3030005 6.7249999 -0.233
9.2969999 6.7490001 -0.233
9.3109999 6.7870002 -0.234
7.1799998 -4.2179999 -0.021
7.1900001 -4.2030001 -0.021
7.204 -4.191 -0.021
7.2010002 -4.1690001 -0.021
7.21 -4.1539998 -0.021
7.23 -4.145 -0.021
7.237 -4.1279998 -0.021
7.243 -4.1110001 -0.021
7.2639999 -4.1030002 -0.021
7.2649999 -4.0830002 -0.021
7.2740002 -4.0669999 -0.021
7.2810001 -4.0500002 -0.021
7.2919998 -4.0359998 -0.021
7.3130002 -4.027 -0.02
7.3169999 -4.0079999 -0.02
7.3249998 -3.9920001 -0.02
7.3260002 -3.971 -0.02
7.336 -3.9560001 -0.02
7.3629999 -3.9489999 -0.02
7.3660002 -3.9300001 -0.02
7.3610001 -3.9059999 -0.02
7.3299999 -3.869 -0.02
7.3099999 -3.8369999 -0.02
7.2989998 -3.8110001 -0.02
7.3319998 -3.8069999 -0.02
7.3920002 -3.8169999 -0.02
7.4169998 -3.8080001 -0.02
7.4349999 -3.796 -0.02
7.4499998 -3.783 -0.02
7.4549999 -3.7639999 -0.02
7.467 -3.7490001 -0.02
7.48 -3.734 -0.02
7.4860001 -3.7149999 -0.02
7.493 -3.697 -0.02
7.506 -3.6819999 -0.02
7.5170002 -3.6659999 -0.018999999
7.5229998 -3.6470001 -0.018999999
7.546 -3.6359999 -0.018999999
7.5669999 -3.625 -0.018999999
7.5760002 -3.6070001 -0.018999999
7.5710001 -3.5829999 -0.018999999
7.5840001 -3.5669999 -0.018999999
7.6020002 -3.5539999 -0.018999999
7.6100001 -3.536 -0.018999999
7.6160002 -3.516 -0.018999999
7.6339998 -3.503 -0.018999999
7.6620002 -3.493 -0.018999999
7.6630001 -3.4719999 -0.018999999
7.6750002 -3.4549999 -0.018999999
7.684 -3.437 -0.018999999
7.6950002 -3.4200001 -0.018999999
7.7069998 -3.4030001 -0.018999999
7.723 -3.388 -0.018999999
7.73 -3.368 -0.018999999
7.7529998 -3.3559999 -0.018999999
7.7610002 -3.3369999 -0.018999999
7.783 -3.3239999 -0.018999999
7.7969999 -3.3069999 -0.018999999
7.7989998 -3.286 -0.018999999
7.809 -3.2679999 -0.018999999
7.823 -3.2509999 -0.017999999
7.835 -3.233 -0.017999999
7.8509998 -3.217 -0.017999999
7.862 -3.1989999 -0.017999999
7.8829999 -3.1849999 -0.017999999
7.882 -3.161 -0.017999999
7.8979998 -3.145 -0.017999999
7.9310002 -3.135 -0.017999999
7.9439998 -3.118 -0.017999999
7.9489999 -3.0969999 -0.017999999
7.967 -3.0799999 -0.017999999
7.994 -3.0680001 -0.017999999
8.0030003 -3.0480001 -0.017999999
8.0220003 -3.0320001 -0.017999999
8.0419998 -3.017 -0.017999999
8.0530005 -2.997 -0.017999999
8.0629997 -2.9779999 -0.017999999
8.0869999 -2.964 -0.017999999
8.1000004 -2.9449999 -0.017999999
8.1160002 -2.927 -0.017999999
8.1239996 -2.9070001 -0.017999999
8.1400003 -2.8889999 -0.017999999
8.1590004 -2.872 -0.017999999
8.1829996 -2.8570001 -0.017999999
8.1929998 -2.8369999 -0.017999999
8.2010002 -2.816 -0.017999999
8.2360001 -2.8039999 -0.017999999
8.2209997 -2.776 -0.017000001
8.2489996 -2.7609999 -0.017000001
8.2919998 -2.7520001 -0.017000001
8.2910004 -2.7279999 -0.017000001
8.3059998 -2.7079999 -0.017000001
8.3190002 -2.6889999 -0.017000001
8.3369999 -2.671 -0.017000001
8.3389997 -2.6470001 -0.017000001
8.3739996 -2.6340001 -0.017000001
8.3929996 -2.6159999 -0.017000001
8.4139996 -2.598 -0.017000001
8.4209995 -2.576 -0.017000001
8.434 -2.556 -0.017000001
8.4619999 -2.54 -0.017000001
8.5089998 -2.53 -0.017000001
8.4969997 -2.5020001 -0.017000001
8.526 -2.4860001 -0.017000001
8.5389996 -2.4649999 -0.017000001
8.5310001 -2.438 -0.017000001
8.5570002 -2.421 -0.017000001
8.5769997 -2.402 -0.017000001
8.5979996 -2.3829999 -0.017000001
8.625 -2.3659999 -0.017000001
8.6230001 -2.3410001 -0.017000001
8.658 -2.325 -0.017000001
8.6709995 -2.3039999 -0.016000001
8.7110004 -2.29 -0.016000001
8.6879997 -2.2590001 -0.016000001
8.7370005 -2.2460001 -0.016000001
