# .PCD v0.7 - Point Cloud Data file format
VERSION 0.7
FIELDS x y z
SIZE 4 4 4
TYPE F F F
COUNT 1 1 1
WIDTH 1841
HEIGHT 1
VIEWPOINT 0 0 0 1 0 0 0
POINTS 1841
DATA ascii
13.504 -4.0710001 0.77200001
13.46 -4.0190001 0.76899999
13.511 -3.9949999 0.77200001
13.504 -3.954 0.77200001
13.512 -3.9159999 0.77200001
13.577 -3.8959999 0.77600002
13.542 -3.846 0.773
13.563 -3.813 0.77499998
13.62 -3.789 0.778
13.679 -3.766 0.78100002
13.773 -3.7520001 0.78600001
13.809 -3.721 0.78799999
13.806 -3.6800001 0.78799999
13.887 -3.6619999 0.792
14.002 -3.651 0.79900002
13.929 -3.5510001 0.79400003
13.955 -3.5179999 0.796
13.941 -3.474 0.79500002
14.046 -3.4590001 0.80000001
14.099 -3.431 0.80299997
14.166 -3.4070001 0.80699998
14.142 -3.3599999 0.80599999
14.185 -3.329 0.80800003
14.165 -3.283 0.80699998
14.179 -3.2449999 0.80699998
14.235 -3.217 0.81
14.404 -3.2130001 0.81999999
14.339 -3.1570001 0.81599998
14.368 -3.122 0.81699997
14.386 -3.0840001 0.81800002
14.486 -3.0639999 0.824
14.54 -3.0339999 0.82700002
14.669 -3.0179999 0.83399999
14.652 -2.888 0.83200002
14.643 -2.8429999 0.83200002
14.706 -2.813 0.83499998
14.786 -2.786 0.83999997
14.741 -2.7349999 0.83700001
14.831 -2.7090001 0.84200001
12.689 -1.988 0.71899998
12.647 -1.9450001 0.71600002
12.652 -1.91 0.71700001
12.714 -1.882 0.72000003
12.784 -1.8559999 0.72399998
12.801 -1.822 0.72500002
12.816 -1.7869999 0.72500002
12.898 -1.761 0.73000002
9.1719999 -1.226 0.51899999
8.9860001 -1.175 0.50800002
8.9350004 -1.143 0.505
8.927 -1.1160001 0.505
8.9420004 -1.092 0.505
8.9770002 -1.071 0.50700003
9.1339998 -1.063 0.51599997
9.3409996 -1.034 0.52700001
9.1040001 -0.98100001 0.514
9.0620003 -0.95099998 0.51099998
9.066 -0.92500001 0.51200002
9.0749998 -0.89999998 0.51200002
9.0979996 -0.87599999 0.51300001
9.2229996 -0.86199999 0.51999998
13.031 -0.20999999 0.73100001
13.09 -0.17299999 0.73400003
12.956 0.236 0.72399998
12.848 0.271 0.71799999
12.825 0.30700001 0.71700001
12.825 0.34400001 0.71700001
12.826 0.38 0.71600002
12.838 0.417 0.71700001
12.836 0.454 0.71700001
12.862 0.49200001 0.71799999
12.869 0.52899998 0.71799999
12.859 0.565 0.71700001
12.866 0.60299999 0.71799999
12.874 0.63999999 0.71799999
12.881 0.67699999 0.71799999
12.884 0.71399999 0.71799999
12.907 0.75300002 0.71899998
12.928 0.79100001 0.72000003
12.931 0.82800001 0.72000003
12.944 0.866 0.72100002
12.933 0.90200001 0.72000003
12.647 0.123 0.62699997
12.647 0.134 0.62599999
12.649 0.146 0.62599999
12.646 0.15800001 0.62599999
12.637 0.17 0.625
12.647 0.183 0.625
12.647 0.19599999 0.625
12.637 0.20900001 0.62400001
12.636 0.223 0.62400001
12.64 0.237 0.62300003
12.646 0.25099999 0.62300003
12.647 0.266 0.62300003
12.647 0.28 0.62300003
12.654 0.296 0.62300003
12.637 0.31099999 0.62199998
12.646 0.32699999 0.62199998
12.644 0.34299999 0.62199998
12.645 0.36000001 0.62199998
12.649 0.37599999 0.62199998
12.645 0.39300001 0.62099999
12.656 0.41100001 0.62199998
12.655 0.42899999 0.62099999
12.651 0.447 0.62099999
12.652 0.465 0.62099999
12.657 0.484 0.62099999
12.661 0.50300002 0.62099999
12.664 0.52200001 0.62099999
12.655 0.54100001 0.62
12.668 0.56099999 0.62099999
12.671 0.58200002 0.62099999
12.67 0.602 0.62099999
12.668 0.62199998 0.62099999
12.679 0.64399999 0.62099999
12.693 0.66600001 0.62199998
12.717 0.68900001 0.62300003
12.783 0.71399999 0.62599999
12.879 0.74199998 0.63
12.901 0.76599997 0.63099998
12.9 0.78899997 0.63099998
12.883 0.81099999 0.63
12.846 0.83200002 0.62900001
12.824 0.85399997 0.62699997
12.785 0.87599999 0.625
12.761 0.898 0.62400001
12.717 0.91900003 0.62199998
12.709 0.94300002 0.62199998
12.707 0.96799999 0.62199998
12.721 0.99400002 0.62199998
12.723 1.02 0.62199998
12.745 1.0470001 0.62300003
12.75 1.073 0.62400001
12.759 1.1 0.62400001
12.783 1.1289999 0.625
12.817 1.159 0.62699997
12.874 1.191 0.63
12.913 1.222 0.63200003
12.948 1.2539999 0.634
12.961 1.283 0.634
12.985 1.314 0.63599998
12.979 1.342 0.63499999
20.639999 2.1340001 1.011
12.982 1.3710001 0.63599998
20.575001 2.1730001 1.008
13.062 1.409 0.63999999
20.594 2.2219999 1.0089999
13.138 1.447 0.64399999
20.521 2.2609999 1.005
20.594999 2.316 1.0089999
20.594 2.3629999 1.0089999
20.606001 2.4130001 1.01
20.695 2.4719999 1.015
13.216 1.609 0.648
20.514 2.4990001 1.006
13.194 1.638 0.64700001
20.858999 2.5899999 1.023
20.690001 2.619 1.015
20.683001 2.668 1.015
20.716999 2.723 1.017
20.681999 2.7690001 1.016
20.686001 2.8210001 1.016
20.673 2.8710001 1.016
20.657 2.921 1.015
20.812 2.9949999 1.023
20.872 3.0569999 1.027
20.829 3.1040001 1.025
20.798 3.1530001 1.024
20.780001 3.204 1.023
20.855 3.2709999 1.027
20.733999 3.306 1.022
20.693001 3.355 1.02
20.664 3.405 1.0190001
20.687 3.4649999 1.021
12.057 2.118 0.59600002
11.825 2.109 0.58399999
11.749 2.1289999 0.58099997
11.71 2.154 0.579
11.705 2.1860001 0.579
11.724 2.223 0.57999998
11.743 2.26 0.58200002
11.724 2.29 0.58099997
11.686 2.316 0.57999998
11.67 2.346 0.579
11.657 2.378 0.579
11.672 2.415 0.57999998
11.68 2.451 0.58099997
11.707 2.4909999 0.58200002
11.783 2.5420001 0.58600003
22.027 4.8189998 1.097
21.905001 4.8579998 1.092
21.865999 4.9159999 1.091
19.67 5.1599998 0.98900002
19.596001 5.204 0.986
19.577999 5.263 0.986
19.555 5.3210001 0.986
19.572001 5.3889999 0.98699999
19.677999 5.4840002 0.99400002
18.096001 5.1630001 0.91500002
17.927 5.1739998 0.90700001
17.766001 5.1869998 0.89999998
17.639999 5.21 0.89399999
17.552999 5.244 0.89099997
17.594 5.316 0.89399999
12.145 3.8789999 0.61900002
12.061 3.895 0.616
12.017 3.9230001 0.61400002
11.946 3.941 0.611
11.925 3.977 0.611
11.968 4.0339999 0.61299998
11.989 4.0840001 0.61500001
12.011 4.1339998 0.61699998
12.045 4.1890001 0.61900002
12.147 4.2690001 0.625
14.995 5.7690001 0.77899998
14.85 5.7690001 0.77200001
10.927 6.9749999 0.61699998
10.851 6.9780002 0.61299998
10.817 7.007 0.61299998
10.804 7.0500002 0.61299998
10.768 7.0770001 0.61199999
10.752 7.118 0.61199999
10.729 7.1539998 0.61199999
10.702 7.1869998 0.611
10.681 7.224 0.611
10.646 7.2519999 0.61000001
10.616 7.283 0.60900003
10.592 7.3179998 0.60900003
10.57 7.3540001 0.60900003
10.553 7.3940001 0.60900003
10.532 7.4299998 0.60900003
10.495 7.4559999 0.60799998
10.47 7.4899998 0.60699999
10.448 7.5250001 0.60699999
10.166 -6.677 0.62
10.208 -6.6409998 0.62300003
10.257 -6.6100001 0.625
10.311 -6.5809999 0.62800002
10.332 -6.5320001 0.62900001
10.403 -6.5139999 0.63200003
10.42 -6.4619999 0.63300002
10.453 -6.421 0.634
10.486 -6.3800001 0.63599998
10.523 -6.3410001 0.63800001
10.553 -6.2979999 0.639
10.579 -6.2540002 0.63999999
10.6 -6.2059999 0.64099997
10.657 -6.1799998 0.64399999
10.667 -6.1259999 0.64399999
10.711 -6.092 0.64600003
10.746 -6.053 0.648
10.779 -6.0139999 0.64899999
10.843 -5.9910002 0.653
10.88 -5.954 0.65499997
10.918 -5.9169998 0.65600002
10.904 -5.8520002 0.65499997
10.936 -5.8130002 0.65700001
10.954 -5.7659998 0.65700001
11.004 -5.7360001 0.66000003
11.045 -5.7010002 0.662
11.076 -5.6609998 0.66299999
11.095 -5.6160002 0.66399997
11.146 -5.586 0.667
11.181 -5.5489998 0.66900003
11.219 -5.513 0.67000002
11.229 -5.4640002 0.671
11.235 -5.4130001 0.671
11.283 -5.3829999 0.67299998
11.352 -5.362 0.67699999
11.361 -5.3130002 0.67699999
11.418 -5.2859998 0.68000001
11.405 -5.2280002 0.67900002
11.435 -5.1890001 0.68000001
11.517 -5.1739998 0.685
11.52 -5.1230001 0.685
11.58 -5.098 0.68800002
11.618 -5.0630002 0.69
11.665 -5.033 0.69199997
11.702 -4.9970002 0.69400001
11.732 -4.9590001 0.69599998
11.785 -4.9310002 0.69800001
11.812 -4.8909998 0.69999999
11.879 -4.869 0.70300001
11.897 -4.8260002 0.704
11.906 -4.7800002 0.704
12.066 -4.7930002 0.713
12.155 -4.7789998 0.71799999
12.195 -4.744 0.72000003
12.212 -4.7010002 0.72100002
12.284 -4.6789999 0.72500002
12.368 -4.6609998 0.73000002
12.4 -4.6240001 0.73100001
12.5 -4.612 0.73699999
12.533 -4.5749998 0.73900002
12.614 -4.5549998 0.74299997
12.677 -4.5289998 0.74599999
12.826 -4.533 0.755
12.822 -4.4819999 0.75400001
12.896 -4.4590001 0.75800002
13.016 -4.4510002 0.76499999
13.153 -4.4000001 0.773
13.267 -4.3889999 0.77899998
13.283 -4.3449998 0.77999997
13.439 -4.3470001 0.78899997
13.566 -4.1459999 0.79500002
13.567 -4.099 0.79500002
13.585 -4.0570002 0.79500002
13.613 -4.0180001 0.79699999
13.639 -3.9790001 0.79799998
13.65 -3.9349999 0.79900002
13.703 -3.904 0.801
13.729 -3.865 0.80299997
13.821 -3.845 0.80800003
13.883 -3.816 0.81099999
13.958 -3.79 0.815
14.116 -3.6949999 0.824
14.16 -3.661 0.82599998
14.118 -3.605 0.824
14.167 -3.572 0.82599998
14.239 -3.546 0.82999998
14.257 -3.5050001 0.83099997
14.323 -3.477 0.83499998
14.739 -3.221 0.85799998
14.731 -3.175 0.85699999
12.808 -2.0539999 0.74299997
12.671 -2 0.73500001
12.647 -1.9630001 0.73299998
12.64 -1.9299999 0.73299998
12.65 -1.9 0.73299998
12.697 -1.875 0.736
12.781 -1.855 0.741
12.821 -1.829 0.74299997
12.804 -1.795 0.74199998
12.808 -1.765 0.74199998
12.84 -1.738 0.74400002
12.93 -1.719 0.74900001
9.2309999 -1.205 0.53399998
9.0019999 -1.153 0.52100003
8.9630003 -1.127 0.51899999
8.934 -1.102 0.51700002
8.9239998 -1.08 0.51599997
8.927 -1.0599999 0.51700002
8.9370003 -1.04 0.51700002
8.9440002 -1.021 0.51700002
8.9949999 -1.006 0.51999998
9.1210003 -0.99900001 0.528
9.184 -0.94499999 0.53100002
9.1129999 -0.917 0.52700001
9.0740004 -0.89399999 0.52499998
9.0670004 -0.87300003 0.52399999
9.0629997 -0.85299999 0.52399999
9.0699997 -0.83399999 0.52499998
9.0790005 -0.81599998 0.52499998
9.118 -0.80000001 0.52700001
9.1780005 -0.78600001 0.53100002
9.4060001 -0.78600001 0.54400003
13.052 -0.40000001 0.75599998
12.932 -0.375 0.74900001
12.877 -0.352 0.74599999
12.847 -0.329 0.74400002
12.83 -0.308 0.74299997
12.818 -0.28600001 0.74199998
12.804 -0.26499999 0.74199998
12.819 -0.245 0.74199998
12.78 -0.22400001 0.74000001
12.751 -0.20299999 0.73900002
12.749 -0.183 0.73900002
12.763 -0.163 0.73900002
12.812 -0.14399999 0.74199998
12.919 -0.125 0.74900001
12.624 0.182 0.65799999
12.647 0.205 0.65899998
12.652 0.228 0.66000003
12.646 0.25099999 0.65899998
12.657 0.27399999 0.65899998
12.664 0.29800001 0.66000003
12.65 0.32100001 0.65899998
12.662 0.345 0.65899998
12.659 0.37 0.65899998
12.667 0.39500001 0.65899998
12.665 0.419 0.65899998
12.674 0.44499999 0.65899998
12.67 0.47 0.65899998
12.676 0.49599999 0.65899998
12.677 0.52200001 0.65899998
12.684 0.54799998 0.65899998
12.678 0.57499999 0.65899998
12.68 0.60100001 0.65899998
12.693 0.62900001 0.65899998
12.71 0.65700001 0.66000003
12.765 0.68699998 0.66299999
12.85 0.72000003 0.667
12.897 0.75099999 0.67000002
12.89 0.77899998 0.66900003
12.861 0.80599999 0.66799998
12.831 0.833 0.66600001
12.797 0.86000001 0.66399997
12.762 0.88700002 0.662
12.716 0.91299999 0.66000003
12.693 0.94099998 0.65899998
12.692 0.97100002 0.65899998
12.696 1.001 0.65899998
12.712 1.033 0.66000003
12.731 1.0650001 0.66100001
12.748 1.097 0.662
12.767 1.13 0.66299999
12.799 1.164 0.66500002
12.836 1.199 0.667
12.922 1.239 0.671
12.959 1.275 0.67299998
12.97 1.308 0.67400002
12.994 1.344 0.67500001
20.663 2.1370001 1.074
12.988 1.376 0.67500001
20.566 2.1789999 1.069
12.994 1.41 0.67500001
20.573999 2.233 1.069
13.07 1.452 0.67900002
20.58 2.2869999 1.0700001
13.143 1.494 0.68300003
20.607 2.3429999 1.071
20.655001 2.4030001 1.074
20.618999 2.4530001 1.072
20.639999 2.51 1.073
20.754999 2.579 1.08
20.837999 2.645 1.084
20.868999 2.7049999 1.086
20.848 2.7579999 1.085
20.837 2.813 1.085
20.907 2.8800001 1.089
20.844999 2.9289999 1.086
20.982 3.006 1.0930001
21.153 3.089 1.102
21.118999 3.1429999 1.101
20.941999 3.175 1.092
20.877001 3.224 1.089
20.993 3.3010001 1.095
21.872 3.7539999 1.143
21.785999 3.802 1.1390001
11.97 2.1240001 0.62599999
11.783 2.125 0.616
11.736 2.151 0.61400002
11.712 2.1819999 0.61299998
11.725 2.2190001 0.61400002
11.721 2.253 0.61400002
11.697 2.2839999 0.61299998
11.673 2.3139999 0.61199999
11.666 2.348 0.61199999
11.659 2.382 0.61199999
11.666 2.4189999 0.61199999
11.677 2.457 0.61299998
11.713 2.5 0.61500001
11.938 2.585 0.62699997
22.443001 4.8610001 1.1799999
22.500999 4.9429998 1.184
19.806999 5.1030002 1.049
19.677999 5.1339998 1.043
19.621 5.1830001 1.04
19.625999 5.2480001 1.041
19.573 5.2969999 1.039
19.632999 5.3779998 1.043
19.747999 5.474 1.049
18.091 5.1339998 0.963
17.919001 5.145 0.954
17.785 5.1659999 0.94800001
17.669001 5.191 0.94199997
17.593 5.2270002 0.93900001
17.643 5.3010001 0.94199997
12.271 3.8940001 0.65700001
12.094 3.8789999 0.648
12.036 3.901 0.64600003
11.995 3.9289999 0.64399999
11.934 3.95 0.64099997
11.931 3.99 0.64200002
11.964 4.0419998 0.64399999
11.969 4.085 0.64499998
11.996 4.1360002 0.64700001
12.039 4.1919999 0.64899999
12.122 4.263 0.65399998
11.093 -6.5910001 0.69300002
11.07 -6.5450001 0.69199997
11.107 -6.5349998 0.69400001
11.136 -6.52 0.69599998
11.216 -6.5339999 0.70099998
11.177 -6.4790001 0.69800001
11.182 -6.4499998 0.69800001
11.14 -6.3930001 0.69599998
11.205 -6.3649998 0.69999999
11.285 -6.3779998 0.704
11.22 -6.309 0.69999999
11.228 -6.2810001 0.70099998
11.224 -6.2449999 0.69999999
11.243 -6.224 0.70200002
11.252 -6.1960001 0.70200002
11.271 -6.1729999 0.70300001
11.282 -6.1469998 0.704
11.296 -6.1209998 0.70499998
11.344 -6.1139998 0.708
11.423 -6.1230001 0.71200001
11.579 -6.1059999 0.722
11.433 -5.9949999 0.713
11.497 -5.9949999 0.71700001
11.45 -5.9369998 0.71399999
11.467 -5.9120002 0.71499997
11.473 -5.882 0.71499997
11.478 -5.8509998 0.71499997
11.528 -5.8429999 0.71799999
11.535 -5.8119998 0.71799999
11.58 -5.8010001 0.72100002
11.604 -5.7789998 0.72299999
11.641 -5.763 0.72500002
11.653 -5.7350001 0.72500002
11.618 -5.684 0.72299999
11.653 -5.6669998 0.72500002
11.653 -5.632 0.72500002
11.695 -5.619 0.72799999
11.721 -5.5970001 0.72899997
11.726 -5.5640001 0.72899997
11.763 -5.5479999 0.73199999
11.76 -5.5120001 0.73100001
11.825 -5.507 0.73500001
11.833 -5.4759998 0.736
11.879 -5.4619999 0.73799998
11.892 -5.434 0.73900002
11.92 -5.4109998 0.741
11.949 -5.3899999 0.74299997
11.994 -5.375 0.745
12.033 -5.3569999 0.74800003
12.059 -5.3330002 0.74900001
12.088 -5.3099999 0.75099999
12.148 -5.3010001 0.75400001
12.178 -5.2779999 0.75599998
12.16 -5.2350001 0.755
12.233 -5.23 0.759
12.29 -5.2189999 0.76300001
12.296 -5.1849999 0.76300001
12.322 -5.1599998 0.76499999
12.333 -5.1279998 0.76499999
12.398 -5.119 0.76899999
12.386 -5.0770001 0.76800001
12.443 -5.0640001 0.77200001
12.472 -5.04 0.773
12.505 -5.0159998 0.77499998
12.656 -5.04 0.78399998
12.602 -4.9809999 0.78100002
12.718 -4.9889998 0.78799999
12.876 -5.013 0.79799998
12.968 -4.973 0.80299997
12.897 -4.908 0.79900002
12.924 -4.881 0.80000001
12.951 -4.8530002 0.80199999
12.976 -4.8239999 0.80299997
13.049 -4.8130002 0.80800003
13.058 -4.7779999 0.80800003
13.112 -4.7589998 0.81099999
13.211 -4.757 0.81699997
13.201 -4.7150002 0.81599998
13.347 -4.6880002 0.82499999
13.464 -4.6900001 0.83200002
13.517 -4.6300001 0.83499998
13.489 -4.5799999 0.833
13.487 -4.54 0.833
13.47 -4.4949999 0.83200002
13.59 -4.4959998 0.83899999
13.573 -4.4499998 0.838
13.614 -4.4239998 0.83999997
13.637 -4.3920002 0.84200001
13.673 -4.3629999 0.84399998
13.686 -4.3270001 0.84500003
13.787 -4.158 0.85000002
13.781 -4.1160002 0.84899998
13.81 -4.085 0.85100001
13.85 -4.0560002 0.85399997
13.947 -4.0440001 0.85900003
13.984 -4.0139999 0.861
14.017 -3.9820001 0.86299998
14.016 -3.941 0.86299998
14.087 -3.9200001 0.86699998
14.075 -3.8759999 0.866
14.236 -3.8789999 0.87599999
14.203 -3.829 0.87400001
14.286 -3.809 0.87900001
14.466 -3.5209999 0.889
14.438 -3.473 0.88700002
14.523 -3.451 0.89200002
14.639 -3.3510001 0.89899999
14.702 -3.323 0.90200001
12.818 -2.0450001 0.78299999
12.666 -1.984 0.77399999
12.636 -1.943 0.77200001
12.649 -1.909 0.77200001
12.7 -1.88 0.77499998
12.819 -1.8609999 0.78200001
12.807 -1.822 0.78100002
12.801 -1.784 0.78100002
12.858 -1.755 0.78399998
9.0030003 -1.177 0.54900002
8.9379997 -1.143 0.54500002
8.927 -1.1160001 0.54400003
8.9280005 -1.09 0.54400003
8.9300003 -1.0650001 0.54400003
8.9919996 -1.046 0.54699999
9.2220001 -1.02 0.56099999
9.0909996 -0.97899997 0.55299997
9.0690002 -0.95099998 0.55199999
9.0550003 -0.92299998 0.551
9.0649996 -0.898 0.551
9.0979996 -0.87599999 0.55299997
9.2040005 -0.85900003 0.55900002
12.944 -0.50300002 0.78299999
12.848 -0.463 0.77700001
12.774 -0.42300001 0.773
12.715 -0.38499999 0.76899999
12.699 -0.34799999 0.76800001
12.695 -0.31200001 0.76700002
12.682 -0.27500001 0.76700002
12.668 -0.23800001 0.76499999
12.677 -0.20200001 0.76599997
12.692 -0.16599999 0.76700002
12.721 -0.13 0.76800001
12.793 -0.093999997 0.77200001
12.719 0.126 0.69
12.715 0.138 0.69
12.733 0.15000001 0.69
12.724 0.161 0.68900001
12.733 0.17399999 0.69
12.741 0.18700001 0.69
12.73 0.2 0.68900001
12.732 0.213 0.68900001
12.733 0.227 0.68800002
12.73 0.241 0.68800002
12.743 0.255 0.68800002
12.743 0.27000001 0.68800002
12.744 0.285 0.68800002
12.743 0.30000001 0.68800002
12.751 0.31600001 0.68800002
12.748 0.33199999 0.68699998
12.741 0.34799999 0.68699998
12.742 0.36500001 0.68599999
12.75 0.382 0.68699998
12.75 0.39899999 0.68599999
12.764 0.417 0.68699998
12.766 0.435 0.68699998
12.781 0.45300001 0.68800002
12.785 0.472 0.68800002
12.779 0.49000001 0.68699998
12.784 0.50999999 0.68699998
12.796 0.52899998 0.68800002
12.804 0.54900002 0.68800002
12.817 0.56999999 0.68900001
12.814 0.58999997 0.68800002
12.815 0.611 0.68800002
12.823 0.63200003 0.68900001
12.867 0.65499997 0.69099998
12.896 0.67799997 0.69199997
12.905 0.69999999 0.69300002
12.913 0.72299999 0.69300002
12.914 0.74599999 0.69300002
12.909 0.76800001 0.69300002
12.888 0.79000002 0.69099998
12.867 0.81199998 0.69
12.842 0.833 0.68900001
12.811 0.85500002 0.68699998
12.773 0.87599999 0.685
12.728 0.89700001 0.68300003
12.71 0.92000002 0.68199998
12.7 0.94400001 0.68099999
12.71 0.97000003 0.68199998
12.722 0.99599999 0.68199998
12.747 1.023 0.68400002
12.751 1.049 0.68400002
12.78 1.077 0.68599999
12.797 1.105 0.68699998
12.834 1.135 0.68900001
12.883 1.166 0.69099998
12.896 1.194 0.69199997
20.875 1.934 1.1210001
12.92 1.224 0.69400001
20.858 1.977 1.12
12.941 1.2539999 0.69499999
20.896999 2.0250001 1.122
12.943 1.2819999 0.69499999
20.875999 2.069 1.1210001
12.981 1.3150001 0.69700003
20.934999 2.1199999 1.125
12.97 1.342 0.69700003
12.99 1.373 0.69800001
21.312 2.253 1.145
13.005 1.404 0.699
21.216 2.2909999 1.14
13.049 1.438 0.70099998
21.177999 2.335 1.138
13.176 1.483 0.708
21.104 2.375 1.135
21.051001 2.4170001 1.132
21.608999 2.5320001 1.1619999
21.641001 2.586 1.164
21.704 2.645 1.168
21.716999 2.698 1.169
21.907 2.7750001 1.1799999
21.868999 2.823 1.178
21.853001 2.8740001 1.177
21.843 2.9260001 1.177
21.827 2.9779999 1.177
21.846001 3.0350001 1.178
21.746 3.076 1.173
21.652 3.1170001 1.169
21.672001 3.175 1.17
22.179001 3.3069999 1.198
22.174 3.3629999 1.198
22.233 3.4300001 1.202
22.254999 3.4920001 1.2029999
22.266001 3.552 1.205
22.281 3.6129999 1.206
22.275 3.6719999 1.206
22.254999 3.7279999 1.206
22.209999 3.7809999 1.204
22.167999 3.8340001 1.202
22.246 3.9089999 1.207
11.86 2.1159999 0.64300001
11.769 2.1329999 0.639
11.717 2.1559999 0.63599998
11.726 2.1900001 0.63700002
11.717 2.2219999 0.63700002
11.716 2.2550001 0.63700002
11.681 2.2820001 0.63599998
11.668 2.313 0.63499999
11.664 2.346 0.63599998
11.649 2.3759999 0.63499999
11.645 2.4100001 0.63499999
11.647 2.444 0.63599998
11.681 2.4860001 0.63800001
11.767 2.539 0.64300001
19.625999 5.2119999 1.085
19.625 5.276 1.086
19.573999 5.3260002 1.084
19.631001 5.4060001 1.0880001
18.393 5.2480001 1.022
17.976 5.1890001 1
17.843 5.21 0.99299997
17.733999 5.2379999 0.98799998
17.660999 5.276 0.98500001
17.753 5.3639998 0.991
12.374 3.9519999 0.69400001
12.107 3.9089999 0.68000001
12.01 3.9200001 0.67500001
11.954 3.944 0.67199999
11.925 3.977 0.671
11.925 4.0190001 0.67199999
11.947 4.0689998 0.67400002
11.973 4.1209998 0.676
12.006 4.1760001 0.67900002
12.076 4.244 0.68300003
11.334 6.5079999 0.68900001
11.28 6.5279999 0.68699998
11.283 6.5809999 0.68800002
10.516 -6.9060001 0.69099998
10.536 -6.8530002 0.69199997
10.575 -6.8130002 0.69400001
10.64 -6.79 0.69700003
10.678 -6.7490001 0.699
10.719 -6.71 0.70099998
10.776 -6.6820002 0.70499998
10.8 -6.6329999 0.70499998
10.838 -6.5929999 0.70700002
10.878 -6.5539999 0.70899999
10.895 -6.5009999 0.70999998
10.939 -6.4650002 0.71200001
10.962 -6.4169998 0.713
11 -6.3769999 0.71499997
11.021 -6.3280001 0.71600002
11.066 -6.2930002 0.71899998
11.102 -6.2529998 0.72000003
11.15 -6.2199998 0.72299999
11.228 -6.2030001 0.72799999
11.265 -6.1630001 0.72899997
11.281 -6.1129999 0.73000002
11.292 -6.0599999 0.73000002
11.328 -6.02 0.73199999
11.344 -5.9699998 0.73299998
11.362 -5.921 0.73299998
11.407 -5.8870001 0.736
11.415 -5.8340001 0.736
11.473 -5.8060002 0.73900002
11.493 -5.7589998 0.74000001
11.563 -5.7379999 0.74400002
11.566 -5.6830001 0.74400002
11.613 -5.6500001 0.74599999
11.638 -5.6059999 0.74800003
11.696 -5.579 0.75099999
11.727 -5.5380001 0.75199997
11.784 -5.5100002 0.75599998
11.832 -5.4770002 0.75800002
11.877 -5.4429998 0.76099998
11.927 -5.4120002 0.764
11.964 -5.3740001 0.76599997
12.016 -5.3429999 0.76800001
12.084 -5.3189998 0.77200001
12.114 -5.2789998 0.77399999
12.197 -5.2610002 0.77899998
12.214 -5.2150002 0.77999997
12.291 -5.1950002 0.78399998
12.357 -5.1690001 0.78799999
12.384 -5.1269999 0.78899997
12.415 -5.0879998 0.79100001
12.478 -5.0609999 0.79400003
12.515 -5.0229998 0.796
12.584 -4.9990001 0.801
12.708 -4.9949999 0.80800003
12.88 -5.0100002 0.81900001
12.852 -4.947 0.81599998
13.01 -4.9029999 0.82599998
13.046 -4.8649998 0.82800001
13.032 -4.8080001 0.82700002
13.17 -4.8070002 0.83499998
13.316 -4.8080001 0.84399998
13.342 -4.7659998 0.84500003
13.335 -4.7119999 0.84399998
13.574 -4.7449999 0.85900003
13.612 -4.7059999 0.861
13.606 -4.6529999 0.861
13.667 -4.6220002 0.86400002
13.645 -4.5640001 0.86199999
13.642 -4.513 0.86199999
13.715 -4.487 0.866
13.767 -4.4530001 0.86900002
13.788 -4.4099998 0.87
13.787 -4.3600001 0.87
13.867 -4.336 0.875
13.929 -4.2080002 0.87800002
13.971 -4.1719999 0.88
14.042 -4.1440001 0.884
14.086 -4.1090002 0.88700002
14.489 -4.0310001 0.91100001
14.347 -3.9430001 0.90200001
14.409 -3.9130001 0.90499997
12.741 -2.0769999 0.79400003
12.662 -2.0309999 0.78899997
12.636 -1.994 0.78799999
12.634 -1.962 0.787
12.639 -1.9299999 0.78799999
12.677 -1.904 0.79000002
12.802 -1.891 0.79799998
12.864 -1.868 0.801
12.818 -1.829 0.79799998
12.799 -1.795 0.79699999
12.805 -1.7640001 0.79699999
12.851 -1.739 0.80000001
12.992 -1.727 0.80900002
9.0889997 -1.186 0.56599998
8.9759998 -1.15 0.55900002
8.934 -1.124 0.55599999
8.9200001 -1.101 0.55500001
8.9119997 -1.079 0.55500001
8.9099998 -1.058 0.55400002
8.9139996 -1.038 0.55500001
8.9200001 -1.018 0.55500001
8.9659996 -1.003 0.55800003
9.0500002 -0.99199998 0.56300002
9.1829996 -0.986 0.57099998
9.1549997 -0.96200001 0.56900001
9.1000004 -0.93599999 0.56599998
9.0690002 -0.91299999 0.56400001
9.0539999 -0.89200002 0.56300002
9.059 -0.87199998 0.56300002
9.0699997 -0.85399997 0.56400001
9.0620003 -0.83399999 0.56300002
9.0810003 -0.81599998 0.565
9.1070004 -0.79900002 0.56599998
9.1829996 -0.787 0.57099998
12.968 -0.41999999 0.80699998
12.849 -0.39399999 0.79900002
12.75 -0.37 0.79299998
12.69 -0.347 0.79000002
12.658 -0.32499999 0.78799999
12.649 -0.303 0.787
12.651 -0.28299999 0.787
12.635 -0.26199999 0.78600001
12.64 -0.241 0.787
12.631 -0.221 0.78600001
12.622 -0.20100001 0.78600001
12.634 -0.18099999 0.787
12.646 -0.161 0.787
12.661 -0.142 0.78899997
12.676 -0.123 0.79000002
12.719 -0.104 0.792
12.824 -0.085000001 0.79900002
12.713 0.185 0.72299999
12.721 0.208 0.72299999
12.743 0.23100001 0.72399998
12.735 0.25400001 0.72399998
12.738 0.278 0.72399998
12.746 0.301 0.72399998
12.741 0.32499999 0.72399998
12.766 0.34999999 0.72500002
12.763 0.37400001 0.72500002
12.784 0.40000001 0.72600001
12.792 0.42500001 0.72600001
12.778 0.44999999 0.72500002
12.802 0.477 0.72600001
12.812 0.50300002 0.727
12.821 0.52899998 0.727
12.825 0.55599999 0.727
12.834 0.583 0.72799999
12.84 0.61000001 0.72799999
12.87 0.639 0.72899997
12.895 0.66799998 0.73100001
12.911 0.69700003 0.73199999
12.913 0.72500002 0.73199999
12.902 0.75300002 0.73100001
12.898 0.78100002 0.73100001
12.871 0.80800003 0.72899997
12.847 0.83600003 0.72799999
12.82 0.86299998 0.72600001
12.789 0.88999999 0.72399998
12.738 0.91600001 0.722
12.712 0.94400001 0.72000003
12.71 0.97299999 0.72000003
12.721 1.0039999 0.72100002
12.732 1.035 0.72100002
12.75 1.067 0.722
12.769 1.1 0.72299999
12.811 1.135 0.72600001
12.839 1.168 0.72799999
12.893 1.205 0.73100001
12.889 1.237 0.73100001
12.913 1.271 0.73199999
20.943001 2.062 1.187
12.935 1.306 0.73299998
21.382 2.1589999 1.212
12.938 1.339 0.73400003
21.341 2.2090001 1.21
12.96 1.374 0.73500001
21.375999 2.267 1.2130001
12.983 1.41 0.736
12.984 1.443 0.73699999
21.407 2.3800001 1.215
12.989 1.478 0.73699999
21.367001 2.431 1.2130001
13.104 1.525 0.74400002
21.509001 2.503 1.221
21.614 2.572 1.227
21.6 2.628 1.226
21.607 2.6860001 1.227
21.754 2.7620001 1.2359999
21.858999 2.8340001 1.242
21.864 2.8940001 1.243
21.853001 2.9519999 1.242
21.837 3.0090001 1.242
21.82 3.0669999 1.2410001
21.841 3.1300001 1.243
21.791 3.1830001 1.24
22.021999 3.2780001 1.2539999
22.118 3.355 1.26
22.158001 3.4230001 1.262
22.218 3.4949999 1.266
22.284 3.569 1.27
22.349001 3.6429999 1.274
22.358999 3.7090001 1.275
22.339001 3.77 1.275
22.309999 3.8299999 1.274
22.264999 3.8870001 1.271
12.094 2.1459999 0.69099998
22.298 3.9579999 1.274
11.828 2.1340001 0.676
11.745 2.1530001 0.671
11.739 2.187 0.671
11.729 2.22 0.671
11.702 2.25 0.67000002
11.687 2.2820001 0.66900003
11.664 2.313 0.66799998
11.648 2.345 0.667
11.632 2.3770001 0.667
11.633 2.4119999 0.667
11.662 2.454 0.66900003
11.721 2.503 0.67299998
11.893 2.576 0.68300003
19.649 5.1900001 1.1390001
19.635 5.25 1.1390001
19.582001 5.3000002 1.136
19.743999 5.4089999 1.147
18.111 5.1999998 1.0549999
18.035999 5.2389998 1.051
18.079 5.3109999 1.054
17.677 5.4899998 1.035
17.476999 5.487 1.024
17.414 5.526 1.021
12.162 3.901 0.713
17.565001 5.6339998 1.03
12.047 3.905 0.70700002
11.986 3.9260001 0.704
11.941 3.9519999 0.70200002
11.902 3.98 0.69999999
11.933 4.0320001 0.70300001
11.945 4.0770001 0.704
11.986 4.1329999 0.70700002
12.03 4.1890001 0.70999998
12.11 4.2589998 0.71499997
11.179 6.553 0.708
11.12 6.5580001 0.70499998
11.067 6.5669999 0.70300001
11.052 6.598 0.70300001
11.037 6.6279998 0.70300001
11.004 6.6479998 0.70200002
10.969 6.6659999 0.69999999
10.959 6.6989999 0.69999999
10.953 6.7340002 0.70099998
10.956 6.7750001 0.70200002
10.989 6.835 0.70499998
11.993 -6.2579999 0.80199999
11.998 -6.2249999 0.80299997
11.992 -6.1869998 0.80199999
12.039 -6.1760001 0.80500001
12.034 -6.138 0.80500001
12.072 -6.1230001 0.80699998
12.097 -6.0999999 0.80900002
12.161 -6.0960002 0.81300002
12.185 -6.072 0.81400001
12.143 -6.0159998 0.81099999
12.184 -6 0.81400001
12.187 -5.9660001 0.81400001
12.245 -5.9580002 0.81800002
12.246 -5.9229999 0.81800002
12.216 -5.8720002 0.81599998
12.284 -5.869 0.81999999
12.325 -5.8520002 0.82300001
12.379 -5.842 0.82599998
12.378 -5.8049998 0.82599998
12.358 -5.7589998 0.82499999
12.389 -5.737 0.82700002
12.459 -5.7329998 0.83099997
12.438 -5.6869998 0.82999998
12.471 -5.665 0.83200002
12.516 -5.6490002 0.83499998
12.557 -5.6300001 0.83700001
12.577 -5.6020002 0.838
12.596 -5.573 0.83999997
12.637 -5.5539999 0.84200001
12.682 -5.5370002 0.84500003
12.674 -5.4959998 0.84399998
12.851 -5.5349998 0.85600001
12.859 -5.5009999 0.85699999
12.776 -5.428 0.85100001
12.88 -5.434 0.85799998
12.904 -5.4060001 0.85900003
12.96 -5.3920002 0.86299998
12.996 -5.368 0.86500001
12.969 -5.3189998 0.86299998
13.091 -5.3309999 0.87099999
13.013 -5.2610002 0.866
13.69 -5.092 0.90899998
13.648 -5.0370002 0.90600002
13.64 -4.993 0.90600002
13.716 -4.9809999 0.91000003
13.663 -4.9219999 0.90700001
13.664 -4.882 0.90700001
13.667 -4.8429999 0.90700001
13.703 -4.816 0.90899998
13.729 -4.7849998 0.91000003
13.744 -4.75 0.91100001
13.8 -4.7280002 0.91500002
13.824 -4.6960001 0.91600001
13.886 -4.677 0.92000002
13.964 -4.6620002 0.92500001
13.97 -4.6230001 0.926
14.078 -4.5349998 0.93199998
13.992 -4.467 0.926
13.974 -4.4200001 0.92500001
14.017 -4.3930001 0.92799997
14.053 -4.3629999 0.93000001
14.069 -4.3270001 0.93099999
14.194 -4.3239999 0.93900001
14.179 -4.237 0.93800002
14.163 -4.1900001 0.93599999
14.352 -4.204 0.949
14.551 -4.0079999 0.96100003
14.595 -3.9779999 0.963
14.606 -3.938 0.96399999
12.707 -2.027 0.83200002
12.642 -1.98 0.82800001
12.612 -1.939 0.82599998
12.652 -1.909 0.82800001
12.741 -1.885 0.83399999
12.848 -1.864 0.84100002
12.821 -1.823 0.83899999
12.807 -1.784 0.83700001
12.859 -1.755 0.84100002
8.9750004 -1.173 0.58600003
8.927 -1.141 0.583
8.9090004 -1.113 0.58200002
8.9040003 -1.087 0.58099997
8.915 -1.062 0.58200002
8.9549999 -1.041 0.58399999
9.1190004 -1.034 0.59500003
9.1090002 -1.007 0.59399998
9.0559998 -0.97500002 0.59100002
9.0500002 -0.94800001 0.58999997
9.0459995 -0.92199999 0.58999997
9.0570002 -0.89700001 0.58999997
9.1140003 -0.87599999 0.59399998
9.3059998 -0.86799997 0.60600001
12.967 -0.54000002 0.84100002
12.837 -0.49700001 0.833
12.706 -0.456 0.824
12.665 -0.41800001 0.82099998
12.648 -0.38100001 0.81999999
12.638 -0.345 0.81900001
12.627 -0.308 0.81800002
12.628 -0.27200001 0.81800002
12.637 -0.236 0.81800002
12.647 -0.2 0.81900001
12.665 -0.164 0.81999999
12.702 -0.12800001 0.82200003
12.801 -0.092 0.82800001
13.004 0.132 0.76700002
13.01 0.14399999 0.76700002
13.007 0.156 0.76700002
13.013 0.168 0.76599997
12.992 0.18000001 0.76499999
13.006 0.193 0.76499999
12.987 0.206 0.764
12.996 0.22 0.764
13.003 0.234 0.764
12.99 0.248 0.76300001
12.987 0.26300001 0.76300001
12.959 0.27700001 0.76099998
12.962 0.292 0.76099998
12.946 0.30700001 0.759
12.958 0.32300001 0.75999999
12.948 0.33899999 0.759
12.945 0.35600001 0.759
12.954 0.373 0.759
12.929 0.389 0.75700003
12.928 0.40700001 0.75700003
12.948 0.42500001 0.75800002
12.955 0.44299999 0.75800002
12.954 0.461 0.75800002
12.978 0.48100001 0.759
12.989 0.5 0.759
12.992 0.51999998 0.759
12.978 0.53899997 0.759
12.946 0.55699998 0.75700003
12.967 0.57800001 0.75800002
12.987 0.60000002 0.759
12.99 0.62099999 0.759
13.01 0.64300001 0.75999999
12.997 0.66399997 0.759
13.004 0.68599999 0.759
12.968 0.70599997 0.75700003
12.976 0.72799999 0.75700003
12.943 0.74900001 0.755
12.958 0.773 0.75599998
12.949 0.79500002 0.75599998
12.94 0.81800002 0.755
12.905 0.83899999 0.75300002
12.885 0.86199999 0.75199997
12.868 0.884 0.75099999
12.847 0.90700001 0.75
12.862 0.93300003 0.75099999
12.864 0.958 0.75099999
12.871 0.98299998 0.75099999
12.874 1.0089999 0.75099999
12.879 1.035 0.75199997
12.888 1.061 0.75199997
12.887 1.0880001 0.75199997
12.898 1.115 0.75300002
12.933 1.145 0.755
12.916 1.17 0.75400001
12.907 1.197 0.75400001
12.931 1.227 0.755
12.957 1.257 0.75700003
12.981 1.2869999 0.75800002
22.132 2.1949999 1.294
12.99 1.317 0.759
21.973 2.227 1.285
12.974 1.344 0.75800002
21.878 2.266 1.279
13.005 1.376 0.75999999
21.865 2.3139999 1.279
13.061 1.411 0.764
21.879999 2.3640001 1.28
13.123 1.448 0.76800001
22.032 2.431 1.289
22.040001 2.4820001 1.29
22.027 2.5309999 1.289
22.101 2.5910001 1.294
22.209999 2.6559999 1.301
22.184 2.7049999 1.3
22.169001 2.756 1.299
22.134001 2.8050001 1.2970001
22.135 2.859 1.298
22.122999 2.911 1.298
22.065001 2.9579999 1.295
22.007999 3.0039999 1.2920001
22.070999 3.0680001 1.296
22.142 3.1329999 1.301
22.209999 3.1989999 1.3049999
22.229 3.2579999 1.307
22.221001 3.3139999 1.307
22.245001 3.375 1.309
22.323 3.4449999 1.314
22.382 3.513 1.318
22.443001 3.5810001 1.322
22.618 3.6689999 1.3329999
22.690001 3.7420001 1.3380001
22.698999 3.8039999 1.339
22.660999 3.859 1.337
22.455999 3.885 1.326
22.416 3.9400001 1.324
12.005 2.1429999 0.70899999
22.530001 4.0219998 1.332
11.817 2.142 0.699
11.766 2.165 0.69599998
11.771 2.2 0.69700003
11.737 2.2260001 0.69499999
11.703 2.253 0.69300002
11.674 2.2809999 0.69199997
11.661 2.312 0.69199997
11.653 2.3440001 0.69199997
11.631 2.3729999 0.69099998
11.639 2.4089999 0.69199997
11.646 2.4449999 0.69300002
11.66 2.4820001 0.69400001
11.739 2.5339999 0.699
11.999 2.6259999 0.71499997
17.471001 5.52 1.067
17.398001 5.5570002 1.064
12.193 3.937 0.74599999
17.606001 5.6849999 1.0779999
12.055 3.9349999 0.73900002
11.987 3.9549999 0.73500001
11.929 3.9779999 0.73199999
11.891 4.0079999 0.73100001
11.921 4.0609999 0.73299998
11.958 4.1160002 0.736
12.003 4.1750002 0.74000001
12.074 4.243 0.745
12.357 4.388 0.76300001
11.333 6.256 0.74699998
11.275 6.2740002 0.74400002
11.221 6.2940001 0.74199998
11.203 6.3330002 0.74199998
11.174 6.3670001 0.741
11.158 6.408 0.741
11.152 6.454 0.74199998
11.161 6.5100002 0.74400002
10.909 -7.1620002 0.76800001
10.977 -7.1389999 0.77200001
11.031 -7.105 0.77499998
11.059 -7.0560002 0.77600002
11.128 -7.0320001 0.77999997
11.147 -6.9770002 0.78100002
11.195 -6.9400001 0.78399998
11.235 -6.8990002 0.78600001
11.28 -6.8600001 0.78799999
11.303 -6.809 0.78899997
11.347 -6.77 0.792
11.388 -6.7290001 0.79400003
11.429 -6.6890001 0.796
11.459 -6.6420002 0.79799998
11.497 -6.6009998 0.80000001
11.549 -6.5669999 0.80299997
11.623 -6.5450001 0.80800003
11.704 -6.5279999 0.81300002
11.717 -6.4720001 0.81300002
11.791 -6.4499998 0.81800002
11.775 -6.3790002 0.81599998
11.804 -6.3330002 0.81699997
11.856 -6.2989998 0.81999999
11.861 -6.2410002 0.81999999
11.908 -6.2049999 0.82300001
11.944 -6.1630001 0.82499999
11.983 -6.1230001 0.82700002
12.021 -6.0830002 0.829
12.08 -6.053 0.833
12.076 -5.9920001 0.83200002
12.135 -5.9619999 0.83600003
12.188 -5.9289999 0.83899999
12.215 -5.8839998 0.83999997
12.225 -5.8299999 0.83999997
12.298 -5.8070002 0.84500003
12.321 -5.7600002 0.84600002
12.356 -5.7189999 0.84799999
12.413 -5.6880002 0.85100001
12.473 -5.6589999 0.85500002
12.522 -5.6240001 0.85799998
12.54 -5.5760002 0.85900003
12.559 -5.5279999 0.85900003
12.641 -5.5079999 0.86500001
12.704 -5.4790001 0.86799997
12.751 -5.4439998 0.87099999
12.864 -5.4359999 0.87900001
12.812 -5.3590002 0.875
12.934 -5.355 0.88200003
13.089 -5.3080001 0.89200002
13.3 -5.3379998 0.90600002
13.757 -5.1290002 0.93400002
13.757 -5.0749998 0.93400002
13.7 -5 0.93000001
13.745 -4.9629998 0.93199998
13.73 -4.9039998 0.93099999
13.784 -4.8699999 0.93400002
13.743 -4.803 0.93099999
13.771 -4.7610002 0.93300003
13.835 -4.7309999 0.93699998
13.886 -4.6960001 0.94
13.984 -4.677 0.94599998
14.022 -4.638 0.94800001
14.521 -4.336 0.97899997
14.521 -4.2859998 0.97899997
14.555 -4.2459998 0.98100001
14.686 -4.2340002 0.98900002
12.735 -2.109 0.85000002
12.655 -2.063 0.84399998
12.618 -2.0239999 0.84200001
12.62 -1.992 0.84200001
12.63 -1.961 0.84200001
12.677 -1.936 0.84500003
12.806 -1.923 0.85399997
12.876 -1.902 0.85799998
12.836 -1.864 0.85600001
12.813 -1.829 0.85399997
12.804 -1.796 0.85299999
12.826 -1.767 0.85500002
12.911 -1.748 0.86000001
8.9910002 -1.174 0.59899998
8.9329996 -1.145 0.59500003
8.9230003 -1.122 0.59399998
8.8950005 -1.098 0.59200001
8.8920002 -1.077 0.59200001
8.8920002 -1.056 0.59200001
8.8970003 -1.036 0.59200001
8.9090004 -1.017 0.59299999
8.9549999 -1.002 0.59600002
9.0089998 -0.98699999 0.59899998
9.0719995 -0.97399998 0.60399997
9.0839996 -0.95499998 0.60399997
9.0649996 -0.93300003 0.60299999
9.0459995 -0.91100001 0.602
9.0550003 -0.89200002 0.602
9.059 -0.87300003 0.60299999
9.066 -0.85399997 0.60299999
9.066 -0.83399999 0.60299999
9.1000004 -0.81800002 0.60500002
9.1560001 -0.80400002 0.60900003
9.2880001 -0.796 0.61799997
13.001 -0.421 0.86500001
12.974 -0.398 0.86299998
12.857 -0.373 0.85600001
12.759 -0.34799999 0.84899998
12.708 -0.32600001 0.84600002
12.689 -0.30399999 0.84500003
12.688 -0.28400001 0.84500003
12.681 -0.26300001 0.84399998
12.692 -0.242 0.84500003
12.689 -0.222 0.84500003
12.706 -0.20200001 0.84600002
12.718 -0.182 0.847
12.744 -0.163 0.84899998
12.793 -0.14300001 0.852
12.826 -0.124 0.85399997
12.882 -0.105 0.85799998
12.862 0.19 0.792
12.876 0.212 0.79299998
12.883 0.236 0.79299998
12.891 0.259 0.79299998
12.899 0.28299999 0.79400003
12.916 0.30700001 0.79500002
12.944 0.33199999 0.796
12.939 0.35699999 0.796
12.927 0.38100001 0.79500002
12.944 0.40700001 0.796
12.98 0.433 0.79799998
12.961 0.458 0.796
12.999 0.486 0.79900002
12.989 0.51099998 0.79799998
13.004 0.53799999 0.79900002
13.015 0.56599998 0.79900002
13.028 0.59299999 0.80000001
13.041 0.62099999 0.801
13.034 0.64899999 0.80000001
13.051 0.67699999 0.801
13.035 0.70499998 0.80000001
13.029 0.73299998 0.80000001
13.004 0.75999999 0.79799998
12.99 0.78799999 0.79699999
12.97 0.81599998 0.796
12.973 0.84500003 0.796
12.958 0.87400001 0.79500002
12.941 0.90200001 0.79400003
12.905 0.92900002 0.792
12.898 0.95899999 0.792
12.928 0.991 0.79400003
12.956 1.024 0.79500002
12.931 1.053 0.79400003
12.94 1.084 0.79400003
12.94 1.1160001 0.79400003
12.945 1.148 0.79500002
12.973 1.182 0.79699999
12.943 1.211 0.79500002
12.935 1.242 0.79400003
22.274 2.1389999 1.368
12.984 1.279 0.79799998
22.235001 2.191 1.3660001
13.03 1.317 0.801
22.205 2.244 1.365
13.067 1.353 0.80299997
22.150999 2.2939999 1.362
13.041 1.3839999 0.801
22.09 2.3440001 1.358
13.087 1.4220001 0.80400002
22.017 2.3929999 1.354
22.08 2.457 1.358
22.16 2.523 1.363
22.136 2.5780001 1.362
22.181999 2.642 1.365
22.372999 2.723 1.377
22.41 2.7869999 1.38
22.302 2.8329999 1.373
22.316999 2.895 1.375
22.25 2.947 1.3710001
22.208 3.0009999 1.369
22.174999 3.0569999 1.367
22.160999 3.1159999 1.3660001
22.191999 3.1819999 1.369
22.245001 3.2509999 1.372
22.302999 3.322 1.377
22.295 3.3829999 1.376
22.35 3.454 1.38
22.386 3.523 1.383
22.444 3.596 1.387
22.702999 3.7019999 1.404
22.76 3.777 1.408
22.799999 3.849 1.411
22.804001 3.9159999 1.4119999
22.608999 3.948 1.4
22.506001 3.9960001 1.3940001
11.952 2.1570001 0.74000001
11.797 2.164 0.73100001
11.759 2.191 0.72899997
11.745 2.224 0.72899997
11.699 2.25 0.72600001
11.672 2.28 0.72500002
11.657 2.312 0.72399998
11.638 2.3429999 0.72299999
11.623 2.375 0.72299999
11.631 2.4119999 0.72399998
11.656 2.4530001 0.72600001
11.696 2.4979999 0.72799999
11.872 2.572 0.74000001
19.784 4.6560001 1.237
19.556999 4.665 1.224
12.239 3.9260001 0.77899998
12.107 3.925 0.77200001
12.026 3.9400001 0.76700002
11.968 3.961 0.764
11.896 3.9779999 0.75999999
11.876 4.013 0.759
11.934 4.073 0.764
11.97 4.1269999 0.76700002
12.022 4.1869998 0.77100003
12.091 4.2529998 0.77600002
12.447 -6.6820002 0.88999999
12.394 -6.618 0.88599998
12.411 -6.5900002 0.88700002
12.426 -6.5619998 0.88800001
12.437 -6.5310001 0.889
12.683 -6.3249998 0.90600002
12.699 -6.296 0.90700001
12.768 -6.2919998 0.91100001
12.807 -6.2740002 0.91399997
12.779 -6.2220001 0.912
13.833 -5.5949998 0.98299998
13.8 -5.5409999 0.98000002
13.879 -5.4910002 0.986
13.806 -5.4219999 0.98000002
13.853 -5.3990002 0.98299998
13.881 -5.3699999 0.98500001
13.825 -5.3070002 0.98100001
13.825 -5.2670002 0.98100001
13.865 -5.2410002 0.98400003
13.851 -5.1950002 0.98199999
13.856 -5.1560001 0.98299998
13.864 -5.119 0.98299998
13.86 -5.0760002 0.98299998
13.895 -5.0479999 0.98500001
13.891 -5.006 0.98400003
13.926 -4.9780002 0.98699999
13.928 -4.9380002 0.98699999
13.945 -4.9029999 0.98799998
13.943 -4.8610001 0.98699999
13.975 -4.8309999 0.98900002
14.035 -4.8109999 0.99400002
14.071 -4.7820001 0.99599999
12.756 -2.0710001 0.89200002
12.658 -2.0190001 0.88499999
12.611 -1.975 0.88099998
12.638 -1.943 0.88300002
12.705 -1.916 0.88700002
12.876 -1.905 0.89899999
12.847 -1.864 0.89700001
12.818 -1.822 0.89499998
12.811 -1.784 0.89399999
12.907 -1.761 0.90100002
9.073 -1.211 0.63300002
8.9280005 -1.166 0.62199998
8.8950005 -1.136 0.62
8.8870001 -1.11 0.61900002
8.8950005 -1.085 0.62
8.8950005 -1.059 0.62
8.9580002 -1.041 0.62400001
9.0509996 -1.026 0.63
9.0389996 -0.99800003 0.62900001
9.0380001 -0.972 0.62900001
9.0410004 -0.94700003 0.62900001
9.0579996 -0.92199999 0.63
9.0760002 -0.898 0.63099998
9.1619997 -0.88 0.63700002
13.024 -0.54000002 0.90200001
12.947 -0.5 0.89600003
12.849 -0.45899999 0.889
12.773 -0.41999999 0.884
12.756 -0.38299999 0.88200003
12.766 -0.34599999 0.88300002
12.778 -0.31 0.88300002
12.789 -0.27399999 0.884
12.846 -0.23800001 0.88700002
12.973 -0.20299999 0.89600003
13.009 -0.16599999 0.898
13.297 0.89099997 0.83899999
13.162 0.90600002 0.82999998
13.168 0.93099999 0.82999998
13.167 0.95599997 0.82999998
13.261 0.98900002 0.83600003
13.311 1.045 0.83999997
13.249 1.066 0.83600003
22.504999 2.0420001 1.421
22.372999 2.0769999 1.413
22.322001 2.1199999 1.41
22.365 2.1719999 1.413
22.371 2.221 1.413
22.334 2.266 1.411
22.361 2.3180001 1.413
22.402 2.372 1.416
22.462 2.4289999 1.42
23.014 2.5940001 1.456
22.802 2.622 1.443
22.721001 2.6659999 1.438
22.714001 2.7179999 1.438
22.673 2.767 1.436
22.6 2.812 1.432
22.469999 2.849 1.424
22.450001 2.901 1.423
22.333 2.9400001 1.416
22.313999 2.9920001 1.416
22.292999 3.0450001 1.415
22.275999 3.098 1.414
22.323999 3.161 1.418
22.351999 3.221 1.42
22.386 3.283 1.423
22.473 3.3529999 1.429
22.552 3.4230001 1.4349999
22.576 3.4849999 1.437
22.660999 3.5580001 1.443
23.059 3.681 1.469
23.031 3.7379999 1.4680001
12.283 2.1930001 0.78500003
11.904 2.158 0.76099998
11.789 2.1700001 0.75400001
11.741 2.194 0.75199997
11.716 2.223 0.75
11.694 2.2520001 0.75
11.664 2.279 0.74800003
11.631 2.306 0.74599999
11.626 2.339 0.74699998
11.61 2.369 0.74599999
11.626 2.4070001 0.74800003
11.637 2.4430001 0.74900001
11.671 2.4849999 0.75099999
11.756 2.5380001 0.75700003
19.528 4.631 1.265
19.41 4.6630001 1.258
19.437 4.73 1.261
12.194 3.938 0.80800003
12.093 3.948 0.80199999
12.021 3.9660001 0.79799998
11.935 3.98 0.79299998
11.854 3.9960001 0.78899997
11.883 4.0479999 0.792
11.95 4.1139998 0.79699999
12.004 4.1750002 0.801
12.066 4.2410002 0.80599999
12.272 4.3579998 0.82099998
11.374 -7.4660001 0.85299999
11.447 -7.4419999 0.85799998
11.517 -7.4169998 0.86299998
11.557 -7.3720002 0.86500001
11.604 -7.3309999 0.86799997
11.648 -7.289 0.87
11.69 -7.2459998 0.87300003
11.763 -7.2220001 0.87699997
11.817 -7.1859999 0.88099998
11.85 -7.1370001 0.88200003
11.877 -7.085 0.884
11.928 -7.0469999 0.88700002
11.961 -6.9990001 0.889
11.99 -6.9489999 0.88999999
12.031 -6.9060001 0.89200002
12.085 -6.8699999 0.89600003
12.153 -6.8429999 0.89999998
12.197 -6.8010001 0.903
12.237 -6.7579999 0.90499997
12.196 -6.671 0.90100002
12.266 -6.6440001 0.90600002
12.271 -6.5830002 0.90600002
12.317 -6.5430002 0.90899998
12.352 -6.4990001 0.91100001
12.423 -6.473 0.91500002
12.465 -6.4310002 0.91799998
12.529 -6.401 0.92199999
12.556 -6.3520002 0.92299998
12.589 -6.3070002 0.92500001
12.621 -6.2610002 0.92699999
12.699 -6.2379999 0.93199998
12.766 -6.2090001 0.93599999
12.807 -6.1680002 0.93900001
12.965 -6.1830001 0.94999999
13.911 -5.4679999 1.0089999
13.894 -5.4039998 1.007
13.959 -5.3720002 1.012
14.005 -5.3330002 1.015
14.019 -5.2270002 1.015
14.065 -5.1880002 1.018
14.053 -5.1290002 1.016
14.036 -5.0669999 1.015
14.08 -5.0289998 1.017
14.179 -5.0089998 1.024
14.145 -4.9429998 1.021
14.226 -4.9180002 1.027
12.711 -2.105 0.903
12.639 -2.0599999 0.898
12.629 -2.026 0.89700001
12.619 -1.992 0.89700001
12.674 -1.9680001 0.89999998
12.756 -1.948 0.90600002
12.931 -1.942 0.91799998
12.885 -1.903 0.91500002
12.805 -1.859 0.90899998
12.79 -1.825 0.90799999
12.794 -1.794 0.90799999
12.834 -1.7690001 0.91100001
12.925 -1.75 0.917
9.1339998 -1.214 0.648
8.9560003 -1.169 0.63499999
8.9239998 -1.1440001 0.63300002
8.8959999 -1.119 0.63099998
8.8789997 -1.096 0.63
8.8719997 -1.074 0.62900001
8.8839998 -1.0549999 0.63
8.8920002 -1.035 0.63
8.8959999 -1.016 0.63099998
8.9469995 -1.001 0.634
9.0050001 -0.98699999 0.63800001
9.0439997 -0.97100002 0.64099997
9.0459995 -0.95099998 0.64099997
9.0380001 -0.93000001 0.64099997
9.0500002 -0.91100001 0.64099997
9.0450001 -0.89099997 0.64099997
9.0620003 -0.87300003 0.64200002
9.0620003 -0.85299999 0.64200002
9.0900002 -0.83600003 0.64399999
9.1160002 -0.81900001 0.64600003
9.1920004 -0.80699998 0.65100002
12.984 -0.35499999 0.92000002
12.966 -0.33199999 0.91900003
12.956 -0.31099999 0.91799998
12.943 -0.289 0.91799998
12.91 -0.26699999 0.91500002
12.917 -0.24699999 0.91600001
12.944 -0.226 0.91799998
13.115 -0.20900001 0.93000001
13.023 -0.16599999 0.92400002
13.072 -0.146 0.92699999
13.042 0.19400001 0.86500001
13.116 0.21799999 0.86900002
13.321 0.89899999 0.88
13.254 0.92500001 0.87599999
13.204 0.95200002 0.87300003
13.225 0.98400003 0.87400001
13.31 1.022 0.88
13.198 1.076 0.87300003
13.218 1.109 0.87400001
22.544001 2.1110001 1.492
22.356001 2.1489999 1.479
22.327 2.2019999 1.478
22.360001 2.2609999 1.48
22.381001 2.3199999 1.482
22.402 2.3789999 1.483
22.410999 2.438 1.484
22.629999 2.52 1.499
23.030001 2.6240001 1.526
22.969999 2.677 1.522
22.868999 2.7249999 1.516
22.794001 2.776 1.511
22.745001 2.8310001 1.5089999
22.737 2.8900001 1.508
22.6 2.9330001 1.5
22.42 2.97 1.488
22.348 3.0220001 1.484
22.371 3.086 1.4859999
22.323 3.1400001 1.483
22.32 3.201 1.483
22.398001 3.2750001 1.489
22.416 3.3399999 1.4910001
22.577999 3.427 1.502
22.719999 3.5120001 1.512
12.343 2.1919999 0.824
12.167 2.1960001 0.81199998
11.859 2.1760001 0.792
11.77 2.194 0.787
11.723 2.22 0.78399998
11.702 2.2509999 0.78299999
11.674 2.2809999 0.78100002
11.642 2.309 0.77999997
11.605 2.3369999 0.778
11.587 2.369 0.77700001
11.606 2.408 0.778
11.646 2.4519999 0.78200001
11.691 2.497 0.78500003
11.892 2.5769999 0.79900002
19.500999 4.5900002 1.3150001
19.375999 4.6220002 1.307
19.424 4.6950002 1.311
12.337 3.9579999 0.84799999
12.132 3.9330001 0.83399999
12.051 3.948 0.829
11.973 3.964 0.82499999
11.889 3.9760001 0.81900001
11.841 4.0009999 0.81699997
11.901 4.0619998 0.82200003
11.96 4.1240001 0.82700002
12 4.1789999 0.82999998
12.081 4.2490001 0.83600003
12.346 4.3850002 0.85500002
12.618 -6.7420001 0.95999998
12.639 -6.7160001 0.96100003
13.369 -6.4349999 1.0140001
13.335 -6.3800001 1.012
13.325 -6.335 1.011
13.412 -6.3369999 1.017
13.505 -6.342 1.024
13.571 -6.3319998 1.029
13.635 -6.322 1.034
14.135 -6.0120001 1.069
14.086 -5.9499998 1.066
14.133 -5.928 1.069
14.17 -5.8179998 1.071
14.206 -5.7909999 1.074
14.253 -5.6420002 1.076
14.276 -5.6090002 1.0779999
14.388 -5.6110001 1.086
12.685 -2.059 0.94300002
12.634 -2.0150001 0.93900001
12.621 -1.976 0.93699998
12.653 -1.9450001 0.94
12.843 -1.937 0.954
12.888 -1.906 0.95700002
12.794 -1.855 0.949
12.793 -1.818 0.949
12.819 -1.785 0.95099998
12.967 -1.768 0.96200001
8.9989996 -1.201 0.667
8.8979998 -1.1619999 0.65899998
8.8780003 -1.1339999 0.65799999
8.8579998 -1.105 0.65600002
8.8699999 -1.081 0.65700001
8.8809996 -1.057 0.65700001
8.934 -1.038 0.66100001
9.0290003 -1.023 0.66799998
9.0139999 -0.995 0.667
9.0319996 -0.97100002 0.66799998
9.0380001 -0.94599998 0.66799998
9.052 -0.921 0.66900003
9.0839996 -0.898 0.671
9.1859999 -0.88200003 0.67900002
13.106 -0.39199999 0.963
13.062 -0.35299999 0.95999998
13.06 -0.315 0.95899999
13.257 0.88999999 0.898
13.209 0.91100001 0.89499998
13.17 0.93300003 0.89200002
13.186 0.95899999 0.89399999
13.23 0.98799998 0.89700001
13.132 1.006 0.88999999
13.091 1.029 0.88700002
13.075 1.053 0.88599998
13.126 1.084 0.88999999
13.177 1.115 0.89300001
13.223 1.146 0.89700001
13.249 1.316 0.89899999
13.136 1.334 0.89200002
13.321 1.382 0.90499997
23.292999 3.477 1.592
23.207001 3.5239999 1.587
23.176001 3.579 1.586
23.173 3.6389999 1.586
23.190001 3.7030001 1.5880001
23.18 3.763 1.589
23.174 3.8239999 1.589
23.15 3.882 1.5880001
23.171 3.948 1.59
23.173 4.0120001 1.591
12.398 2.1800001 0.852
23.247999 4.0879998 1.597
12.187 2.1760001 0.838
12.089 2.1919999 0.83099997
11.867 2.1849999 0.81699997
11.786 2.2030001 0.81099999
11.747 2.2290001 0.80900002
11.711 2.256 0.80699998
11.67 2.2809999 0.80500001
11.631 2.3069999 0.80299997
11.608 2.336 0.80199999
11.592 2.3659999 0.801
11.602 2.402 0.80199999
11.608 2.437 0.80299997
11.638 2.4779999 0.80599999
11.719 2.53 0.81199998
19.768 4.6890001 1.377
19.454 4.6739998 1.3559999
19.465 4.7379999 1.358
12.325 3.98 0.87900001
12.099 3.95 0.86400002
12.014 3.964 0.85900003
11.945 3.984 0.85500002
11.859 3.997 0.84899998
11.848 4.0359998 0.85000002
11.92 4.1030002 0.85600001
11.989 4.171 0.86199999
12.049 4.2350001 0.86699998
12.245 4.348 0.88200003
