# .PCD v0.7 - Point Cloud Data file format
VERSION 0.7
FIELDS x y z
SIZE 4 4 4
TYPE F F F
COUNT 1 1 1
WIDTH 1924
HEIGHT 1
VIEWPOINT 0 0 0 1 0 0 0
POINTS 1924
DATA ascii
7.1589999 2.5699999 0.030999999
7.1230001 2.5829999 0.030999999
7.1170001 2.6070001 0.030999999
7.0840001 2.6210001 0.030999999
7.0890002 2.6489999 0.030999999
7.1030002 2.681 0.030999999
7.1469998 2.724 0.030999999
15.555 5.9879999 0.068000004
15.558 6.0479999 0.067000002
15.615 6.1300001 0.067000002
15.643 6.1999998 0.067000002
15.725 6.2930002 0.068000004
15.723 6.3520002 0.067000002
15.717 6.4109998 0.067000002
15.782 6.4980001 0.067000002
12.378 5.9910002 0.050000001
12.141 5.927 0.048999999
12.016 5.9159999 0.048
11.952 5.934 0.048
11.911 5.9640002 0.048
12.044 6.0819998 0.048
12.188 6.2059999 0.048999999
12.205 6.2670002 0.048
12.173 6.302 0.048
12.361 6.4520001 0.048999999
12.114 6.375 0.048
12.066 6.402 0.046999998
12.265 6.5609999 0.048
9.9099998 6.849 0.035
9.8900003 6.8829999 0.035
7.546 -4.9710002 0.14
7.5809999 -4.9450002 0.141
7.6090002 -4.9169998 0.141
7.6350002 -4.8870001 0.142
7.664 -4.8579998 0.142
7.6950002 -4.8309999 0.14300001
7.717 -4.7989998 0.14300001
7.7379999 -4.7649999 0.14300001
7.7620001 -4.7350001 0.14399999
7.7870002 -4.7049999 0.14399999
7.823 -4.6810002 0.145
7.8429999 -4.6479998 0.145
7.855 -4.6100001 0.145
7.8740001 -4.5770001 0.145
7.9169998 -4.5580001 0.146
7.9380002 -4.526 0.146
7.9590001 -4.494 0.147
7.9809999 -4.4629998 0.147
7.9970002 -4.4289999 0.147
8.0349998 -4.4070001 0.148
8.0740004 -4.3850002 0.149
8.0649996 -4.3379998 0.148
8.0640001 -4.296 0.148
8.1000004 -4.2729998 0.149
8.1520004 -4.2579999 0.15000001
8.1929998 -4.2379999 0.15099999
8.2080002 -4.204 0.15099999
8.2250004 -4.1719999 0.15099999
8.2489996 -4.1430001 0.152
8.2729998 -4.1139998 0.152
8.2939997 -4.0840001 0.152
8.335 -4.0640001 0.153
8.3640003 -4.0380001 0.154
8.3800001 -4.0050001 0.154
8.3999996 -3.9749999 0.154
8.4300003 -3.9489999 0.155
8.4560003 -3.9219999 0.155
8.4919996 -3.9000001 0.156
8.5340004 -3.8800001 0.156
8.5430002 -3.845 0.15700001
8.5799999 -3.823 0.15700001
8.6029997 -3.7939999 0.15800001
8.6230001 -3.7650001 0.15800001
8.6470003 -3.737 0.15800001
8.6689997 -3.7079999 0.15899999
8.6879997 -3.678 0.15899999
8.7110004 -3.6500001 0.15899999
8.7510004 -3.6300001 0.16
8.7889996 -3.608 0.161
8.8009996 -3.575 0.161
8.8409996 -3.5539999 0.162
8.8470001 -3.52 0.162
8.908 -3.507 0.163
8.9370003 -3.4820001 0.163
8.9490004 -3.45 0.164
8.9919996 -3.4300001 0.164
9.0010004 -3.3970001 0.16500001
9.0439997 -3.3770001 0.16500001
9.0740004 -3.352 0.16599999
9.1120005 -3.3299999 0.167
9.1529999 -3.309 0.167
9.1669998 -3.279 0.168
9.2150002 -3.26 0.168
9.2399998 -3.234 0.169
9.2600002 -3.2049999 0.169
9.3149996 -3.1889999 0.17
9.3690004 -3.1719999 0.171
9.3850002 -3.1429999 0.171
9.4440002 -3.1270001 0.17200001
9.5080004 -3.1140001 0.17399999
9.5279999 -3.085 0.17399999
9.5749998 -3.066 0.175
9.717 -3.076 0.177
9.7270002 -3.0439999 0.178
9.7019997 -3.0020001 0.177
9.717 -2.9719999 0.177
9.7539997 -2.9489999 0.178
9.7650003 -2.918 0.178
9.7799997 -2.8889999 0.17900001
9.8240004 -2.868 0.17900001
9.8470001 -2.8410001 0.18000001
9.8739996 -2.8150001 0.18000001
9.9060001 -2.7909999 0.18099999
9.9139996 -2.76 0.18099999
9.9490004 -2.7360001 0.182
9.9689999 -2.7090001 0.182
10.009 -2.6860001 0.183
10.031 -2.6600001 0.183
10.072 -2.638 0.184
10.102 -2.6129999 0.184
10.122 -2.586 0.185
10.147 -2.5599999 0.185
10.167 -2.5320001 0.186
10.194 -2.507 0.186
10.237 -2.4860001 0.18700001
10.268 -2.461 0.18799999
10.266 -2.4289999 0.18700001
10.322 -2.411 0.189
10.317 -2.378 0.18799999
10.35 -2.3540001 0.189
10.392 -2.332 0.19
10.411 -2.306 0.19
10.446 -2.2820001 0.191
10.48 -2.2590001 0.191
10.507 -2.234 0.192
10.554 -2.2130001 0.193
10.568 -2.1849999 0.193
10.604 -2.1619999 0.19400001
10.637 -2.138 0.19400001
10.67 -2.115 0.19499999
10.691 -2.089 0.19499999
10.732 -2.066 0.19599999
10.751 -2.04 0.197
10.797 -2.0190001 0.197
10.824 -1.994 0.198
10.833 -1.966 0.198
10.879 -1.9450001 0.199
10.898 -1.919 0.199
10.916 -1.893 0.2
10.958 -1.8710001 0.2
10.982 -1.846 0.20100001
10.998 -1.8200001 0.20100001
11.056 -1.8 0.20200001
11.154 -1.7869999 0.204
11.192 -1.7640001 0.205
11.155 -1.73 0.204
11.165 -1.7029999 0.204
11.193 -1.679 0.205
11.238 -1.6569999 0.206
11.278 -1.635 0.207
11.282 -1.607 0.207
11.324 -1.586 0.207
11.35 -1.561 0.208
11.416 -1.543 0.20900001
11.437 -1.518 0.20999999
11.483 -1.4960001 0.211
11.501 -1.471 0.211
11.501 -1.444 0.211
11.535 -1.421 0.212
11.576 -1.399 0.212
11.613 -1.376 0.213
11.664 -1.355 0.214
11.721 -1.335 0.215
11.75 -1.311 0.21600001
11.827 -1.293 0.21699999
11.836 -1.267 0.21699999
11.839 -1.2410001 0.21699999
11.86 -1.217 0.21799999
11.878 -1.193 0.21799999
11.939 -1.173 0.219
11.987 -1.151 0.22
12.031 -1.1289999 0.221
12.075 -1.107 0.222
12.117 -1.085 0.223
12.209 -1.068 0.22499999
12.16 -1.038 0.22400001
12.207 -1.016 0.22499999
12.359 -1.003 0.227
12.289 -0.972 0.226
12.318 -0.949 0.227
8.2919998 -0.62199998 0.153
8.0869999 -0.58999997 0.149
8.0419998 -0.57099998 0.148
8.0319996 -0.55400002 0.148
8.0209999 -0.53799999 0.148
8.0369997 -0.523 0.148
8.0489998 -0.50800002 0.148
8.0749998 -0.49399999 0.149
8.1239996 -0.48100001 0.15000001
8.5380001 -0.44100001 0.15700001
8.4490004 -0.421 0.156
8.4250002 -0.40400001 0.155
8.4169998 -0.389 0.155
8.4139996 -0.373 0.155
8.4200001 -0.35800001 0.155
8.4309998 -0.34400001 0.156
8.4650002 -0.33000001 0.156
8.5719995 -0.31900001 0.15800001
12.41 0.162 0.111
12.415 0.185 0.111
12.427 0.208 0.111
12.466 0.23100001 0.111
12.465 0.25400001 0.111
12.504 0.278 0.111
12.547 0.303 0.111
12.521 0.32699999 0.111
12.564 0.352 0.111
12.554 0.37599999 0.111
12.569 0.40200001 0.111
12.568 0.42699999 0.111
12.603 0.454 0.111
12.635 0.48100001 0.111
12.626 0.50599998 0.11
12.639 0.53299999 0.11
12.627 0.55900002 0.11
12.615 0.58499998 0.11
12.638 0.61400002 0.11
12.634 0.64099997 0.11
12.636 0.66799998 0.109
12.641 0.69599998 0.109
12.639 0.72399998 0.109
12.637 0.75199997 0.109
12.678 0.78299999 0.109
12.669 0.81199998 0.109
12.686 0.84200001 0.109
12.672 0.87 0.108
12.715 0.903 0.109
12.721 0.93300003 0.109
12.747 0.96499997 0.109
12.768 0.99699998 0.109
12.772 1.028 0.108
12.805 1.061 0.109
12.835 1.095 0.109
12.871 1.13 0.109
12.881 1.1619999 0.109
12.893 1.1950001 0.109
12.895 1.228 0.108
12.905 1.261 0.108
12.898 1.293 0.108
12.91 1.327 0.108
12.921 1.362 0.108
12.915 1.3940001 0.108
12.93 1.429 0.108
12.961 1.467 0.108
12.975 1.502 0.108
12.983 1.5369999 0.108
12.962 1.569 0.107
12.999 1.609 0.107
13.006 1.6440001 0.107
13.044 1.684 0.107
13.057 1.722 0.107
13.047 1.756 0.107
13.095 1.798 0.107
13.108 1.836 0.107
13.137 1.877 0.107
13.128 1.9119999 0.107
13.143 1.951 0.107
13.182 1.994 0.107
13.24 2.04 0.107
13.254 2.0799999 0.107
13.269 2.1199999 0.107
13.32 2.1659999 0.108
13.322 2.2049999 0.107
13.345 2.2479999 0.108
13.353 2.2880001 0.107
13.409 2.3369999 0.108
13.435 2.3800001 0.108
13.447 2.4219999 0.108
13.486 2.4690001 0.108
13.516 2.5150001 0.108
13.565 2.5639999 0.108
13.587 2.609 0.108
13.613 2.655 0.108
13.639 2.7019999 0.108
13.674 2.75 0.108
13.71 2.799 0.108
13.741 2.8469999 0.109
13.79 2.9000001 0.109
13.794 2.9430001 0.109
13.817 2.9909999 0.109
13.874 3.046 0.109
13.885 3.092 0.109
13.934 3.1459999 0.109
13.962 3.1960001 0.109
13.974 3.243 0.109
14.079 3.312 0.11
14.136 3.3699999 0.11
14.108 3.4089999 0.11
14.105 3.4530001 0.109
14.137 3.506 0.109
14.178 3.562 0.11
14.223 3.619 0.11
14.247 3.671 0.11
14.337 3.7409999 0.11
14.424 3.8099999 0.111
14.522 3.8829999 0.111
14.485 3.921 0.111
14.533 3.9820001 0.111
14.552 4.0349998 0.111
14.604 4.098 0.111
14.635 4.1550002 0.111
14.675 4.2150002 0.112
14.733 4.2800002 0.112
14.758 4.3369999 0.112
14.772 4.3909998 0.112
14.863 4.467 0.112
14.883 4.5229998 0.112
14.952 4.5949998 0.113
14.983 4.6550002 0.113
15.075 4.7350001 0.113
15.137 4.8060002 0.114
15.169 4.868 0.114
15.285 4.9569998 0.114
7.533 2.4690001 0.056000002
7.401 2.451 0.055
7.336 2.4549999 0.054000001
7.309 2.471 0.054000001
7.2859998 2.4879999 0.054000001
7.2880001 2.5139999 0.054000001
7.257 2.529 0.052999999
7.1999998 2.5339999 0.052999999
7.1539998 2.5420001 0.052999999
7.131 2.559 0.052000001
7.1069999 2.575 0.052000001
7.1059999 2.5999999 0.052000001
7.0900002 2.619 0.052000001
7.1020002 2.648 0.052000001
7.1139998 2.678 0.052000001
7.1799998 2.7279999 0.052000001
16.091 6.171 0.117
16.047001 6.211 0.117
16.058001 6.2719998 0.117
16.194 6.3829999 0.118
16.163 6.428 0.117
14.776 6.0349998 0.107
14.799 6.0970001 0.107
12.29 5.9530001 0.086000003
12.236 5.9720001 0.085000001
12.015 5.908 0.083999999
11.928 5.9089999 0.082999997
11.913 5.9450002 0.082999997
11.888 5.9749999 0.082000002
11.972 6.0619998 0.082999997
12.236 6.2399998 0.085000001
12.187 6.2600002 0.083999999
12.225 6.368 0.083999999
12.176 6.3870001 0.083999999
12.081 6.382 0.082999997
12.066 6.4169998 0.082999997
12.194 6.5300002 0.082999997
8.1890001 -4.8299999 0.169
8.2139997 -4.8210001 0.17
8.2180004 -4.8000002 0.17
8.2399998 -4.79 0.17
8.2379999 -4.7649999 0.17
8.2449999 -4.7449999 0.17
8.2729998 -4.7379999 0.171
8.2869997 -4.7220001 0.171
8.283 -4.6960001 0.171
8.2889996 -4.6760001 0.17200001
8.2950001 -4.6560001 0.17200001
8.3219995 -4.6469998 0.17200001
8.3179998 -4.6209998 0.17200001
8.349 -4.6149998 0.17299999
8.3450003 -4.5879998 0.17299999
8.3760004 -4.5809999 0.17399999
8.375 -4.5570002 0.17399999
8.401 -4.5469999 0.17399999
8.3970003 -4.52 0.17399999
8.4209995 -4.5089998 0.175
8.4309998 -4.4899998 0.175
8.4540005 -4.4780002 0.175
8.4700003 -4.4619999 0.176
8.4530001 -4.4289999 0.175
8.5220003 -4.4400001 0.177
8.5450001 -4.427 0.177
8.5740004 -4.4180002 0.178
8.566 -4.3889999 0.178
8.5559998 -4.3590002 0.178
8.559 -4.336 0.178
8.5769997 -4.3200002 0.178
8.6000004 -4.3070002 0.17900001
8.6020002 -4.283 0.17900001
8.6219997 -4.2680001 0.17900001
8.6540003 -4.2589998 0.18000001
8.6660004 -4.2399998 0.18000001
8.6879997 -4.2249999 0.18099999
8.6780005 -4.1950002 0.18000001
8.6850004 -4.1729999 0.18099999
8.7040005 -4.1570001 0.18099999
8.6999998 -4.1300001 0.18099999
8.7419996 -4.125 0.182
8.7729998 -4.1139998 0.183
8.7720003 -4.0879998 0.183
8.7849998 -4.0689998 0.183
8.8000002 -4.0500002 0.183
8.8260002 -4.0370002 0.184
8.835 -4.0149999 0.184
8.8389997 -3.9909999 0.184
8.8660002 -3.9779999 0.185
8.8889999 -3.9619999 0.185
8.8950005 -3.9389999 0.185
8.9139996 -3.921 0.186
8.9280005 -3.902 0.186
8.941 -3.881 0.186
8.9720001 -3.869 0.18700001
8.9919996 -3.8510001 0.18799999
9.0080004 -3.832 0.18799999
9.033 -3.816 0.18799999
9.0459995 -3.796 0.189
9.0719995 -3.78 0.189
9.0749998 -3.7550001 0.189
9.1009998 -3.7390001 0.19
9.1160002 -3.7190001 0.19
9.1529999 -3.707 0.191
9.1479998 -3.6789999 0.191
9.1549997 -3.655 0.191
9.1949997 -3.6440001 0.192
9.2119999 -3.6240001 0.192
9.2379999 -3.608 0.193
9.2559996 -3.5880001 0.193
9.2869997 -3.573 0.19400001
9.2930002 -3.5480001 0.19400001
9.3240004 -3.533 0.19499999
9.3570004 -3.5179999 0.19599999
9.3590002 -3.4920001 0.19599999
9.3929996 -3.4779999 0.19599999
9.4250002 -3.4619999 0.197
9.4530001 -3.4449999 0.198
9.4549999 -3.418 0.198
9.4709997 -3.3959999 0.198
9.4799995 -3.372 0.198
9.5080004 -3.3540001 0.199
9.5349998 -3.336 0.199
9.5719995 -3.322 0.2
9.566 -3.2920001 0.2
9.6000004 -3.276 0.20100001
9.6239996 -3.256 0.20100001
9.6479998 -3.2360001 0.20200001
9.6829996 -3.22 0.20299999
9.6990004 -3.197 0.20299999
9.717 -3.175 0.20299999
9.7360001 -3.1530001 0.204
9.7700005 -3.1359999 0.205
9.835 -3.128 0.206
9.8409996 -3.1010001 0.206
9.8240004 -3.0669999 0.206
9.8570004 -3.049 0.207
9.8529997 -3.02 0.206
9.901 -3.006 0.207
9.8870001 -2.973 0.207
9.901 -2.948 0.208
9.9259996 -2.927 0.208
9.9219999 -2.8970001 0.208
9.9610004 -2.8800001 0.20900001
9.9890003 -2.859 0.20900001
9.9960003 -2.832 0.20999999
10.018 -2.8099999 0.20999999
10.043 -2.7880001 0.211
10.068 -2.766 0.211
10.087 -2.7420001 0.212
10.128 -2.724 0.212
10.137 -2.697 0.213
10.172 -2.677 0.213
10.188 -2.652 0.214
10.224 -2.632 0.215
10.235 -2.605 0.215
10.265 -2.5829999 0.215
10.287 -2.559 0.21600001
10.328 -2.539 0.21699999
10.317 -2.507 0.21699999
10.353 -2.4860001 0.21699999
10.378 -2.4619999 0.21799999
10.382 -2.4330001 0.21799999
10.423 -2.4130001 0.219
10.447 -2.388 0.219
10.46 -2.3610001 0.22
10.492 -2.3380001 0.22
10.523 -2.3150001 0.221
10.546 -2.29 0.222
10.584 -2.2679999 0.222
10.606 -2.2420001 0.223
10.648 -2.22 0.22400001
10.692 -2.1989999 0.22499999
10.724 -2.174 0.22499999
10.724 -2.1440001 0.22499999
10.763 -2.1210001 0.226
10.79 -2.095 0.227
10.837 -2.073 0.228
10.874 -2.049 0.229
10.906 -2.0239999 0.229
10.947 -2 0.23
10.977 -1.974 0.23100001
11.023 -1.951 0.23199999
11.041 -1.9220001 0.23199999
11.06 -1.8940001 0.233
11.136 -1.875 0.234
11.139 -1.844 0.234
11.167 -1.816 0.235
11.28 -1.802 0.237
11.317 -1.776 0.23800001
11.31 -1.742 0.23800001
11.338 -1.714 0.23800001
11.403 -1.692 0.23999999
11.444 -1.665 0.241
11.475 -1.637 0.241
11.527 -1.6109999 0.242
11.577 -1.585 0.244
11.638 -1.5599999 0.245
11.653 -1.529 0.245
11.673 -1.498 0.24600001
11.739 -1.473 0.24699999
11.803 -1.448 0.248
11.875 -1.4220001 0.25
11.886 -1.39 0.25
11.931 -1.3609999 0.25099999
11.973 -1.332 0.252
11.981 -1.298 0.252
12.106 -1.277 0.255
12.133 -1.2460001 0.255
12.222 -1.22 0.257
12.233 -1.186 0.257
12.324 -1.16 0.259
12.411 -1.133 0.26100001
12.358 -1.0930001 0.25999999
8.2089996 -0.70200002 0.17299999
8.0640001 -0.667 0.17
8.0150003 -0.63999999 0.169
8.0229998 -0.61799997 0.169
8.04 -0.59600002 0.169
8.0749998 -0.57599998 0.17
8.3789997 -0.57300001 0.176
8.4390001 -0.52999997 0.177
8.3979998 -0.50300002 0.177
8.3839998 -0.47799999 0.176
8.415 -0.456 0.177
8.4309998 -0.433 0.177
8.5059996 -0.41299999 0.17900001
13.276 0.47 0.14399999
13.212 0.48699999 0.14300001
13.169 0.505 0.142
13.13 0.52399999 0.142
13.084 0.54299998 0.141
13.141 0.56599998 0.142
13.113 0.58499998 0.141
13.154 0.60900003 0.141
13.12 0.62900001 0.141
13.118 0.65100002 0.141
13.108 0.67199999 0.14
13.136 0.69599998 0.141
13.133 0.71899998 0.14
13.129 0.74199998 0.14
13.094 0.76300001 0.14
13.108 0.787 0.14
13.106 0.81099999 0.139
13.116 0.83600003 0.139
13.118 0.861 0.139
13.107 0.88499999 0.139
13.12 0.91000003 0.139
13.122 0.93599999 0.139
13.109 0.95999998 0.138
13.104 0.986 0.138
13.111 1.013 0.138
13.127 1.04 0.138
13.148 1.069 0.138
13.206 1.1 0.139
13.246 1.131 0.139
13.255 1.16 0.139
13.199 1.183 0.138
13.192 1.21 0.138
13.187 1.238 0.138
13.188 1.267 0.138
13.182 1.295 0.13699999
13.203 1.326 0.13699999
13.218 1.357 0.13699999
13.23 1.388 0.13699999
13.245 1.42 0.13699999
13.265 1.452 0.13699999
13.28 1.484 0.13699999
13.297 1.517 0.138
13.297 1.548 0.13699999
13.304 1.581 0.13699999
13.309 1.613 0.13699999
13.345 1.649 0.13699999
13.358 1.683 0.13699999
13.381 1.719 0.138
13.372 1.75 0.13699999
13.415 1.789 0.138
13.422 1.823 0.138
13.471 1.864 0.138
13.464 1.897 0.138
13.483 1.934 0.138
13.508 1.972 0.138
13.534 2.0109999 0.138
13.545 2.0480001 0.138
13.556 2.085 0.138
13.573 2.1229999 0.138
13.609 2.165 0.138
13.601 2.2 0.138
13.646 2.244 0.139
13.657 2.2820001 0.139
13.68 2.323 0.139
13.736 2.3699999 0.139
13.766 2.4130001 0.139
13.792 2.4560001 0.139
13.849 2.5050001 0.14
13.872 2.5480001 0.14
13.869 2.5869999 0.14
13.879 2.628 0.14
13.933 2.678 0.14
13.973 2.7260001 0.141
13.991 2.77 0.141
14.039 2.8199999 0.141
14.061 2.865 0.141
14.114 2.918 0.142
14.116 2.96 0.141
14.152 3.0090001 0.142
14.201 3.062 0.142
14.232 3.1110001 0.142
14.278 3.165 0.14300001
14.338 3.221 0.14300001
14.365 3.2709999 0.14300001
14.425 3.329 0.14399999
14.438 3.3770001 0.14399999
14.484 3.4319999 0.14399999
14.512 3.484 0.14399999
14.501 3.527 0.14399999
14.483 3.5680001 0.14399999
14.489 3.615 0.14399999
14.566 3.681 0.145
14.761 3.777 0.146
14.709 3.8110001 0.146
14.736 3.8659999 0.146
14.794 3.9289999 0.146
14.848 3.9909999 0.147
14.847 4.04 0.147
14.907 4.105 0.147
14.947 4.165 0.148
14.988 4.2270002 0.148
14.993 4.2779999 0.148
15.071 4.3509998 0.149
15.119 4.415 0.149
15.186 4.4860001 0.15000001
15.239 4.5539999 0.15000001
15.261 4.612 0.15000001
15.316 4.6820002 0.15099999
15.364 4.7490001 0.15099999
15.449 4.829 0.152
15.522 4.9050002 0.152
15.53 4.9619999 0.152
15.599 5.039 0.153
15.764 5.1469998 0.154
7.533 2.4860001 0.074000001
7.3829999 2.4630001 0.071999997
7.336 2.474 0.071999997
7.3080001 2.49 0.071000002
7.2820001 2.5079999 0.071000002
7.2670002 2.5280001 0.071000002
7.2129998 2.536 0.07
7.1599998 2.543 0.07
7.1259999 2.5569999 0.068999998
7.098 2.573 0.068999998
7.0900002 2.596 0.068999998
7.0949998 2.625 0.068999998
7.0949998 2.651 0.068999998
7.1409998 2.6949999 0.068999998
7.2919998 2.779 0.071000002
12.348 5.8730001 0.119
12.351 5.9260001 0.119
12.254 5.9299998 0.118
12.011 5.862 0.116
11.951 5.8829999 0.115
11.968 5.9419999 0.115
12.007 6.0110002 0.116
12.208 6.2150002 0.118
12.28 6.3039999 0.118
12.225 6.3280001 0.118
12.168 6.3509998 0.117
12.101 6.3670001 0.117
12.115 6.427 0.117
12.225 6.5380001 0.118
7.8109999 -5.1430001 0.182
7.8569999 -5.1240001 0.183
7.895 -5.099 0.184
7.9250002 -5.0700002 0.185
7.9569998 -5.0419998 0.185
7.974 -5.0050001 0.186
8.0030003 -4.9749999 0.186
8.0290003 -4.9429998 0.18700001
8.0629997 -4.9159999 0.18700001
8.0869999 -4.8839998 0.18799999
8.1120005 -4.8520002 0.18799999
8.1560001 -4.8319998 0.189
8.1820002 -4.8010001 0.19
8.2040005 -4.7670002 0.19
8.2290001 -4.7360001 0.191
8.2519999 -4.7030001 0.191
8.2810001 -4.6750002 0.192
8.3210001 -4.652 0.192
8.3260002 -4.6090002 0.193
8.3699999 -4.5890002 0.193
8.3970003 -4.5599999 0.19400001
8.4449997 -4.5409999 0.19499999
8.4860001 -4.5190001 0.19599999
8.4799995 -4.4720001 0.19599999
8.4989996 -4.4380002 0.19599999
8.5279999 -4.4099998 0.197
8.5530005 -4.3800001 0.197
8.5780001 -4.349 0.198
8.6140003 -4.3249998 0.198
8.6440001 -4.2969999 0.199
8.6669998 -4.2670002 0.199
8.6829996 -4.2319999 0.2
8.7019997 -4.1999998 0.2
8.7220001 -4.1680002 0.20100001
8.75 -4.1399999 0.20100001
8.7770004 -4.1110001 0.20200001
8.7880001 -4.0749998 0.20200001
8.8280001 -4.053 0.20299999
8.8590002 -4.026 0.20299999
8.8920002 -4.0009999 0.204
8.9259996 -3.9760001 0.205
8.9429998 -3.9430001 0.205
8.9750004 -3.9170001 0.206
8.9989996 -3.888 0.206
9.0369997 -3.8640001 0.207
9.0749998 -3.8410001 0.208
9.0939999 -3.8099999 0.208
9.1370001 -3.789 0.20900001
9.1619997 -3.76 0.20999999
9.1719999 -3.7249999 0.20999999
9.21 -3.7019999 0.211
9.2410002 -3.6760001 0.211
9.2609997 -3.6459999 0.212
9.3140001 -3.628 0.213
9.3409996 -3.5999999 0.214
9.3710003 -3.5739999 0.214
9.408 -3.55 0.215
9.4379997 -3.523 0.21600001
9.4729996 -3.4990001 0.21600001
9.5159998 -3.477 0.21699999
9.526 -3.444 0.21799999
9.5539999 -3.4159999 0.21799999
9.5509996 -3.3789999 0.21799999
9.625 -3.368 0.22
9.6669998 -3.346 0.221
9.6809998 -3.3139999 0.221
9.7189999 -3.29 0.222
9.7469997 -3.263 0.222
9.7539997 -3.23 0.222
9.7939997 -3.207 0.223
9.8280001 -3.1819999 0.22400001
9.9169998 -3.175 0.226
9.9399996 -3.1459999 0.227
9.9300003 -3.1070001 0.226
9.948 -3.0769999 0.227
9.9530001 -3.0439999 0.227
10.002 -3.0239999 0.228
10.017 -2.993 0.228
10.033 -2.9630001 0.229
10.057 -2.9360001 0.229
10.087 -2.9100001 0.23
10.116 -2.8840001 0.23
10.145 -2.858 0.23100001
10.168 -2.8299999 0.23199999
10.199 -2.8050001 0.23199999
10.238 -2.7809999 0.233
10.271 -2.757 0.234
10.289 -2.7279999 0.234
10.33 -2.7049999 0.235
10.355 -2.678 0.236
10.414 -2.6600001 0.237
10.422 -2.6289999 0.237
10.459 -2.605 0.23800001
10.465 -2.5739999 0.23800001
10.501 -2.55 0.23899999
10.509 -2.5190001 0.23899999
10.528 -2.4909999 0.23999999
10.571 -2.4690001 0.241
10.607 -2.4449999 0.241
10.628 -2.4170001 0.242
10.656 -2.392 0.242
10.687 -2.3670001 0.243
10.729 -2.3440001 0.244
10.761 -2.319 0.245
10.803 -2.2969999 0.24600001
10.826 -2.27 0.24600001
10.845 -2.243 0.24699999
10.88 -2.2179999 0.24699999
10.925 -2.1960001 0.249
10.925 -2.165 0.249
11.002 -2.1489999 0.25
11.049 -2.128 0.25099999
11.084 -2.1029999 0.252
11.107 -2.0769999 0.25299999
11.179 -2.0599999 0.25400001
11.17 -2.0280001 0.25400001
11.185 -2 0.25400001
11.231 -1.978 0.25600001
11.254 -1.952 0.25600001
11.315 -1.932 0.257
11.33 -1.905 0.25799999
11.379 -1.883 0.259
11.429 -1.8609999 0.25999999
11.462 -1.837 0.26100001
11.506 -1.814 0.26199999
11.528 -1.788 0.26199999
11.529 -1.7589999 0.26199999
11.6 -1.74 0.264
11.647 -1.7180001 0.26499999
11.712 -1.698 0.26699999
11.767 -1.677 0.26800001
11.728 -1.642 0.26699999
11.785 -1.622 0.26800001
11.837 -1.6 0.27000001
11.842 -1.572 0.27000001
11.859 -1.546 0.27000001
11.884 -1.52 0.271
11.905 -1.495 0.271
11.956 -1.473 0.27200001
11.993 -1.449 0.273
12.023 -1.425 0.27399999
12.041 -1.399 0.27399999
12.103 -1.3789999 0.27599999
12.121 -1.353 0.27599999
12.146 -1.3279999 0.27700001
12.17 -1.304 0.27700001
12.214 -1.281 0.278
12.272 -1.26 0.28
12.277 -1.233 0.28
12.316 -1.21 0.28099999
12.35 -1.187 0.28200001
12.452 -1.169 0.28400001
12.497 -1.147 0.285
12.692 -1.084 0.28999999
12.619 -1.051 0.28799999
8.2819996 -0.62199998 0.189
8.0970001 -0.59100002 0.185
8.033 -0.57099998 0.183
8.0340004 -0.55500001 0.183
8.0340004 -0.53899997 0.183
8.0200005 -0.52200001 0.183
8.0369997 -0.50800002 0.184
8.0710001 -0.49399999 0.184
8.0959997 -0.47999999 0.185
8.2309999 -0.472 0.18799999
8.4449997 -0.46900001 0.193
8.3999996 -0.44999999 0.192
8.3870001 -0.43399999 0.192
8.3730001 -0.41800001 0.191
8.3769999 -0.40200001 0.192
8.3940001 -0.38800001 0.192
8.3979998 -0.373 0.192
8.4029999 -0.35800001 0.192
8.4619999 -0.345 0.19400001
12.894 0.171 0.17900001
12.94 0.19499999 0.17900001
12.944 0.21799999 0.17900001
12.98 0.242 0.17900001
12.987 0.26699999 0.17900001
13.058 0.29300001 0.18000001
13.042 0.317 0.17900001
13.018 0.34099999 0.17900001
13.053 0.368 0.17900001
13.031 0.39199999 0.17900001
13.068 0.419 0.17900001
13.028 0.44400001 0.178
13.077 0.472 0.17900001
13.035 0.49700001 0.178
13.075 0.52600002 0.178
13.083 0.55299997 0.178
13.057 0.57999998 0.178
13.075 0.60799998 0.178
13.08 0.63599998 0.178
13.096 0.66600001 0.178
13.104 0.69400001 0.178
13.098 0.72299999 0.177
13.109 0.75300002 0.177
13.123 0.78299999 0.177
13.129 0.81300002 0.177
13.109 0.84100002 0.177
13.131 0.87300003 0.177
13.121 0.90200001 0.177
13.134 0.93400002 0.177
13.131 0.96399999 0.177
13.142 0.99599999 0.176
13.141 1.027 0.176
13.146 1.059 0.176
13.176 1.0930001 0.176
13.221 1.1289999 0.177
13.269 1.166 0.177
13.298 1.201 0.178
13.244 1.229 0.177
13.238 1.261 0.177
13.214 1.2920001 0.176
13.235 1.3279999 0.176
13.271 1.365 0.176
13.291 1.401 0.177
13.321 1.439 0.177
13.344 1.476 0.177
13.363 1.513 0.177
13.357 1.5470001 0.177
13.389 1.586 0.177
13.373 1.62 0.177
13.395 1.658 0.177
13.428 1.698 0.177
13.454 1.738 0.177
13.508 1.7819999 0.178
13.531 1.822 0.178
13.547 1.8609999 0.178
13.578 1.902 0.17900001
13.618 1.946 0.17900001
13.639 1.987 0.17900001
13.627 2.023 0.17900001
13.66 2.066 0.17900001
13.673 2.1070001 0.17900001
13.693 2.1489999 0.17900001
13.728 2.194 0.18000001
13.775 2.2409999 0.18000001
13.825 2.289 0.18099999
13.848 2.3329999 0.18099999
13.893 2.381 0.18099999
13.938 2.4289999 0.182
13.985 2.4779999 0.182
14.034 2.5280001 0.183
14.079 2.5780001 0.183
14.075 2.619 0.183
14.112 2.668 0.183
14.187 2.7249999 0.184
14.206 2.7709999 0.184
14.263 2.825 0.185
14.319 2.8800001 0.186
14.355 2.931 0.186
14.428 2.99 0.18700001
14.47 3.043 0.18700001
14.531 3.0999999 0.18799999
14.575 3.155 0.18799999
14.671 3.221 0.189
14.672 3.267 0.189
14.719 3.3239999 0.19
14.789 3.3859999 0.191
14.81 3.437 0.191
14.821 3.4860001 0.191
14.871 3.546 0.191
14.918 3.6040001 0.192
14.972 3.665 0.192
14.984 3.7160001 0.193
15.019 3.773 0.193
15.071 3.8340001 0.193
15.094 3.8889999 0.19400001
15.167 3.957 0.19400001
15.192 4.013 0.19499999
15.236 4.0739999 0.19499999
15.286 4.138 0.19599999
15.374 4.2119999 0.197
15.412 4.2729998 0.197
15.42 4.3260002 0.197
15.531 4.408 0.198
15.551 4.4660001 0.199
15.587 4.5279999 0.199
15.665 4.6030002 0.2
15.678 4.6589999 0.2
15.806 4.75 0.20100001
15.869 4.823 0.20200001
15.945 4.9000001 0.20299999
15.959 4.9580002 0.20299999
16.058001 5.0430002 0.204
16.125 5.119 0.205
16.093 5.164 0.205
16.167 5.243 0.205
16.226 5.3169999 0.206
7.5050001 2.4849999 0.094999999
7.381 2.4690001 0.093000002
7.3169999 2.473 0.093000002
7.2940001 2.4909999 0.092
7.2670002 2.506 0.092
7.2459998 2.5239999 0.092
7.1999998 2.533 0.090999998
7.151 2.5409999 0.090000004
7.1139998 2.553 0.090000004
7.0900002 2.569 0.089000002
7.0780001 2.589 0.089000002
7.0700002 2.6110001 0.089000002
7.0739999 2.638 0.089000002
7.0910001 2.6689999 0.089000002
7.1440001 2.714 0.090000004
7.3319998 2.8110001 0.092
13.095 5.5819998 0.16500001
12.905 5.5479999 0.162
12.729 5.5180001 0.16
12.619 5.5159998 0.15800001
12.816 5.6479998 0.161
12.328 5.881 0.154
12.286 5.9060001 0.154
12.295 5.9549999 0.154
12.165 6.0250001 0.152
12.155 6.0650001 0.152
12.158 6.1110001 0.152
8.5459995 -5.0450001 0.21699999
8.5480003 -5.0209999 0.21699999
8.5469999 -4.9959998 0.21699999
8.5670004 -4.9840002 0.21699999
8.5959997 -4.9759998 0.21799999
8.5930004 -4.9499998 0.21799999
8.599 -4.928 0.21799999
8.6140003 -4.9130001 0.219
8.6330004 -4.8990002 0.219
8.6470003 -4.882 0.219
8.6719999 -4.8709998 0.22
8.6730003 -4.8470001 0.22
8.6940002 -4.8330002 0.221
8.71 -4.8179998 0.221
8.7150002 -4.7950001 0.221
8.7119999 -4.7690001 0.221
8.7229996 -4.7490001 0.222
8.7460003 -4.737 0.222
8.7440004 -4.71 0.222
8.7729998 -4.7010002 0.223
8.7650003 -4.671 0.223
8.7810001 -4.6539998 0.223
8.802 -4.6399999 0.22400001
8.8210001 -4.625 0.22400001
8.8599997 -4.619 0.22499999
8.8690004 -4.598 0.22499999
8.8620005 -4.5689998 0.22499999
8.8649998 -4.5450001 0.22499999
8.8669996 -4.5209999 0.22499999
8.8719997 -4.4970002 0.226
8.8879995 -4.48 0.226
8.8850002 -4.4530001 0.226
8.9169998 -4.4429998 0.227
8.9320002 -4.4239998 0.227
8.9610004 -4.4130001 0.228
8.9589996 -4.3860002 0.228
8.9689999 -4.3649998 0.228
8.9790001 -4.3439999 0.228
9.0080004 -4.3319998 0.229
9.026 -4.3140001 0.23
9.0559998 -4.302 0.23
9.0690002 -4.2820001 0.23100001
9.0860004 -4.263 0.23100001
9.092 -4.2399998 0.23100001
9.1009998 -4.2179999 0.23199999
9.125 -4.2020001 0.23199999
9.1219997 -4.1739998 0.23199999
9.1619997 -4.1659999 0.233
9.1750002 -4.145 0.234
9.1809998 -4.1209998 0.234
9.2019997 -4.1040001 0.234
9.2159996 -4.0830002 0.235
9.2329998 -4.0640001 0.235
9.2559996 -4.0469999 0.236
9.2740002 -4.0279999 0.236
9.3030005 -4.0139999 0.237
9.3210001 -3.994 0.237
9.3249998 -3.9690001 0.23800001
9.3450003 -3.95 0.23800001
9.3739996 -3.9349999 0.23899999
9.3920002 -3.9159999 0.23899999
9.3990002 -3.891 0.23999999
9.4320002 -3.8770001 0.23999999
9.4399996 -3.8529999 0.241
9.4499998 -3.8299999 0.241
9.4650002 -3.8080001 0.241
9.5 -3.7950001 0.242
9.5150003 -3.773 0.243
9.5419998 -3.756 0.243
9.5699997 -3.7390001 0.244
9.566 -3.71 0.244
9.5860004 -3.6900001 0.244
9.6120005 -3.6719999 0.245
9.6210003 -3.6470001 0.245
9.6560001 -3.632 0.24600001
9.6800003 -3.6129999 0.24699999
9.6890001 -3.589 0.24699999
9.7139997 -3.5699999 0.248
9.7150002 -3.5420001 0.248
9.7299995 -3.5190001 0.248
9.7530003 -3.4990001 0.249
9.7620001 -3.474 0.249
9.7930002 -3.457 0.25
9.8280001 -3.4400001 0.25099999
9.8389997 -3.4159999 0.25099999
9.8369999 -3.3859999 0.25099999
9.8629999 -3.3670001 0.252
9.8579998 -3.336 0.252
9.8979998 -3.3210001 0.25299999
9.9449997 -3.3080001 0.25400001
9.9490004 -3.2809999 0.25400001
9.9580002 -3.2550001 0.25400001
10.02 -3.2460001 0.25600001
10.105 -3.244 0.25799999
10.075 -3.2049999 0.257
10.079 -3.178 0.257
10.096 -3.154 0.25799999
10.09 -3.1229999 0.25799999
10.104 -3.098 0.25799999
10.147 -3.0810001 0.259
10.14 -3.05 0.259
10.155 -3.0250001 0.259
10.206 -3.0109999 0.26100001
10.208 -2.9820001 0.26100001
10.239 -2.961 0.26100001
10.244 -2.9330001 0.26100001
10.257 -2.9070001 0.26199999
10.291 -2.8870001 0.26300001
10.322 -2.8659999 0.26300001
10.339 -2.8410001 0.264
10.372 -2.8199999 0.26499999
10.383 -2.793 0.26499999
10.419 -2.7720001 0.266
10.45 -2.7509999 0.26699999
10.482 -2.7290001 0.26800001
10.512 -2.7060001 0.26800001
10.551 -2.6860001 0.26899999
10.572 -2.661 0.27000001
10.589 -2.635 0.27000001
10.593 -2.605 0.27000001
10.611 -2.579 0.271
10.63 -2.553 0.271
10.66 -2.529 0.27200001
10.68 -2.503 0.273
10.703 -2.4779999 0.273
10.756 -2.4590001 0.27500001
10.776 -2.4330001 0.27500001
10.812 -2.4100001 0.27599999
10.861 -2.3900001 0.27700001
10.863 -2.359 0.27700001
10.895 -2.3340001 0.278
10.933 -2.3110001 0.27900001
10.988 -2.2909999 0.28099999
10.997 -2.2609999 0.28099999
11.026 -2.2360001 0.28200001
11.067 -2.2119999 0.28299999
11.118 -2.191 0.28400001
11.176 -2.1700001 0.285
11.204 -2.1429999 0.28600001
11.232 -2.1159999 0.287
11.279 -2.0929999 0.28799999
11.338 -2.0710001 0.289
11.364 -2.0439999 0.28999999
11.387 -2.0150001 0.29100001
11.436 -1.9910001 0.292
11.497 -1.969 0.294
11.525 -1.9400001 0.294
11.556 -1.9119999 0.29499999
11.641 -1.893 0.29699999
11.652 -1.862 0.29699999
11.779 -1.848 0.301
11.766 -1.812 0.30000001
11.775 -1.78 0.301
11.836 -1.755 0.30199999
11.862 -1.725 0.303
11.904 -1.697 0.30399999
11.936 -1.668 0.30500001
11.94 -1.6339999 0.30500001
11.996 -1.608 0.30599999
12.012 -1.575 0.30700001
12.067 -1.548 0.308
12.098 -1.518 0.30899999
12.138 -1.488 0.31
12.221 -1.4630001 0.31200001
12.281 -1.4349999 0.31299999
12.303 -1.403 0.31400001
12.349 -1.373 0.315
12.382 -1.341 0.31600001
12.487 -1.317 0.31900001
12.562 -1.289 0.31999999
12.667 -1.263 0.32300001
12.674 -1.228 0.32300001
12.746 -1.199 0.32499999
8.0690002 -0.667 0.206
8.0139999 -0.639 0.204
8.0139999 -0.616 0.204
8.0299997 -0.59500003 0.205
8.0410004 -0.57200003 0.205
8.1199999 -0.55500001 0.207
8.323 -0.54500002 0.212
8.3660002 -0.52399999 0.213
8.3579998 -0.5 0.213
8.3629999 -0.47600001 0.213
8.3699999 -0.45300001 0.213
8.4160004 -0.43099999 0.214
8.5349998 -0.41299999 0.21699999
13.53 0.48100001 0.212
13.518 0.50099999 0.212
13.51 0.52100003 0.212
13.482 0.54000002 0.211
13.446 0.56 0.20999999
13.474 0.58200002 0.211
13.456 0.60299999 0.20999999
13.472 0.62599999 0.20999999
13.456 0.64700001 0.20999999
13.408 0.667 0.20900001
13.448 0.69199997 0.20900001
13.444 0.71499997 0.20900001
13.426 0.73699999 0.20900001
13.423 0.75999999 0.208
13.431 0.78500003 0.208
13.421 0.80800003 0.208
13.411 0.83200002 0.208
13.429 0.85799998 0.208
13.426 0.88300002 0.208
13.456 0.91000003 0.208
13.455 0.935 0.208
13.472 0.963 0.208
13.47 0.98900002 0.208
13.51 1.018 0.208
13.489 1.043 0.208
13.507 1.072 0.208
13.515 1.1 0.208
13.573 1.132 0.20900001
13.626 1.165 0.20900001
13.661 1.197 0.20999999
13.628 1.222 0.20900001
13.587 1.248 0.208
13.602 1.278 0.208
13.598 1.307 0.208
13.605 1.3380001 0.208
13.665 1.374 0.20900001
13.692 1.4069999 0.20900001
13.77 1.446 0.20999999
13.785 1.479 0.211
13.777 1.5089999 0.20999999
13.796 1.543 0.20999999
13.797 1.575 0.20999999
13.839 1.613 0.211
13.832 1.6440001 0.211
13.873 1.682 0.211
13.919 1.721 0.212
13.904 1.753 0.212
13.917 1.788 0.212
13.933 1.825 0.212
13.973 1.864 0.212
14.02 1.906 0.213
14.042 1.944 0.213
14.063 1.982 0.213
14.073 2.0190001 0.213
14.094 2.0580001 0.214
14.149 2.1029999 0.214
14.212 2.1489999 0.215
14.218 2.187 0.215
14.257 2.2309999 0.21600001
14.285 2.273 0.21600001
14.308 2.3150001 0.21600001
14.396 2.368 0.21799999
14.435 2.4130001 0.21799999
14.494 2.4619999 0.219
14.507 2.5039999 0.219
14.506 2.5439999 0.219
14.532 2.589 0.219
14.555 2.6329999 0.22
14.59 2.6800001 0.22
14.688 2.74 0.222
14.704 2.7850001 0.222
14.776 2.8399999 0.223
14.81 2.8889999 0.223
14.863 2.9430001 0.22400001
14.86 2.9849999 0.22400001
14.879 3.0320001 0.22400001
14.923 3.085 0.22499999
14.958 3.1359999 0.22499999
15.008 3.191 0.226
15.025 3.24 0.226
15.037 3.2869999 0.226
15.127 3.3529999 0.228
15.176 3.4100001 0.228
15.215 3.4649999 0.229
15.229 3.5150001 0.229
15.237 3.563 0.229
15.246 3.6129999 0.229
15.393 3.6960001 0.23100001
15.455 3.7590001 0.23199999
15.488 3.8150001 0.233
15.45 3.855 0.23199999
15.503 3.918 0.233
15.557 3.9809999 0.234
15.554 4.0300002 0.234
15.672 4.1110001 0.236
15.724 4.1750002 0.236
15.776 4.2410002 0.237
15.834 4.3080001 0.23800001
15.804 4.3520002 0.23800001
15.918 4.4359999 0.23899999
15.955 4.4990001 0.23999999
16.016001 4.5689998 0.241
16.016001 4.6230001 0.241
16.091 4.6989999 0.242
16.124001 4.763 0.242
16.327999 4.8790002 0.245
16.301001 4.9260001 0.245
16.306 4.9840002 0.245
16.382 5.0630002 0.24600001
16.406 5.1269999 0.24699999
16.427 5.191 0.24699999
16.461 5.2589998 0.248
16.469999 5.3200002 0.248
16.594 5.4180002 0.25
7.7529998 2.559 0.116
16.872 5.5689998 0.25400001
7.4260001 2.477 0.111
7.349 2.4779999 0.11
7.3000002 2.487 0.11
7.2680001 2.5020001 0.109
7.2410002 2.5190001 0.109
7.1869998 2.527 0.108
7.1360002 2.5339999 0.107
7.105 2.549 0.107
7.086 2.569 0.106
7.0710001 2.589 0.106
7.0710001 2.6159999 0.106
7.0809999 2.645 0.106
7.0939999 2.677 0.107
7.197 2.743 0.108
13.134 5.5079999 0.199
12.966 5.4889998 0.19599999
12.821 5.4780002 0.19400001
12.667 5.4619999 0.192
12.566 5.4679999 0.19
12.666 5.5619998 0.192
12.248 6.0799999 0.18700001
12.201 6.1079998 0.186
12.179 6.303 0.186
12.201 6.3670001 0.186
12.194 6.4159999 0.186
12.245 6.4949999 0.18700001
8.151 -5.3649998 0.229
8.1870003 -5.3369999 0.23
8.2410002 -5.3210001 0.23100001
8.2589998 -5.2820001 0.23199999
8.2910004 -5.2519999 0.23199999
8.3269997 -5.224 0.233
8.3640003 -5.197 0.234
8.3979998 -5.1680002 0.235
8.4250002 -5.1350002 0.236
8.4560003 -5.105 0.236
8.4799995 -5.0710001 0.237
8.5120001 -5.0409999 0.23800001
8.5170002 -4.9959998 0.23800001
8.5509996 -4.9679999 0.23800001
8.5699997 -4.9310002 0.23899999
8.5860004 -4.8920002 0.23899999
8.6110001 -4.8590002 0.23999999
8.6440001 -4.8309999 0.23999999
8.677 -4.803 0.241
8.7229996 -4.7810001 0.242
8.7530003 -4.7509999 0.243
8.7740002 -4.717 0.244
8.7729998 -4.6700001 0.243
8.7939997 -4.6360002 0.244
8.8100004 -4.599 0.244
8.8280001 -4.5640001 0.245
8.8590002 -4.5349998 0.245
8.8959999 -4.5100002 0.24600001
8.9329996 -4.4840002 0.24699999
8.948 -4.447 0.248
8.9680004 -4.414 0.248
8.9840002 -4.3779998 0.248
9.0349998 -4.3590002 0.25
9.0679998 -4.3319998 0.25
9.0979996 -4.303 0.25099999
9.1239996 -4.2729998 0.252
9.1269999 -4.2309999 0.252
9.1689997 -4.2080002 0.25299999
9.1789999 -4.171 0.25299999
9.2159996 -4.1459999 0.25400001
9.2229996 -4.1069999 0.25400001
9.2729998 -4.0879998 0.255
9.2989998 -4.0580001 0.25600001
9.3219995 -4.026 0.257
9.3400002 -3.993 0.257
9.382 -3.971 0.25799999
9.4239998 -3.947 0.259
9.4460001 -3.9159999 0.25999999
9.4989996 -3.898 0.26100001
9.4940004 -3.855 0.26100001
9.5200005 -3.826 0.26100001
9.5609999 -3.802 0.26199999
9.5609999 -3.763 0.26199999
9.6079998 -3.7420001 0.264
9.6339998 -3.7130001 0.264
9.6680002 -3.6860001 0.26499999
9.6719999 -3.6489999 0.26499999
9.7189999 -3.628 0.266
9.7530003 -3.602 0.26699999
9.7880001 -3.576 0.26800001
9.7950001 -3.54 0.26800001
9.816 -3.51 0.26899999
9.8280001 -3.4760001 0.26899999
9.8620005 -3.45 0.27000001
9.9300003 -3.4360001 0.27200001
9.9219999 -3.3959999 0.271
9.9630003 -3.372 0.27200001
9.9870005 -3.3429999 0.273
10.022 -3.3180001 0.27399999
10.044 -3.2880001 0.27500001
10.081 -3.263 0.27500001
10.169 -3.2550001 0.278
10.199 -3.2279999 0.27900001
10.21 -3.194 0.27900001
10.19 -3.152 0.278
10.222 -3.1259999 0.27900001
10.254 -3.0999999 0.28
10.284 -3.073 0.28099999
10.294 -3.04 0.28099999
10.332 -3.0150001 0.28200001
10.368 -2.9909999 0.28299999
10.376 -2.9579999 0.28299999
10.407 -2.931 0.28400001
10.457 -2.9100001 0.285
10.481 -2.882 0.28600001
10.509 -2.855 0.28600001
10.547 -2.8310001 0.28799999
10.582 -2.8050001 0.28799999
10.613 -2.779 0.289
10.662 -2.757 0.29100001
10.706 -2.734 0.292
10.696 -2.698 0.29100001
10.748 -2.677 0.29300001
10.758 -2.6459999 0.29300001
10.786 -2.619 0.294
10.82 -2.5929999 0.29499999
10.871 -2.572 0.296
10.906 -2.5469999 0.29699999
10.962 -2.527 0.29800001
10.976 -2.497 0.29899999
11.011 -2.471 0.30000001
11.037 -2.444 0.30000001
11.073 -2.4189999 0.301
11.092 -2.391 0.30199999
11.16 -2.3729999 0.30399999
11.196 -2.348 0.30500001
11.238 -2.3239999 0.30599999
11.276 -2.299 0.30700001
11.327 -2.277 0.308
11.39 -2.2579999 0.31
11.404 -2.2279999 0.31
11.466 -2.2079999 0.31200001
11.495 -2.1819999 0.31299999
11.539 -2.158 0.31400001
11.611 -2.1400001 0.31600001
11.58 -2.102 0.315
11.618 -2.0780001 0.31600001
11.677 -2.0569999 0.31799999
11.715 -2.0320001 0.31900001
11.753 -2.007 0.31999999
11.8 -1.984 0.32100001
11.855 -1.962 0.322
11.995 -1.954 0.32600001
12.019 -1.926 0.32699999
11.975 -1.888 0.32600001
11.974 -1.857 0.32600001
12.027 -1.835 0.32699999
12.052 -1.808 0.32800001
12.071 -1.781 0.32800001
12.079 -1.752 0.329
12.141 -1.7309999 0.33000001
12.137 -1.7 0.33000001
12.172 -1.675 0.331
12.212 -1.651 0.33199999
12.23 -1.624 0.333
12.261 -1.598 0.33399999
12.283 -1.572 0.33399999
12.331 -1.549 0.33500001
12.348 -1.522 0.336
12.361 -1.494 0.336
12.469 -1.478 0.33899999
12.454 -1.448 0.33899999
12.461 -1.42 0.33899999
12.56 -1.403 0.34200001
12.575 -1.376 0.34200001
12.67 -1.358 0.345
12.69 -1.331 0.345
12.706 -1.3049999 0.34599999
12.782 -1.284 0.34799999
12.904 -1.268 0.35100001
12.962 -1.2460001 0.35299999
12.932 -1.215 0.352
8.1289997 -0.59399998 0.221
8.0469999 -0.57200003 0.219
8.0360003 -0.55500001 0.219
8.0360003 -0.53899997 0.219
8.0220003 -0.523 0.219
8.0209999 -0.50700003 0.219
8.052 -0.493 0.219
8.0649996 -0.479 0.22
8.1040001 -0.465 0.221
8.1689997 -0.454 0.223
8.2919998 -0.44499999 0.226
8.3369999 -0.43200001 0.227
8.3590002 -0.417 0.228
8.3520002 -0.40200001 0.228
8.3579998 -0.38699999 0.228
8.3649998 -0.37200001 0.228
8.3959999 -0.35800001 0.229
8.4589996 -0.34599999 0.23100001
13.335 0.17900001 0.25
13.404 0.20299999 0.25099999
13.457 0.229 0.25099999
13.43 0.25299999 0.25099999
13.465 0.278 0.25099999
13.447 0.303 0.25099999
13.432 0.32800001 0.25
13.431 0.354 0.25
13.44 0.38 0.25
13.432 0.40599999 0.25
13.461 0.43399999 0.25
13.44 0.46000001 0.249
13.429 0.48699999 0.249
13.47 0.51599997 0.249
13.451 0.54299998 0.249
13.481 0.57200003 0.249
13.452 0.59899998 0.249
13.481 0.62900001 0.249
13.45 0.65600002 0.248
13.449 0.685 0.248
13.461 0.71499997 0.248
13.49 0.74599999 0.248
13.498 0.77600002 0.248
13.51 0.80699998 0.248
13.493 0.83600003 0.248
13.5 0.86799997 0.248
13.523 0.89999998 0.248
13.509 0.93000001 0.248
13.561 0.96499997 0.249
13.541 0.995 0.248
13.552 1.028 0.248
13.547 1.0599999 0.248
13.554 1.0930001 0.248
13.562 1.126 0.248
13.612 1.163 0.249
13.701 1.205 0.25
13.72 1.24 0.25
13.729 1.275 0.25
13.758 1.312 0.25099999
13.746 1.345 0.25
13.775 1.383 0.25099999
13.798 1.42 0.25099999
13.873 1.464 0.252
13.947 1.507 0.25400001
13.988 1.548 0.25400001
13.974 1.5829999 0.25400001
13.958 1.617 0.25299999
13.981 1.6569999 0.25400001
14.03 1.7 0.255
14.073 1.743 0.255
14.108 1.785 0.25600001
14.141 1.827 0.25600001
14.151 1.867 0.25600001
14.196 1.9119999 0.257
14.238 1.956 0.25799999
14.267 2 0.25799999
14.312 2.0450001 0.259
14.349 2.0910001 0.259
14.396 2.138 0.25999999
14.476 2.1900001 0.26199999
14.529 2.2390001 0.26199999
14.553 2.2839999 0.26300001
14.614 2.336 0.264
14.661 2.385 0.26499999
14.68 2.431 0.26499999
14.718 2.4790001 0.26499999
14.79 2.5350001 0.26699999
14.783 2.5769999 0.266
14.794 2.622 0.266
14.845 2.675 0.26699999
14.912 2.7309999 0.26800001
14.979 2.7880001 0.27000001
15.038 2.8429999 0.271
15.08 2.8970001 0.271
15.086 2.9430001 0.271
15.198 3.0109999 0.273
15.184 3.0539999 0.273
15.195 3.102 0.273
15.229 3.1559999 0.27399999
15.299 3.217 0.27500001
15.37 3.28 0.27599999
15.413 3.336 0.27700001
15.475 3.398 0.278
15.511 3.454 0.278
15.548 3.5109999 0.27900001
15.584 3.5680001 0.28
15.683 3.6400001 0.28099999
15.71 3.6960001 0.28200001
15.82 3.7709999 0.28400001
15.852 3.8299999 0.28400001
15.872 3.885 0.285
15.904 3.944 0.285
15.979 4.0139999 0.28600001
15.982 4.066 0.28600001
15.989 4.119 0.287
16.024 4.1799998 0.287
16.107 4.2540002 0.289
16.143 4.316 0.289
16.174 4.3779998 0.28999999
16.284 4.461 0.292
16.379999 4.5409999 0.29300001
16.421 4.6069999 0.294
16.441999 4.6669998 0.294
16.540001 4.75 0.296
16.554001 4.809 0.296
16.676001 4.9000001 0.29899999
16.752001 4.9780002 0.30000001
16.739 5.0300002 0.30000001
16.893999 5.1339998 0.303
16.855 5.1789999 0.30199999
16.862 5.2379999 0.30199999
16.931 5.3169999 0.303
16.914 5.369 0.303
16.921 5.4289999 0.303
17.181999 5.5710001 0.308
17.181999 5.6300001 0.308
7.4910002 2.48 0.134
7.3670001 2.464 0.132
7.3140001 2.4719999 0.131
7.2880001 2.4879999 0.13
7.2589998 2.503 0.13
7.1939998 2.506 0.12899999
7.1570001 2.5179999 0.12800001
7.1160002 2.5280001 0.127
7.0910001 2.5439999 0.127
7.086 2.5669999 0.127
7.072 2.5869999 0.126
7.0710001 2.6110001 0.126
7.0679998 2.635 0.126
7.085 2.6659999 0.127
7.1329999 2.7090001 0.12800001
7.3039999 2.8 0.131
13.029 5.46 0.234
12.904 5.454 0.23199999
12.816 5.4629998 0.23
12.738 5.4759998 0.229
12.618 5.4689999 0.227
12.512 5.4679999 0.22499999
12.51 5.513 0.22499999
12.248 5.8870001 0.221
12.204 5.9099998 0.22
12.202 6.4000001 0.221
12.176 6.4299998 0.22
12.213 6.494 0.221
12.262 6.5650001 0.222
8.7910004 -5.1939998 0.264
8.7880001 -5.1659999 0.264
8.7939997 -5.145 0.264
8.8170004 -5.1329999 0.26499999
8.8280001 -5.1149998 0.26499999
8.8620005 -5.1090002 0.266
8.8500004 -5.0770001 0.266
8.8479996 -5.0500002 0.266
8.8769999 -5.0409999 0.26699999
8.882 -5.0180001 0.26699999
8.9119997 -5.0100002 0.26800001
8.9119997 -4.9840002 0.26800001
8.9180002 -4.9619999 0.26800001
8.9420004 -4.9499998 0.26899999
8.9560003 -4.9310002 0.26899999
8.9560003 -4.9060001 0.26899999
8.9689999 -4.8870001 0.27000001
8.9940004 -4.875 0.27000001
9.0120001 -4.8590002 0.271
9.0170002 -4.835 0.271
9.0360003 -4.8189998 0.27200001
9.0450001 -4.7979999 0.27200001
9.0500002 -4.7750001 0.27200001
9.1059999 -4.7779999 0.27399999
9.1280003 -4.763 0.27399999
9.2279997 -4.7880001 0.278
9.1940002 -4.744 0.27599999
9.1409998 -4.6900001 0.27500001
9.1389999 -4.6630001 0.27500001
9.1429996 -4.638 0.27500001
9.158 -4.619 0.27500001
9.184 -4.6059999 0.27599999
9.184 -4.579 0.27599999
9.2049999 -4.5630002 0.27700001
9.2159996 -4.5419998 0.27700001
9.243 -4.5279999 0.278
9.2379999 -4.4980001 0.278
9.2740002 -4.4889998 0.27900001
9.309 -4.4790001 0.28
9.3199997 -4.4569998 0.28
9.3439999 -4.441 0.28099999
9.3649998 -4.4239998 0.28200001
9.3739996 -4.401 0.28200001
9.3789997 -4.3759999 0.28200001
9.3990002 -4.3579998 0.28299999
9.4049997 -4.3340001 0.28299999
9.4180002 -4.3119998 0.28299999
9.4300003 -4.2909999 0.28400001
9.4619999 -4.2779999 0.285
9.4650002 -4.2509999 0.285
9.4870005 -4.2329998 0.285
9.5039997 -4.2140002 0.28600001
9.4980001 -4.1830001 0.28600001
9.5299997 -4.1700001 0.287
9.5410004 -4.1469998 0.287
9.54 -4.118 0.287
9.5810003 -4.1079998 0.28799999
9.5900002 -4.0840001 0.289
9.6149998 -4.0669999 0.289
9.651 -4.0539999 0.28999999
9.6680002 -4.033 0.29100001
9.6630001 -4.0029998 0.29100001
9.6590004 -3.973 0.29100001
9.6940002 -3.9590001 0.292
9.7130003 -3.938 0.292
9.7329998 -3.918 0.29300001
9.7290001 -3.888 0.29300001
9.7530003 -3.869 0.294
9.7740002 -3.849 0.294
9.809 -3.835 0.29499999
9.8050003 -3.8039999 0.29499999
9.842 -3.79 0.296
9.8520002 -3.7650001 0.296
9.875 -3.7449999 0.29699999
9.9099998 -3.73 0.29800001
9.9230003 -3.7060001 0.29899999
9.927 -3.678 0.29899999
9.9460001 -3.6570001 0.29899999
9.9580002 -3.632 0.30000001
9.9910002 -3.615 0.301
10.006 -3.5910001 0.301
10.024 -3.569 0.30199999
10.038 -3.5439999 0.30199999
10.069 -3.526 0.303
10.091 -3.5050001 0.30399999
10.1 -3.4779999 0.30399999
10.116 -3.4549999 0.30399999
10.138 -3.4330001 0.30500001
10.161 -3.411 0.30599999
10.183 -3.3889999 0.30599999
10.189 -3.3610001 0.30700001
10.219 -3.3410001 0.30700001
10.301 -3.3380001 0.31
10.351 -3.325 0.31099999
10.323 -3.2850001 0.31099999
10.321 -3.2550001 0.31
10.326 -3.227 0.31099999
10.332 -3.1989999 0.31099999
10.359 -3.177 0.31200001
10.365 -3.1489999 0.31200001
10.384 -3.1240001 0.31200001
10.416 -3.1040001 0.31299999
10.441 -3.0810001 0.31400001
10.463 -3.0569999 0.315
10.516 -3.0420001 0.31600001
10.524 -3.0139999 0.31600001
10.561 -2.994 0.31799999
10.573 -2.967 0.31799999
10.597 -2.9430001 0.31900001
10.638 -2.924 0.31999999
10.663 -2.9000001 0.32100001
10.678 -2.8729999 0.32100001
10.702 -2.849 0.322
10.737 -2.8269999 0.32300001
10.753 -2.8 0.32300001
10.824 -2.7869999 0.32499999
10.866 -2.767 0.32699999
10.888 -2.7409999 0.32699999
10.914 -2.7160001 0.32800001
10.985 -2.7019999 0.33000001
11 -2.674 0.331
11.017 -2.6459999 0.331
11.047 -2.622 0.33199999
11.077 -2.5969999 0.333
11.126 -2.576 0.33399999
11.153 -2.55 0.33500001
11.171 -2.523 0.336
11.193 -2.4949999 0.336
11.252 -2.4760001 0.338
11.265 -2.4460001 0.338
11.296 -2.421 0.33899999
11.326 -2.3940001 0.34
11.374 -2.372 0.34200001
11.422 -2.349 0.34299999
11.458 -2.3239999 0.34400001
11.522 -2.303 0.34599999
11.567 -2.279 0.347
11.601 -2.2520001 0.34799999
11.647 -2.2279999 0.34999999
11.73 -2.21 0.352
11.704 -2.1719999 0.35100001
11.719 -2.141 0.352
11.786 -2.119 0.354
11.866 -2.0999999 0.35600001
11.873 -2.0669999 0.35600001
11.942 -2.0450001 0.35800001
11.966 -2.0139999 0.359
11.998 -1.985 0.36000001
12.092 -1.966 0.36300001
12.253 -1.957 0.368
12.188 -1.9119999 0.366
12.192 -1.878 0.366
12.174 -1.84 0.36500001
12.268 -1.819 0.368
12.28 -1.786 0.368
12.326 -1.757 0.37
12.321 -1.721 0.37
12.386 -1.6950001 0.37200001
12.424 -1.664 0.373
12.458 -1.633 0.37400001
12.503 -1.604 0.375
12.541 -1.572 0.37599999
12.623 -1.5470001 0.37799999
12.681 -1.518 0.38
12.745 -1.489 0.382
12.784 -1.457 0.38299999
12.889 -1.432 0.38600001
12.931 -1.4 0.38800001
13.021 -1.372 0.38999999
8.1379995 -0.671 0.244
8.0109997 -0.63800001 0.23999999
8.0129995 -0.61500001 0.23999999
8.0380001 -0.59399998 0.23999999
8.0229998 -0.56999999 0.23999999
8.0690002 -0.551 0.241
8.1350002 -0.53200001 0.243
8.2729998 -0.51700002 0.24699999
8.3240004 -0.49700001 0.249
8.3400002 -0.47400001 0.249
8.3549995 -0.45100001 0.25
8.3830004 -0.42899999 0.25099999
8.4940004 -0.41 0.25400001
13.961 0.49900001 0.287
14.024 0.52200001 0.28799999
13.998 0.542 0.287
14.013 0.56400001 0.287
14.014 0.58600003 0.287
14.004 0.60699999 0.28600001
13.967 0.62800002 0.28600001
13.988 0.65200001 0.28600001
13.974 0.67400002 0.285
13.964 0.69700003 0.285
13.972 0.72100002 0.285
13.977 0.745 0.285
13.964 0.76800001 0.28400001
13.984 0.79400003 0.285
14.013 0.81999999 0.285
14.007 0.84500003 0.285
13.994 0.87 0.28400001
14.043 0.89899999 0.285
14.054 0.926 0.285
13.672 1.0319999 0.27700001
13.643 1.057 0.27599999
13.627 1.0829999 0.27599999
13.678 1.115 0.27700001
14.337 1.227 0.28999999
14.296 1.2539999 0.289
14.321 1.286 0.289
14.339 1.318 0.28999999
14.327 1.348 0.289
14.382 1.3839999 0.28999999
14.368 1.414 0.28999999
14.456 1.455 0.292
14.555 1.497 0.29300001
14.596 1.534 0.294
14.563 1.564 0.29300001
14.541 1.594 0.29300001
14.556 1.6289999 0.29300001
14.587 1.6670001 0.294
14.621 1.705 0.294
14.603 1.737 0.294
14.659 1.779 0.29499999
14.673 1.8150001 0.29499999
14.715 1.8559999 0.296
14.719 1.893 0.296
14.701 1.926 0.29499999
14.764 1.971 0.29699999
14.842 2.0179999 0.29800001
14.896 2.063 0.29899999
14.882 2.099 0.29899999
14.957 2.1470001 0.30000001
14.994 2.191 0.301
15.03 2.2349999 0.30199999
15.06 2.2780001 0.30199999
15.07 2.319 0.303
15.107 2.365 0.303
15.143 2.4100001 0.30399999
15.158 2.4530001 0.30399999
15.152 2.4920001 0.30399999
15.19 2.54 0.30500001
15.233 2.5880001 0.30599999
15.244 2.632 0.30599999
15.327 2.688 0.308
15.315 2.7290001 0.30700001
15.376 2.7820001 0.308
15.376 2.825 0.308
15.413 2.8759999 0.30899999
15.447 2.9260001 0.31
15.498 2.9790001 0.31099999
15.503 3.0250001 0.31099999
15.533 3.075 0.31200001
15.599 3.1340001 0.31299999
15.605 3.1800001 0.31299999
15.696 3.2449999 0.315
15.807 3.3150001 0.317
15.838 3.368 0.31799999
15.881 3.425 0.31900001
15.922 3.4809999 0.31999999
15.94 3.533 0.31999999
15.997 3.5940001 0.32100001
16.042 3.6530001 0.322
16.106001 3.717 0.324
16.120001 3.77 0.324
16.153 3.8280001 0.32499999
16.205 3.8900001 0.32600001
16.263 3.9549999 0.32699999
16.333 4.0240002 0.32800001
16.315001 4.0710001 0.32800001
16.361 4.1339998 0.329
16.410999 4.1989999 0.33000001
16.419001 4.2540002 0.33000001
16.490999 4.3260002 0.33199999
16.506001 4.3829999 0.33199999
