# .PCD v0.7 - Point Cloud Data file format
VERSION 0.7
FIELDS x y z
SIZE 4 4 4
TYPE F F F
COUNT 1 1 1
WIDTH 1756
HEIGHT 1
VIEWPOINT 0 0 0 1 0 0 0
POINTS 1756
DATA ascii
9.2989998 0.63200003 -0.29499999
9.3190002 0.65600002 -0.296
9.3280001 0.67799997 -0.29699999
9.3199997 0.69999999 -0.29699999
9.3520002 0.72500002 -0.29800001
9.3409996 0.74599999 -0.29800001
9.3450003 0.76899999 -0.29800001
9.3590002 0.79299998 -0.29899999
9.375 0.81800002 -0.30000001
9.382 0.84200001 -0.30000001
9.3900003 0.866 -0.301
9.4139996 0.89200002 -0.30199999
9.4230003 0.917 -0.303
9.4280005 0.94099998 -0.303
9.4659996 0.96899998 -0.30500001
9.4680004 0.99400002 -0.30500001
9.4919996 1.021 -0.30599999
9.5190001 1.049 -0.30700001
9.5089998 1.073 -0.30700001
9.5129995 1.098 -0.308
9.5340004 1.126 -0.30899999
9.5419998 1.152 -0.30899999
9.566 1.181 -0.31
9.5760002 1.2079999 -0.31099999
9.592 1.2359999 -0.31200001
9.6040001 1.2640001 -0.31299999
9.6059999 1.29 -0.31299999
9.6230001 1.319 -0.31400001
9.6459999 1.349 -0.315
9.6560001 1.377 -0.31600001
9.6660004 1.406 -0.31600001
9.6999998 1.438 -0.31799999
9.7049999 1.466 -0.31799999
9.7349997 1.499 -0.31999999
9.7419996 1.528 -0.31999999
9.7489996 1.557 -0.32100001
9.7779999 1.589 -0.322
9.8109999 1.623 -0.324
9.8190002 1.653 -0.32499999
9.8369999 1.6849999 -0.32600001
9.8500004 1.716 -0.32600001
9.868 1.748 -0.32699999
9.8940001 1.7819999 -0.329
9.9090004 1.814 -0.33000001
9.9250002 1.847 -0.331
9.934 1.878 -0.331
9.9770002 1.916 -0.333
9.9940004 1.95 -0.33399999
10.012 1.984 -0.33500001
10.008 2.0139999 -0.336
10.008 2.0439999 -0.336
10.027 2.079 -0.33700001
10.064 2.118 -0.33899999
10.072 2.1500001 -0.34
10.078 2.1830001 -0.34
10.08 2.2149999 -0.34099999
10.099 2.2509999 -0.34200001
10.125 2.2880001 -0.34299999
10.141 2.3239999 -0.34400001
10.157 2.3599999 -0.345
10.174 2.3959999 -0.34599999
10.201 2.4349999 -0.34799999
10.208 2.4690001 -0.34900001
10.21 2.5020001 -0.34900001
10.232 2.54 -0.34999999
10.236 2.5739999 -0.35100001
10.265 2.615 -0.35299999
10.275 2.651 -0.354
10.292 2.688 -0.35499999
10.351 2.7379999 -0.35699999
10.359 2.7739999 -0.35800001
10.387 2.8150001 -0.36000001
10.404 2.8540001 -0.361
10.433 2.8959999 -0.36199999
10.479 2.944 -0.36399999
10.473 2.977 -0.36500001
10.486 3.016 -0.366
10.515 3.059 -0.36700001
10.532 3.099 -0.36899999
10.53 3.1340001 -0.36899999
10.55 3.1760001 -0.37
10.534 3.2060001 -0.37
10.572 3.2539999 -0.37200001
10.585 3.2939999 -0.37400001
10.604 3.336 -0.375
10.592 3.368 -0.375
10.61 3.4100001 -0.37599999
10.665 3.464 -0.37900001
10.636 3.4909999 -0.37799999
10.641 3.529 -0.37900001
10.642 3.5669999 -0.38
10.645 3.6040001 -0.38100001
10.647 3.642 -0.38100001
10.668 3.6860001 -0.38299999
10.668 3.723 -0.38299999
10.664 3.7590001 -0.384
10.678 3.8010001 -0.38499999
10.672 3.836 -0.38600001
10.69 3.8800001 -0.38699999
10.732 3.9330001 -0.389
10.723 3.9679999 -0.389
10.744 4.013 -0.391
10.784 4.066 -0.39300001
10.78 4.1030002 -0.39399999
10.808 4.152 -0.39500001
10.807 4.1900001 -0.396
10.835 4.2389998 -0.398
10.87 4.2919998 -0.40000001
10.878 4.3340001 -0.40099999
10.882 4.3740001 -0.40200001
10.905 4.4219999 -0.403
10.922 4.4679999 -0.405
10.941 4.5149999 -0.40599999
10.966 4.5650001 -0.40799999
11.002 4.6199999 -0.41
11.031 4.671 -0.412
11.051 4.7199998 -0.41299999
11.097 4.7789998 -0.41600001
11.123 4.8309999 -0.41800001
11.168 4.8909998 -0.41999999
11.173 4.934 -0.421
11.177 4.9759998 -0.42199999
11.214 5.033 -0.42399999
11.238 5.085 -0.426
11.253 5.132 -0.42699999
11.275 5.1830001 -0.42899999
11.287 5.23 -0.43000001
11.309 5.2810001 -0.43200001
11.312 5.3239999 -0.433
11.348 5.382 -0.435
11.354 5.4260001 -0.43599999
11.391 5.4860001 -0.43799999
11.409 5.5359998 -0.44
11.428 5.5869999 -0.44100001
11.431 5.6300001 -0.442
11.455 5.684 -0.44400001
11.464 5.73 -0.44499999
11.486 5.783 -0.447
11.497 5.8309999 -0.449
11.536 5.8930001 -0.45100001
11.533 5.9330001 -0.45199999
11.53 5.974 -0.45199999
11.563 6.0339999 -0.45500001
11.576 6.0830002 -0.456
11.582 6.1279998 -0.45699999
11.583 6.171 -0.458
11.615 6.23 -0.46000001
11.65 6.2919998 -0.463
11.656 6.3369999 -0.46399999
11.668 6.3860002 -0.465
11.684 6.4380002 -0.46700001
11.684 6.4809999 -0.46799999
11.736 6.552 -0.47099999
11.76 6.6079998 -0.47299999
11.75 6.645 -0.47299999
11.757 6.6919999 -0.47499999
11.781 6.7480001 -0.477
11.801 6.802 -0.47799999
11.816 6.8540001 -0.47999999
11.856 6.9200001 -0.48300001
11.894 6.9850001 -0.48500001
11.896 7.0289998 -0.486
11.913 7.0819998 -0.48800001
9.7550001 6.744 -0.42399999
9.6940002 6.7329998 -0.42199999
9.651 6.7350001 -0.421
9.625 6.7480001 -0.421
9.6660004 6.8080001 -0.42300001
9.5959997 6.789 -0.421
9.5489998 6.7859998 -0.41999999
9.4910002 6.776 -0.41800001
9.4750004 6.7940001 -0.41800001
9.467 6.8179998 -0.419
9.4460001 6.8319998 -0.419
9.4420004 6.8579998 -0.41999999
9.4309998 6.8790002 -0.41999999
6.7140002 -3.9349999 -0.117
6.7199998 -3.9189999 -0.117
6.7290001 -3.9059999 -0.117
6.7259998 -3.885 -0.117
6.7449999 -3.8770001 -0.117
6.7550001 -3.8640001 -0.117
6.7589998 -3.8469999 -0.117
6.7729998 -3.836 -0.117
6.7779999 -3.8199999 -0.117
6.7859998 -3.8050001 -0.117
6.802 -3.7950001 -0.117
6.8109999 -3.78 -0.117
6.823 -3.7679999 -0.118
6.8210001 -3.747 -0.117
6.8340001 -3.7349999 -0.118
6.849 -3.724 -0.118
6.8509998 -3.7060001 -0.118
6.8610001 -3.6919999 -0.118
6.8600001 -3.671 -0.118
6.8670001 -3.6559999 -0.118
6.8779998 -3.642 -0.118
6.8730001 -3.6199999 -0.118
6.8909998 -3.6099999 -0.118
6.9070001 -3.598 -0.118
6.915 -3.5829999 -0.118
6.9229999 -3.5669999 -0.118
6.9299998 -3.5510001 -0.118
6.947 -3.54 -0.118
6.9419999 -3.5179999 -0.118
6.9460001 -3.5 -0.118
6.9559999 -3.4849999 -0.118
6.974 -3.474 -0.118
6.9770002 -3.4549999 -0.118
6.9879999 -3.441 -0.118
7.0009999 -3.427 -0.119
7.0089998 -3.411 -0.119
7.0300002 -3.401 -0.119
7.0489998 -3.3900001 -0.119
7.046 -3.368 -0.119
7.0780001 -3.3629999 -0.119
7.0749998 -3.342 -0.119
7.0960002 -3.332 -0.12
7.0939999 -3.3099999 -0.119
7.099 -3.2920001 -0.119
7.118 -3.28 -0.12
7.1269999 -3.2639999 -0.12
7.1469998 -3.253 -0.12
7.152 -3.234 -0.12
7.1620002 -3.2190001 -0.12
7.1719999 -3.2019999 -0.12
7.1849999 -3.188 -0.12
7.1929998 -3.1700001 -0.12
7.21 -3.1570001 -0.12
7.2140002 -3.138 -0.12
7.2319999 -3.125 -0.121
7.2420001 -3.109 -0.121
7.2509999 -3.092 -0.121
7.257 -3.073 -0.121
7.2579999 -3.053 -0.121
7.2709999 -3.0369999 -0.121
7.3080001 -3.0320001 -0.121
7.3130002 -3.013 -0.121
7.3200002 -2.9949999 -0.121
7.342 -2.9820001 -0.122
7.3460002 -2.9630001 -0.122
7.369 -2.951 -0.122
7.369 -2.9300001 -0.122
7.3850002 -2.915 -0.122
7.3979998 -2.8989999 -0.122
7.4190001 -2.8859999 -0.122
7.4260001 -2.8670001 -0.122
7.447 -2.8540001 -0.123
7.4489999 -2.8329999 -0.122
7.448 -2.8110001 -0.122
7.4569998 -2.793 -0.122
7.4879999 -2.783 -0.123
7.4970002 -2.7650001 -0.123
7.507 -2.747 -0.123
7.5359998 -2.7360001 -0.123
7.54 -2.7160001 -0.123
7.5560002 -2.7 -0.123
7.5619998 -2.681 -0.123
7.5840001 -2.6659999 -0.124
7.5910001 -2.6470001 -0.124
7.6110001 -2.632 -0.124
7.6300001 -2.6170001 -0.124
7.6079998 -2.5869999 -0.124
7.6350002 -2.575 -0.124
7.6500001 -2.5580001 -0.124
7.677 -2.5450001 -0.124
7.6919999 -2.527 -0.125
7.7119999 -2.5120001 -0.125
7.7119999 -2.49 -0.125
7.7249999 -2.4719999 -0.125
7.7420001 -2.4549999 -0.125
7.7659998 -2.4400001 -0.125
7.7729998 -2.4200001 -0.125
7.796 -2.405 -0.126
7.8119998 -2.3870001 -0.126
7.8210001 -2.368 -0.126
7.8439999 -2.352 -0.126
7.8410001 -2.329 -0.126
7.8740001 -2.316 -0.126
7.8829999 -2.296 -0.126
7.895 -2.277 -0.126
7.915 -2.26 -0.127
7.9289999 -2.2409999 -0.127
7.9349999 -2.22 -0.127
7.9619999 -2.2049999 -0.127
7.9699998 -2.1849999 -0.127
8.0010004 -2.1700001 -0.12800001
8.0229998 -2.1530001 -0.12800001
8.0190001 -2.1289999 -0.12800001
8.0389996 -2.1110001 -0.12800001
8.0710001 -2.0969999 -0.12800001
8.0769997 -2.075 -0.12800001
8.0799999 -2.053 -0.12800001
8.0959997 -2.0339999 -0.12800001
8.1079998 -2.0139999 -0.12800001
8.1370001 -1.997 -0.12899999
8.1669998 -1.982 -0.12899999
8.1789999 -1.961 -0.12899999
8.1990004 -1.943 -0.12899999
8.21 -1.9220001 -0.12899999
8.2349997 -1.904 -0.13
8.243 -1.882 -0.13
8.2749996 -1.8660001 -0.13
8.2950001 -1.847 -0.13
8.2930002 -1.823 -0.13
8.3190002 -1.8049999 -0.131
8.3310003 -1.783 -0.131
8.3579998 -1.765 -0.131
8.375 -1.745 -0.131
8.415 -1.73 -0.132
8.4110003 -1.705 -0.131
8.4180002 -1.682 -0.131
8.4429998 -1.663 -0.132
8.4549999 -1.641 -0.132
8.4940004 -1.625 -0.132
8.5100002 -1.604 -0.132
8.5310001 -1.5829999 -0.133
8.5310001 -1.559 -0.132
8.5469999 -1.538 -0.133
8.5790005 -1.5190001 -0.133
8.5939999 -1.497 -0.133
8.6079998 -1.475 -0.133
8.632 -1.455 -0.133
8.665 -1.436 -0.134
8.691 -1.415 -0.134
8.7010002 -1.392 -0.134
8.7130003 -1.369 -0.134
8.7370005 -1.348 -0.13500001
8.7770004 -1.329 -0.13500001
8.7889996 -1.306 -0.13500001
8.8070002 -1.284 -0.13500001
8.8439999 -1.2640001 -0.13600001
8.8500004 -1.24 -0.13600001
8.875 -1.2180001 -0.13600001
8.9049997 -1.197 -0.13600001
8.9200001 -1.174 -0.13600001
8.9390001 -1.151 -0.13699999
8.9650002 -1.1289999 -0.13699999
9.0010004 -1.108 -0.13699999
9.0209999 -1.085 -0.138
9.0419998 -1.062 -0.138
9.0819998 -1.04 -0.138
9.1120005 -1.018 -0.139
9.1149998 -0.99299997 -0.138
9.1459999 -0.97000003 -0.139
9.1520004 -0.94499999 -0.139
9.1820002 -0.92199999 -0.139
9.2119999 -0.89899999 -0.139
9.243 -0.87599999 -0.14
9.2790003 -0.85299999 -0.14
9.2939997 -0.82800001 -0.14
9.323 -0.80400002 -0.141
9.3590002 -0.77999997 -0.141
9.3690004 -0.755 -0.141
9.3830004 -0.72899997 -0.141
9.415 -0.70499998 -0.142
9.448 -0.68099999 -0.142
9.5030003 -0.65799999 -0.14300001
9.559 -0.63499999 -0.14300001
9.566 -0.60799998 -0.14300001
9.6350002 -0.58499998 -0.14399999
9.6350002 -0.55800003 -0.14399999
9.7159996 -0.53500003 -0.145
9.75 -0.509 -0.146
9.7799997 -0.48300001 -0.146
9.6540003 0.169 -0.27700001
9.6090002 0.18000001 -0.27599999
9.5600004 0.191 -0.27500001
9.5559998 0.20299999 -0.27500001
9.5679998 0.21600001 -0.27500001
9.5749998 0.229 -0.27599999
9.5459995 0.241 -0.27500001
9.5170002 0.25299999 -0.27399999
9.507 0.266 -0.27399999
9.5059996 0.28 -0.27399999
9.4770002 0.29300001 -0.27399999
9.4829998 0.30700001 -0.27399999
9.4729996 0.32100001 -0.27399999
9.4899998 0.33500001 -0.27399999
9.4650002 0.34900001 -0.27399999
9.4709997 0.36399999 -0.27399999
9.4610004 0.37900001 -0.27399999
9.46 0.39399999 -0.27399999
9.4569998 0.40900001 -0.27399999
9.4709997 0.42500001 -0.27500001
9.4549999 0.44 -0.27500001
9.4840002 0.458 -0.27599999
9.4549999 0.47299999 -0.27500001
9.4829998 0.49000001 -0.27599999
9.4729996 0.50700003 -0.27599999
9.493 0.52499998 -0.27700001
9.5139999 0.54299998 -0.278
9.5150003 0.56 -0.278
9.526 0.57800001 -0.278
9.5319996 0.597 -0.27900001
9.5450001 0.61500001 -0.27900001
9.5349998 0.63300002 -0.27900001
9.5570002 0.653 -0.28
9.5469999 0.671 -0.28
9.566 0.69099998 -0.28099999
9.566 0.70999998 -0.28099999
9.5769997 0.73000002 -0.28200001
9.5769997 0.75 -0.28200001
9.6000004 0.77100003 -0.28299999
9.6160002 0.792 -0.28400001
9.6000004 0.81099999 -0.28299999
9.6090002 0.83200002 -0.28400001
9.6339998 0.85500002 -0.285
9.6420002 0.87599999 -0.285
9.6490002 0.898 -0.28600001
9.6499996 0.91900003 -0.28600001
9.6660004 0.94199997 -0.287
9.6899996 0.96600002 -0.28799999
9.7010002 0.98900002 -0.289
9.717 1.012 -0.289
9.7279997 1.036 -0.28999999
9.7379999 1.059 -0.29100001
9.7270002 1.081 -0.29100001
9.7299995 1.104 -0.29100001
9.7480001 1.1289999 -0.292
9.7550001 1.153 -0.292
9.7659998 1.178 -0.29300001
9.7779999 1.2029999 -0.294
9.79 1.228 -0.294
9.7939997 1.253 -0.29499999
9.8050003 1.278 -0.29499999
9.8179998 1.304 -0.296
9.8249998 1.33 -0.29699999
9.8649998 1.36 -0.29800001
9.8699999 1.386 -0.29899999
9.8719997 1.4119999 -0.29899999
9.8809996 1.438 -0.30000001
9.9060001 1.4680001 -0.301
9.9119997 1.495 -0.30199999
9.908 1.52 -0.30199999
9.9329996 1.55 -0.303
9.9490004 1.579 -0.30399999
9.9689999 1.609 -0.30500001
9.9729996 1.637 -0.30500001
9.9759998 1.664 -0.30599999
9.9919996 1.694 -0.30700001
10.015 1.726 -0.308
10.012 1.753 -0.308
10.041 1.786 -0.30899999
10.062 1.818 -0.31099999
10.061 1.846 -0.31099999
10.07 1.877 -0.31200001
10.083 1.908 -0.31200001
10.083 1.937 -0.31299999
10.119 1.973 -0.31400001
10.158 2.01 -0.31600001
10.164 2.0409999 -0.317
10.187 2.075 -0.31799999
10.193 2.1059999 -0.31900001
10.214 2.141 -0.31999999
10.234 2.1760001 -0.32100001
10.241 2.2079999 -0.322
10.261 2.243 -0.32300001
10.269 2.276 -0.32300001
10.258 2.3050001 -0.324
10.291 2.3440001 -0.32499999
10.314 2.381 -0.32600001
10.325 2.415 -0.32699999
10.323 2.447 -0.32800001
10.342 2.484 -0.329
10.372 2.5239999 -0.33000001
10.364 2.5550001 -0.33000001
10.366 2.5880001 -0.331
10.408 2.632 -0.333
10.41 2.6659999 -0.33399999
10.44 2.707 -0.33500001
10.449 2.743 -0.336
10.489 2.7880001 -0.338
10.495 2.8239999 -0.338
10.53 2.8670001 -0.34
10.541 2.905 -0.34099999
10.57 2.948 -0.34299999
10.58 2.9860001 -0.34299999
10.597 3.027 -0.345
10.611 3.066 -0.34599999
10.649 3.1129999 -0.34799999
10.68 3.158 -0.34900001
10.704 3.2019999 -0.35100001
10.701 3.2379999 -0.35100001
10.713 3.279 -0.352
10.742 3.3239999 -0.354
10.772 3.3710001 -0.35499999
10.796 3.4159999 -0.35699999
10.807 3.457 -0.35800001
10.817 3.4990001 -0.359
10.837 3.543 -0.36000001
10.865 3.5910001 -0.36199999
10.873 3.632 -0.36199999
10.865 3.6689999 -0.36300001
10.872 3.71 -0.36399999
10.847 3.74 -0.36399999
10.843 3.7780001 -0.36399999
10.864 3.825 -0.366
10.861 3.8640001 -0.366
10.896 3.9159999 -0.368
10.92 3.9649999 -0.37
10.922 4.006 -0.37
10.931 4.0500002 -0.37099999
10.931 4.0910001 -0.37200001
10.977 4.1490002 -0.37400001
10.955 4.1820002 -0.37400001
11 4.2410002 -0.377
11.024 4.2919998 -0.37799999
11.091 4.3600001 -0.38100001
11.104 4.408 -0.382
11.127 4.4590001 -0.384
11.126 4.5019999 -0.38499999
11.171 4.5630002 -0.38699999
11.203 4.6199999 -0.389
11.26 4.6869998 -0.39199999
11.28 4.7389998 -0.39300001
11.294 4.79 -0.39399999
11.335 4.8520002 -0.39700001
11.34 4.8990002 -0.398
11.365 4.954 -0.39899999
11.406 5.0180001 -0.40200001
11.393 5.0570002 -0.40200001
11.45 5.1290002 -0.405
11.456 5.178 -0.40599999
11.486 5.2379999 -0.40799999
11.504 5.2930002 -0.40900001
11.523 5.348 -0.41100001
11.533 5.4000001 -0.412
11.561 5.461 -0.414
11.563 5.5089998 -0.41499999
11.589 5.5700002 -0.417
11.615 5.6300001 -0.419
11.656 5.6989999 -0.421
11.674 5.757 -0.42300001
11.668 5.803 -0.42300001
11.697 5.8660002 -0.42500001
11.682 5.908 -0.426
11.697 5.9650002 -0.42699999
11.728 6.0310001 -0.42899999
11.739 6.0869999 -0.43099999
11.748 6.1420002 -0.43200001
11.78 6.2090001 -0.43399999
11.82 6.2810001 -0.43599999
11.85 6.349 -0.43900001
11.867 6.4089999 -0.44
11.878 6.467 -0.442
11.882 6.5209999 -0.44299999
11.906 6.5869999 -0.44499999
11.934 6.6550002 -0.447
11.957 6.7210002 -0.449
11.944 6.7670002 -0.449
11.961 6.829 -0.45100001
11.975 6.8909998 -0.45199999
12 6.9590001 -0.454
12.029 7.0300002 -0.45699999
12.031 7.086 -0.458
12.111 7.1869998 -0.46200001
9.8730001 6.5949998 -0.391
9.8430004 6.6220002 -0.391
9.6020002 6.8790002 -0.38999999
9.5109997 6.862 -0.38699999
6.421 -4.2420001 -0.097999997
6.4530001 -4.223 -0.097999997
6.4809999 -4.2010002 -0.097999997
6.5 -4.1719999 -0.097999997
6.5170002 -4.1430001 -0.098999999
6.5359998 -4.1160002 -0.098999999
6.5640001 -4.0929999 -0.098999999
6.5830002 -4.066 -0.098999999
6.6009998 -4.0380001 -0.098999999
6.619 -4.0100002 -0.098999999
6.6360002 -3.9820001 -0.098999999
6.6700001 -3.964 -0.1
6.6810002 -3.9319999 -0.1
6.7090001 -3.911 -0.1
6.723 -3.881 -0.1
6.7360001 -3.8510001 -0.1
6.7519999 -3.823 -0.1
6.7680001 -3.7950001 -0.1
6.7659998 -3.757 -0.1
6.8049998 -3.7420001 -0.101
6.8400002 -3.7249999 -0.101
6.842 -3.6900001 -0.101
6.8629999 -3.665 -0.101
6.8699999 -3.6329999 -0.101
6.8870001 -3.6059999 -0.101
6.9070001 -3.582 -0.101
6.9190001 -3.553 -0.101
6.9359999 -3.526 -0.101
6.9629998 -3.5050001 -0.102
6.9759998 -3.477 -0.102
7.0040002 -3.457 -0.102
7.0170002 -3.4289999 -0.102
7.0500002 -3.411 -0.102
7.0679998 -3.3859999 -0.102
7.0890002 -3.362 -0.103
7.1079998 -3.3380001 -0.103
7.1209998 -3.3099999 -0.103
7.1269999 -3.28 -0.103
7.1729999 -3.2679999 -0.103
7.171 -3.234 -0.103
7.2030001 -3.2160001 -0.103
7.224 -3.1919999 -0.104
7.2270002 -3.1619999 -0.104
7.2459998 -3.138 -0.104
7.256 -3.1099999 -0.104
7.2750001 -3.086 -0.104
7.2979999 -3.0639999 -0.104
7.3249998 -3.0439999 -0.104
7.3340001 -3.016 -0.104
7.368 -2.9990001 -0.105
7.3979998 -2.98 -0.105
7.3959999 -2.948 -0.105
7.4120002 -2.9230001 -0.105
7.4499998 -2.908 -0.105
7.4640002 -2.882 -0.105
7.4759998 -2.8559999 -0.105
7.506 -2.8380001 -0.106
7.5149999 -2.8110001 -0.106
7.54 -2.79 -0.106
7.5500002 -2.7639999 -0.106
7.5869999 -2.747 -0.106
7.6069999 -2.7249999 -0.107
7.619 -2.7 -0.107
7.651 -2.6819999 -0.107
7.6690001 -2.658 -0.107
7.6789999 -2.6329999 -0.107
7.7210002 -2.618 -0.108
7.711 -2.585 -0.107
7.7410002 -2.5669999 -0.108
7.7610002 -2.5450001 -0.108
7.776 -2.5209999 -0.108
7.8099999 -2.5039999 -0.108
7.8200002 -2.4779999 -0.108
7.8379998 -2.4560001 -0.108
7.8590002 -2.434 -0.109
7.8790002 -2.4119999 -0.109
7.9250002 -2.398 -0.109
7.9229999 -2.3699999 -0.109
7.948 -2.3499999 -0.109
7.9790001 -2.3310001 -0.11
8 -2.3099999 -0.11
8.0270004 -2.29 -0.11
8.0559998 -2.2709999 -0.11
8.0649996 -2.247 -0.11
8.0839996 -2.2249999 -0.111
8.0970001 -2.201 -0.111
8.1210003 -2.181 -0.111
8.1379995 -2.1589999 -0.111
8.1590004 -2.138 -0.111
8.1859999 -2.118 -0.111
8.2049999 -2.0969999 -0.112
8.2250004 -2.076 -0.112
8.2460003 -2.0550001 -0.112
8.2659998 -2.0339999 -0.112
8.2840004 -2.0120001 -0.112
8.3280001 -1.997 -0.113
8.3400002 -1.974 -0.113
8.3599997 -1.9529999 -0.113
8.3800001 -1.932 -0.113
8.3830004 -1.9069999 -0.113
8.3909998 -1.883 -0.113
8.4280005 -1.867 -0.113
8.4429998 -1.844 -0.114
8.46 -1.823 -0.114
8.5019999 -1.807 -0.114
8.507 -1.783 -0.114
8.5410004 -1.766 -0.115
8.5450001 -1.742 -0.114
8.573 -1.723 -0.115
8.585 -1.701 -0.115
8.6149998 -1.682 -0.115
8.6309996 -1.661 -0.115
8.651 -1.641 -0.115
8.6549997 -1.617 -0.115
8.6719999 -1.597 -0.115
8.6789999 -1.574 -0.116
8.7010002 -1.554 -0.116
8.7360001 -1.5369999 -0.116
8.7440004 -1.515 -0.116
8.7629995 -1.495 -0.116
8.7840004 -1.475 -0.116
8.7849998 -1.452 -0.116
8.8269997 -1.4349999 -0.117
8.8310003 -1.413 -0.117
8.849 -1.393 -0.117
8.8940001 -1.377 -0.117
8.9130001 -1.357 -0.118
8.9069996 -1.334 -0.117
8.9429998 -1.317 -0.118
8.9510002 -1.295 -0.118
8.9610004 -1.274 -0.118
8.9820004 -1.255 -0.118
9 -1.235 -0.118
9.0290003 -1.217 -0.119
9.0349998 -1.196 -0.119
9.059 -1.178 -0.119
9.0679998 -1.1569999 -0.119
9.1009998 -1.1390001 -0.119
9.1149998 -1.12 -0.119
9.1350002 -1.1 -0.119
9.1549997 -1.082 -0.12
9.1990004 -1.0650001 -0.12
9.1929998 -1.043 -0.12
9.217 -1.025 -0.12
9.2299995 -1.006 -0.12
9.2419996 -0.986 -0.12
9.2620001 -0.96700001 -0.121
9.2670002 -0.94700003 -0.121
9.2810001 -0.92799997 -0.121
9.3149996 -0.91100001 -0.121
9.3330002 -0.89200002 -0.121
9.3319998 -0.87199998 -0.121
9.3620005 -0.85500002 -0.121
9.3610001 -0.83399999 -0.121
9.3879995 -0.81699997 -0.122
9.3870001 -0.79699999 -0.122
9.434 -0.78100002 -0.122
9.4770002 -0.76499999 -0.123
9.4840002 -0.74599999 -0.123
9.5100002 -0.72799999 -0.123
9.5439997 -0.71100003 -0.123
9.5439997 -0.69199997 -0.123
9.5500002 -0.67299998 -0.123
9.5690002 -0.65600002 -0.123
9.5939999 -0.63800001 -0.124
9.6090002 -0.62 -0.124
9.6389999 -0.60299999 -0.124
9.6560001 -0.58600003 -0.124
9.6780005 -0.56800002 -0.124
9.7150002 -0.55199999 -0.125
9.7360001 -0.53500003 -0.125
9.7729998 -0.51800001 -0.125
9.8319998 -0.50300002 -0.126
9.8380003 -0.48500001 -0.126
9.9209995 -0.47099999 -0.127
9.9259996 -0.45300001 -0.127
9.9910002 -0.43799999 -0.12800001
9.9799995 -0.419 -0.12800001
9.3579998 0.113 -0.243
9.3929996 0.13 -0.245
9.4090004 0.147 -0.245
9.4060001 0.16500001 -0.245
9.4180002 0.183 -0.24600001
9.4280005 0.20100001 -0.24600001
9.4130001 0.219 -0.24600001
9.4119997 0.237 -0.24600001
9.4119997 0.255 -0.24600001
9.4230003 0.27399999 -0.24699999
9.415 0.29300001 -0.24699999
9.408 0.31200001 -0.24699999
9.4180002 0.331 -0.24699999
9.415 0.34999999 -0.24699999
9.4259996 0.37 -0.248
9.4169998 0.38999999 -0.248
9.4460001 0.41100001 -0.249
9.4350004 0.43099999 -0.249
9.4429998 0.45199999 -0.249
9.448 0.472 -0.249
9.4619999 0.49399999 -0.25
9.4680004 0.51499999 -0.25
9.4809999 0.537 -0.25099999
9.4870005 0.55900002 -0.25099999
9.4879999 0.57999998 -0.25099999
9.4960003 0.602 -0.252
9.5240002 0.62599999 -0.25299999
9.5220003 0.648 -0.25299999
9.5389996 0.67199999 -0.25400001
9.5649996 0.69599998 -0.255
9.5559998 0.71799999 -0.255
9.5609999 0.74199998 -0.255
9.5649996 0.76499999 -0.255
9.5869999 0.79000002 -0.25600001
9.6239996 0.81699997 -0.25799999
9.6309996 0.84100002 -0.25799999
9.6350002 0.86500001 -0.25799999
9.6289997 0.889 -0.25799999
9.6569996 0.91500002 -0.259
9.6630001 0.94 -0.25999999
9.6619997 0.96499997 -0.25999999
9.6730003 0.991 -0.26100001
9.7159996 1.02 -0.26199999
9.7399998 1.048 -0.26300001
9.75 1.074 -0.264
9.7650003 1.102 -0.264
9.7700005 1.128 -0.26499999
9.7939997 1.1569999 -0.266
9.7860003 1.182 -0.266
9.7889996 1.209 -0.266
9.809 1.238 -0.26699999
9.8339996 1.268 -0.26800001
9.8409996 1.295 -0.26899999
9.8579998 1.325 -0.27000001
9.8629999 1.352 -0.27000001
9.8920002 1.3839999 -0.271
9.9169998 1.415 -0.27200001
9.934 1.4450001 -0.273
9.96 1.477 -0.27399999
9.9540005 1.5039999 -0.27399999
9.9840002 1.5369999 -0.27500001
9.993 1.567 -0.27599999
10.024 1.601 -0.27700001
10.046 1.633 -0.278
10.066 1.665 -0.27900001
10.063 1.694 -0.27900001
10.076 1.726 -0.28
10.101 1.76 -0.28099999
10.128 1.794 -0.28200001
10.149 1.8279999 -0.28299999
10.162 1.86 -0.28400001
10.194 1.897 -0.285
10.199 1.928 -0.28600001
10.234 1.966 -0.287
10.249 2 -0.28799999
10.29 2.039 -0.28999999
10.323 2.0769999 -0.29100001
10.333 2.1099999 -0.292
10.353 2.1459999 -0.29300001
10.386 2.1849999 -0.294
10.408 2.2219999 -0.29499999
10.411 2.2550001 -0.296
10.431 2.2909999 -0.29699999
10.452 2.329 -0.29800001
10.484 2.369 -0.29899999
10.5 2.4059999 -0.30000001
10.515 2.4419999 -0.301
10.529 2.4790001 -0.30199999
10.542 2.5150001 -0.303
10.543 2.549 -0.303
10.557 2.586 -0.30399999
10.601 2.631 -0.30599999
10.648 2.677 -0.308
10.642 2.71 -0.308
10.661 2.75 -0.30899999
10.714 2.7980001 -0.31099999
10.751 2.8429999 -0.31299999
10.775 2.8840001 -0.31400001
10.763 2.9170001 -0.31400001
10.808 2.964 -0.31600001
10.808 3 -0.31600001
10.824 3.04 -0.317
10.847 3.0829999 -0.31900001
10.881 3.1289999 -0.31999999
10.92 3.1760001 -0.322
10.915 3.211 -0.322
10.929 3.2520001 -0.32300001
10.971 3.302 -0.32499999
11.014 3.352 -0.32699999
11.039 3.3970001 -0.32800001
11.058 3.4400001 -0.329
11.099 3.49 -0.331
11.104 3.53 -0.33199999
11.122 3.573 -0.333
11.149 3.6199999 -0.33399999
11.139 3.655 -0.33500001
11.166 3.7030001 -0.336
11.165 3.7409999 -0.33700001
11.176 3.783 -0.338
11.185 3.825 -0.33899999
11.203 3.8699999 -0.34
11.2 3.908 -0.34
11.202 3.948 -0.34099999
11.229 3.9960001 -0.34200001
11.23 4.0359998 -0.34299999
11.237 4.0780001 -0.34400001
11.23 4.1149998 -0.34400001
11.269 4.1690001 -0.34599999
11.294 4.2179999 -0.34799999
11.333 4.2719998 -0.34900001
11.339 4.3150001 -0.34999999
11.364 4.3639998 -0.352
11.393 4.4159999 -0.35299999
11.426 4.4689999 -0.35499999
11.444 4.5170002 -0.35600001
11.453 4.5619998 -0.35699999
11.484 4.6149998 -0.359
11.527 4.6729999 -0.361
11.565 4.73 -0.36300001
11.584 4.7789998 -0.36399999
11.609 4.8309999 -0.366
11.618 4.8769999 -0.366
11.65 4.9320002 -0.368
11.663 4.98 -0.36899999
11.675 5.027 -0.37
11.721 5.0890002 -0.373
11.729 5.1350002 -0.37400001
11.741 5.1830001 -0.375
11.775 5.2410002 -0.377
11.784 5.2870002 -0.37799999
11.805 5.3400002 -0.37900001
11.826 5.3920002 -0.38100001
11.832 5.4380002 -0.38100001
11.847 5.4879999 -0.38299999
11.851 5.533 -0.384
11.864 5.5819998 -0.38499999
11.883 5.6339998 -0.38600001
11.886 5.6789999 -0.38699999
11.911 5.7350001 -0.389
11.937 5.7909999 -0.38999999
11.927 5.8299999 -0.391
11.94 5.8800001 -0.39199999
11.963 5.9349999 -0.39399999
11.98 5.987 -0.39500001
11.989 6.0349998 -0.396
12.036 6.1030002 -0.39899999
12.047 6.152 -0.40000001
12.04 6.1929998 -0.40000001
12.059 6.2470002 -0.40200001
12.101 6.3130002 -0.40400001
12.122 6.368 -0.40599999
12.158 6.4310002 -0.40799999
12.194 6.4949999 -0.41
12.216 6.5510001 -0.41100001
12.192 6.5830002 -0.41100001
12.203 6.6329999 -0.41299999
12.237 6.6960001 -0.41499999
12.281 6.7649999 -0.417
12.307 6.8239999 -0.419
12.322 6.8769999 -0.41999999
12.359 6.9429998 -0.42199999
12.345 6.98 -0.42300001
12.389 7.0500002 -0.42500001
12.442 7.125 -0.428
10.556 6.5 -0.373
10.514 6.5110002 -0.37200001
10.504 6.5419998 -0.37200001
9.658 6.8010001 -0.361
9.5410004 6.7490001 -0.35699999
9.4919996 6.7449999 -0.35600001
9.4610004 6.7529998 -0.35600001
9.4329996 6.7620001 -0.35600001
9.4189997 6.7810001 -0.35600001
9.3859997 6.7870002 -0.35499999
9.3879995 6.8179998 -0.35600001
9.3870001 6.8449998 -0.35699999
6.8449998 -4.0149999 -0.086000003
6.862 -4.0050001 -0.086000003
6.8660002 -3.9879999 -0.086000003
6.8709998 -3.9719999 -0.086000003
6.8940001 -3.9660001 -0.086000003
6.8969998 -3.948 -0.086000003
6.8909998 -3.925 -0.086000003
6.9039998 -3.9130001 -0.086000003
6.9180002 -3.901 -0.086000003
6.9229999 -3.885 -0.086000003
6.9250002 -3.8659999 -0.086000003
6.9460001 -3.858 -0.086000003
6.941 -3.836 -0.086000003
6.9499998 -3.8210001 -0.086000003
6.9650002 -3.8099999 -0.086000003
6.9759998 -3.796 -0.086000003
6.994 -3.786 -0.086000003
6.994 -3.766 -0.086000003
7.0029998 -3.7509999 -0.086000003
7.0139999 -3.7360001 -0.086000003
7.0349998 -3.7279999 -0.086999997
7.0359998 -3.7079999 -0.086000003
7.0300002 -3.6849999 -0.086000003
7.052 -3.6760001 -0.086999997
7.0489998 -3.655 -0.086000003
7.0700002 -3.6459999 -0.086999997
7.0770001 -3.6289999 -0.086999997
7.0760002 -3.608 -0.086000003
7.0949998 -3.5969999 -0.086999997
7.1139998 -3.5869999 -0.086999997
7.125 -3.572 -0.086999997
7.1440001 -3.5610001 -0.086999997
7.1550002 -3.546 -0.086999997
7.1729999 -3.5350001 -0.086999997
7.1869998 -3.5209999 -0.086999997
7.1999998 -3.507 -0.086999997
7.2090001 -3.49 -0.086999997
7.1950002 -3.4630001 -0.086999997
7.2090001 -3.4489999 -0.086999997
7.2270002 -3.437 -0.086999997
7.23 -3.4170001 -0.086999997
7.2519999 -3.4070001 -0.086999997
7.257 -3.388 -0.086999997
7.2680001 -3.3729999 -0.086999997
7.2870002 -3.3610001 -0.088
7.2969999 -3.3440001 -0.088
7.303 -3.326 -0.088
7.316 -3.3099999 -0.088
7.3319998 -3.2969999 -0.088
7.3540001 -3.286 -0.088
7.362 -3.2679999 -0.088
7.369 -3.25 -0.088
7.3740001 -3.2309999 -0.088
7.388 -3.2160001 -0.088
7.4180002 -3.207 -0.088
7.4180002 -3.1860001 -0.088
7.441 -3.174 -0.088
7.4429998 -3.154 -0.088
7.441 -3.131 -0.088
7.4590001 -3.1170001 -0.088
7.4770002 -3.1040001 -0.088
7.4790001 -3.0829999 -0.088
7.5050001 -3.072 -0.089000002
7.5279999 -3.0599999 -0.089000002
7.5219998 -3.036 -0.089000002
7.5349998 -3.0190001 -0.089000002
7.5489998 -3.003 -0.089000002
7.559 -2.9849999 -0.089000002
7.579 -2.971 -0.089000002
7.599 -2.957 -0.089000002
7.598 -2.9349999 -0.089000002
7.6129999 -2.9189999 -0.089000002
7.6350002 -2.905 -0.089000002
7.6329999 -2.882 -0.089000002
7.6479998 -2.8659999 -0.089000002
7.6669998 -2.8510001 -0.089000002
7.6890001 -2.8369999 -0.090000004
7.7010002 -2.819 -0.090000004
7.7140002 -2.802 -0.090000004
7.7179999 -2.7809999 -0.090000004
7.7259998 -2.7620001 -0.090000004
7.7600002 -2.7520001 -0.090000004
7.757 -2.7279999 -0.090000004
7.777 -2.7130001 -0.090000004
7.8010001 -2.6989999 -0.090000004
7.8109999 -2.6800001 -0.090000004
7.8010001 -2.654 -0.090000004
7.8330002 -2.642 -0.090000004
7.8439999 -2.6229999 -0.090000004
7.855 -2.605 -0.090000004
7.8790002 -2.5899999 -0.090000004
7.8829999 -2.569 -0.090000004
7.9109998 -2.5550001 -0.090999998
7.9229999 -2.536 -0.090999998
7.9349999 -2.517 -0.090999998
7.9489999 -2.4990001 -0.090999998
7.9640002 -2.4809999 -0.090999998
7.9850001 -2.464 -0.090999998
8 -2.4460001 -0.090999998
8.0159998 -2.428 -0.090999998
8.0220003 -2.4059999 -0.090999998
8.0509996 -2.392 -0.090999998
8.0640001 -2.3729999 -0.090999998
8.0869999 -2.3559999 -0.092
8.0970001 -2.336 -0.092
8.1169996 -2.319 -0.092
8.1370001 -2.3010001 -0.092
8.1540003 -2.2820001 -0.092
8.1890001 -2.2690001 -0.092
8.21 -2.2509999 -0.092
8.2189999 -2.23 -0.092
8.2069998 -2.2030001 -0.092
8.2279997 -2.1849999 -0.092
8.2370005 -2.164 -0.092
8.2659998 -2.148 -0.093000002
8.2889996 -2.1300001 -0.093000002
8.3059998 -2.1110001 -0.093000002
8.323 -2.0910001 -0.093000002
8.3299999 -2.069 -0.093000002
8.3439999 -2.049 -0.093000002
8.3610001 -2.029 -0.093000002
8.375 -2.0090001 -0.093000002
8.3920002 -1.988 -0.093000002
8.427 -1.973 -0.093000002
8.4399996 -1.952 -0.093999997
8.4560003 -1.931 -0.093999997
8.4849997 -1.914 -0.093999997
8.4890003 -1.89 -0.093999997
8.5089998 -1.87 -0.093999997
8.5489998 -1.855 -0.093999997
8.5629997 -1.8329999 -0.093999997
8.5880003 -1.814 -0.093999997
8.599 -1.7920001 -0.093999997
8.6199999 -1.772 -0.094999999
8.6529999 -1.7539999 -0.094999999
8.6499996 -1.729 -0.094999999
8.6890001 -1.712 -0.094999999
8.7060003 -1.6900001 -0.094999999
8.7390003 -1.6720001 -0.094999999
8.7530003 -1.649 -0.094999999
8.7580004 -1.625 -0.094999999
8.7620001 -1.601 -0.094999999
8.7869997 -1.581 -0.096000001
8.7910004 -1.556 -0.094999999
8.8380003 -1.539 -0.096000001
8.8240004 -1.512 -0.096000001
8.875 -1.495 -0.096000001
8.8920002 -1.473 -0.096000001
8.9099998 -1.451 -0.096000001
8.9370003 -1.4299999 -0.096000001
8.9499998 -1.406 -0.096000001
8.9790001 -1.385 -0.097000003
9.0270004 -1.367 -0.097000003
9.0279999 -1.341 -0.097000003
9.0629997 -1.321 -0.097000003
9.0649996 -1.295 -0.097000003
9.0970001 -1.274 -0.097000003
9.1140003 -1.251 -0.097999997
9.1459999 -1.229 -0.097999997
9.1789999 -1.207 -0.097999997
9.1890001 -1.183 -0.097999997
9.2209997 -1.161 -0.097999997
9.2299995 -1.136 -0.097999997
9.2749996 -1.115 -0.098999999
9.3240004 -1.094 -0.098999999
9.3149996 -1.067 -0.098999999
9.3570004 -1.045 -0.098999999
9.375 -1.02 -0.098999999
9.4040003 -0.99699998 -0.098999999
9.4160004 -0.97100002 -0.098999999
9.4230003 -0.94499999 -0.098999999
9.4490004 -0.921 -0.1
9.4750004 -0.89700001 -0.1
9.5220003 -0.87400001 -0.1
9.5640001 -0.85100001 -0.1
9.5979996 -0.82700002 -0.101
9.6490002 -0.80400002 -0.101
9.6459999 -0.77600002 -0.101
9.6599998 -0.75 -0.101
9.6969995 -0.72500002 -0.101
9.7329998 -0.69999999 -0.102
9.7729998 -0.676 -0.102
9.8380003 -0.65200001 -0.102
9.8660002 -0.62599999 -0.103
9.9350004 -0.602 -0.103
10.029 -0.57999998 -0.104
9.9890003 -0.54900002 -0.104
10.016 -0.52200001 -0.104
9.8879995 0.226 -0.234
9.7790003 0.236 -0.23199999
9.7919998 0.249 -0.23199999
9.7729998 0.26199999 -0.23199999
9.7670002 0.27599999 -0.23199999
9.7510004 0.289 -0.23199999
9.724 0.30199999 -0.23100001
9.717 0.31600001 -0.23100001
9.717 0.331 -0.23100001
9.7080002 0.345 -0.23100001
9.7220001 0.36000001 -0.23199999
9.7229996 0.37599999 -0.23199999
9.724 0.391 -0.23199999
9.7200003 0.40599999 -0.23199999
9.7259998 0.42199999 -0.23199999
9.7250004 0.43799999 -0.233
9.7469997 0.456 -0.233
9.7290001 0.47099999 -0.233
9.7360001 0.48800001 -0.233
9.743 0.505 -0.234
9.7419996 0.523 -0.234
9.743 0.54000002 -0.234
9.7370005 0.55699998 -0.234
9.7390003 0.57499999 -0.235
9.7670002 0.59500003 -0.235
9.7629995 0.61299998 -0.236
9.7740002 0.63200003 -0.236
9.7910004 0.65100002 -0.237
9.7950001 0.671 -0.237
9.8140001 0.69099998 -0.23800001
9.8050003 0.70999998 -0.23800001
9.8290005 0.73100001 -0.23800001
9.8409996 0.75199997 -0.23899999
9.8620005 0.773 -0.23999999
9.8439999 0.792 -0.23999999
9.8649998 0.81400001 -0.23999999
9.8660002 0.83499998 -0.241
9.8599997 0.85500002 -0.241
9.8730001 0.87699997 -0.241
9.8879995 0.89999998 -0.242
9.8900003 0.921 -0.242
9.9180002 0.94599998 -0.243
9.927 0.96799999 -0.244
9.9370003 0.99199998 -0.244
9.9580002 1.016 -0.245
9.967 1.039 -0.245
9.9919996 1.0650001 -0.24600001
10.02 1.091 -0.24699999
10.029 1.115 -0.248
10.029 1.1390001 -0.248
10.042 1.164 -0.249
10.054 1.189 -0.249
10.069 1.215 -0.25
10.081 1.2410001 -0.25099999
10.106 1.268 -0.25099999
10.115 1.294 -0.252
10.14 1.323 -0.25299999
10.15 1.349 -0.25400001
10.153 1.375 -0.25400001
10.175 1.404 -0.255
10.186 1.431 -0.255
10.207 1.46 -0.25600001
10.221 1.489 -0.257
10.229 1.516 -0.25799999
10.243 1.545 -0.25799999
10.263 1.575 -0.259
10.279 1.605 -0.25999999
10.304 1.636 -0.26100001
10.33 1.668 -0.26199999
10.355 1.7 -0.26300001
10.365 1.73 -0.264
10.397 1.763 -0.26499999
10.41 1.794 -0.26499999
10.42 1.825 -0.266
10.423 1.854 -0.26699999
10.45 1.888 -0.26800001
10.48 1.923 -0.26899999
10.479 1.9529999 -0.26899999
10.482 1.983 -0.27000001
10.491 2.0150001 -0.27000001
10.494 2.046 -0.271
10.53 2.0829999 -0.27200001
10.549 2.118 -0.273
10.606 2.161 -0.27500001
10.62 2.1949999 -0.27599999
10.649 2.2320001 -0.27700001
10.672 2.2690001 -0.278
10.689 2.3050001 -0.27900001
10.715 2.342 -0.28
10.718 2.3759999 -0.28
10.734 2.4119999 -0.28099999
10.753 2.4489999 -0.28200001
10.79 2.4909999 -0.28400001
10.812 2.529 -0.285
10.83 2.5669999 -0.28600001
10.832 2.6010001 -0.28600001
10.873 2.6459999 -0.28799999
10.886 2.6830001 -0.289
10.906 2.7219999 -0.28999999
10.912 2.7590001 -0.28999999
10.96 2.806 -0.292
10.959 2.8410001 -0.29300001
10.991 2.885 -0.294
11.009 2.925 -0.29499999
11.003 2.96 -0.29499999
11.06 3.0109999 -0.29699999
11.068 3.05 -0.29800001
11.074 3.0880001 -0.29899999
11.107 3.135 -0.30000001
11.133 3.1789999 -0.30199999
11.129 3.2160001 -0.30199999
11.153 3.26 -0.303
11.148 3.296 -0.30399999
11.179 3.3440001 -0.30500001
11.219 3.3940001 -0.30700001
11.27 3.448 -0.30899999
11.284 3.4920001 -0.31
11.338 3.5469999 -0.31200001
11.328 3.5840001 -0.31200001
11.35 3.6300001 -0.31299999
11.368 3.6760001 -0.31400001
11.382 3.721 -0.315
11.37 3.757 -0.31600001
11.385 3.803 -0.317
11.404 3.8499999 -0.31799999
11.392 3.8870001 -0.31799999
11.414 3.9349999 -0.31900001
11.403 3.973 -0.31999999
11.425 4.0219998 -0.32100001
11.426 4.0640001 -0.32100001
11.435 4.1090002 -0.322
11.461 4.1609998 -0.324
11.481 4.21 -0.32499999
11.524 4.2690001 -0.32699999
11.521 4.3109999 -0.32699999
11.55 4.3649998 -0.329
11.571 4.4159999 -0.33000001
11.618 4.4780002 -0.33199999
11.617 4.5209999 -0.333
11.641 4.5749998 -0.33399999
11.665 4.6290002 -0.336
11.714 4.6929998 -0.338
11.72 4.7410002 -0.33899999
11.749 4.7979999 -0.34
11.77 4.8520002 -0.34200001
11.767 4.8959999 -0.34200001
11.779 4.948 -0.34299999
11.839 5.0190001 -0.34599999
11.849 5.0700002 -0.347
11.896 5.1370001 -0.34900001
11.901 5.1869998 -0.34999999
11.906 5.2360001 -0.35100001
11.939 5.2979999 -0.352
11.948 5.3509998 -0.35299999
11.951 5.4000001 -0.354
11.953 5.4489999 -0.35499999
11.964 5.5029998 -0.35600001
11.973 5.5560002 -0.35699999
12.006 5.6199999 -0.359
12.022 5.677 -0.36000001
12.029 5.73 -0.361
12.051 5.79 -0.36300001
12.055 5.842 -0.36399999
12.057 5.8930001 -0.36500001
12.067 5.9489999 -0.366
12.119 6.0250001 -0.368
12.124 6.079 -0.36899999
12.13 6.1329999 -0.37
12.119 6.1789999 -0.37099999
12.141 6.2420001 -0.37200001
12.18 6.3140001 -0.37400001
12.289 6.4229999 -0.37900001
12.277 6.6290002 -0.382
12.286 6.6869998 -0.38299999
12.354 6.7779999 -0.38600001
12.351 6.8309999 -0.38699999
12.376 6.8990002 -0.389
12.385 6.96 -0.38999999
12.417 7.0320001 -0.39199999
12.443 7.1030002 -0.39399999
12.542 7.2150002 -0.398
10.506 6.3769999 -0.33899999
10.35 6.3299999 -0.33500001
10.379 6.3959999 -0.336
10.395 6.4530001 -0.338
10.431 6.5240002 -0.34
10.349 6.5209999 -0.338
10.398 6.5999999 -0.34
10.378 6.6360002 -0.34099999
10.36 6.6729999 -0.34099999
10.273 6.665 -0.33899999
10.178 6.652 -0.336
10.226 6.7319999 -0.33899999
6.5560002 -4.329 -0.068000004
6.585 -4.3070002 -0.068000004
6.6100001 -4.2820001 -0.068000004
6.631 -4.2550001 -0.068000004
6.658 -4.2309999 -0.068000004
6.6810002 -4.2049999 -0.068000004
6.6900001 -4.1700001 -0.068000004
6.7119999 -4.1440001 -0.068000004
6.7379999 -4.1199999 -0.068000004
6.7550001 -4.0910001 -0.068000004
6.7709999 -4.0609999 -0.068999998
6.7950001 -4.0359998 -0.068999998
6.8169999 -4.0100002 -0.068999998
6.8210001 -3.974 -0.068999998
6.8579998 -3.957 -0.068999998
6.8730001 -3.928 -0.068999998
6.8860002 -3.8970001 -0.068999998
6.9050002 -3.8699999 -0.068999998
6.9260001 -3.8440001 -0.068999998
6.9320002 -3.8099999 -0.068999998
6.9530001 -3.7850001 -0.068999998
6.9829998 -3.7639999 -0.068999998
6.9899998 -3.7320001 -0.068999998
7.02 -3.711 -0.068999998
7.0339999 -3.6819999 -0.068999998
7.0489998 -3.654 -0.068999998
7.0830002 -3.635 -0.07
7.1139998 -3.6159999 -0.07
7.1199999 -3.5829999 -0.07
7.1500001 -3.563 -0.07
7.1620002 -3.533 -0.07
7.1859999 -3.51 -0.07
7.1939998 -3.4790001 -0.07
7.224 -3.46 -0.07
7.2319999 -3.4289999 -0.07
7.27 -3.4119999 -0.07
7.2779999 -3.382 -0.07
7.2919998 -3.355 -0.07
7.3309999 -3.339 -0.071000002
7.342 -3.3099999 -0.071000002
7.3639998 -3.2869999 -0.071000002
7.381 -3.2609999 -0.071000002
7.3959999 -3.234 -0.071000002
7.4219999 -3.2130001 -0.071000002
7.4429998 -3.1889999 -0.071000002
7.454 -3.161 -0.071000002
7.473 -3.1370001 -0.071000002
7.4850001 -3.109 -0.071000002
7.5279999 -3.095 -0.071000002
7.553 -3.073 -0.071999997
7.5689998 -3.0480001 -0.071999997
7.5679998 -3.016 -0.071999997
7.5799999 -2.9890001 -0.071999997
7.612 -2.97 -0.071999997
7.6339998 -2.947 -0.071999997
7.6620002 -2.927 -0.071999997
7.6739998 -2.9000001 -0.071999997
7.7010002 -2.8800001 -0.071999997
7.7210002 -2.8559999 -0.071999997
7.7519999 -2.8369999 -0.071999997
7.7680001 -2.812 -0.071999997
7.7909999 -2.79 -0.072999999
7.7950001 -2.7609999 -0.072999999
7.8280001 -2.743 -0.072999999
7.8540001 -2.7219999 -0.072999999
7.8610001 -2.694 -0.072999999
7.9000001 -2.678 -0.072999999
7.9239998 -2.6559999 -0.072999999
7.9349999 -2.631 -0.072999999
7.974 -2.6140001 -0.074000001
7.987 -2.589 -0.074000001
8.0039997 -2.5650001 -0.074000001
8.033 -2.5450001 -0.074000001
8.0389996 -2.5179999 -0.074000001
8.0699997 -2.4990001 -0.074000001
8.0950003 -2.4779999 -0.074000001
8.1339998 -2.461 -0.074000001
8.1400003 -2.4349999 -0.074000001
8.1610003 -2.4119999 -0.074000001
8.1859999 -2.392 -0.074000001
8.2200003 -2.3729999 -0.075000003
8.2410002 -2.3510001 -0.075000003
8.29 -2.3369999 -0.075000003
8.2989998 -2.312 -0.075000003
8.2980003 -2.283 -0.075000003
8.3079996 -2.2590001 -0.075000003
8.3610001 -2.2449999 -0.075000003
8.3800001 -2.223 -0.075000003
8.4160004 -2.2049999 -0.075999998
8.4060001 -2.175 -0.075999998
8.4289999 -2.154 -0.075999998
8.448 -2.132 -0.075999998
8.4720001 -2.1110001 -0.075999998
8.4829998 -2.0869999 -0.075999998
8.5100002 -2.0669999 -0.075999998
8.5389996 -2.0469999 -0.075999998
8.5550003 -2.0239999 -0.075999998
8.6020002 -2.0090001 -0.077
8.6090002 -1.985 -0.077
8.6149998 -1.96 -0.077
8.6639996 -1.9450001 -0.077
8.6969995 -1.926 -0.077
8.7089996 -1.903 -0.077
8.7139997 -1.878 -0.077
8.7309999 -1.8559999 -0.077
8.7589998 -1.836 -0.077
8.7849998 -1.816 -0.077
8.7989998 -1.794 -0.077
8.8030005 -1.7690001 -0.077
8.8400002 -1.751 -0.078000002
8.8800001 -1.734 -0.078000002
8.9090004 -1.715 -0.078000002
8.9110003 -1.6900001 -0.078000002
8.9180002 -1.6670001 -0.078000002
8.9189997 -1.642 -0.078000002
8.9379997 -1.6210001 -0.078000002
8.9659996 -1.602 -0.078000002
8.9829998 -1.581 -0.078000002
8.9949999 -1.558 -0.078000002
9.0209999 -1.539 -0.078000002
9.0469999 -1.5190001 -0.079000004
9.0629997 -1.498 -0.079000004
9.0939999 -1.479 -0.079000004
9.1000004 -1.456 -0.079000004
9.1140003 -1.4349999 -0.079000004
9.1379995 -1.415 -0.079000004
9.1820002 -1.399 -0.079000004
9.1750002 -1.374 -0.079000004
9.2019997 -1.355 -0.079000004
9.2279997 -1.336 -0.079000004
9.2349997 -1.314 -0.079000004
9.2620001 -1.295 -0.079999998
9.2770004 -1.274 -0.079999998
9.2950001 -1.2539999 -0.079999998
9.2910004 -1.2309999 -0.079999998
9.3389997 -1.214 -0.079999998
9.3389997 -1.192 -0.079999998
9.3579998 -1.1720001 -0.079999998
9.375 -1.152 -0.079999998
9.4049997 -1.1339999 -0.079999998
9.4219999 -1.114 -0.079999998
9.4460001 -1.095 -0.079999998
9.4630003 -1.075 -0.079999998
9.4860001 -1.056 -0.081
9.5030003 -1.036 -0.081
9.4960003 -1.0140001 -0.079999998
9.5220003 -0.995 -0.081
9.5509996 -0.977 -0.081
9.5830002 -0.95899999 -0.081
9.5979996 -0.93900001 -0.081
9.6049995 -0.91900003 -0.081
9.625 -0.89999998 -0.081
9.6389999 -0.88099998 -0.081
9.6859999 -0.86400002 -0.082000002
9.6780005 -0.84299999 -0.081
9.6680002 -0.82200003 -0.081
9.7130003 -0.80500001 -0.082000002
9.7259998 -0.78600001 -0.082000002
9.7580004 -0.76800001 -0.082000002
9.8249998 -0.75300002 -0.082000002
9.823 -0.73299998 -0.082000002
9.8479996 -0.71499997 -0.082000002
9.868 -0.69700003 -0.082000002
9.8940001 -0.67900002 -0.082999997
9.9130001 -0.66000003 -0.082999997
9.9440002 -0.64300001 -0.082999997
9.9639997 -0.625 -0.082999997
10.007 -0.60799998 -0.082999997
10.037 -0.58999997 -0.082999997
10.015 -0.56999999 -0.082999997
10.09 -0.55500001 -0.083999999
10.062 -0.53399998 -0.082999997
10.135 -0.51899999 -0.083999999
9.6599998 0.118 -0.20200001
9.6739998 0.13500001 -0.20200001
9.6859999 0.153 -0.20299999
9.6969995 0.171 -0.20299999
9.6850004 0.189 -0.20299999
9.7139997 0.208 -0.204
9.7150002 0.227 -0.204
9.7130003 0.24600001 -0.204
9.7220001 0.26499999 -0.205
9.7220001 0.28400001 -0.205
9.7510004 0.30399999 -0.205
9.7440004 0.324 -0.206
9.75 0.34400001 -0.206
9.7539997 0.36399999 -0.206
9.7639999 0.38499999 -0.207
9.7620001 0.405 -0.207
9.7889996 0.42699999 -0.207
9.7790003 0.447 -0.207
9.816 0.47 -0.208
9.8039999 0.491 -0.208
9.8240004 0.514 -0.20900001
9.8109999 0.53500003 -0.20900001
9.8079996 0.55599999 -0.20900001
9.8199997 0.579 -0.20999999
9.8450003 0.60299999 -0.20999999
9.8579998 0.62599999 -0.211
9.8640003 0.64899999 -0.211
9.8699999 0.67299998 -0.212
9.8929996 0.69700003 -0.212
9.9130001 0.722 -0.213
9.9399996 0.74800003 -0.214
9.948 0.77200001 -0.214
9.9549999 0.79699999 -0.215
9.9799995 0.82300001 -0.215
9.9770002 0.847 -0.21600001
9.9989996 0.87400001 -0.21600001
9.9879999 0.89700001 -0.21600001
9.993 0.92299998 -0.21699999
10.025 0.95099998 -0.21799999
10.03 0.977 -0.21799999
10.053 1.0039999 -0.219
10.041 1.029 -0.219
10.068 1.058 -0.22
10.1 1.087 -0.221
10.128 1.117 -0.222
10.174 1.148 -0.223
10.175 1.175 -0.223
10.183 1.2029999 -0.22400001
10.201 1.232 -0.22400001
10.213 1.261 -0.22499999
10.227 1.291 -0.22499999
10.253 1.322 -0.226
10.259 1.351 -0.227
10.261 1.3789999 -0.227
10.302 1.413 -0.228
10.298 1.441 -0.229
10.338 1.475 -0.23
10.341 1.5039999 -0.23
10.355 1.536 -0.23100001
10.374 1.568 -0.23199999
10.395 1.6 -0.23199999
10.41 1.632 -0.233
10.435 1.666 -0.234
10.467 1.702 -0.235
10.493 1.7359999 -0.236
10.521 1.771 -0.237
10.538 1.8049999 -0.23800001
10.566 1.841 -0.23899999
10.588 1.876 -0.23999999
10.597 1.909 -0.23999999
10.609 1.942 -0.241
10.623 1.977 -0.242
10.63 2.01 -0.242
10.642 2.0439999 -0.243
10.686 2.085 -0.244
10.689 2.118 -0.245
10.741 2.161 -0.24600001
10.76 2.197 -0.24699999
10.793 2.237 -0.248
10.822 2.276 -0.249
10.859 2.3180001 -0.25
10.882 2.3570001 -0.25099999
10.861 2.3859999 -0.25099999
10.885 2.425 -0.252
10.916 2.4660001 -0.25400001
10.953 2.5090001 -0.255
10.994 2.553 -0.25600001
11.015 2.5929999 -0.257
11.017 2.628 -0.25799999
11.059 2.674 -0.259
11.065 2.711 -0.25999999
11.094 2.753 -0.26100001
11.115 2.7939999 -0.26199999
11.142 2.8369999 -0.26300001
11.156 2.8770001 -0.264
11.152 2.9119999 -0.264
11.172 2.9530001 -0.26499999
11.194 2.9960001 -0.266
11.21 3.0369999 -0.26699999
11.248 3.0840001 -0.26800001
11.247 3.1210001 -0.26899999
11.301 3.174 -0.27000001
11.299 3.211 -0.271
11.329 3.257 -0.27200001
11.34 3.2980001 -0.273
11.396 3.352 -0.27500001
11.403 3.3929999 -0.27500001
11.438 3.441 -0.27700001
11.464 3.4879999 -0.278
11.542 3.5510001 -0.28
11.561 3.596 -0.28099999
11.569 3.6370001 -0.28200001
11.577 3.6800001 -0.28299999
11.561 3.714 -0.28299999
11.557 3.7520001 -0.28299999
11.534 3.7839999 -0.28299999
11.565 3.8340001 -0.285
11.61 3.8889999 -0.28600001
11.616 3.931 -0.287
11.603 3.967 -0.287
11.603 4.007 -0.28799999
11.618 4.053 -0.289
11.643 4.1020002 -0.28999999
11.661 4.1490002 -0.29100001
11.702 4.2049999 -0.29300001
11.712 4.2490001 -0.29300001
11.729 4.296 -0.294
11.758 4.348 -0.296
11.761 4.3909998 -0.296
11.768 4.4349999 -0.29699999
11.806 4.4910002 -0.29899999
11.829 4.5419998 -0.30000001
11.83 4.5840001 -0.301
11.856 4.6360002 -0.30199999
11.899 4.6950002 -0.30399999
11.929 4.75 -0.30500001
11.948 4.8000002 -0.30599999
11.957 4.8460002 -0.30700001
11.968 4.8940001 -0.308
12.002 4.9510002 -0.30899999
11.999 4.993 -0.31
12.022 5.0450001 -0.31099999
12.04 5.0960002 -0.31200001
12.065 5.1500001 -0.31400001
12.069 5.1950002 -0.31400001
12.109 5.256 -0.31600001
12.126 5.3080001 -0.317
12.12 5.349 -0.31799999
12.125 5.395 -0.31900001
12.135 5.4429998 -0.31900001
12.153 5.4949999 -0.32100001
12.163 5.5440001 -0.322
12.168 5.5910001 -0.322
12.177 5.6389999 -0.32300001
12.203 5.6960001 -0.32499999
12.222 5.7490001 -0.32600001
12.225 5.7950001 -0.32699999
12.246 5.8499999 -0.32800001
12.27 5.9060001 -0.329
12.271 5.9510002 -0.33000001
12.293 6.007 -0.331
12.308 6.059 -0.333
12.348 6.1240001 -0.33399999
12.346 6.1680002 -0.33500001
12.375 6.2280002 -0.33700001
12.299 6.2350001 -0.33500001
12.227 6.243 -0.33399999
12.198 6.2719998 -0.33399999
12.236 6.4260001 -0.33700001
12.213 6.4580002 -0.33700001
12.769 7.033 -0.35800001
12.798 7.0949998 -0.359
12.803 7.1440001 -0.36000001
12.839 7.211 -0.36199999
12.893 7.2880001 -0.36399999
12.979 7.3829999 -0.368
10.508 6.243 -0.30199999
10.469 6.2579999 -0.30199999
10.39 6.2480001 -0.30000001
10.256 6.204 -0.29699999
10.267 6.2470002 -0.29800001
10.226 6.2589998 -0.29800001
10.154 6.2509999 -0.296
10.135 6.2740002 -0.296
10.187 6.3429999 -0.29800001
10.382 6.5009999 -0.30500001
9.6169996 6.6459999 -0.29499999
9.5310001 6.6170001 -0.29300001
9.4709997 6.6069999 -0.292
9.4309998 6.6090002 -0.29100001
9.4099998 6.625 -0.29100001
9.3999996 6.6479998 -0.292
9.3940001 6.6739998 -0.292
9.3830004 6.6950002 -0.29300001
9.3830004 6.7249999 -0.29300001
9.3859997 6.757 -0.294
9.3850002 6.7849998 -0.29499999
9.3950005 6.8210001 -0.296
9.3850002 6.8429999 -0.296
7.0139999 -4.1170001 -0.054000001
7.0229998 -4.1020002 -0.054000001
7.0380001 -4.092 -0.054000001
7.0339999 -4.0689998 -0.054000001
7.0500002 -4.059 -0.054000001
7.0749998 -4.053 -0.054000001
7.0549998 -4.0219998 -0.054000001
7.0669999 -4.0079999 -0.054000001
7.0819998 -3.997 -0.054000001
7.0799999 -3.9760001 -0.054000001
7.0939999 -3.964 -0.054000001
7.1139998 -3.954 -0.054000001
7.1040001 -3.9289999 -0.054000001
7.1199999 -3.9170001 -0.054000001
7.1230001 -3.8989999 -0.054000001
7.1370001 -3.8859999 -0.054000001
7.1430001 -3.869 -0.054000001
7.1589999 -3.8570001 -0.054000001
7.1859999 -3.852 -0.054000001
7.1950002 -3.836 -0.054000001
7.204 -3.8199999 -0.054000001
7.2119999 -3.8039999 -0.054000001
7.178 -3.7650001 -0.054000001
7.1659999 -3.7379999 -0.054000001
7.2010002 -3.7360001 -0.054000001
7.2459998 -3.7390001 -0.054000001
7.2709999 -3.7309999 -0.054000001
7.27 -3.71 -0.054000001
7.277 -3.6919999 -0.054000001
7.303 -3.6849999 -0.054000001
7.3140001 -3.6689999 -0.054000001
7.323 -3.6530001 -0.054000001
7.3309999 -3.6359999 -0.054000001
7.3400002 -3.619 -0.054000001
7.3460002 -3.6010001 -0.054000001
7.3559999 -3.585 -0.054000001
7.3629999 -3.5669999 -0.054000001
7.3860002 -3.5569999 -0.054000001
7.381 -3.533 -0.054000001
7.408 -3.5250001 -0.054000001
7.4039998 -3.5020001 -0.054000001
7.4250002 -3.49 -0.054000001
7.4330001 -3.473 -0.054000001
7.428 -3.4489999 -0.054000001
7.447 -3.4360001 -0.054000001
7.4710002 -3.4260001 -0.054000001
7.4770002 -3.4070001 -0.054000001
7.494 -3.3929999 -0.054000001
7.4949999 -3.372 -0.054000001
7.507 -3.3559999 -0.054000001
7.5180001 -3.339 -0.054000001
7.5359998 -3.325 -0.054000001
7.5549998 -3.312 -0.054000001
7.5689998 -3.296 -0.054000001
7.5739999 -3.277 -0.054000001
7.585 -3.2590001 -0.054000001
7.6040001 -3.2460001 -0.054000001
7.6199999 -3.23 -0.054000001
7.6339998 -3.2149999 -0.054000001
7.6339998 -3.1919999 -0.054000001
7.6570001 -3.1800001 -0.054000001
7.6739998 -3.165 -0.054000001
7.6849999 -3.1470001 -0.054000001
7.6869998 -3.1259999 -0.054000001
7.7049999 -3.1110001 -0.054000001
7.7150002 -3.0929999 -0.054000001
7.7290001 -3.076 -0.054000001
7.7449999 -3.0599999 -0.054000001
