# .PCD v0.7 - Point Cloud Data file format
VERSION 0.7
FIELDS x y z
SIZE 4 4 4
TYPE F F F
COUNT 1 1 1
WIDTH 1810
HEIGHT 1
VIEWPOINT 0 0 0 1 0 0 0
POINTS 1810
DATA ascii
12.94 5.0580001 -0.186
12.972 5.1160002 -0.18700001
12.978 5.165 -0.18799999
12.974 5.21 -0.18799999
13.011 5.2709999 -0.189
12.992 5.3099999 -0.189
11.392 4.697 -0.16599999
11.27 4.6869998 -0.16500001
11.238 4.7140002 -0.16500001
11.254 4.7610002 -0.16599999
11.289 4.8169999 -0.167
11.274 4.8509998 -0.167
11.31 4.9070001 -0.168
13.282 5.8109999 -0.198
13.283 5.8590002 -0.198
13.306 5.9180002 -0.199
13.303 5.9650002 -0.2
13.348 6.033 -0.20100001
13.338 6.0770001 -0.20100001
13.365 6.138 -0.20200001
13.393 6.1989999 -0.20299999
13.42 6.2610002 -0.204
13.449 6.323 -0.205
13.476 6.3850002 -0.206
13.469 6.4310002 -0.207
13.491 6.4910002 -0.208
13.493 6.5409999 -0.208
13.571 6.6279998 -0.20999999
12.46 6.2220001 -0.19400001
12.218 6.1459999 -0.191
12.211 6.1869998 -0.191
12.274 6.3080001 -0.19400001
12.291 6.362 -0.19400001
12.272 6.3969998 -0.19499999
12.088 6.3449998 -0.192
12.031 6.3590002 -0.192
12.086 6.4330001 -0.193
12.15 6.5110002 -0.19499999
12.121 6.54 -0.19499999
12.209 6.632 -0.197
12.201 6.6719999 -0.197
10.658 6.138 -0.176
10.502 6.086 -0.17399999
10.429 6.0809999 -0.17299999
10.376 6.0879998 -0.17299999
10.316 6.0900002 -0.17200001
10.257 6.0910001 -0.17200001
10.202 6.0949998 -0.17200001
10.146 6.099 -0.171
10.085 6.098 -0.17
10.036 6.1040001 -0.17
9.9980001 6.1170001 -0.17
9.9549999 6.125 -0.17
9.9259996 6.1430001 -0.17
9.9209995 6.1739998 -0.17
9.9770002 6.2449999 -0.17200001
10.23 6.4390001 -0.176
9.6619997 6.7690001 -0.177
9.5979996 6.7550001 -0.176
9.5539999 6.7550001 -0.176
9.5279999 6.7659998 -0.176
9.5080004 6.7820001 -0.176
9.5010004 6.8070002 -0.176
9.4989996 6.836 -0.177
9.4829998 6.8540001 -0.177
9.493 6.8899999 -0.177
9.4870005 6.915 -0.178
7.342 -4.316 0.013
7.3530002 -4.302 0.013
7.3660002 -4.289 0.013
7.3759999 -4.2740002 0.013
7.3699999 -4.2490001 0.013
7.3870001 -4.2379999 0.013
7.4039998 -4.2270002 0.013
7.4109998 -4.21 0.013
7.4299998 -4.1999998 0.013
7.4320002 -4.1799998 0.013
7.4460001 -4.1659999 0.013
7.4439998 -4.1440001 0.013
7.4559999 -4.1300001 0.014
7.4689999 -4.1160002 0.014
7.473 -4.0970001 0.014
7.4770002 -4.0770001 0.014
7.4990001 -4.0679998 0.014
7.5089998 -4.052 0.014
7.5219998 -4.0380001 0.014
7.539 -4.0250001 0.014
7.5349998 -4.0009999 0.014
7.5469999 -3.9860001 0.014
7.546 -3.964 0.014
7.559 -3.9489999 0.014
7.5440001 -3.9200001 0.014
7.579 -3.9159999 0.015
7.599 -3.905 0.015
7.6030002 -3.885 0.015
7.6230001 -3.8729999 0.015
7.6329999 -3.8570001 0.015
7.6290002 -3.832 0.015
7.6459999 -3.819 0.015
7.6599998 -3.8039999 0.015
7.6659999 -3.7850001 0.015
7.6750002 -3.767 0.015
7.6939998 -3.7539999 0.015
7.6960001 -3.733 0.016000001
7.717 -3.721 0.016000001
7.7290001 -3.7049999 0.016000001
7.7319999 -3.684 0.016000001
7.7620001 -3.6760001 0.016000001
7.7659998 -3.655 0.016000001
7.7670002 -3.6329999 0.016000001
7.7849998 -3.619 0.016000001
7.7950001 -3.6010001 0.016000001
7.8049998 -3.5829999 0.016000001
7.8249998 -3.5699999 0.016000001
7.836 -3.552 0.017000001
7.8579998 -3.54 0.017000001
7.8639998 -3.5190001 0.017000001
7.8800001 -3.5039999 0.017000001
7.881 -3.4820001 0.017000001
7.8979998 -3.4660001 0.017000001
7.9200001 -3.4530001 0.017000001
7.934 -3.4360001 0.017000001
7.948 -3.4189999 0.017000001
7.961 -3.402 0.017000001
7.9780002 -3.3859999 0.017000001
8.0010004 -3.3729999 0.017999999
8.0089998 -3.3529999 0.017999999
8.0150003 -3.332 0.017999999
8.0310001 -3.316 0.017999999
8.0450001 -3.2980001 0.017999999
8.0640001 -3.283 0.017999999
8.0760002 -3.2639999 0.017999999
8.0970001 -3.2490001 0.017999999
8.1020002 -3.2279999 0.017999999
8.1190004 -3.211 0.017999999
8.1520004 -3.201 0.018999999
8.1569996 -3.1789999 0.018999999
8.1700001 -3.161 0.018999999
8.1929998 -3.1459999 0.018999999
8.2060003 -3.1270001 0.018999999
8.2370005 -3.115 0.018999999
8.2480001 -3.095 0.018999999
8.257 -3.075 0.018999999
8.2709999 -3.056 0.018999999
8.2779999 -3.0350001 0.018999999
8.3039999 -3.0209999 0.02
8.3140001 -3 0.02
8.3050003 -2.973 0.02
8.3439999 -2.9630001 0.02
8.3570004 -2.9430001 0.02
8.3839998 -2.928 0.02
8.3859997 -2.905 0.02
8.3940001 -2.8840001 0.02
8.4350004 -2.8729999 0.02
8.4420004 -2.8510001 0.021
8.4530001 -2.8310001 0.021
8.4849997 -2.8169999 0.021
8.4960003 -2.796 0.021
8.5050001 -2.7750001 0.021
8.5410004 -2.7620001 0.021
8.54 -2.737 0.021
8.5530005 -2.7160001 0.021
8.5799999 -2.7 0.021
8.6049995 -2.6830001 0.022
8.6020002 -2.6570001 0.022
8.6719999 -2.654 0.022
8.6709995 -2.6289999 0.022
8.6700001 -2.6029999 0.022
8.6899996 -2.585 0.022
8.7119999 -2.566 0.022
8.7209997 -2.543 0.022
8.7460003 -2.526 0.022
8.7629995 -2.5050001 0.022
8.7939997 -2.4890001 0.023
8.823 -2.4719999 0.023
8.8360004 -2.45 0.023
8.8629999 -2.4319999 0.023
8.8769999 -2.4100001 0.023
8.8929996 -2.3889999 0.023
8.9099998 -2.368 0.023
8.9230003 -2.346 0.023
8.9429998 -2.325 0.024
8.9940004 -2.313 0.024
8.9989996 -2.2880001 0.024
9.0179996 -2.267 0.024
9.0489998 -2.2490001 0.024
9.0559998 -2.2249999 0.024
9.0900002 -2.207 0.024
9.099 -2.1830001 0.024
9.1309996 -2.165 0.025
9.1309996 -2.1389999 0.025
9.1619997 -2.1199999 0.025
9.1789999 -2.0969999 0.025
9.2089996 -2.0780001 0.025
9.25 -2.0599999 0.025
9.2519999 -2.0350001 0.025
9.2869997 -2.016 0.025
9.3009996 -1.992 0.026000001
9.3260002 -1.971 0.026000001
9.3610001 -1.951 0.026000001
9.4020004 -1.933 0.026000001
9.3859997 -1.903 0.026000001
9.4399996 -1.887 0.026000001
9.467 -1.865 0.026000001
9.493 -1.8430001 0.027000001
9.526 -1.822 0.027000001
9.5889997 -1.807 0.027000001
9.5679998 -1.776 0.027000001
9.6099997 -1.756 0.027000001
9.6309996 -1.732 0.027000001
9.6789999 -1.7130001 0.028000001
9.6899996 -1.687 0.028000001
9.7119999 -1.664 0.028000001
9.7200003 -1.637 0.028000001
9.7390003 -1.613 0.028000001
9.783 -1.592 0.028000001
9.783 -1.564 0.028000001
9.8079996 -1.54 0.028000001
9.7709999 -1.507 0.028000001
9.7790003 -1.48 0.028000001
9.8179998 -1.4579999 0.028999999
9.9029999 -1.442 0.028999999
10.018 -1.4299999 0.028999999
10.078 -1.41 0.029999999
10.12 -1.387 0.029999999
10.154 -1.363 0.029999999
10.187 -1.339 0.029999999
10.217 -1.313 0.029999999
10.215 -1.284 0.029999999
10.294 -1.265 0.030999999
10.324 -1.239 0.030999999
10.334 -1.211 0.030999999
10.402 -1.189 0.030999999
10.418 -1.161 0.030999999
10.496 -1.14 0.032000002
10.552 -1.1160001 0.032000002
10.632 -1.095 0.032000002
10.674 -1.069 0.032000002
10.692 -1.04 0.033
10.725 -1.013 0.033
10.77 -0.986 0.033
10.758 -0.95499998 0.033
10.833 -0.93000001 0.033
10.898 -0.90499997 0.034000002
10.966 -0.88 0.034000002
10.963 -0.84799999 0.034000002
11.016 -0.82099998 0.034000002
11.09 -0.79500002 0.034000002
11.099 -0.764 0.035
11.143 -0.736 0.035
11.153 0.322 -0.097000003
11.137 0.33700001 -0.097000003
11.083 0.35100001 -0.096000001
11.028 0.366 -0.096000001
11.039 0.382 -0.096000001
11.034 0.39899999 -0.096000001
11.048 0.41600001 -0.097000003
11 0.43099999 -0.097000003
10.96 0.447 -0.096000001
10.97 0.465 -0.097000003
10.972 0.48199999 -0.097000003
10.955 0.5 -0.097000003
10.981 0.51899999 -0.097000003
10.982 0.53799999 -0.097000003
10.978 0.55599999 -0.097999997
10.962 0.574 -0.097999997
10.97 0.59399998 -0.097999997
10.963 0.61299998 -0.097999997
10.977 0.63300002 -0.097999997
10.976 0.653 -0.097999997
11.001 0.67500001 -0.098999999
10.992 0.69400001 -0.098999999
10.985 0.71499997 -0.098999999
10.954 0.73299998 -0.098999999
10.982 0.75599998 -0.098999999
10.992 0.778 -0.1
11.02 0.80199999 -0.1
11.031 0.82499999 -0.101
11.039 0.847 -0.101
11.055 0.87099999 -0.101
11.031 0.89099997 -0.101
11.06 0.91600001 -0.102
11.051 0.93900001 -0.102
11.047 0.96200001 -0.102
11.087 0.98900002 -0.103
11.087 1.012 -0.103
11.092 1.0369999 -0.103
11.115 1.063 -0.103
11.144 1.09 -0.104
11.143 1.115 -0.104
11.169 1.143 -0.105
11.192 1.17 -0.105
11.183 1.1950001 -0.105
11.195 1.222 -0.106
11.225 1.251 -0.106
11.246 1.28 -0.107
11.246 1.306 -0.107
11.25 1.3329999 -0.107
11.261 1.3609999 -0.107
11.271 1.39 -0.108
11.299 1.421 -0.108
11.314 1.45 -0.109
11.335 1.4809999 -0.109
11.354 1.511 -0.11
11.362 1.541 -0.11
11.391 1.573 -0.11
11.414 1.605 -0.111
11.424 1.636 -0.111
11.455 1.67 -0.112
11.479 1.7029999 -0.112
11.496 1.7359999 -0.113
11.544 1.773 -0.113
11.562 1.806 -0.114
11.58 1.84 -0.114
11.619 1.877 -0.115
11.657 1.915 -0.116
11.656 1.946 -0.116
11.678 1.982 -0.116
11.694 2.017 -0.117
11.7 2.05 -0.117
11.732 2.0880001 -0.118
11.757 2.125 -0.118
11.771 2.161 -0.119
11.799 2.1989999 -0.119
11.804 2.234 -0.12
11.774 2.2620001 -0.12
11.708 2.283 -0.119
11.668 2.309 -0.119
11.604 2.3299999 -0.119
11.572 2.3570001 -0.119
11.573 2.392 -0.119
11.575 2.4260001 -0.12
11.674 2.4820001 -0.121
12.09 2.6070001 -0.126
12.068 2.638 -0.126
12.11 2.684 -0.126
12.147 2.7290001 -0.127
12.167 2.7709999 -0.12800001
12.204 2.8169999 -0.12800001
12.21 2.8559999 -0.12899999
12.216 2.895 -0.12899999
12.237 2.938 -0.13
12.257 2.9820001 -0.13
12.259 3.0209999 -0.131
12.274 3.063 -0.131
12.296 3.108 -0.132
12.314 3.152 -0.132
12.297 3.187 -0.133
12.321 3.233 -0.133
12.337 3.277 -0.134
12.362 3.3239999 -0.134
12.376 3.369 -0.13500001
12.384 3.4119999 -0.13500001
12.413 3.461 -0.13600001
12.418 3.503 -0.13600001
12.458 3.556 -0.13699999
12.484 3.605 -0.138
12.509 3.655 -0.139
12.52 3.7 -0.139
12.507 3.7390001 -0.139
12.514 3.7839999 -0.14
12.532 3.832 -0.14
12.547 3.8800001 -0.141
12.575 3.9319999 -0.142
12.588 3.98 -0.142
12.599 4.0279999 -0.14300001
12.611 4.0760002 -0.14300001
12.639 4.1290002 -0.14399999
12.662 4.1820002 -0.145
12.688 4.2350001 -0.145
12.717 4.2909999 -0.146
12.738 4.3429999 -0.147
12.749 4.3930001 -0.147
12.75 4.4390001 -0.148
12.785 4.4980001 -0.149
12.796 4.5479999 -0.149
12.807 4.599 -0.15000001
12.859 4.665 -0.15099999
12.924 4.7360001 -0.152
12.984 4.8070002 -0.153
13.011 4.8649998 -0.154
13.056 4.9310002 -0.155
13.061 4.9809999 -0.155
13.114 5.0510001 -0.156
13.173 5.1240001 -0.15800001
13.228 5.1950002 -0.15899999
13.264 5.2600002 -0.16
13.274 5.3150001 -0.16
13.263 5.3610001 -0.161
11.581 4.7259998 -0.141
11.312 4.6599998 -0.138
11.252 4.6789999 -0.13699999
11.267 4.7290001 -0.138
11.313 4.7930002 -0.139
11.298 4.8309999 -0.139
11.292 4.8730001 -0.14
11.49 5.0040002 -0.142
13.552 5.9559999 -0.169
13.609 6.0359998 -0.17
13.635 6.1020002 -0.171
13.632 6.1550002 -0.171
13.65 6.2179999 -0.17200001
13.62 6.2600002 -0.17200001
13.621 6.316 -0.17299999
13.633 6.3769999 -0.17299999
13.654 6.4429998 -0.17399999
13.679 6.5110002 -0.175
13.692 6.5739999 -0.176
13.773 6.6700001 -0.177
12.222 6.1230001 -0.15899999
12.197 6.1620002 -0.15899999
12.201 6.2680001 -0.16
12.284 6.3629999 -0.162
12.252 6.3990002 -0.162
12.054 6.3470001 -0.16
12.024 6.3829999 -0.16
12.083 6.467 -0.161
12.112 6.5349998 -0.162
12.205 6.638 -0.164
12.165 6.6700001 -0.164
12.149 6.7150002 -0.164
10.756 6.2309999 -0.148
10.577 6.1750002 -0.146
10.428 6.1360002 -0.145
10.362 6.1440001 -0.14399999
10.298 6.152 -0.14399999
10.243 6.1659999 -0.14300001
10.169 6.1680002 -0.14300001
10.117 6.1830001 -0.142
10.048 6.1869998 -0.142
10.002 6.2049999 -0.142
9.9449997 6.2160001 -0.141
9.8920002 6.2280002 -0.141
9.8529997 6.25 -0.141
9.8549995 6.2969999 -0.141
9.8959999 6.3699999 -0.14300001
10.114 6.5580001 -0.146
9.698 6.895 -0.146
9.6040001 6.875 -0.145
9.5279999 6.868 -0.145
7.0240002 -4.632 0.028999999
7.0650001 -4.6149998 0.028999999
7.098 -4.592 0.028999999
7.1100001 -4.5560002 0.029999999
7.1370001 -4.5289998 0.029999999
7.165 -4.5029998 0.029999999
7.1999998 -4.4819999 0.029999999
7.224 -4.454 0.029999999
7.25 -4.428 0.029999999
7.2589998 -4.3899999 0.029999999
7.276 -4.3579998 0.030999999
7.3060002 -4.335 0.030999999
7.3239999 -4.3039999 0.030999999
7.349 -4.276 0.030999999
7.3590002 -4.2410002 0.030999999
7.3839998 -4.2150002 0.030999999
7.414 -4.191 0.030999999
7.4190001 -4.1529999 0.030999999
7.448 -4.1290002 0.032000002
7.4679999 -4.0999999 0.032000002
7.4699998 -4.0609999 0.032000002
7.4809999 -4.0279999 0.032000002
7.5100002 -4.0050001 0.032000002
7.5570002 -3.99 0.032000002
7.5640001 -3.9549999 0.032000002
7.5879998 -3.9289999 0.033
7.6100001 -3.902 0.033
7.6259999 -3.872 0.033
7.6409998 -3.8410001 0.033
7.6620002 -3.8139999 0.033
7.677 -3.7839999 0.033
7.7059999 -3.76 0.033
7.7119999 -3.7260001 0.033
7.7420001 -3.704 0.034000002
7.776 -3.6830001 0.034000002
7.7820001 -3.6489999 0.034000002
7.8060002 -3.6240001 0.034000002
7.8369999 -3.602 0.034000002
7.8499999 -3.572 0.034000002
7.8769999 -3.5480001 0.034000002
7.8899999 -3.5179999 0.034000002
7.915 -3.493 0.035
7.914 -3.4579999 0.035
7.9489999 -3.438 0.035
7.9840002 -3.418 0.035
8.0200005 -3.398 0.035
8.0349998 -3.3699999 0.035
8.0439997 -3.339 0.035
8.0629997 -3.312 0.035999998
8.1040001 -3.2950001 0.035999998
8.1140003 -3.2639999 0.035999998
8.151 -3.2449999 0.035999998
8.1709995 -3.2190001 0.035999998
8.1820002 -3.1900001 0.035999998
8.2110004 -3.1670001 0.037
8.2519999 -3.1500001 0.037
8.2720003 -3.1240001 0.037
8.2969999 -3.0999999 0.037
8.3179998 -3.075 0.037
8.3430004 -3.0510001 0.037
8.3520002 -3.0209999 0.037
8.3649998 -2.994 0.037999999
8.4049997 -2.9749999 0.037999999
8.4239998 -2.95 0.037999999
8.4420004 -2.924 0.037999999
8.4700003 -2.901 0.037999999
8.5019999 -2.8800001 0.037999999
8.5279999 -2.8570001 0.039000001
8.5530005 -2.8340001 0.039000001
8.5570002 -2.803 0.039000001
8.6140003 -2.79 0.039000001
8.6260004 -2.763 0.039000001
8.6459999 -2.7379999 0.039000001
8.6669998 -2.714 0.039999999
8.7299995 -2.7019999 0.039999999
8.7869997 -2.6889999 0.039999999
8.757 -2.6489999 0.039999999
8.7700005 -2.622 0.039999999
8.7790003 -2.5940001 0.039999999
8.8360004 -2.5799999 0.041000001
8.8649998 -2.5580001 0.041000001
8.927 -2.546 0.041000001
8.9689999 -2.527 0.041000001
8.9779997 -2.5 0.041000001
8.9829998 -2.471 0.041999999
9.0080004 -2.448 0.041999999
9.0179996 -2.421 0.041999999
9.0500002 -2.4000001 0.041999999
9.0690002 -2.3759999 0.041999999
9.1120005 -2.3570001 0.041999999
9.1409998 -2.335 0.043000001
9.1730003 -2.3139999 0.043000001
9.1829996 -2.2880001 0.043000001
9.217 -2.267 0.043000001
9.2250004 -2.24 0.043000001
9.243 -2.2160001 0.043000001
9.2860003 -2.197 0.044
9.2919998 -2.1700001 0.044
9.3450003 -2.154 0.044
9.375 -2.132 0.044
9.4069996 -2.1110001 0.044
9.4390001 -2.0899999 0.045000002
9.4499998 -2.0650001 0.045000002
9.4809999 -2.043 0.045000002
9.526 -2.0250001 0.045000002
9.5620003 -2.0050001 0.045000002
9.5769997 -1.98 0.046
9.6000004 -1.957 0.046
9.6370001 -1.937 0.046
9.6680002 -1.916 0.046
9.6879997 -1.892 0.046
9.7030001 -1.868 0.046
9.7259998 -1.845 0.046999998
9.7159996 -1.816 0.046999998
9.7469997 -1.795 0.046999998
9.7840004 -1.775 0.046999998
9.8330002 -1.757 0.046999998
9.8559999 -1.735 0.046999998
9.8330002 -1.704 0.046999998
9.8109999 -1.674 0.046999998
9.776 -1.642 0.046999998
9.7700005 -1.6160001 0.046999998
9.7770004 -1.591 0.046999998
9.7749996 -1.5650001 0.046999998
9.7629995 -1.538 0.046999998
9.7250004 -1.507 0.046999998
9.7299995 -1.483 0.046999998
9.7440004 -1.461 0.046999998
9.7869997 -1.442 0.048
9.927 -1.438 0.048
10.274 -1.4630001 0.050000001
10.291 -1.4400001 0.050000001
10.3 -1.416 0.050000001
10.348 -1.397 0.050999999
10.361 -1.374 0.050999999
10.385 -1.352 0.050999999
10.413 -1.331 0.050999999
10.447 -1.3099999 0.050999999
10.49 -1.291 0.052000001
10.52 -1.27 0.052000001
10.556 -1.249 0.052000001
10.602 -1.23 0.052000001
10.617 -1.2079999 0.052999999
10.665 -1.189 0.052999999
10.673 -1.165 0.052999999
10.699 -1.1440001 0.052999999
10.72 -1.122 0.052999999
10.749 -1.101 0.054000001
10.76 -1.079 0.054000001
10.795 -1.058 0.054000001
10.811 -1.036 0.054000001
10.84 -1.016 0.054000001
10.869 -0.995 0.054000001
10.875 -0.972 0.054000001
10.88 -0.94999999 0.055
10.891 -0.92799997 0.055
10.94 -0.90899998 0.055
10.96 -0.88800001 0.055
10.968 -0.866 0.055
10.984 -0.84500003 0.055
11.03 -0.82599998 0.056000002
11.087 -0.80699998 0.056000002
11.133 -0.78799999 0.056000002
11.144 -0.76700002 0.056000002
11.171 -0.74699998 0.057
11.216 -0.72799999 0.057
11.252 -0.708 0.057
11.28 -0.68800002 0.057
11.283 -0.66600001 0.057
11.343 -0.648 0.057999998
10.853 0.13699999 -0.063000001
10.895 0.15700001 -0.063000001
10.844 0.176 -0.063000001
10.878 0.197 -0.063000001
10.903 0.21799999 -0.064000003
10.904 0.23800001 -0.064000003
10.918 0.259 -0.064000003
10.923 0.28099999 -0.064000003
10.92 0.30199999 -0.064999998
10.929 0.324 -0.064999998
10.919 0.345 -0.064999998
10.92 0.36700001 -0.064999998
10.905 0.389 -0.064999998
10.919 0.41100001 -0.064999998
10.918 0.43399999 -0.066
10.914 0.45699999 -0.066
10.913 0.47999999 -0.066
10.916 0.50300002 -0.066
10.939 0.528 -0.067000002
10.952 0.55199999 -0.067000002
10.954 0.57599998 -0.067000002
10.958 0.60000002 -0.067000002
10.962 0.625 -0.067000002
10.979 0.65100002 -0.068000004
10.98 0.67500001 -0.068000004
10.994 0.70099998 -0.068000004
10.983 0.72600001 -0.068000004
10.995 0.75199997 -0.068999998
10.993 0.778 -0.068999998
11.012 0.80500001 -0.068999998
11.043 0.833 -0.07
11.04 0.85900003 -0.07
11.06 0.88800001 -0.07
11.081 0.91600001 -0.07
11.09 0.94400001 -0.071000002
11.088 0.97100002 -0.071000002
11.113 1.001 -0.071000002
11.131 1.03 -0.071999997
11.138 1.058 -0.071999997
11.152 1.0880001 -0.071999997
11.183 1.119 -0.072999999
11.209 1.15 -0.072999999
11.233 1.182 -0.072999999
11.239 1.211 -0.074000001
11.267 1.244 -0.074000001
11.271 1.274 -0.074000001
11.296 1.306 -0.075000003
11.324 1.339 -0.075000003
11.322 1.369 -0.075000003
11.338 1.402 -0.075999998
11.35 1.434 -0.075999998
11.376 1.4680001 -0.077
11.41 1.503 -0.077
11.451 1.54 -0.078000002
11.48 1.575 -0.078000002
11.491 1.609 -0.078000002
11.525 1.645 -0.079000004
11.545 1.6799999 -0.079000004
11.572 1.717 -0.079999998
11.651 1.761 -0.079999998
11.642 1.793 -0.081
11.682 1.832 -0.081
11.695 1.868 -0.082000002
11.742 1.909 -0.082000002
11.788 1.951 -0.082999997
11.809 1.988 -0.082999997
11.842 2.0280001 -0.083999999
11.865 2.0669999 -0.083999999
11.898 2.108 -0.085000001
11.933 2.1489999 -0.085000001
11.961 2.1900001 -0.086000003
11.977 2.2279999 -0.086000003
11.975 2.2639999 -0.086000003
11.839 2.2739999 -0.086000003
11.686 2.279 -0.085000001
11.625 2.303 -0.085000001
11.578 2.329 -0.085000001
11.557 2.3599999 -0.085000001
11.578 2.3989999 -0.085000001
11.66 2.4519999 -0.086000003
12.284 2.6210001 -0.090999998
12.303 2.6630001 -0.090999998
12.306 2.7019999 -0.092
12.34 2.7479999 -0.092
12.378 2.796 -0.093000002
12.373 2.8329999 -0.093000002
12.37 2.872 -0.093000002
12.401 2.918 -0.093999997
12.407 2.9590001 -0.093999997
12.436 3.0050001 -0.094999999
12.451 3.049 -0.094999999
12.468 3.0929999 -0.096000001
12.479 3.1359999 -0.096000001
12.513 3.1849999 -0.097000003
12.546 3.234 -0.097000003
12.562 3.279 -0.097999997
12.567 3.3210001 -0.097999997
12.607 3.372 -0.098999999
12.612 3.415 -0.098999999
12.641 3.4649999 -0.1
12.65 3.5090001 -0.1
12.672 3.5569999 -0.101
12.699 3.6059999 -0.101
12.708 3.651 -0.102
12.71 3.694 -0.102
12.707 3.7360001 -0.102
12.72 3.7820001 -0.103
12.725 3.826 -0.103
12.747 3.8759999 -0.104
12.789 3.9319999 -0.105
12.829 3.9879999 -0.105
12.836 4.033 -0.106
12.855 4.0830002 -0.106
12.875 4.1329999 -0.107
12.907 4.1880002 -0.107
12.939 4.243 -0.108
12.995 4.3060002 -0.109
13.048 4.368 -0.11
13.08 4.4239998 -0.11
13.099 4.4759998 -0.111
13.094 4.5190001 -0.111
13.112 4.5710001 -0.112
13.145 4.6279998 -0.112
13.244 4.7090001 -0.114
13.275 4.7670002 -0.114
13.344 4.8379998 -0.115
13.358 4.8899999 -0.116
13.412 4.9569998 -0.117
13.426 5.0089998 -0.117
13.489 5.0799999 -0.118
13.568 5.158 -0.119
13.566 5.2049999 -0.12
13.62 5.2740002 -0.121
13.638 5.3299999 -0.121
13.668 5.3899999 -0.122
13.736 5.4660001 -0.123
13.805 5.5419998 -0.124
13.811 5.5939999 -0.125
11.514 4.7049999 -0.104
11.299 4.6570001 -0.103
11.246 4.6760001 -0.102
11.241 4.7140002 -0.103
11.294 4.777 -0.104
11.33 4.8330002 -0.104
11.276 4.8509998 -0.104
11.261 4.8850002 -0.104
11.307 4.9460001 -0.105
14.099 6.2179999 -0.132
13.999 6.2249999 -0.131
13.877 6.2210002 -0.131
13.806 6.2389998 -0.13
12.23 6.151 -0.121
12.207 6.184 -0.122
12.178 6.2579999 -0.122
12.117 6.2709999 -0.122
12.115 6.3140001 -0.122
12.105 6.3530002 -0.123
12.056 6.3709998 -0.123
12.051 6.4130001 -0.123
12.105 6.4860001 -0.124
12.113 6.5339999 -0.124
12.218 6.6360002 -0.126
12.204 6.7160001 -0.127
12.258 6.7909999 -0.12800001
10.64 6.165 -0.114
10.529 6.138 -0.113
10.409 6.1059999 -0.112
10.361 6.1149998 -0.112
10.302 6.1170001 -0.112
10.251 6.1240001 -0.111
10.199 6.1290002 -0.111
10.14 6.1300001 -0.111
10.095 6.1389999 -0.111
10.064 6.1550002 -0.111
10.025 6.1680002 -0.111
9.9910002 6.1820002 -0.111
9.9709997 6.2049999 -0.111
9.9879999 6.2509999 -0.112
10.112 6.3639998 -0.113
7.4959998 -4.4099998 0.048999999
7.5159998 -4.401 0.048999999
7.5209999 -4.382 0.048999999
7.5219998 -4.362 0.048999999
7.5339999 -4.3470001 0.048999999
7.5380001 -4.3280001 0.048999999
7.5500002 -4.3140001 0.048999999
7.5710001 -4.3039999 0.048999999
7.5929999 -4.296 0.050000001
7.5900002 -4.2719998 0.050000001
7.6209998 -4.2680001 0.050000001
7.6160002 -4.243 0.050000001
7.6279998 -4.2280002 0.050000001
7.6329999 -4.2090001 0.050000001
7.652 -4.198 0.050000001
7.651 -4.1750002 0.050000001
7.6539998 -4.1550002 0.050000001
7.6690001 -4.1420002 0.050999999
7.6859999 -4.1279998 0.050999999
7.6999998 -4.1139998 0.050999999
7.7119999 -4.098 0.050999999
7.7010002 -4.0700002 0.050999999
7.7350001 -4.066 0.050999999
7.7509999 -4.052 0.052000001
7.7789998 -4.0440001 0.052000001
7.8119998 -4.039 0.052000001
7.7909999 -4.006 0.052000001
7.7820001 -3.9790001 0.052000001
7.802 -3.967 0.052000001
7.8130002 -3.95 0.052000001
7.8270001 -3.934 0.052000001
7.836 -3.9159999 0.052999999
7.842 -3.8970001 0.052999999
7.8540001 -3.8800001 0.052999999
7.8740001 -3.8670001 0.052999999
7.8800001 -3.848 0.052999999
7.8870001 -3.8280001 0.052999999
7.9180002 -3.8199999 0.052999999
7.9229999 -3.8 0.054000001
7.9239998 -3.777 0.054000001
7.96 -3.7720001 0.054000001
7.9520001 -3.7449999 0.054000001
7.9650002 -3.7279999 0.054000001
8.0010004 -3.7219999 0.054000001
7.9850001 -3.691 0.054000001
8.0200005 -3.684 0.055
8.0349998 -3.668 0.055
8.0360003 -3.645 0.055
8.0500002 -3.628 0.055
8.066 -3.612 0.055
8.0699997 -3.5910001 0.055
8.1110001 -3.585 0.055
8.1199999 -3.566 0.056000002
8.1400003 -3.5510001 0.056000002
8.1429996 -3.529 0.056000002
8.1689997 -3.516 0.056000002
8.1680002 -3.4920001 0.056000002
8.1739998 -3.471 0.056000002
8.21 -3.4630001 0.057
8.224 -3.4449999 0.057
8.2419996 -3.428 0.057
8.243 -3.405 0.057
8.2690001 -3.392 0.057
8.2779999 -3.372 0.057
8.2939997 -3.3540001 0.057
8.302 -3.3329999 0.057999998
8.3170004 -3.3150001 0.057999998
8.3529997 -3.3050001 0.057999998
8.3669996 -3.2869999 0.057999998
8.3690004 -3.2639999 0.057999998
8.3780003 -3.243 0.057999998
8.4049997 -3.2290001 0.059
8.4110003 -3.207 0.059
8.441 -3.194 0.059
8.46 -3.177 0.059
8.4700003 -3.1559999 0.059
8.4919996 -3.1400001 0.059999999
8.5059996 -3.1199999 0.059999999
8.5010004 -3.0929999 0.059999999
8.5220003 -3.076 0.059999999
8.5450001 -3.0599999 0.059999999
8.5579996 -3.04 0.059999999
8.5799999 -3.023 0.059999999
8.6009998 -3.006 0.061000001
8.6059999 -2.983 0.061000001
8.6169996 -2.9619999 0.061000001
8.651 -2.948 0.061000001
8.6459999 -2.921 0.061000001
8.6709995 -2.905 0.061000001
8.698 -2.8889999 0.061999999
8.7180004 -2.8699999 0.061999999
8.717 -2.845 0.061999999
8.7299995 -2.8239999 0.061999999
8.757 -2.8069999 0.061999999
8.7930002 -2.793 0.063000001
8.802 -2.7709999 0.063000001
8.835 -2.756 0.063000001
8.9029999 -2.7509999 0.064000003
8.9239998 -2.7320001 0.064000003
8.9119997 -2.7030001 0.064000003
8.927 -2.6819999 0.064000003
8.9320002 -2.6570001 0.064000003
8.9510002 -2.6370001 0.064000003
8.9870005 -2.622 0.064999998
9.0019999 -2.5999999 0.064999998
9.0229998 -2.5810001 0.064999998
9.0539999 -2.563 0.064999998
9.0839996 -2.546 0.064999998
9.1110001 -2.527 0.066
9.118 -2.503 0.066
9.1289997 -2.48 0.066
9.151 -2.4590001 0.066
9.158 -2.4349999 0.066
9.1850004 -2.415 0.067000002
9.1929998 -2.391 0.067000002
9.2550001 -2.381 0.067000002
9.2589998 -2.355 0.067000002
9.2679996 -2.3310001 0.067000002
9.3210001 -2.3169999 0.068000004
9.3219995 -2.2909999 0.068000004
9.3479996 -2.27 0.068000004
9.3889999 -2.253 0.068000004
9.3990002 -2.2290001 0.068999998
9.4219999 -2.207 0.068999998
9.4560003 -2.188 0.068999998
9.4689999 -2.164 0.068999998
9.5089998 -2.1459999 0.07
9.533 -2.1240001 0.07
9.5559998 -2.1010001 0.07
9.5909996 -2.082 0.07
9.6389999 -2.0639999 0.071000002
9.658 -2.0409999 0.071000002
9.6899996 -2.02 0.071000002
9.7250004 -1.999 0.071999997
9.7299995 -1.973 0.071999997
9.7600002 -1.951 0.071999997
9.7889996 -1.929 0.071999997
9.835 -1.91 0.072999999
9.835 -1.881 0.072999999
9.8219995 -1.851 0.072999999
9.7740002 -1.814 0.071999997
9.7670002 -1.785 0.071999997
9.7659998 -1.757 0.071999997
9.8389997 -1.742 0.072999999
9.9890003 -1.739 0.074000001
9.967 -1.707 0.074000001
9.8000002 -1.651 0.072999999
9.7530003 -1.615 0.072999999
9.75 -1.587 0.072999999
9.7440004 -1.558 0.072999999
9.7370005 -1.529 0.072999999
9.7259998 -1.499 0.072999999
9.724 -1.471 0.072999999
9.7939997 -1.454 0.072999999
10.447 -1.521 0.078000002
10.424 -1.488 0.078000002
10.439 -1.46 0.078000002
10.456 -1.433 0.078000002
10.501 -1.409 0.079000004
10.552 -1.386 0.079000004
10.601 -1.362 0.079999998
10.658 -1.339 0.079999998
10.68 -1.312 0.079999998
10.704 -1.284 0.081
10.75 -1.2589999 0.081
10.791 -1.233 0.081
10.823 -1.206 0.082000002
10.844 -1.177 0.082000002
10.855 -1.148 0.082000002
10.903 -1.122 0.082000002
10.935 -1.094 0.082999997
10.962 -1.0650001 0.082999997
10.971 -1.035 0.082999997
11.028 -1.0089999 0.083999999
11.073 -0.98199999 0.083999999
11.131 -0.95499998 0.083999999
11.144 -0.92500001 0.085000001
11.247 -0.90100002 0.085000001
11.298 -0.87300003 0.086000003
11.313 -0.84200001 0.086000003
11.458 -0.81999999 0.086999997
11.463 -0.78799999 0.086999997
11.729 0.35699999 -0.044
11.789 0.37599999 -0.044
11.683 0.38999999 -0.044
11.725 0.40799999 -0.044
11.682 0.42399999 -0.044
11.682 0.442 -0.044
11.626 0.458 -0.044
11.597 0.47499999 -0.044
11.611 0.49399999 -0.045000002
11.582 0.51099998 -0.045000002
11.566 0.52899998 -0.045000002
11.602 0.55000001 -0.045000002
11.586 0.56900001 -0.045000002
11.527 0.58600003 -0.045000002
11.542 0.60600001 -0.045000002
11.509 0.625 -0.046
11.529 0.64600003 -0.046
11.534 0.667 -0.046
11.527 0.68699998 -0.046
11.517 0.708 -0.046
11.519 0.72899997 -0.046
11.53 0.75199997 -0.046999998
11.521 0.773 -0.046999998
11.506 0.79400003 -0.046999998
11.55 0.81900001 -0.046999998
11.54 0.84100002 -0.048
11.574 0.86699998 -0.048
11.566 0.889 -0.048
11.56 0.912 -0.048
11.583 0.93699998 -0.048
11.587 0.96100003 -0.048999999
11.593 0.986 -0.048999999
11.616 1.012 -0.048999999
11.634 1.039 -0.050000001
11.614 1.062 -0.050000001
11.61 1.086 -0.050000001
11.658 1.1160001 -0.050000001
11.646 1.141 -0.050000001
11.661 1.168 -0.050999999
11.668 1.1950001 -0.050999999
11.707 1.225 -0.050999999
11.699 1.251 -0.050999999
11.731 1.281 -0.052000001
11.758 1.311 -0.052000001
11.803 1.344 -0.052999999
11.787 1.37 -0.052999999
11.785 1.397 -0.052999999
11.787 1.426 -0.052999999
11.798 1.456 -0.052999999
11.815 1.4859999 -0.054000001
11.841 1.518 -0.054000001
11.871 1.552 -0.054000001
11.896 1.584 -0.055
11.926 1.618 -0.055
11.958 1.652 -0.056000002
11.97 1.684 -0.056000002
12.018 1.722 -0.056000002
12.036 1.755 -0.057
12.052 1.789 -0.057
12.071 1.823 -0.057
12.087 1.857 -0.057999998
12.1 1.891 -0.057999998
12.13 1.928 -0.057999998
12.145 1.9630001 -0.059
12.175 2 -0.059
12.202 2.0380001 -0.059
12.236 2.0769999 -0.059999999
12.23 2.109 -0.059999999
12.225 2.142 -0.059999999
12.221 2.175 -0.059999999
12.157 2.198 -0.059999999
12.083 2.2190001 -0.059999999
12.052 2.247 -0.059999999
12.083 2.2869999 -0.061000001
12.2 2.3440001 -0.061999999
11.742 2.29 -0.059
11.641 2.3039999 -0.059
11.593 2.3280001 -0.059
11.574 2.358 -0.059
11.594 2.3959999 -0.059999999
11.626 2.437 -0.059999999
11.768 2.5020001 -0.061000001
12.543 2.704 -0.064999998
12.566 2.747 -0.066
12.557 2.783 -0.066
12.566 2.823 -0.066
12.58 2.865 -0.067000002
12.586 2.905 -0.067000002
12.588 2.944 -0.067000002
12.608 2.9879999 -0.068000004
12.611 3.0280001 -0.068000004
12.661 3.0799999 -0.068999998
12.669 3.1210001 -0.068999998
12.674 3.1630001 -0.068999998
12.674 3.2030001 -0.07
12.716 3.2539999 -0.07
12.724 3.2969999 -0.07
12.762 3.348 -0.071000002
12.759 3.3889999 -0.071000002
12.802 3.4419999 -0.071999997
12.809 3.4860001 -0.071999997
12.839 3.536 -0.072999999
12.832 3.5769999 -0.072999999
12.872 3.631 -0.072999999
12.889 3.6789999 -0.074000001
12.913 3.7290001 -0.074000001
12.907 3.77 -0.075000003
12.904 3.813 -0.075000003
12.92 3.862 -0.075000003
12.963 3.9189999 -0.075999998
13.012 3.9779999 -0.075999998
13.058 4.0380001 -0.077
13.105 4.0970001 -0.078000002
13.116 4.1469998 -0.078000002
13.135 4.1989999 -0.079000004
13.195 4.2639999 -0.079000004
13.234 4.323 -0.079999998
13.253 4.3759999 -0.079999998
13.282 4.4330001 -0.081
13.307 4.4889998 -0.081
13.361 4.5549998 -0.082000002
13.38 4.6100001 -0.082000002
13.417 4.671 -0.082999997
13.469 4.7379999 -0.083999999
13.516 4.803 -0.083999999
13.555 4.8670001 -0.085000001
13.569 4.9219999 -0.085000001
13.655 5.0040002 -0.086000003
13.723 5.079 -0.086999997
13.767 5.1469998 -0.088
13.816 5.217 -0.088
13.827 5.2729998 -0.089000002
13.897 5.3520002 -0.090000004
13.962 5.4299998 -0.090000004
13.962 5.4829998 -0.090999998
14.07 5.5780001 -0.092
14.119 5.652 -0.093000002
14.107 5.7020001 -0.093000002
11.362 4.6360002 -0.075000003
11.261 4.638 -0.075000003
11.256 4.6799998 -0.075000003
11.342 4.7600002 -0.075999998
11.366 4.8150001 -0.075999998
11.284 4.8239999 -0.075999998
11.283 4.868 -0.075999998
11.434 4.9790001 -0.078000002
14.495 6.3119998 -0.098999999
14.379 6.3179998 -0.097999997
12.281 6.0999999 -0.089000002
12.202 6.112 -0.089000002
12.243 6.184 -0.090000004
12.201 6.2150002 -0.090000004
12.107 6.2189999 -0.089000002
12.097 6.2649999 -0.090000004
12.101 6.3189998 -0.090000004
12.076 6.3569999 -0.090000004
12.11 6.428 -0.090999998
12.121 6.4860001 -0.090999998
12.191 6.5770001 -0.092
10.68 6.1859999 -0.083999999
10.53 6.1469998 -0.082999997
10.417 6.1279998 -0.082000002
10.343 6.131 -0.082000002
10.28 6.1399999 -0.082000002
10.224 6.1539998 -0.082000002
10.157 6.1599998 -0.082000002
10.11 6.178 -0.082000002
10.062 6.1950002 -0.082000002
10.028 6.2199998 -0.082000002
9.993 6.244 -0.082000002
9.9610004 6.2709999 -0.082000002
9.9809999 6.3299999 -0.082000002
10.15 6.4840002 -0.083999999
7.1859999 -4.737 0.064000003
7.2160001 -4.711 0.064999998
7.2480001 -4.6869998 0.064999998
7.27 -4.6560001 0.064999998
7.2950001 -4.6279998 0.064999998
7.3200002 -4.599 0.066
7.3530002 -4.5749998 0.066
7.3779998 -4.5469999 0.066
7.4050002 -4.52 0.066
7.4229999 -4.4879999 0.067000002
7.4489999 -4.46 0.067000002
7.4650002 -4.427 0.067000002
7.4850001 -4.3959999 0.067000002
7.5159998 -4.3720002 0.068000004
7.5279999 -4.3369999 0.068000004
7.5500002 -4.3070002 0.068000004
7.5700002 -4.2779999 0.068000004
7.5819998 -4.243 0.068000004
7.605 -4.2150002 0.068000004
7.6279998 -4.1859999 0.068999998
7.6370001 -4.151 0.068999998
7.6849999 -4.1360002 0.068999998
7.7119999 -4.1110001 0.068999998
7.7129998 -4.0710001 0.068999998
7.7449999 -4.0479999 0.07
7.7540002 -4.013 0.07
7.7800002 -3.987 0.07
7.7930002 -3.9549999 0.07
7.8280001 -3.934 0.071000002
7.8559999 -3.9089999 0.071000002
7.869 -3.8770001 0.071000002
7.8850002 -3.8469999 0.071000002
7.8940001 -3.813 0.071000002
7.928 -3.7909999 0.071999997
7.9559999 -3.767 0.071999997
7.9650002 -3.734 0.071999997
8.0179996 -3.721 0.071999997
8.0319996 -3.6900001 0.072999999
8.0319996 -3.654 0.072999999
8.059 -3.6289999 0.072999999
8.0860004 -3.6040001 0.072999999
8.1110001 -3.579 0.072999999
8.132 -3.552 0.074000001
8.1619997 -3.529 0.074000001
8.191 -3.506 0.074000001
8.2110004 -3.4779999 0.074000001
8.2320004 -3.451 0.075000003
8.2440004 -3.421 0.075000003
8.2740002 -3.398 0.075000003
8.3079996 -3.3770001 0.075000003
8.3260002 -3.349 0.075999998
8.3730001 -3.3329999 0.075999998
8.3780003 -3.3 0.075999998
8.3809996 -3.267 0.075999998
8.4209995 -3.247 0.075999998
8.4569998 -3.227 0.077
8.4849997 -3.204 0.077
8.5100002 -3.1789999 0.077
8.5240002 -3.1500001 0.078000002
8.5570002 -3.1289999 0.078000002
8.5860004 -3.105 0.078000002
8.6090002 -3.0810001 0.078000002
8.6289997 -3.0539999 0.079000004
8.6389999 -3.0239999 0.079000004
8.6780005 -3.0050001 0.079000004
8.6940002 -2.9779999 0.079000004
8.7089996 -2.95 0.079000004
8.7620001 -2.9349999 0.079999998
8.7690001 -2.905 0.079999998
8.8009996 -2.8829999 0.079999998
8.8389997 -2.8629999 0.081
8.8649998 -2.839 0.081
8.9040003 -2.8199999 0.081
8.9390001 -2.7980001 0.082000002
9.0059996 -2.7869999 0.082000002
9.0039997 -2.7550001 0.082000002
9.0209999 -2.7279999 0.082999997
9.059 -2.7079999 0.082999997
9.1210003 -2.6949999 0.083999999
9.1309996 -2.6659999 0.083999999
9.1440001 -2.6389999 0.083999999
9.1809998 -2.618 0.083999999
9.2040005 -2.5929999 0.083999999
9.2410002 -2.573 0.085000001
9.276 -2.5510001 0.085000001
9.2969999 -2.526 0.085000001
9.3100004 -2.4990001 0.086000003
9.3470001 -2.4790001 0.086000003
9.3920002 -2.46 0.086000003
9.4320002 -2.4400001 0.086999997
9.4370003 -2.411 0.086999997
9.4689999 -2.3889999 0.086999997
9.5229998 -2.372 0.088
9.5679998 -2.3529999 0.088
9.599 -2.3310001 0.089000002
9.6370001 -2.3099999 0.089000002
9.6800003 -2.29 0.089000002
9.7209997 -2.27 0.090000004
9.7449999 -2.2460001 0.090000004
9.7510004 -2.2179999 0.090000004
9.7869997 -2.197 0.090999998
9.8039999 -2.171 0.090999998
9.849 -2.152 0.090999998
9.8660002 -2.1259999 0.090999998
9.8920002 -2.1029999 0.092
9.9180002 -2.0799999 0.092
9.9530001 -2.0580001 0.092
9.9879999 -2.036 0.093000002
9.9619999 -2.0020001 0.092
9.941 -1.97 0.092
9.8570004 -1.925 0.092
9.7880001 -1.885 0.090999998
9.7670002 -1.853 0.090999998
9.7819996 -1.829 0.090999998
9.8549995 -1.8150001 0.092
10.156 -1.8430001 0.094999999
10.253 -1.8329999 0.096000001
10.231 -1.801 0.094999999
9.8540001 -1.7079999 0.092
9.7580004 -1.666 0.090999998
9.7259998 -1.6339999 0.090999998
9.7060003 -1.605 0.090999998
9.7019997 -1.579 0.090999998
9.7150002 -1.556 0.090999998
9.7360001 -1.534 0.090999998
9.7580004 -1.513 0.090999998
9.8509998 -1.502 0.092
10.597 -1.589 0.098999999
10.586 -1.5599999 0.098999999
10.605 -1.5369999 0.098999999
10.635 -1.515 0.1
10.653 -1.4910001 0.1
10.658 -1.465 0.1
10.703 -1.4450001 0.101
10.723 -1.4220001 0.101
10.764 -1.402 0.101
10.772 -1.377 0.101
10.803 -1.355 0.102
10.824 -1.332 0.102
10.838 -1.309 0.102
10.857 -1.286 0.102
10.899 -1.265 0.103
10.922 -1.243 0.103
10.955 -1.222 0.103
10.981 -1.199 0.104
10.987 -1.175 0.104
11.019 -1.154 0.104
11.037 -1.131 0.104
11.074 -1.1109999 0.105
11.093 -1.0880001 0.105
11.097 -1.064 0.105
11.118 -1.0420001 0.105
11.135 -1.02 0.106
11.175 -1 0.106
11.166 -0.97500002 0.106
11.225 -0.95700002 0.107
11.262 -0.93599999 0.107
11.307 -0.917 0.107
11.339 -0.89600003 0.108
11.391 -0.87699997 0.108
11.393 -0.85399997 0.108
11.439 -0.83399999 0.109
11.47 -0.81300002 0.109
11.509 -0.79299998 0.11
11.627 -0.778 0.111
11.619 -0.755 0.111
11.667 -0.73500001 0.111
11.664 -0.71200001 0.111
11.499 0.147 -0.0089999996
11.565 0.169 -0.0099999998
11.553 0.19 -0.0099999998
11.586 0.211 -0.0099999998
11.604 0.233 -0.0099999998
11.624 0.25600001 -0.0099999998
11.618 0.278 -0.0099999998
11.657 0.301 -0.011
11.686 0.324 -0.011
11.604 0.345 -0.011
11.658 0.37 -0.011
11.656 0.39300001 -0.011
11.656 0.417 -0.012
11.657 0.44100001 -0.012
11.668 0.465 -0.012
11.68 0.49000001 -0.012
11.664 0.514 -0.012
11.645 0.53799999 -0.013
11.634 0.56199998 -0.013
11.648 0.588 -0.013
11.661 0.61400002 -0.013
11.637 0.639 -0.013
11.658 0.66600001 -0.014
11.676 0.69300002 -0.014
11.653 0.71799999 -0.014
11.648 0.74400002 -0.014
11.677 0.773 -0.014
11.68 0.80000001 -0.015
11.697 0.82800001 -0.015
11.724 0.85799998 -0.015
11.734 0.88599998 -0.015
11.723 0.91399997 -0.015
11.712 0.94099998 -0.016000001
11.76 0.97299999 -0.016000001
11.758 1.002 -0.016000001
11.794 1.034 -0.016000001
11.778 1.061 -0.017000001
11.781 1.091 -0.017000001
11.814 1.123 -0.017000001
11.823 1.154 -0.017000001
11.85 1.187 -0.017999999
11.885 1.22 -0.017999999
11.907 1.253 -0.017999999
11.92 1.285 -0.017999999
11.921 1.317 -0.018999999
11.955 1.352 -0.018999999
11.979 1.386 -0.018999999
12.035 1.424 -0.018999999
12.028 1.455 -0.02
12.028 1.487 -0.02
12.023 1.5190001 -0.02
12.054 1.556 -0.02
12.104 1.595 -0.021
12.108 1.6289999 -0.021
12.135 1.665 -0.021
12.156 1.702 -0.021
12.192 1.7410001 -0.022
12.217 1.778 -0.022
12.237 1.816 -0.022
12.244 1.851 -0.022
12.264 1.8890001 -0.023
12.285 1.927 -0.023
12.298 1.964 -0.023
12.316 2.003 -0.024
12.365 2.046 -0.024
12.374 2.0840001 -0.024
12.413 2.1259999 -0.024
12.412 2.1630001 -0.025
12.333 2.1849999 -0.025
12.176 2.1930001 -0.025
12.051 2.2060001 -0.025
12.015 2.2349999 -0.025
12.053 2.279 -0.025
12.162 2.336 -0.026000001
11.721 2.286 -0.025
11.62 2.302 -0.025
11.587 2.3299999 -0.025
11.574 2.3629999 -0.025
11.614 2.4070001 -0.026000001
11.76 2.473 -0.026000001
12.699 2.71 -0.028999999
12.695 2.7479999 -0.028999999
12.71 2.7909999 -0.028999999
12.698 2.8280001 -0.028999999
12.722 2.8729999 -0.029999999
12.73 2.915 -0.029999999
12.757 2.961 -0.029999999
12.789 3.0090001 -0.030999999
12.829 3.059 -0.030999999
12.834 3.1010001 -0.030999999
12.887 3.155 -0.032000002
12.862 3.1900001 -0.032000002
12.882 3.237 -0.032000002
12.933 3.2909999 -0.033
12.931 3.332 -0.033
12.927 3.3740001 -0.033
13.003 3.4360001 -0.034000002
12.995 3.4760001 -0.034000002
13.025 3.527 -0.034000002
13.073 3.5829999 -0.035
13.099 3.6329999 -0.035
13.128 3.684 -0.035
13.134 3.7290001 -0.035999998
13.16 3.7809999 -0.035999998
13.228 3.8440001 -0.037
13.235 3.8900001 -0.037
13.284 3.9489999 -0.037
13.367 4.0190001 -0.037999999
13.414 4.0780001 -0.037999999
13.413 4.1230001 -0.039000001
13.441 4.177 -0.039000001
13.451 4.2259998 -0.039000001
13.504 4.2880001 -0.039999999
13.555 4.3509998 -0.039999999
13.59 4.4089999 -0.041000001
13.582 4.4530001 -0.041000001
13.591 4.5019999 -0.041000001
13.618 4.5580001 -0.041999999
13.693 4.6300001 -0.041999999
13.709 4.6830001 -0.043000001
13.754 4.7459998 -0.043000001
13.778 4.802 -0.044
13.8 4.8579998 -0.044
13.859 4.927 -0.044
13.903 4.9910002 -0.045000002
13.975 5.066 -0.046
14.033 5.1360002 -0.046
14.059 5.1950002 -0.046
14.116 5.2659998 -0.046999998
14.169 5.335 -0.048
14.219 5.4039998 -0.048
14.266 5.473 -0.048999999
14.325 5.546 -0.048999999
14.363 5.612 -0.050000001
14.425 5.6869998 -0.050000001
14.482 5.7620001 -0.050999999
14.548 5.8400002 -0.050999999
11.553 4.6789999 -0.041000001
14.585 5.9060001 -0.052000001
11.326 4.6269999 -0.039999999
11.258 4.6399999 -0.039999999
11.26 4.6810002 -0.041000001
11.324 4.7480001 -0.041000001
14.867 6.2340002 -0.054000001
11.419 4.829 -0.041999999
14.693 6.2140002 -0.054000001
11.297 4.8179998 -0.041999999
11.256 4.8410001 -0.041999999
11.286 4.895 -0.041999999
11.393 4.9829998 -0.043000001
12.282 6.0409999 -0.050999999
12.207 6.0489998 -0.050999999
12.257 6.118 -0.052000001
12.179 6.1240001 -0.052000001
12.216 6.1869998 -0.052000001
12.23 6.2389998 -0.052999999
12.11 6.2220001 -0.052000001
12.094 6.2579999 -0.052999999
12.13 6.3210001 -0.052999999
12.125 6.3629999 -0.052999999
12.056 6.3699999 -0.052999999
12.073 6.4229999 -0.054000001
12.111 6.4879999 -0.054000001
12.123 6.539 -0.055
12.163 6.6040001 -0.055
12.253 6.698 -0.056000002
10.781 6.2449999 -0.052000001
10.552 6.151 -0.050999999
10.449 6.1279998 -0.050999999
10.396 6.1350002 -0.050999999
10.356 6.1479998 -0.050999999
10.335 6.1729999 -0.050999999
10.319 6.1999998 -0.050999999
10.332 6.2449999 -0.052000001
10.372 6.3060002 -0.052000001
10.462 6.3979998 -0.052999999
9.9289999 6.5910001 -0.055
9.8459997 6.5689998 -0.055
9.8360004 6.5960002 -0.055
9.8629999 6.6479998 -0.055
7.697 -4.5320001 0.086000003
7.7010002 -4.513 0.086000003
7.7160001 -4.5 0.086999997
7.7189999 -4.48 0.086999997
7.7290001 -4.4629998 0.086999997
7.7389998 -4.447 0.086999997
7.7610002 -4.4380002 0.086999997
7.763 -4.4169998 0.086999997
7.777 -4.4029999 0.088
7.7940001 -4.3899999 0.088
7.7989998 -4.3709998 0.088
7.8080001 -4.3540001 0.088
7.8109999 -4.3330002 0.088
7.8249998 -4.3179998 0.088
7.848 -4.3080001 0.089000002
7.8520002 -4.2880001 0.089000002
7.869 -4.2750001 0.089000002
7.8779998 -4.257 0.089000002
7.8800001 -4.2360001 0.089000002
7.895 -4.2210002 0.090000004
7.9039998 -4.2030001 0.090000004
7.9050002 -4.1810002 0.090000004
7.9229999 -4.1680002 0.090000004
7.9429998 -4.1550002 0.090000004
7.961 -4.1420002 0.090999998
7.961 -4.119 0.090999998
7.9689999 -4.0999999 0.090999998
7.9829998 -4.0840001 0.090999998
7.987 -4.0630002 0.090999998
8.0010004 -4.0479999 0.090999998
8.0159998 -4.0320001 0.090999998
8.0360003 -4.0190001 0.092
8.0559998 -4.006 0.092
8.0579996 -3.984 0.092
8.0799999 -3.971 0.092
8.0760002 -3.9460001 0.092
8.099 -3.934 0.093000002
8.1269999 -3.924 0.093000002
8.1339998 -3.9030001 0.093000002
8.1459999 -3.8859999 0.093000002
8.1660004 -3.872 0.093999997
8.1739998 -3.852 0.093999997
8.1920004 -3.8369999 0.093999997
8.198 -3.816 0.093999997
8.2229996 -3.8039999 0.093999997
8.2379999 -3.7869999 0.094999999
8.25 -3.7679999 0.094999999
8.2639999 -3.7509999 0.094999999
8.2639999 -3.727 0.094999999
8.29 -3.714 0.094999999
8.2969999 -3.694 0.096000001
8.3249998 -3.6819999 0.096000001
8.3409996 -3.665 0.096000001
8.3540001 -3.6459999 0.096000001
8.3649998 -3.6270001 0.097000003
8.3590002 -3.5999999 0.097000003
8.3940001 -3.5910001 0.097000003
8.3970003 -3.5680001 0.097000003
8.4049997 -3.5469999 0.097000003
8.4359999 -3.536 0.097999997
8.448 -3.516 0.097999997
8.4750004 -3.503 0.097999997
8.4949999 -3.487 0.097999997
8.4980001 -3.4630001 0.097999997
8.5120001 -3.444 0.098999999
8.5290003 -3.4260001 0.098999999
8.5410004 -3.4059999 0.098999999
8.5439997 -3.3829999 0.098999999
8.5640001 -3.3659999 0.098999999
8.5810003 -3.348 0.1
8.5830002 -3.3239999 0.1
8.5950003 -3.303 0.1
8.6269999 -3.2909999 0.1
8.6450005 -3.273 0.101
8.6639996 -3.2550001 0.101
8.6800003 -3.2360001 0.101
8.7049999 -3.22 0.101
8.7279997 -3.2030001 0.102
8.7360001 -3.1800001 0.102
8.7589998 -3.164 0.102
8.7700005 -3.142 0.102
8.7779999 -3.1199999 0.103
8.809 -3.105 0.103
8.8140001 -3.0810001 0.103
8.8439999 -3.066 0.103
8.8579998 -3.0450001 0.104
8.8739996 -3.0250001 0.104
8.9020004 -3.0090001 0.104
8.9160004 -2.9879999 0.104
8.9239998 -2.9649999 0.105
8.96 -2.951 0.105
8.9849997 -2.9330001 0.105
9.0100002 -2.915 0.106
9.0459995 -2.901 0.106
9.073 -2.8829999 0.107
9.0810003 -2.8599999 0.107
9.0880003 -2.836 0.107
9.1549997 -2.8299999 0.108
9.1890001 -2.8139999 0.108
9.1639996 -2.78 0.108
9.2040005 -2.766 0.108
9.2130003 -2.7420001 0.109
9.2609997 -2.7290001 0.109
9.2620001 -2.7030001 0.109
9.29 -2.684 0.11
9.3109999 -2.664 0.11
9.3409996 -2.645 0.11
9.3599997 -2.6240001 0.111
9.3870001 -2.6040001 0.111
9.4139996 -2.585 0.111
9.4280005 -2.5610001 0.111
9.4440002 -2.5380001 0.112
9.4700003 -2.5179999 0.112
9.5030003 -2.5 0.112
9.5380001 -2.4809999 0.113
9.5710001 -2.4619999 0.113
9.5869999 -2.4389999 0.114
9.6070004 -2.4170001 0.114
9.6239996 -2.3929999 0.114
9.6420002 -2.3699999 0.114
9.6859999 -2.3529999 0.115
9.7410002 -2.3380001 0.116
9.7720003 -2.3169999 0.116
9.7980003 -2.296 0.116
9.8269997 -2.2739999 0.117
9.8459997 -2.25 0.117
9.8760004 -2.2290001 0.117
9.915 -2.2090001 0.118
9.9230003 -2.1819999 0.118
9.9549999 -2.161 0.119
9.9460001 -2.131 0.118
9.9910002 -2.112 0.119
10.026 -2.0899999 0.12
10.054 -2.0669999 0.12
10.087 -2.0450001 0.12
10.121 -2.023 0.121
10.13 -1.9960001 0.121
10.132 -1.967 0.121
9.9879999 -1.911 0.119
9.875 -1.8609999 0.118
9.809 -1.8200001 0.117
9.8000002 -1.79 0.117
9.842 -1.77 0.118
10.3 -1.823 0.123
10.387 -1.809 0.124
10.408 -1.783 0.125
9.8439999 -1.658 0.118
9.7510004 -1.614 0.117
9.6960001 -1.5779999 0.116
9.7110004 -1.552 0.116
9.7460003 -1.53 0.117
9.8129997 -1.512 0.118
10.708 -1.62 0.12899999
10.694 -1.587 0.12800001
10.732 -1.562 0.12899999
10.766 -1.536 0.12899999
10.801 -1.511 0.13
10.808 -1.4809999 0.13
10.838 -1.454 0.13
10.88 -1.429 0.131
10.903 -1.401 0.131
10.919 -1.3710001 0.131
10.963 -1.346 0.132
10.985 -1.317 0.132
11.055 -1.294 0.133
11.065 -1.2640001 0.133
11.133 -1.24 0.134
11.166 -1.212 0.13500001
11.185 -1.182 0.13500001
11.221 -1.154 0.13500001
11.246 -1.124 0.13600001
11.29 -1.096 0.13600001
11.395 -1.074 0.138
11.434 -1.045 0.138
11.557 -1.024 0.14
11.545 -0.99000001 0.14
11.599 -0.96100003 0.14
11.667 -0.93400002 0.141
11.798 -0.91100001 0.14300001
12.257 0.359 0.014
12.243 0.375 0.014
12.238 0.39300001 0.013
12.236 0.41 0.013
12.198 0.42699999 0.013
12.2 0.44499999 0.013
12.158 0.46200001 0.013
12.164 0.48100001 0.013
12.157 0.5 0.012
12.141 0.51800001 0.012
12.167 0.53899997 0.012
12.167 0.55900002 0.012
12.193 0.57999998 0.012
12.173 0.60000002 0.011
12.193 0.62099999 0.011
12.171 0.64099997 0.011
12.188 0.66299999 0.011
12.171 0.68400002 0.011
12.189 0.70700002 0.011
12.184 0.72799999 0.0099999998
12.201 0.75199997 0.0099999998
12.23 0.77600002 0.0099999998
12.191 0.796 0.0099999998
12.22 0.82099998 0.0099999998
12.21 0.84399998 0.0089999996
12.238 0.87 0.0089999996
12.249 0.89399999 0.0089999996
12.231 0.917 0.0089999996
12.251 0.94300002 0.0089999996
12.253 0.96799999 0.0089999996
12.25 0.99299997 0.0080000004
12.273 1.02 0.0080000004
12.283 1.046 0.0080000004
12.283 1.072 0.0080000004
12.319 1.101 0.0080000004
12.347 1.13 0.0070000002
12.33 1.155 0.0070000002
12.36 1.1849999 0.0070000002
12.351 1.211 0.0070000002
12.332 1.2359999 0.0070000002
12.359 1.267 0.0070000002
12.344 1.293 0.0060000001
12.376 1.324 0.0060000001
12.385 1.354 0.0060000001
12.406 1.385 0.0060000001
12.441 1.418 0.0060000001
12.444 1.447 0.0049999999
12.447 1.477 0.0049999999
12.453 1.507 0.0049999999
12.475 1.54 0.0049999999
12.49 1.572 0.0049999999
12.5 1.604 0.0040000002
12.523 1.638 0.0040000002
12.529 1.669 0.0040000002
12.562 1.705 0.0040000002
12.579 1.739 0.0040000002
12.599 1.774 0.003
12.603 1.806 0.003
12.607 1.839 0.003
12.611 1.872 0.003
12.634 1.909 0.003
12.631 1.941 0.0020000001
12.651 1.978 0.0020000001
12.689 2.017 0.0020000001
12.7 2.053 0.0020000001
12.7 2.0869999 0.0020000001
12.712 2.1229999 0.001
12.733 2.1619999 0.001
12.325 2.1259999 0.001
12.133 2.1259999 0.001
12.074 2.1489999 0.001
12.014 2.1719999 -0
12.002 2.204 -0
12.041 2.2449999 -0
12.217 2.313 -0
11.799 2.267 -0
11.647 2.2709999 -0
11.591 2.2939999 -0
11.579 2.325 -0
11.566 2.3559999 -0
11.588 2.395 -0
11.74 2.461 -0.001
12.939 2.7509999 -0.001
12.949 2.7920001 -0.001
12.964 2.8340001 -0.001
12.974 2.875 -0.0020000001
12.974 2.915 -0.0020000001
12.998 2.96 -0.0020000001
13.023 3.006 -0.0020000001
13.018 3.0450001 -0.003
13.072 3.098 -0.003
13.076 3.1389999 -0.003
13.096 3.1849999 -0.003
13.162 3.243 -0.003
13.155 3.283 -0.0040000002
13.165 3.3269999 -0.0040000002
13.184 3.3740001 -0.0040000002
13.255 3.4349999 -0.0040000002
13.286 3.4860001 -0.0049999999
13.275 3.526 -0.0049999999
13.308 3.5780001 -0.0049999999
13.366 3.6370001 -0.0049999999
13.394 3.6889999 -0.0060000001
13.407 3.737 -0.0060000001
13.387 3.776 -0.0060000001
13.459 3.8410001 -0.0060000001
13.522 3.904 -0.0070000002
13.588 3.9690001 -0.0070000002
13.613 4.0219998 -0.0070000002
13.657 4.0819998 -0.0080000004
13.663 4.1300001 -0.0080000004
13.695 4.1869998 -0.0080000004
13.745 4.25 -0.0080000004
13.777 4.3070002 -0.0089999996
13.804 4.3629999 -0.0089999996
13.848 4.4260001 -0.0089999996
13.877 4.4840002 -0.0089999996
13.88 4.533 -0.0099999998
13.91 4.592 -0.0099999998
13.944 4.6529999 -0.0099999998
13.988 4.7179999 -0.011
14.044 4.7870002 -0.011
14.062 4.8439999 -0.011
14.078 4.9000001 -0.011
14.134 4.9710002 -0.012
14.228 5.0560002 -0.012
14.254 5.1170001 -0.012
14.328 5.1960001 -0.013
14.441 5.29 -0.013
14.504 5.3670001 -0.013
14.545 5.4369998 -0.014
14.627 5.5219998 -0.014
14.636 5.5799999 -0.014
14.659 5.6440001 -0.015
14.666 5.7020001 -0.015
14.709 5.7750001 -0.015
14.763 5.8520002 -0.016000001
14.774 5.9130001 -0.016000001
11.416 4.6129999 -0.012
