# .PCD v0.7 - Point Cloud Data file format
VERSION 0.7
FIELDS x y z
SIZE 4 4 4
TYPE F F F
COUNT 1 1 1
WIDTH 1855
HEIGHT 1
VIEWPOINT 0 0 0 1 0 0 0
POINTS 1855
DATA ascii
16.521 5.8130002 0.20900001
16.506001 5.8649998 0.20900001
16.580999 5.9499998 0.20999999
16.627001 6.0250001 0.20999999
16.659 6.0949998 0.211
16.718 6.1750002 0.211
13.148 5.605 0.16500001
12.905 5.5479999 0.162
12.725 5.5159998 0.16
12.634 5.5229998 0.15899999
12.81 5.6459999 0.161
12.186 6.0349998 0.152
12.144 6.059 0.152
12.143 6.1030002 0.152
12.244 6.2880001 0.153
12.205 6.3119998 0.153
12.213 6.3610001 0.153
12.244 6.4219999 0.153
12.191 6.4390001 0.152
8.5360003 -5.0380001 0.21600001
8.5489998 -5.0219998 0.21699999
8.5640001 -5.006 0.21699999
8.5810003 -4.9920001 0.21799999
8.585 -4.9699998 0.21799999
8.6020002 -4.9549999 0.21799999
8.5970001 -4.927 0.21799999
8.6210003 -4.9159999 0.219
8.6409998 -4.9029999 0.219
8.6409998 -4.8779998 0.219
8.6549997 -4.862 0.22
8.6789999 -4.8499999 0.22
8.6829996 -4.8280001 0.22
8.6990004 -4.8109999 0.221
8.7119999 -4.7940001 0.221
8.7209997 -4.7729998 0.221
8.7229996 -4.7490001 0.222
8.7340002 -4.73 0.222
8.7390003 -4.7080002 0.222
8.7629995 -4.6960001 0.223
8.7600002 -4.6690001 0.223
8.7700005 -4.6490002 0.223
8.802 -4.6399999 0.22400001
8.8100004 -4.619 0.22400001
8.8500004 -4.6139998 0.22499999
8.8760004 -4.6030002 0.226
8.868 -4.573 0.22499999
8.8629999 -4.5440001 0.22499999
8.8559999 -4.5149999 0.22499999
8.8590002 -4.4910002 0.22499999
8.8699999 -4.4710002 0.226
8.9069996 -4.4640002 0.227
8.901 -4.4349999 0.226
8.927 -4.4219999 0.227
8.9540005 -4.4089999 0.228
8.9610004 -4.3870001 0.228
8.9980001 -4.3790002 0.229
8.9870005 -4.348 0.229
9.0109997 -4.3330002 0.229
9.0200005 -4.3109999 0.23
9.0500002 -4.2989998 0.23
9.0869999 -4.29 0.23100001
9.0900002 -4.2649999 0.23100001
9.1000004 -4.243 0.23199999
9.1120005 -4.223 0.23199999
9.1339998 -4.2059999 0.233
9.151 -4.1880002 0.233
9.1750002 -4.1719999 0.234
9.177 -4.1459999 0.234
9.1870003 -4.1240001 0.234
9.2049999 -4.105 0.234
9.2200003 -4.085 0.235
9.2410002 -4.0679998 0.235
9.2600002 -4.0489998 0.236
9.2860003 -4.0339999 0.237
9.2989998 -4.0120001 0.237
9.3400002 -4.0029998 0.23800001
9.3319998 -3.9719999 0.23800001
9.342 -3.9489999 0.23800001
9.3800001 -3.938 0.23899999
9.4139996 -3.925 0.23999999
9.4069996 -3.8940001 0.23999999
9.4200001 -3.872 0.23999999
9.4320002 -3.8499999 0.23999999
9.4729996 -3.839 0.241
9.474 -3.812 0.242
9.4870005 -3.789 0.242
9.507 -3.77 0.242
9.5459995 -3.7579999 0.243
9.573 -3.74 0.244
9.5819998 -3.7160001 0.244
9.6120005 -3.7 0.245
9.618 -3.674 0.245
9.6309996 -3.651 0.24600001
9.6730003 -3.6389999 0.24699999
9.6689997 -3.609 0.24699999
9.6920004 -3.5899999 0.24699999
9.698 -3.5639999 0.24699999
9.7399998 -3.5510001 0.248
9.7390003 -3.5220001 0.248
9.7480001 -3.497 0.249
9.7790003 -3.48 0.249
9.7969999 -3.4579999 0.25
9.8219995 -3.438 0.25099999
9.842 -3.4170001 0.25099999
9.8459997 -3.3900001 0.25099999
9.8549995 -3.3640001 0.25099999
9.8850002 -3.346 0.252
9.8999996 -3.322 0.25299999
9.9490004 -3.3099999 0.25400001
9.9440002 -3.279 0.25400001
9.9799995 -3.2620001 0.255
10.015 -3.244 0.25600001
10.058 -3.2290001 0.257
10.072 -3.204 0.257
10.096 -3.1830001 0.25799999
10.111 -3.158 0.25799999
10.099 -3.125 0.25799999
10.107 -3.099 0.25799999
10.135 -3.0780001 0.259
10.15 -3.053 0.259
10.2 -3.039 0.25999999
10.203 -3.01 0.25999999
10.216 -2.984 0.26100001
10.236 -2.96 0.26100001
10.246 -2.934 0.26199999
10.274 -2.9119999 0.26199999
10.303 -2.891 0.26300001
10.33 -2.868 0.264
10.347 -2.8429999 0.264
10.373 -2.8199999 0.26499999
10.412 -2.8010001 0.266
10.436 -2.777 0.266
10.458 -2.753 0.26699999
10.481 -2.7290001 0.26800001
10.541 -2.714 0.26899999
10.563 -2.6889999 0.27000001
10.578 -2.6619999 0.27000001
10.592 -2.635 0.27000001
10.611 -2.6099999 0.271
10.62 -2.5810001 0.271
10.631 -2.553 0.271
10.651 -2.527 0.27200001
10.687 -2.5050001 0.273
10.723 -2.483 0.27399999
10.766 -2.4619999 0.27500001
10.798 -2.438 0.27599999
10.835 -2.415 0.27700001
10.845 -2.3859999 0.27700001
10.876 -2.362 0.278
10.904 -2.336 0.278
10.946 -2.3139999 0.27900001
10.981 -2.29 0.28
11.014 -2.2650001 0.28099999
11.055 -2.2420001 0.28200001
11.061 -2.211 0.28200001
11.127 -2.1919999 0.28400001
11.159 -2.1670001 0.285
11.224 -2.1470001 0.287
11.271 -2.1240001 0.28799999
11.295 -2.096 0.28799999
11.333 -2.0699999 0.289
11.371 -2.0450001 0.28999999
11.398 -2.017 0.29100001
11.459 -1.995 0.29300001
11.506 -1.97 0.294
11.536 -1.942 0.294
11.558 -1.913 0.29499999
11.627 -1.891 0.29699999
11.643 -1.86 0.29699999
11.744 -1.8430001 0.30000001
11.761 -1.812 0.30000001
11.774 -1.78 0.301
11.853 -1.758 0.303
11.871 -1.727 0.303
11.926 -1.701 0.30399999
11.933 -1.6670001 0.30500001
11.97 -1.638 0.30500001
12.016 -1.61 0.30700001
12.044 -1.58 0.30700001
12.09 -1.551 0.30899999
12.117 -1.52 0.30899999
12.168 -1.492 0.31099999
12.199 -1.461 0.31099999
12.264 -1.433 0.31299999
12.297 -1.402 0.31400001
12.348 -1.373 0.315
12.389 -1.342 0.31600001
12.475 -1.3150001 0.31799999
12.527 -1.285 0.31999999
12.614 -1.258 0.322
12.66 -1.227 0.32300001
12.785 -1.202 0.32600001
13.549 0.42300001 0.213
13.556 0.44299999 0.213
13.534 0.461 0.213
13.548 0.48199999 0.213
13.548 0.50199997 0.212
13.549 0.52200001 0.212
13.458 0.53899997 0.211
13.467 0.56099999 0.211
13.486 0.583 0.211
13.477 0.60399997 0.20999999
13.473 0.62599999 0.20999999
13.471 0.648 0.20999999
13.423 0.66799998 0.20900001
13.428 0.69099998 0.20900001
13.453 0.71499997 0.20900001
13.428 0.73699999 0.20900001
13.424 0.75999999 0.208
13.464 0.78600001 0.20900001
13.443 0.80900002 0.208
13.441 0.83399999 0.208
13.441 0.85900003 0.208
13.452 0.884 0.208
13.45 0.90899998 0.208
13.455 0.935 0.208
13.477 0.963 0.208
13.479 0.98900002 0.208
13.489 1.017 0.208
13.515 1.045 0.208
13.514 1.072 0.208
13.526 1.101 0.208
13.563 1.132 0.208
13.642 1.166 0.20999999
13.667 1.197 0.20999999
13.618 1.222 0.20900001
13.608 1.25 0.20900001
13.613 1.279 0.20900001
13.644 1.312 0.20900001
13.62 1.339 0.208
13.69 1.376 0.20900001
13.737 1.4119999 0.20999999
13.773 1.446 0.20999999
13.805 1.4809999 0.211
13.783 1.51 0.20999999
13.784 1.5420001 0.20999999
13.818 1.5779999 0.211
13.823 1.6109999 0.211
13.85 1.647 0.211
13.903 1.686 0.212
13.925 1.722 0.212
13.948 1.7589999 0.212
13.941 1.7920001 0.212
13.948 1.827 0.212
13.98 1.865 0.212
14.038 1.908 0.213
14.068 1.947 0.214
14.072 1.983 0.214
14.106 2.0239999 0.214
14.131 2.0639999 0.214
14.143 2.102 0.214
14.18 2.1440001 0.215
14.244 2.191 0.21600001
14.273 2.233 0.21600001
14.306 2.276 0.21600001
14.337 2.319 0.21699999
14.444 2.375 0.21799999
14.452 2.4159999 0.21799999
14.491 2.4619999 0.219
14.499 2.503 0.219
14.519 2.546 0.219
14.566 2.595 0.22
14.585 2.6389999 0.22
14.606 2.6830001 0.22
14.683 2.7390001 0.221
14.719 2.7869999 0.222
14.812 2.8469999 0.223
14.839 2.895 0.22400001
14.836 2.937 0.22400001
14.867 2.9860001 0.22400001
14.897 3.036 0.22400001
14.944 3.089 0.22499999
14.982 3.141 0.226
15.02 3.194 0.226
15.029 3.2409999 0.226
15.081 3.2969999 0.227
15.147 3.3570001 0.228
12.708 2.855 0.191
12.548 2.8570001 0.189
12.512 2.888 0.18799999
12.496 2.9219999 0.18799999
12.635 2.994 0.19
13.05 3.1329999 0.19599999
15.529 3.777 0.233
15.477 3.813 0.233
15.477 3.862 0.233
15.495 3.915 0.233
15.628 3.9990001 0.235
15.616 4.046 0.235
15.664 4.1090002 0.235
15.742 4.1799998 0.237
15.781 4.2420001 0.237
15.779 4.2930002 0.237
15.827 4.3579998 0.23800001
15.909 4.4330001 0.23899999
15.939 4.494 0.23999999
16.013 4.5689998 0.241
16.047001 4.632 0.241
16.105 4.7030001 0.242
16.179001 4.7789998 0.243
16.537001 4.941 0.249
16.301001 4.9260001 0.245
16.313999 4.9860001 0.245
16.309999 5.0409999 0.245
16.389 5.1220002 0.24600001
16.389999 5.1789999 0.24600001
16.455999 5.2579999 0.24699999
16.499001 5.329 0.248
16.563 5.408 0.249
16.597 5.4780002 0.25
16.648001 5.553 0.25
16.705999 5.632 0.25099999
16.742001 5.7049999 0.252
16.823 5.7930002 0.25299999
16.843 5.8600001 0.25400001
16.941 5.9559999 0.255
16.934999 6.0149999 0.255
13.122 5.5029998 0.198
12.944 5.4790001 0.19599999
12.815 5.4749999 0.19400001
12.648 5.454 0.191
12.56 5.4660001 0.19
12.708 5.5799999 0.192
12.245 6.0780001 0.18700001
12.203 6.1079998 0.186
12.304 6.3150001 0.18799999
12.195 6.3119998 0.186
12.162 6.3460002 0.186
12.211 6.4250002 0.18700001
12.216 6.48 0.18700001
8.1529999 -5.3660002 0.229
8.1990004 -5.3449998 0.23
8.2410002 -5.3210001 0.23100001
8.2709999 -5.289 0.23199999
8.3120003 -5.2649999 0.233
8.3299999 -5.2259998 0.233
8.3570004 -5.1929998 0.234
8.3970003 -5.1680002 0.235
8.4160004 -5.1300001 0.235
8.4589996 -5.1069999 0.236
8.4890003 -5.0760002 0.237
8.5200005 -5.0450001 0.23800001
8.5229998 -4.9990001 0.23800001
8.559 -4.9720001 0.23899999
8.5880003 -4.941 0.23899999
8.6059999 -4.9039998 0.23999999
8.6339998 -4.8720002 0.23999999
8.6610003 -4.8410001 0.241
8.6870003 -4.8080001 0.242
8.7150002 -4.777 0.242
8.7609997 -4.756 0.243
8.7930002 -4.7270002 0.244
8.7880001 -4.678 0.244
8.8070002 -4.6430001 0.244
8.8249998 -4.6069999 0.245
8.849 -4.5749998 0.245
8.8730001 -4.5419998 0.24600001
8.8979998 -4.5110002 0.24600001
8.9060001 -4.4710002 0.24600001
8.9589996 -4.4530001 0.248
8.9969997 -4.428 0.249
9.0139999 -4.3920002 0.249
9.0310001 -4.3569999 0.25
9.073 -4.3340001 0.25099999
9.1140003 -4.3109999 0.252
9.1440001 -4.2820001 0.252
9.1440001 -4.2389998 0.252
9.158 -4.2030001 0.25299999
9.1940002 -4.178 0.25299999
9.2229996 -4.1490002 0.25400001
9.2510004 -4.1199999 0.255
9.2790003 -4.0900002 0.25600001
9.3149996 -4.0650001 0.25600001
9.3199997 -4.026 0.25600001
9.3509998 -3.9979999 0.257
9.3789997 -3.9690001 0.25799999
9.4250002 -3.948 0.259
9.4469995 -3.9170001 0.25999999
9.4879999 -3.8929999 0.26100001
9.5139999 -3.8640001 0.26100001
9.5360003 -3.832 0.26199999
9.5640001 -3.8039999 0.26300001
9.5830002 -3.7709999 0.26300001
9.6000004 -3.7379999 0.26300001
9.6569996 -3.721 0.26499999
9.6759996 -3.6900001 0.26499999
9.7030001 -3.661 0.266
9.7220001 -3.6289999 0.266
9.7530003 -3.602 0.26699999
9.7779999 -3.572 0.26800001
9.7930002 -3.54 0.26800001
9.8249998 -3.513 0.26899999
9.8439999 -3.4820001 0.26899999
9.8900003 -3.46 0.271
9.927 -3.4349999 0.27200001
9.9469995 -3.405 0.27200001
9.9639997 -3.3729999 0.273
10.016 -3.3529999 0.27399999
10.015 -3.316 0.27399999
10.052 -3.2909999 0.27500001
10.086 -3.2650001 0.27599999
10.211 -3.2679999 0.27900001
10.213 -3.2320001 0.27900001
10.21 -3.194 0.27900001
10.187 -3.151 0.278
10.218 -3.1240001 0.27900001
10.249 -3.098 0.28
10.279 -3.0710001 0.28099999
10.303 -3.043 0.28099999
10.333 -3.016 0.28200001
10.377 -2.993 0.28299999
10.406 -2.9660001 0.28400001
10.43 -2.938 0.28400001
10.472 -2.914 0.28600001
10.486 -2.8829999 0.28600001
10.533 -2.8610001 0.287
10.556 -2.8329999 0.28799999
10.576 -2.8039999 0.28799999
10.619 -2.78 0.289
10.665 -2.7579999 0.29100001
10.706 -2.734 0.292
10.722 -2.704 0.292
10.751 -2.678 0.29300001
10.759 -2.6459999 0.29300001
10.773 -2.615 0.29300001
10.829 -2.595 0.29499999
10.878 -2.5739999 0.296
10.921 -2.55 0.29699999
10.956 -2.5250001 0.29800001
10.981 -2.4979999 0.29899999
11.021 -2.474 0.30000001
11.042 -2.4449999 0.301
11.069 -2.418 0.301
11.111 -2.395 0.30199999
11.168 -2.3740001 0.30399999
11.202 -2.349 0.30500001
11.237 -2.3239999 0.30599999
11.297 -2.3039999 0.30700001
11.338 -2.28 0.308
11.374 -2.2539999 0.30899999
11.418 -2.2309999 0.31099999
11.466 -2.2079999 0.31200001
11.468 -2.177 0.31200001
11.518 -2.154 0.31299999
11.634 -2.1440001 0.31600001
11.61 -2.108 0.31600001
11.639 -2.0810001 0.317
11.679 -2.0569999 0.31799999
11.756 -2.039 0.31999999
11.776 -2.0109999 0.31999999
11.831 -1.989 0.322
11.813 -1.955 0.32100001
11.895 -1.937 0.324
12.078 -1.936 0.329
11.984 -1.89 0.32600001
11.96 -1.855 0.32499999
11.997 -1.831 0.32600001
12.04 -1.807 0.32699999
12.086 -1.783 0.329
12.105 -1.756 0.329
12.136 -1.73 0.33000001
12.148 -1.702 0.33000001
12.16 -1.674 0.331
12.208 -1.65 0.33199999
12.228 -1.623 0.333
12.255 -1.598 0.333
12.28 -1.571 0.33399999
12.336 -1.549 0.336
12.409 -1.529 0.338
12.397 -1.499 0.33700001
12.43 -1.474 0.338
12.427 -1.4450001 0.338
12.466 -1.421 0.33899999
12.532 -1.4 0.34099999
12.545 -1.373 0.34099999
12.611 -1.351 0.34299999
12.651 -1.327 0.34400001
12.724 -1.307 0.34599999
12.864 -1.293 0.34999999
12.801 -1.258 0.34900001
12.928 -1.243 0.352
13.35 0.17900001 0.25
13.411 0.204 0.25099999
13.43 0.228 0.25099999
13.431 0.25299999 0.25099999
13.457 0.278 0.25099999
13.444 0.303 0.25099999
13.458 0.329 0.25099999
13.44 0.354 0.25
13.467 0.38100001 0.25
13.447 0.40700001 0.25
13.446 0.433 0.25
13.437 0.46000001 0.249
13.445 0.48699999 0.249
13.464 0.51499999 0.249
13.476 0.54400003 0.249
13.469 0.57099998 0.249
13.461 0.59899998 0.249
13.479 0.62900001 0.249
13.45 0.65600002 0.248
13.469 0.68599999 0.248
13.476 0.71600002 0.248
13.481 0.745 0.248
13.476 0.77499998 0.248
13.499 0.80599999 0.248
13.502 0.83700001 0.248
13.5 0.86799997 0.248
13.505 0.89899999 0.248
13.538 0.93199998 0.248
13.54 0.96399999 0.248
13.547 0.99599999 0.248
13.553 1.028 0.248
13.538 1.059 0.248
13.544 1.092 0.248
13.562 1.126 0.248
13.628 1.165 0.249
13.734 1.2079999 0.25099999
13.722 1.24 0.25
13.737 1.276 0.25099999
13.764 1.312 0.25099999
13.738 1.344 0.25
13.779 1.383 0.25099999
13.802 1.421 0.25099999
13.873 1.464 0.252
13.959 1.5089999 0.25400001
13.979 1.5470001 0.25400001
13.971 1.582 0.25400001
13.965 1.618 0.25400001
13.999 1.659 0.25400001
14.007 1.697 0.25400001
14.08 1.744 0.255
14.12 1.786 0.25600001
14.152 1.829 0.25600001
14.169 1.869 0.257
14.212 1.914 0.257
14.253 1.9579999 0.25799999
14.266 1.999 0.25799999
14.296 2.043 0.259
14.342 2.0899999 0.259
14.402 2.1389999 0.25999999
14.479 2.191 0.26199999
14.524 2.2390001 0.26199999
14.568 2.2869999 0.26300001
14.59 2.332 0.26300001
14.666 2.3859999 0.26499999
14.714 2.4360001 0.26499999
14.75 2.4849999 0.266
14.771 2.5309999 0.266
14.79 2.5780001 0.266
14.786 2.6199999 0.266
14.861 2.677 0.26800001
14.915 2.7309999 0.26899999
14.988 2.789 0.27000001
15.018 2.8399999 0.27000001
15.091 2.8989999 0.271
15.157 2.957 0.273
15.154 3.0020001 0.27200001
15.189 3.0550001 0.273
15.189 3.1010001 0.273
15.235 3.1570001 0.27399999
15.265 3.21 0.27399999
15.343 3.2739999 0.27599999
15.459 3.346 0.278
15.476 3.398 0.278
12.813 2.8529999 0.23
12.564 2.8369999 0.22499999
12.503 2.862 0.22400001
12.511 2.9030001 0.22400001
12.637 2.973 0.227
13.02 3.1040001 0.233
15.918 3.846 0.285
15.893 3.8900001 0.285
15.913 3.9460001 0.285
15.952 4.007 0.28600001
16.002001 4.0710001 0.287
16.030001 4.1300001 0.287
16.027 4.1810002 0.287
16.108999 4.2550001 0.289
16.091999 4.303 0.28799999
16.188 4.382 0.28999999
16.264999 4.4559999 0.29100001
16.386 4.5430002 0.294
16.424 4.6069999 0.294
16.444 4.6669998 0.29499999
16.506001 4.7399998 0.296
16.575001 4.8150001 0.29699999
16.614 4.881 0.29800001
16.723 4.9689999 0.29899999
16.742001 5.0310001 0.30000001
16.836 5.1160002 0.301
16.861 5.1810002 0.30199999
16.834999 5.23 0.301
16.962999 5.3270001 0.30399999
16.903 5.3649998 0.303
16.941 5.4349999 0.303
17.073 5.5359998 0.30599999
17.049999 5.5869999 0.30500001
17.084 5.6560001 0.30599999
17.158001 5.7399998 0.30700001
17.243999 5.8280001 0.30899999
17.309999 5.9099998 0.31
17.381001 5.994 0.31099999
17.483999 6.0910001 0.31299999
13.043 5.4660001 0.234
12.913 5.4580002 0.23199999
12.821 5.4650002 0.23
12.728 5.4710002 0.229
12.631 5.4749999 0.227
12.521 5.4720001 0.22499999
12.501 5.5089998 0.22499999
12.762 5.6700001 0.229
12.264 5.895 0.221
12.215 5.915 0.22
12.216 6.4070001 0.221
12.179 6.4320002 0.22
12.227 6.5019999 0.221
12.256 6.5619998 0.222
8.7869997 -5.191 0.264
8.7980003 -5.1719999 0.264
8.809 -5.1539998 0.26499999
8.8249998 -5.138 0.26499999
8.8430004 -5.1230001 0.266
8.8459997 -5.0999999 0.266
8.8529997 -5.0780001 0.266
8.8459997 -5.0489998 0.266
8.8800001 -5.0430002 0.26699999
8.8850002 -5.02 0.26699999
8.915 -5.0110002 0.26800001
8.9130001 -4.9850001 0.26800001
8.915 -4.96 0.26800001
8.934 -4.9450002 0.26899999
8.9519997 -4.9289999 0.26899999
8.9580002 -4.9070001 0.26899999
8.9849997 -4.8959999 0.27000001
8.9940004 -4.875 0.27000001
9.0019999 -4.8530002 0.271
9.026 -4.8400002 0.271
9.0489998 -4.8260002 0.27200001
9.0410004 -4.796 0.27200001
9.0719995 -4.7859998 0.273
9.1000004 -4.7750001 0.27399999
9.1379995 -4.7680001 0.27500001
9.2629995 -4.8060002 0.27900001
9.1969995 -4.7449999 0.27700001
9.1499996 -4.6939998 0.27500001
9.1540003 -4.6700001 0.27500001
9.1590004 -4.6459999 0.27500001
9.1680002 -4.6240001 0.27599999
9.1870003 -4.6069999 0.27599999
9.1940002 -4.5840001 0.27700001
9.2139997 -4.5669999 0.27700001
9.224 -4.546 0.27700001
9.2290001 -4.5209999 0.278
9.2580004 -4.5079999 0.27900001
9.2819996 -4.493 0.27900001
9.3129997 -4.4809999 0.28
9.3219995 -4.4580002 0.28
9.3579998 -4.448 0.28200001
9.3620005 -4.4229999 0.28200001
9.3660002 -4.3969998 0.28200001
9.3809996 -4.3779998 0.28200001
9.3940001 -4.3559999 0.28299999
9.4119997 -4.3369999 0.28299999
9.4289999 -4.3169999 0.28400001
9.4449997 -4.2969999 0.28400001
9.46 -4.276 0.285
9.4729996 -4.2550001 0.285
9.4860001 -4.2329998 0.285
9.5120001 -4.217 0.28600001
9.5100002 -4.1880002 0.28600001
9.5489998 -4.178 0.287
9.5500002 -4.1500001 0.287
9.5480003 -4.1220002 0.287
9.5839996 -4.1090002 0.28799999
9.585 -4.0819998 0.28799999
9.6300001 -4.073 0.28999999
9.6400003 -4.0489998 0.28999999
9.6529999 -4.027 0.29100001
9.6709995 -4.006 0.29100001
9.6820002 -3.9820001 0.29100001
9.6969995 -3.96 0.292
9.7089996 -3.937 0.292
9.7250004 -3.915 0.29300001
9.7489996 -3.8959999 0.29300001
9.7550001 -3.8699999 0.294
9.7849998 -3.8540001 0.294
9.8179998 -3.8380001 0.29499999
9.8179998 -3.8099999 0.29499999
9.8389997 -3.789 0.296
9.8599997 -3.7679999 0.29699999
9.8839998 -3.7490001 0.29699999
9.9119997 -3.7309999 0.29800001
9.9280005 -3.7079999 0.29899999
9.9379997 -3.6830001 0.29899999
9.9610004 -3.6619999 0.30000001
9.9720001 -3.6370001 0.30000001
10.007 -3.6210001 0.301
10.023 -3.598 0.30199999
10.031 -3.5710001 0.30199999
10.047 -3.5480001 0.30199999
10.085 -3.5320001 0.303
10.099 -3.507 0.30399999
10.123 -3.4860001 0.30500001
10.123 -3.457 0.30500001
10.142 -3.434 0.30500001
10.155 -3.4089999 0.30599999
10.184 -3.3889999 0.30599999
10.207 -3.3670001 0.30700001
10.236 -3.3469999 0.308
10.286 -3.3340001 0.30899999
10.345 -3.323 0.31099999
10.339 -3.2909999 0.31099999
10.35 -3.2639999 0.31099999
10.34 -3.2309999 0.31099999
10.35 -3.204 0.31099999
10.364 -3.1789999 0.31200001
10.379 -3.1530001 0.31200001
10.382 -3.1240001 0.31200001
10.416 -3.1040001 0.31299999
10.441 -3.0810001 0.31400001
10.486 -3.0639999 0.315
10.53 -3.046 0.317
10.54 -3.0190001 0.317
10.583 -3 0.31799999
10.582 -2.97 0.31799999
10.614 -2.948 0.31900001
10.647 -2.9260001 0.31999999
10.682 -2.905 0.32100001
10.683 -2.8740001 0.32100001
10.714 -2.852 0.322
10.745 -2.829 0.32300001
10.762 -2.802 0.324
10.845 -2.793 0.32600001
10.86 -2.7650001 0.32600001
10.885 -2.74 0.32699999
10.946 -2.724 0.329
10.959 -2.6960001 0.329
10.986 -2.671 0.33000001
11.023 -2.648 0.331
11.05 -2.622 0.33199999
11.061 -2.5929999 0.33199999
11.114 -2.5739999 0.33399999
11.141 -2.5480001 0.33500001
11.184 -2.5250001 0.336
11.201 -2.497 0.33700001
11.239 -2.473 0.338
11.257 -2.4449999 0.338
11.312 -2.424 0.34
11.364 -2.4030001 0.34099999
11.404 -2.378 0.34299999
11.402 -2.345 0.34200001
11.431 -2.3180001 0.34299999
11.544 -2.3080001 0.347
11.593 -2.2839999 0.34799999
11.62 -2.256 0.34900001
11.647 -2.2279999 0.34999999
11.69 -2.2030001 0.35100001
11.73 -2.177 0.352
11.745 -2.1459999 0.35299999
11.816 -2.125 0.35499999
11.822 -2.092 0.35499999
11.907 -2.073 0.35699999
11.964 -2.0480001 0.359
11.99 -2.0179999 0.36000001
12.017 -1.988 0.361
12.086 -1.965 0.36300001
12.23 -1.954 0.36700001
12.152 -1.906 0.36500001
12.18 -1.876 0.36500001
12.2 -1.844 0.366
12.253 -1.817 0.368
12.255 -1.7819999 0.368
12.322 -1.757 0.37
12.321 -1.721 0.37
12.365 -1.692 0.37099999
12.405 -1.6619999 0.37200001
12.487 -1.637 0.37400001
12.524 -1.6059999 0.37599999
12.521 -1.5700001 0.375
12.67 -1.552 0.38
12.669 -1.516 0.38
12.756 -1.49 0.382
12.856 -1.465 0.38499999
12.896 -1.433 0.38699999
12.979 -1.405 0.389
14.092 0.52399999 0.289
14.007 0.542 0.287
14.027 0.565 0.287
14.015 0.58600003 0.287
14.01 0.60799998 0.287
14.003 0.63 0.28600001
14.006 0.653 0.28600001
13.933 0.67199999 0.28400001
13.943 0.69599998 0.285
13.94 0.71899998 0.28400001
13.954 0.74400002 0.28400001
13.94 0.76700002 0.28400001
13.974 0.79299998 0.28400001
14.025 0.82099998 0.285
14.026 0.84600002 0.285
14.012 0.87099999 0.285
14.058 0.89999998 0.28600001
14.068 0.92699999 0.28600001
13.671 1.059 0.27700001
13.635 1.084 0.27599999
13.624 1.11 0.27599999
14.376 1.2309999 0.29100001
14.305 1.2539999 0.289
14.315 1.286 0.289
14.297 1.314 0.289
14.336 1.349 0.289
14.372 1.383 0.28999999
14.371 1.415 0.28999999
14.433 1.452 0.29100001
14.545 1.4960001 0.29300001
14.605 1.535 0.294
14.575 1.5650001 0.294
14.544 1.595 0.29300001
14.561 1.63 0.29300001
14.578 1.666 0.29300001
14.613 1.704 0.294
14.63 1.74 0.294
14.667 1.78 0.29499999
14.673 1.8150001 0.29499999
14.73 1.858 0.296
14.726 1.893 0.296
14.716 1.928 0.296
14.779 1.973 0.29699999
14.848 2.0190001 0.29800001
14.888 2.062 0.29899999
14.918 2.1040001 0.30000001
14.942 2.145 0.30000001
14.978 2.188 0.301
15.03 2.2349999 0.30199999
15.073 2.28 0.303
15.105 2.3239999 0.303
15.113 2.365 0.303
15.147 2.411 0.30399999
15.163 2.454 0.30399999
15.163 2.494 0.30399999
15.213 2.5439999 0.30500001
15.227 2.5869999 0.30599999
15.244 2.632 0.30599999
15.307 2.6849999 0.30700001
15.33 2.7309999 0.308
15.349 2.777 0.308
15.382 2.826 0.30899999
15.443 2.881 0.31
15.473 2.931 0.31
15.498 2.9790001 0.31099999
15.524 3.029 0.31099999
15.568 3.082 0.31200001
15.587 3.131 0.31299999
15.643 3.188 0.31400001
15.666 3.2390001 0.31400001
15.749 3.302 0.31600001
15.883 3.378 0.31900001
15.882 3.425 0.31900001
15.918 3.48 0.31999999
15.982 3.543 0.32100001
16.066 3.6099999 0.32300001
12.66 2.8829999 0.25400001
12.53 2.892 0.252
12.489 2.921 0.25099999
12.526 2.9679999 0.252
12.717 3.053 0.255
12.993 3.1600001 0.26100001
16.419001 4.0450001 0.33000001
16.343 4.0780001 0.329
16.361 4.1339998 0.329
16.406 4.198 0.33000001
16.445999 4.2610002 0.331
16.473 4.3210001 0.33199999
16.511999 4.3850002 0.33199999
16.518999 4.4400001 0.333
16.599001 4.5159998 0.33399999
16.739 4.6090002 0.33700001
16.743999 4.6659999 0.33700001
16.851999 4.7519999 0.34
16.860001 4.8099999 0.34
16.915001 4.882 0.34099999
16.971001 4.9559999 0.34200001
16.99 5.0190001 0.34299999
17.034 5.0890002 0.34400001
17.131001 5.177 0.34599999
17.254999 5.2729998 0.34900001
17.229 5.3249998 0.34799999
17.308001 5.4089999 0.34999999
17.379999 5.4920001 0.352
17.368 5.5489998 0.352
17.464001 5.6399999 0.354
17.546 5.7290001 0.35499999
17.618 5.8140001 0.35699999
17.601 5.8709998 0.35699999
17.726 5.9759998 0.36000001
17.707001 6.033 0.359
17.698999 6.0939999 0.359
13.043 5.4190001 0.26699999
12.922 5.4190001 0.26499999
12.822 5.427 0.26300001
12.717 5.4330001 0.26100001
12.591 5.4289999 0.259
12.517 5.4460001 0.25799999
12.599 5.5320001 0.259
12.277 5.8379998 0.25400001
12.243 5.8730001 0.25400001
12.259 6.3959999 0.25600001
12.273 6.4569998 0.257
12.323 6.5359998 0.25799999
8.4209995 -5.5409999 0.27700001
8.4540005 -5.5089998 0.27700001
8.4840002 -5.4770002 0.278
8.5200005 -5.447 0.27900001
8.5430002 -5.4089999 0.28
8.5710001 -5.3759999 0.28
8.6000004 -5.342 0.28099999
8.6230001 -5.3049998 0.28200001
8.6479998 -5.27 0.28200001
8.6750002 -5.2360001 0.28299999
8.7110004 -5.2069998 0.28400001
8.7250004 -5.165 0.28400001
8.7559996 -5.1339998 0.285
8.7989998 -5.1100001 0.28600001
8.8219995 -5.0739999 0.287
8.8570004 -5.0450001 0.28799999
8.8690004 -5.0040002 0.28799999
8.9029999 -4.974 0.289
8.9469995 -4.9510002 0.28999999
8.9680004 -4.914 0.29100001
9.0270004 -4.8990002 0.29300001
9.0780001 -4.8790002 0.294
9.0640001 -4.8239999 0.294
9.0649996 -4.7779999 0.294
9.0790005 -4.7379999 0.294
9.1049995 -4.7059999 0.29499999
9.1350002 -4.6750002 0.29499999
9.158 -4.6409998 0.296
9.191 -4.612 0.29699999
9.1969995 -4.5700002 0.29699999
9.2370005 -4.5450001 0.29800001
9.257 -4.5100002 0.29899999
9.3000002 -4.4860001 0.30000001
9.3439999 -4.4629998 0.301
9.368 -4.4299998 0.30199999
9.3739996 -4.3889999 0.30199999
9.408 -4.3610001 0.303
9.4209995 -4.323 0.303
9.4540005 -4.2950001 0.30399999
9.4960003 -4.2709999 0.30500001
9.4980001 -4.2290001 0.30500001
9.5489998 -4.2080002 0.30700001
9.5539999 -4.1680002 0.30700001
9.566 -4.131 0.30700001
9.5880003 -4.098 0.308
9.625 -4.072 0.30899999
9.6440001 -4.039 0.30899999
9.7030001 -4.0219998 0.31099999
9.7489996 -3.9990001 0.31200001
9.7469997 -3.957 0.31200001
9.7639999 -3.9230001 0.31299999
9.809 -3.9000001 0.31400001
9.8140001 -3.862 0.31400001
9.8339996 -3.829 0.315
9.8769999 -3.8050001 0.31600001
9.8959999 -3.773 0.31600001
9.9440002 -3.7509999 0.31799999
9.9759998 -3.723 0.31900001
10.006 -3.6949999 0.31999999
10.027 -3.6630001 0.31999999
10.046 -3.6300001 0.32100001
10.081 -3.6040001 0.322
10.115 -3.5769999 0.32300001
10.131 -3.5439999 0.32300001
10.168 -3.5179999 0.324
10.193 -3.4879999 0.32499999
10.222 -3.46 0.32600001
10.253 -3.4319999 0.32699999
10.26 -3.3959999 0.32699999
10.311 -3.375 0.32800001
10.359 -3.3529999 0.33000001
10.456 -3.346 0.333
10.425 -3.299 0.33199999
10.436 -3.2650001 0.33199999
10.463 -3.2360001 0.333
10.471 -3.2019999 0.333
10.495 -3.1719999 0.33399999
10.534 -3.1470001 0.33500001
10.573 -3.122 0.336
10.655 -3.109 0.33899999
10.707 -3.0880001 0.34
10.703 -3.0510001 0.34
10.744 -3.026 0.34099999
10.8 -3.0050001 0.34299999
10.838 -2.98 0.34400001
10.885 -2.957 0.34599999
10.914 -2.9289999 0.34599999
10.972 -2.9089999 0.34799999
11.036 -2.8900001 0.34999999
11.071 -2.8629999 0.35100001
11.134 -2.8440001 0.35299999
11.178 -2.819 0.35499999
11.221 -2.7950001 0.35600001
11.224 -2.76 0.35600001
11.293 -2.7420001 0.35800001
11.322 -2.714 0.359
11.336 -2.6819999 0.359
11.39 -2.6600001 0.361
11.415 -2.631 0.36199999
11.479 -2.6110001 0.36399999
11.48 -2.5769999 0.36399999
11.522 -2.552 0.36500001
11.584 -2.5309999 0.36700001
11.624 -2.5050001 0.368
11.666 -2.48 0.36899999
11.697 -2.4530001 0.37
11.76 -2.4319999 0.37200001
11.821 -2.411 0.37400001
11.843 -2.381 0.375
11.871 -2.3529999 0.37599999
11.898 -2.325 0.377
11.933 -2.2980001 0.37799999
12.01 -2.28 0.38
12.019 -2.2479999 0.38
12.084 -2.227 0.382
12.076 -2.1919999 0.382
12.102 -2.164 0.38299999
12.172 -2.1440001 0.38499999
12.19 -2.1140001 0.38600001
12.24 -2.0899999 0.38699999
12.253 -2.0599999 0.38800001
12.3 -2.036 0.389
12.347 -2.0109999 0.391
12.437 -1.994 0.39300001
12.561 -1.949 0.39700001
12.48 -1.904 0.39500001
12.478 -1.873 0.39500001
12.516 -1.847 0.396
12.552 -1.821 0.39700001
12.593 -1.795 0.398
12.618 -1.768 0.39899999
12.669 -1.744 0.40099999
12.692 -1.716 0.40099999
12.763 -1.6950001 0.40400001
12.835 -1.674 0.40599999
12.839 -1.643 0.40599999
12.868 -1.617 0.40700001
12.95 -1.596 0.41
13.069 -1.58 0.41299999
13.032 -1.546 0.412
13.115 -1.149 0.41499999
13.014 -1.113 0.412
12.958 -1.081 0.41
12.919 -1.051 0.40900001
12.921 -1.024 0.40900001
12.936 -0.99900001 0.40900001
12.959 -0.97399998 0.41
12.954 -0.94800001 0.41
13.069 -0.93000001 0.414
13.734 0.186 0.32300001
13.761 0.211 0.324
13.79 0.236 0.324
13.79 0.26100001 0.324
13.796 0.287 0.324
13.822 0.31400001 0.324
13.801 0.33899999 0.324
13.841 0.36700001 0.324
13.858 0.39399999 0.32499999
13.86 0.421 0.32499999
13.887 0.449 0.32499999
13.874 0.477 0.324
13.905 0.50599998 0.32499999
13.919 0.53399998 0.32499999
13.924 0.56300002 0.32499999
13.929 0.59200001 0.32499999
13.922 0.62099999 0.32499999
13.945 0.65200001 0.32499999
13.919 0.68000001 0.324
13.945 0.71200001 0.32499999
13.941 0.74199998 0.324
13.947 0.773 0.324
13.968 0.80500001 0.32499999
13.993 0.83700001 0.32499999
14.018 0.87 0.32600001
14.049 0.90399998 0.32600001
14.07 0.93800002 0.32699999
14.094 0.972 0.32699999
13.606 1.098 0.315
13.616 1.132 0.315
13.613 1.165 0.315
13.657 1.202 0.31600001
14.394 1.302 0.333
14.378 1.336 0.33199999
14.402 1.374 0.333
14.426 1.413 0.333
14.476 1.454 0.33399999
14.517 1.495 0.33500001
14.576 1.539 0.336
14.721 1.592 0.34
14.744 1.632 0.34
14.684 1.664 0.33899999
14.723 1.707 0.33899999
14.716 1.745 0.33899999
14.72 1.784 0.33899999
14.789 1.832 0.34099999
14.805 1.874 0.34099999
14.888 1.924 0.34299999
14.917 1.969 0.34299999
14.942 2.013 0.34400001
14.993 2.0610001 0.345
15.025 2.1059999 0.34599999
15.09 2.1570001 0.347
15.151 2.2079999 0.34799999
15.2 2.2579999 0.34999999
15.202 2.3010001 0.34999999
15.254 2.352 0.35100001
15.287 2.4000001 0.35100001
15.334 2.451 0.352
15.367 2.5009999 0.35299999
15.428 2.5550001 0.35499999
15.448 2.6029999 0.35499999
15.44 2.6459999 0.35499999
15.519 2.7049999 0.35699999
15.564 2.7590001 0.35800001
15.604 2.812 0.35800001
15.635 2.8640001 0.359
15.668 2.9159999 0.36000001
15.686 2.9660001 0.36000001
15.804 3.036 0.36300001
15.893 3.1010001 0.36500001
15.978 3.165 0.36700001
16.02 3.2219999 0.368
16.056 3.2780001 0.36899999
16.167 3.3499999 0.37099999
16.216 3.4100001 0.37200001
16.24 3.4649999 0.373
16.306999 3.53 0.37400001
16.337999 3.5869999 0.375
16.382999 3.648 0.37599999
12.618 2.849 0.28999999
12.519 2.8659999 0.287
12.514 2.904 0.287
12.563 2.9549999 0.28799999
12.864 3.0669999 0.29499999
13.016 3.1440001 0.29899999
16.83 4.1199999 0.38699999
16.829 4.1729999 0.38699999
16.892 4.243 0.38800001
16.9 4.2989998 0.38800001
16.908001 4.3559999 0.389
16.995001 4.4330001 0.391
17.014 4.494 0.391
17.07 4.5640001 0.39300001
17.122 4.6339998 0.39399999
17.129 4.6919999 0.39399999
17.223 4.7750001 0.396
17.261999 4.842 0.39700001
17.469 4.9580002 0.40200001
17.471001 5.0170002 0.40200001
17.618 5.1170001 0.40599999
17.653999 5.1869998 0.40700001
17.704 5.2610002 0.40799999
17.802 5.3499999 0.41
17.812 5.4120002 0.41
17.997 5.5289998 0.41499999
17.830999 5.539 0.41100001
17.985001 5.6469998 0.41499999
17.962 5.7010002 0.414
18.063 5.7950001 0.417
18.177 5.8930001 0.41999999
18.077999 5.9229999 0.417
18.086 5.9879999 0.41800001
18.209 6.0910001 0.421
18.268 6.1729999 0.42199999
18.513 6.3200002 0.428
13.138 5.4580002 0.30599999
12.94 5.4219999 0.301
12.863 5.4359999 0.30000001
12.801 5.4559999 0.29800001
12.726 5.4699998 0.29699999
12.633 5.4749999 0.29499999
12.571 5.494 0.294
12.704 5.598 0.29699999
9.0109997 -5.3280001 0.31299999
9.0179996 -5.3060002 0.31299999
9.059 -5.3039999 0.31400001
9.0579996 -5.2779999 0.31400001
9.0819998 -5.2649999 0.315
9.099 -5.2490001 0.31600001
9.0959997 -5.2220001 0.31600001
9.0900002 -5.1919999 0.315
9.1330004 -5.1900001 0.317
9.1219997 -5.158 0.317
9.1619997 -5.1539998 0.31799999
9.1789999 -5.1370001 0.31900001
9.1960001 -5.1199999 0.31900001
9.1990004 -5.0960002 0.31900001
9.21 -5.0749998 0.31999999
9.2110004 -5.0489998 0.31999999
9.224 -5.0300002 0.31999999
9.243 -5.013 0.32100001
9.2609997 -4.9959998 0.32100001
9.2740002 -4.9770002 0.322
9.2869997 -4.9569998 0.322
9.2939997 -4.934 0.32300001
9.302 -4.9109998 0.32300001
9.3140001 -4.8899999 0.32300001
9.3079996 -4.8600001 0.32300001
9.3540001 -4.8569999 0.32499999
9.3599997 -4.8330002 0.32499999
9.3649998 -4.8080001 0.32499999
9.3970003 -4.7979999 0.32600001
9.4239998 -4.7839999 0.32699999
9.4359999 -4.7620001 0.32800001
9.4379997 -4.7360001 0.32800001
9.4639997 -4.7220001 0.32800001
9.4680004 -4.6960001 0.329
9.4960003 -4.6830001 0.33000001
9.5089998 -4.6609998 0.33000001
9.5340004 -4.6459999 0.331
9.5349998 -4.618 0.331
9.5430002 -4.5939999 0.331
9.5430002 -4.5669999 0.331
9.5719995 -4.553 0.33199999
9.6000004 -4.5380001 0.333
9.6049995 -4.513 0.333
9.6230001 -4.493 0.33399999
9.6389999 -4.4720001 0.33500001
9.6440001 -4.447 0.33500001
9.6599998 -4.4260001 0.33500001
9.6789999 -4.4060001 0.336
9.6929998 -4.3839998 0.336
9.7250004 -4.3709998 0.33700001
9.7419996 -4.3499999 0.338
9.7659998 -4.3319998 0.33899999
9.7740002 -4.3070002 0.33899999
9.79 -4.2859998 0.34
9.7939997 -4.2589998 0.34
9.8140001 -4.2389998 0.34
9.8269997 -4.2160001 0.34099999
9.8319998 -4.1890001 0.34099999
9.8629999 -4.1739998 0.34200001
9.8730001 -4.1490002 0.34299999
9.9250002 -4.1420002 0.34400001
9.9090004 -4.1059999 0.34400001
9.9130001 -4.0799999 0.34400001
9.9560003 -4.0679998 0.345
9.9639997 -4.0419998 0.34599999
9.9960003 -4.026 0.347
10.003 -4 0.347
10.022 -3.9779999 0.34799999
10.046 -3.9579999 0.34799999
10.052 -3.9319999 0.34900001
10.079 -3.9130001 0.34900001
10.084 -3.885 0.34999999
10.1 -3.862 0.34999999
10.163 -3.8570001 0.352
10.17 -3.8299999 0.35299999
10.194 -3.809 0.35299999
10.204 -3.783 0.354
10.2 -3.7520001 0.354
10.219 -3.7290001 0.354
10.238 -3.7060001 0.35499999
10.25 -3.681 0.35499999
10.269 -3.6570001 0.35600001
10.301 -3.6389999 0.35699999
10.324 -3.6170001 0.35800001
10.333 -3.5899999 0.35800001
10.357 -3.5680001 0.359
10.4 -3.553 0.36000001
10.398 -3.5220001 0.36000001
10.439 -3.5050001 0.36199999
10.45 -3.4790001 0.36199999
10.464 -3.4530001 0.36199999
10.485 -3.4300001 0.36300001
10.516 -3.4089999 0.36399999
10.575 -3.398 0.366
10.621 -3.382 0.368
10.624 -3.352 0.368
10.641 -3.326 0.368
10.641 -3.2950001 0.368
10.672 -3.2739999 0.37
10.627 -3.23 0.368
10.716 -3.2260001 0.37099999
10.738 -3.201 0.37200001
10.782 -3.1830001 0.373
10.841 -3.1689999 0.375
10.873 -3.1470001 0.37599999
10.902 -3.1240001 0.377
10.927 -3.099 0.37799999
10.954 -3.075 0.37900001
10.991 -3.053 0.38
11.024 -3.0309999 0.38100001
11.082 -3.0150001 0.38299999
11.125 -2.994 0.38499999
11.139 -2.9660001 0.38499999
11.174 -2.9430001 0.38600001
11.198 -2.9170001 0.38699999
11.267 -2.902 0.38999999
11.253 -2.8659999 0.389
11.313 -2.849 0.391
11.322 -2.8180001 0.391
11.403 -2.8050001 0.39399999
11.451 -2.7839999 0.396
11.482 -2.7590001 0.39700001
11.493 -2.7279999 0.39700001
11.541 -2.7060001 0.39899999
11.577 -2.681 0.40000001
11.614 -2.6559999 0.40099999
11.625 -2.625 0.40200001
11.679 -2.6040001 0.40400001
11.685 -2.572 0.40400001
11.734 -2.549 0.405
11.784 -2.5250001 0.40700001
11.786 -2.4920001 0.40700001
11.822 -2.4660001 0.40799999
11.882 -2.444 0.41
11.902 -2.414 0.41100001
12.007 -2.4000001 0.41499999
11.984 -2.3610001 0.414
12.02 -2.3340001 0.41499999
12.074 -2.3099999 0.417
12.121 -2.2839999 0.41800001
12.172 -2.2579999 0.41999999
12.211 -2.2309999 0.421
12.206 -2.1949999 0.421
12.318 -2.1789999 0.42500001
12.324 -2.145 0.42500001
12.35 -2.1140001 0.426
12.371 -2.082 0.42699999
12.46 -2.0610001 0.43000001
12.501 -2.0320001 0.43099999
12.584 -2.01 0.43399999
12.819 -1.974 0.442
12.688 -1.9170001 0.43700001
12.699 -1.883 0.43799999
12.768 -1.8559999 0.44
12.829 -1.8279999 0.442
12.831 -1.7920001 0.442
12.952 -1.772 0.44600001
12.931 -1.214 0.44499999
12.879 -1.1720001 0.44299999
12.842 -1.132 0.442
12.884 -1.099 0.44299999
12.9 -1.064 0.44299999
14.783 0.79000002 0.37200001
14.811 0.81699997 0.373
14.701 0.83700001 0.37
14.828 0.87 0.373
14.746 0.89200002 0.37099999
14.804 0.92199999 0.37200001
14.817 0.94999999 0.37200001
14.947 0.986 0.37599999
13.592 1.082 0.34099999
13.592 1.109 0.34099999
13.569 1.135 0.34
15.306 1.344 0.38299999
15.094 1.357 0.37799999
15.054 1.385 0.377
15.088 1.421 0.37799999
15.118 1.456 0.37799999
15.183 1.4960001 0.38
15.199 1.531 0.38
15.284 1.573 0.382
15.361 1.6160001 0.384
15.263 1.64 0.382
15.253 1.674 0.38100001
15.255 1.709 0.38100001
15.275 1.747 0.382
15.33 1.789 0.38299999
15.365 1.829 0.384
15.416 1.872 0.38499999
15.511 1.92 0.38800001
15.515 1.9579999 0.38800001
15.564 2.0020001 0.389
15.551 2.039 0.38800001
15.554 2.0769999 0.389
15.59 2.1210001 0.389
15.598 2.161 0.38999999
15.634 2.2049999 0.38999999
15.679 2.2520001 0.39199999
15.762 2.3039999 0.39399999
15.759 2.3440001 0.39399999
15.813 2.3929999 0.39500001
15.846 2.4389999 0.396
15.865 2.484 0.396
15.883 2.529 0.39700001
15.917 2.5769999 0.398
15.968 2.6270001 0.39899999
16.000999 2.6760001 0.40000001
16.035999 2.7249999 0.40099999
16.021999 2.767 0.40099999
16.106001 2.826 0.403
16.184999 2.8840001 0.405
16.285999 2.947 0.40700001
16.298 2.9949999 0.40799999
16.368 3.0539999 0.40900001
16.395 3.1059999 0.41
16.479 3.168 0.412
16.532 3.2260001 0.414
16.587 3.2850001 0.41499999
16.569 3.329 0.41499999
16.573999 3.378 0.41499999
16.549999 3.4219999 0.41499999
16.648001 3.4909999 0.417
16.715 3.5550001 0.419
16.773001 3.6170001 0.421
16.833 3.681 0.42199999
16.877001 3.7409999 0.42300001
12.723 2.859 0.31900001
17.183001 3.8610001 0.43099999
12.565 2.862 0.315
12.514 2.888 0.31400001
12.525 2.9289999 0.31400001
12.602 2.9860001 0.317
12.867 3.089 0.32300001
12.978 3.1559999 0.32600001
17.433001 4.2950001 0.43900001
17.386999 4.3379998 0.43799999
17.433001 4.4050002 0.43900001
17.694 4.527 0.44600001
17.598 4.559 0.44299999
17.622999 4.6230001 0.44400001
17.597 4.6729999 0.44400001
17.698 4.757 0.44600001
17.825001 4.849 0.44999999
17.822001 4.9070001 0.44999999
17.844 4.9720001 0.45100001
17.968 5.066 0.454
17.986 5.131 0.45500001
18.058001 5.2119999 0.45699999
18.083 5.2800002 0.458
18.118 5.3520002 0.45899999
18.166 5.427 0.46000001
18.207001 5.5019999 0.46200001
18.254999 5.579 0.463
18.316 5.6599998 0.465
18.384001 5.7449999 0.46700001
18.372999 5.8049998 0.46700001
18.361 5.8649998 0.46700001
18.445999 5.9569998 0.46900001
18.475 6.0310001 0.47
18.535999 6.1170001 0.472
18.621 6.211 0.47400001
18.594 6.2680001 0.47400001
18.73 6.381 0.47799999
13.027 5.4120002 0.33700001
12.926 5.4200001 0.33500001
12.853 5.4400001 0.333
12.813 5.473 0.33199999
12.768 5.5040002 0.331
12.748 5.546 0.331
12.525 5.802 0.32800001
12.421 5.8039999 0.32499999
12.407 5.848 0.32499999
12.499 5.9429998 0.32800001
8.6260004 -5.6729999 0.324
8.6759996 -5.652 0.32600001
8.7130003 -5.6220002 0.32699999
8.7489996 -5.592 0.32800001
8.7580004 -5.5440001 0.32800001
8.8079996 -5.5219998 0.33000001
8.8459997 -5.493 0.331
8.8529997 -5.4450002 0.331
8.8850002 -5.4130001 0.33199999
8.9119997 -5.3769999 0.333
8.9440002 -5.3449998 0.33399999
8.9709997 -5.3099999 0.33399999
8.9910002 -5.27 0.33500001
9.0220003 -5.2379999 0.336
9.0410004 -5.198 0.336
9.085 -5.1739998 0.338
9.0930004 -5.1290002 0.338
9.1330004 -5.1009998 0.33899999
9.1560001 -5.0650001 0.34
9.1800003 -5.0289998 0.34099999
9.2139997 -4.9990001 0.34200001
9.2159996 -4.9520001 0.34099999
9.217 -4.9039998 0.34099999
9.2740002 -4.8870001 0.34299999
9.3030005 -4.8540001 0.34400001
9.3369999 -4.8239999 0.345
9.3739996 -4.796 0.34599999
9.3950005 -4.7600002 0.347
9.4060001 -4.7189999 0.347
9.434 -4.6859999 0.34799999
9.4829998 -4.665 0.34999999
9.4919996 -4.6230001 0.34999999
9.5109997 -4.5869999 0.34999999
9.5430002 -4.5570002 0.35100001
9.5609999 -4.52 0.352
9.5970001 -4.4920001 0.35299999
9.6129999 -4.4549999 0.354
9.6379995 -4.4219999 0.354
9.6700001 -4.3920002 0.35499999
9.7019997 -4.362 0.35600001
9.7399998 -4.335 0.35800001
9.7629995 -4.302 0.35800001
9.79 -4.27 0.359
9.8210001 -4.2399998 0.36000001
9.835 -4.2030001 0.36000001
9.8780003 -4.178 0.36199999
9.8900003 -4.1409998 0.36199999
9.8999996 -4.1030002 0.36199999
9.9469995 -4.0799999 0.36399999
9.9729996 -4.0479999 0.36500001
10.005 -4.0190001 0.366
10.044 -3.993 0.36700001
10.075 -3.964 0.368
10.102 -3.9330001 0.36899999
10.123 -3.9000001 0.37
10.142 -3.8659999 0.37
10.196 -3.845 0.37200001
10.251 -3.825 0.37400001
10.264 -3.789 0.37400001
10.26 -3.747 0.37400001
10.301 -3.7219999 0.375
10.332 -3.6930001 0.37599999
10.375 -3.6689999 0.37799999
10.401 -3.638 0.37900001
10.417 -3.6040001 0.37900001
10.459 -3.579 0.38100001
10.508 -3.556 0.382
10.567 -3.536 0.384
10.61 -3.5120001 0.38600001
10.657 -3.4879999 0.38699999
10.667 -3.4519999 0.38800001
10.789 -3.4519999 0.39199999
10.841 -3.4300001 0.39399999
10.858 -3.3959999 0.39399999
10.863 -3.359 0.39399999
10.914 -3.3369999 0.396
10.956 -3.3110001 0.398
11.007 -3.2880001 0.39899999
11.054 -3.2639999 0.40099999
11.141 -3.2509999 0.40400001
11.173 -3.2219999 0.405
11.209 -3.1949999 0.40599999
11.216 -3.1589999 0.40599999
11.284 -3.1400001 0.40900001
11.358 -3.1229999 0.41100001
11.358 -3.085 0.41100001
11.394 -3.0569999 0.41299999
11.421 -3.027 0.41299999
11.455 -2.9990001 0.41499999
11.499 -2.974 0.41600001
11.557 -2.9519999 0.41800001
11.627 -2.9319999 0.421
11.657 -2.9030001 0.42199999
11.709 -2.8789999 0.42300001
11.743 -2.8510001 0.42500001
11.76 -2.8180001 0.42500001
11.815 -2.7950001 0.42699999
11.868 -2.7709999 0.42899999
11.915 -2.7460001 0.43099999
11.953 -2.7190001 0.43200001
11.997 -2.6930001 0.433
12.016 -2.661 0.43399999
12.045 -2.632 0.435
12.074 -2.602 0.43599999
12.12 -2.5769999 0.43799999
12.178 -2.5539999 0.44
12.207 -2.5239999 0.44100001
12.264 -2.5009999 0.44299999
12.257 -2.4649999 0.442
12.317 -2.4419999 0.44400001
12.444 -2.4319999 0.449
12.415 -2.391 0.44800001
12.465 -2.3659999 0.44999999
12.492 -2.3369999 0.45100001
12.632 -2.3280001 0.456
12.61 -2.29 0.45500001
12.638 -2.26 0.456
12.684 -2.234 0.45699999
12.734 -2.2090001 0.45899999
12.781 -2.1830001 0.461
12.796 -2.152 0.461
12.885 -2.1329999 0.46399999
13.782 -1.6670001 0.49700001
13.909 -1.65 0.50099999
13.79 -1.604 0.49700001
13.628 -1.37 0.491
13.503 -1.3279999 0.486
13.431 -1.2920001 0.484
13.428 -1.263 0.484
13.496 -1.24 0.486
13.013 -1.086 0.46900001
12.894 -1.049 0.465
12.845 -1.0190001 0.463
12.821 -0.99000001 0.46200001
12.862 -0.96700001 0.46399999
12.878 -0.94300002 0.46399999
12.94 -0.921 0.46599999
14.353 0.197 0.40700001
14.452 0.22400001 0.41
14.447 0.25 0.40900001
14.508 0.27700001 0.41100001
14.535 0.30500001 0.41100001
14.562 0.33199999 0.412
14.539 0.359 0.41100001
14.604 0.389 0.41299999
14.677 0.419 0.41499999
14.634 0.44600001 0.41299999
14.648 0.47600001 0.41299999
14.608 0.50400001 0.412
14.604 0.53299999 0.412
14.663 0.565 0.41299999
14.691 0.59600002 0.414
14.645 0.625 0.412
14.68 0.65700001 0.41299999
14.767 0.69199997 0.41499999
14.787 0.72399998 0.41600001
14.819 0.75800002 0.417
14.791 0.78899997 0.41600001
14.926 0.82800001 0.419
14.883 0.85900003 0.41800001
14.874 0.89200002 0.41800001
14.968 0.93099999 0.41999999
14.957 0.96399999 0.41999999
15.095 1.007 0.42300001
13.592 1.066 0.38100001
13.563 1.096 0.38
13.517 1.125 0.37799999
13.592 1.164 0.38
15.277 1.383 0.42699999
15.257 1.419 0.42699999
15.246 1.456 0.426
15.257 1.495 0.426
15.298 1.538 0.428
15.376 1.585 0.43000001
15.469 1.6339999 0.43200001
15.519 1.679 0.43399999
15.515 1.719 0.433
15.505 1.758 0.433
15.524 1.801 0.433
15.546 1.844 0.43399999
15.637 1.896 0.43700001
15.672 1.943 0.43700001
15.722 1.9910001 0.43900001
15.722 2.033 0.43900001
15.744 2.079 0.43900001
15.783 2.1270001 0.44
15.774 2.1689999 0.44
15.869 2.2249999 0.44299999
15.958 2.2820001 0.44499999
15.985 2.3299999 0.44600001
16.014 2.3789999 0.447
16.032 2.427 0.447
16.063 2.477 0.44800001
16.107 2.53 0.449
16.139999 2.5810001 0.44999999
16.132999 2.6259999 0.44999999
16.247 2.691 0.45300001
16.316999 2.75 0.45500001
16.365 2.8050001 0.45699999
16.48 2.8729999 0.46000001
16.51 2.927 0.461
16.554001 2.983 0.46200001
16.572001 3.036 0.463
16.643 3.098 0.465
16.716 3.161 0.46700001
16.783001 3.224 0.46900001
16.851 3.2880001 0.47099999
16.917 3.352 0.472
16.886999 3.3970001 0.472
16.976999 3.467 0.47400001
17.028999 3.529 0.47600001
17.084 3.5929999 0.477
17.122999 3.654 0.47799999
17.167 3.7160001 0.47999999
17.235001 3.7839999 0.48199999
17.448999 3.8859999 0.48800001
12.599 2.845 0.352
12.518 2.8659999 0.34999999
12.518 2.905 0.34999999
12.57 2.957 0.352
12.839 3.0610001 0.359
12.924 3.122 0.36199999
18.070999 4.5970001 0.50599998
18.027 4.6440001 0.505
18.01 4.698 0.505
18.066 4.7709999 0.50700003
18.194 4.8649998 0.50999999
18.233999 4.9349999 0.51200002
18.278999 5.007 0.51300001
18.284 5.0679998 0.51300001
18.320999 5.1389999 0.51499999
18.398001 5.2210002 0.51700002
18.407 5.2849998 0.51700002
18.768999 5.6399999 0.528
18.819 5.7179999 0.52999997
18.893 5.8039999 0.53200001
18.900999 5.8699999 0.53299999
18.927999 5.9429998 0.53399998
18.823999 5.974 0.53100002
18.830999 6.0409999 0.53100002
15.699 5.4679999 0.44400001
15.465 5.4400001 0.43799999
15.312 5.4400001 0.43399999
15.191 5.4489999 0.43099999
15.196 5.5050001 0.43099999
14.734 5.8569999 0.41999999
14.777 5.927 0.42199999
13.151 5.5100002 0.37599999
13.002 5.494 0.37200001
12.991 5.5359998 0.37200001
12.619 5.697 0.36300001
12.372 5.6300001 0.35600001
12.357 5.6680002 0.35600001
12.463 5.7620001 0.359
12.405 5.7800002 0.35800001
12.328 5.789 0.35600001
12.281 5.8119998 0.35499999
12.255 5.8449998 0.354
12.265 5.8940001 0.35499999
12.337 5.973 0.35699999
12.191 6.8369999 0.359
11.968 6.7550001 0.35299999
11.9 6.7600002 0.35100001
11.955 6.835 0.35299999
9.2550001 -5.4759998 0.36399999
9.2779999 -5.4629998 0.36500001
9.2910004 -5.4450002 0.366
9.29 -5.4169998 0.366
9.3079996 -5.401 0.366
9.3260002 -5.3850002 0.36700001
9.3360004 -5.3639998 0.36700001
9.3520002 -5.3460002 0.368
9.3870001 -5.3390002 0.36899999
9.3780003 -5.3070002 0.36899999
9.4020004 -5.2940001 0.37
9.4320002 -5.283 0.37099999
9.4309998 -5.256 0.37099999
9.4399996 -5.2329998 0.37099999
9.448 -5.21 0.37200001
9.4809999 -5.2010002 0.373
9.5030003 -5.1859999 0.37400001
9.5010004 -5.1570001 0.37400001
9.5109997 -5.1350002 0.37400001
9.5240002 -5.1149998 0.375
9.5369997 -5.0939999 0.375
9.5349998 -5.0650001 0.375
9.5649996 -5.053 0.37599999
9.5900002 -5.0380001 0.377
9.6330004 -5.033 0.37900001
9.6149998 -4.9959998 0.37799999
9.618 -4.9689999 0.37799999
9.6160002 -4.9400001 0.37799999
9.6599998 -4.9349999 0.38
9.6639996 -4.9089999 0.38
9.6759996 -4.8870001 0.38100001
9.6739998 -4.8579998 0.38
9.6969995 -4.8410001 0.38100001
9.717 -4.823 0.382
9.7229996 -4.7979999 0.382
9.7290001 -4.7719998 0.38299999
9.7559996 -4.757 0.384
9.776 -4.7379999 0.384
9.8050003 -4.724 0.38600001
9.809 -4.697 0.38600001
9.8079996 -4.6680002 0.38600001
9.823 -4.6469998 0.38600001
9.849 -4.6300001 0.38699999
9.8789997 -4.6160002 0.38800001
9.8889999 -4.5910001 0.389
9.8940001 -4.5650001 0.389
9.9259996 -4.5510001 0.38999999
9.9259996 -4.5219998 0.38999999
9.9429998 -4.5 0.391
9.9759998 -4.4860001 0.39199999
9.9890003 -4.4629998 0.39300001
10.025 -4.4499998 0.39399999
10.055 -4.434 0.39500001
10.03 -4.3930001 0.39399999
10.032 -4.3649998 0.39399999
10.068 -4.3509998 0.396
10.078 -4.3260002 0.396
10.1 -4.3060002 0.39700001
10.139 -4.2930002 0.398
10.151 -4.2690001 0.39899999
10.171 -4.2470002 0.39899999
10.19 -4.2249999 0.40000001
10.208 -4.2030001 0.40099999
10.215 -4.1760001 0.40099999
10.213 -4.145 0.40099999
10.254 -4.132 0.403
10.283 -4.1139998 0.40400001
10.321 -4.099 0.405
10.321 -4.0689998 0.405
10.319 -4.0380001 0.405
10.377 -4.0300002 0.40700001
10.393 -4.006 0.40799999
10.418 -3.9849999 0.40900001
10.444 -3.9649999 0.41
10.456 -3.9389999 0.41
10.494 -3.9230001 0.412
10.513 -3.8989999 0.412
10.518 -3.8710001 0.41299999
10.556 -3.8540001 0.414
10.593 -3.8369999 0.41499999
10.612 -3.812 0.41600001
10.642 -3.7920001 0.417
10.675 -3.773 0.419
10.715 -3.756 0.41999999
10.711 -3.723 0.41999999
10.738 -3.701 0.421
10.784 -3.6860001 0.42300001
10.796 -3.6589999 0.42300001
10.828 -3.638 0.42399999
10.888 -3.6259999 0.42699999
10.933 -3.609 0.428
10.961 -3.5869999 0.42899999
10.965 -3.556 0.43000001
11.035 -3.5469999 0.43200001
11.131 -3.5450001 0.43599999
11.18 -3.5280001 0.43799999
11.172 -3.493 0.43799999
11.13 -3.448 0.43599999
11.142 -3.4200001 0.43599999
11.189 -3.401 0.43799999
11.198 -3.372 0.43799999
11.224 -3.3469999 0.43900001
11.283 -3.332 0.442
11.27 -3.2950001 0.44100001
11.327 -3.279 0.44299999
11.357 -3.2550001 0.44400001
11.397 -3.233 0.44600001
11.412 -3.204 0.44600001
11.443 -3.1800001 0.44800001
11.454 -3.1500001 0.44800001
11.511 -3.132 0.44999999
11.537 -3.1059999 0.45100001
11.578 -3.0829999 0.45300001
11.586 -3.052 0.45300001
11.608 -3.0239999 0.454
11.661 -3.0039999 0.456
11.683 -2.9760001 0.45699999
11.7 -2.947 0.45699999
11.76 -2.928 0.46000001
11.789 -2.901 0.461
11.849 -2.882 0.463
11.862 -2.8499999 0.463
11.909 -2.8269999 0.465
11.945 -2.8010001 0.46700001
11.973 -2.773 0.46799999
12.028 -2.7509999 0.47
12.065 -2.7249999 0.47099999
12.113 -2.701 0.47299999
12.098 -2.6630001 0.472
12.104 -2.6289999 0.472
12.117 -2.5969999 0.47299999
12.158 -2.5710001 0.47400001
12.25 -2.5550001 0.47799999
12.323 -2.5350001 0.48100001
12.372 -2.5090001 0.48300001
12.426 -2.484 0.48500001
