# .PCD v0.7 - Point Cloud Data file format
VERSION 0.7
FIELDS x y z
SIZE 4 4 4
TYPE F F F
COUNT 1 1 1
WIDTH 1812
HEIGHT 1
VIEWPOINT 0 0 0 1 0 0 0
POINTS 1812
DATA ascii
13.922 -2.49 0.625
13.933 -2.4549999 0.625
13.943 -2.4189999 0.62599999
14.037 -2.398 0.63
14.12 -2.3010001 0.63300002
14.227 -2.2809999 0.63800001
14.236 -2.2460001 0.63800001
14.251 -2.2119999 0.639
14.187 -2.1659999 0.63599998
14.243 -2.138 0.639
14.279 -2.108 0.63999999
14.343 -2.0810001 0.64300001
14.401 -2.0539999 0.64600003
14.501 -2.033 0.64999998
14.418 -1.9859999 0.64600003
14.393 -1.947 0.64499998
14.4 -1.913 0.64499998
14.441 -1.8839999 0.64700001
14.518 -1.86 0.65100002
14.494 -1.822 0.64899999
14.568 -1.7970001 0.653
14.684 -1.777 0.65799999
13.109 0.155 0.58999997
13.054 0.17200001 0.588
13.051 0.189 0.588
13.037 0.206 0.58700001
13.021 0.223 0.58700001
13.012 0.23899999 0.58600003
13.023 0.25600001 0.58700001
13.035 0.273 0.588
13.037 0.289 0.588
13.028 0.30500001 0.58700001
13.018 0.32100001 0.58700001
13.022 0.33700001 0.58700001
13.009 0.352 0.58700001
13.051 0.36899999 0.58899999
13.062 0.384 0.58999997
13.073 0.40000001 0.58999997
13.088 0.41600001 0.59100002
13.154 0.433 0.59399998
12.853 0.18000001 0.48699999
12.851 0.20299999 0.48699999
12.856 0.226 0.48699999
12.864 0.249 0.48699999
12.876 0.273 0.48800001
12.89 0.29800001 0.48800001
12.902 0.322 0.48800001
12.899 0.347 0.48800001
12.901 0.37200001 0.48800001
12.927 0.398 0.48899999
12.946 0.42399999 0.48899999
9.2589998 0.32100001 0.34999999
12.981 0.45100001 0.49000001
9.0880003 0.33399999 0.34299999
13.014 0.47799999 0.491
9.0170002 0.34900001 0.34
13.071 0.50700003 0.493
8.9779997 0.366 0.33899999
13.112 0.53500003 0.495
8.9510002 0.384 0.338
13.203 0.56599998 0.498
8.9370003 0.40200001 0.33700001
8.9130001 0.419 0.336
13.224 0.62300003 0.49900001
8.8929996 0.43700001 0.33500001
13.218 0.64999998 0.498
8.8369999 0.454 0.333
8.7869997 0.47 0.331
13.239 0.70899999 0.49900001
8.7709999 0.48800001 0.33000001
13.237 0.73699999 0.49900001
8.7530003 0.50700003 0.33000001
13.335 0.77200001 0.50199997
8.7360001 0.52499998 0.329
8.7309999 0.54400003 0.329
8.7270002 0.56400001 0.32800001
8.7419996 0.58499998 0.329
8.7600002 0.60600001 0.33000001
8.8280001 0.63099998 0.33199999
13.337 0.954 0.50199997
9.0030003 0.66500002 0.33899999
13.185 0.97399998 0.49599999
13.169 1.0039999 0.495
13.136 1.0319999 0.49399999
13.11 1.062 0.493
13.104 1.092 0.493
13.117 1.125 0.493
13.153 1.16 0.495
13.269 1.2029999 0.49900001
17.149 1.598 0.64499998
16.948 1.6210001 0.63700002
16.959 1.665 0.63800001
16.966999 1.7079999 0.63800001
17.004 1.755 0.639
17.066999 1.8049999 0.64200002
17.094999 1.852 0.64300001
17.214001 1.909 0.64700001
17.257 1.959 0.64899999
17.299999 2.0090001 0.64999998
17.372 2.063 0.653
17.422001 2.115 0.65499997
17.415001 2.1600001 0.65499997
17.506001 2.2190001 0.65799999
17.530001 2.2690001 0.65899998
17.598 2.325 0.662
17.628 2.3770001 0.66299999
17.610001 2.4230001 0.66299999
17.66 2.4779999 0.66399997
17.686001 2.5309999 0.66600001
17.792 2.595 0.67000002
17.877001 2.658 0.67299998
18.025999 2.73 0.67900002
11.711 1.807 0.44100001
11.618 1.825 0.43700001
11.598 1.855 0.43700001
11.581 1.886 0.43599999
11.577 1.918 0.43599999
11.573 1.951 0.43599999
11.49 1.97 0.433
11.398 1.988 0.43000001
11.368 2.016 0.42899999
11.363 2.0480001 0.428
11.384 2.086 0.42899999
11.437 2.1289999 0.43099999
11.647 2.2030001 0.43900001
18.837999 3.5639999 0.71100003
18.893 3.6300001 0.713
13.135 2.563 0.49599999
13.05 2.586 0.493
13.012 2.618 0.49200001
13.048 2.665 0.493
13.158 2.727 0.49700001
13.191 2.7739999 0.49900001
13.18 2.813 0.49900001
13.198 2.8570001 0.49900001
13.28 2.9159999 0.50300002
19.604 4.3660002 0.74299997
19.555 4.4159999 0.741
19.549 4.4759998 0.741
19.597 4.5479999 0.74299997
19.841 4.6680002 0.75300002
19.914 4.8109999 0.75599998
19.733 4.8299999 0.75
19.794001 4.908 0.75199997
20.642 5.79 0.78799999
20.73 5.8829999 0.792
15.525 5.3530002 0.59899998
15.364 5.3499999 0.59299999
15.245 5.362 0.58899999
15.164 5.3860002 0.58600003
15.111 5.4200001 0.58499998
15.201 5.506 0.58899999
14.745 5.8610001 0.57499999
14.587 5.8499999 0.56900001
10.864 7.4650002 0.45899999
10.847 7.4889998 0.45899999
10.784 7.4809999 0.45699999
10.729 7.4780002 0.45500001
10.682 7.48 0.454
10.667 7.5040002 0.454
10.617 7.5029998 0.45199999
10.579 7.5100002 0.45100001
10.561 7.5300002 0.45100001
10.53 7.5419998 0.44999999
10.529 7.5739999 0.45100001
10.518 7.599 0.45100001
10.492 7.6129999 0.44999999
10.477 7.6339998 0.44999999
9.9160004 -5.8769999 0.48199999
9.9189997 -5.8509998 0.48199999
9.9379997 -5.8330002 0.48300001
9.948 -5.8099999 0.484
9.9549999 -5.7859998 0.484
9.948 -5.7529998 0.484
9.967 -5.7350001 0.48500001
10.007 -5.7290001 0.48699999
10.009 -5.7020001 0.48699999
10.016 -5.677 0.48699999
10.015 -5.6469998 0.48699999
10.029 -5.6259999 0.48699999
10.056 -5.612 0.48899999
10.05 -5.5799999 0.48800001
10.081 -5.5679998 0.49000001
10.109 -5.5539999 0.491
10.119 -5.5300002 0.49200001
10.124 -5.5029998 0.49200001
10.168 -5.4980001 0.49399999
10.164 -5.4660001 0.49399999
10.198 -5.4549999 0.495
10.224 -5.4390001 0.49700001
10.223 -5.4089999 0.49700001
10.278 -5.408 0.49900001
10.257 -5.3670001 0.498
10.24 -5.3280001 0.49700001
10.267 -5.3119998 0.49900001
10.316 -5.3080001 0.50099999
10.325 -5.2820001 0.50099999
10.34 -5.2600002 0.50199997
10.363 -5.2410002 0.50300002
10.381 -5.2199998 0.50400001
10.363 -5.1810002 0.50300002
10.397 -5.1669998 0.505
10.414 -5.1459999 0.505
10.439 -5.1269999 0.50700003
10.476 -5.1149998 0.50800002
10.461 -5.0770001 0.50800002
10.484 -5.0580001 0.509
10.525 -5.046 0.51099998
10.526 -5.0159998 0.51099998
10.577 -5.0089998 0.51300001
10.58 -4.98 0.51300001
10.606 -4.961 0.514
10.623 -4.9380002 0.51499999
10.631 -4.9109998 0.51499999
10.651 -4.8889999 0.51599997
10.671 -4.8670001 0.51700002
10.728 -4.8610001 0.51999998
10.74 -4.835 0.51999998
10.759 -4.8130002 0.52100003
10.766 -4.7839999 0.52200001
10.79 -4.763 0.523
10.791 -4.7319999 0.523
10.839 -4.7210002 0.52499998
10.878 -4.7069998 0.52700001
10.916 -4.691 0.52899998
10.925 -4.6630001 0.52899998
10.924 -4.6300001 0.52899998
10.954 -4.6110001 0.52999997
10.971 -4.586 0.53100002
10.985 -4.5599999 0.53200001
11.002 -4.5349998 0.53200001
11.052 -4.5229998 0.53500003
11.085 -4.5040002 0.53600001
11.089 -4.473 0.537
11.152 -4.4660001 0.54000002
11.164 -4.4380002 0.54000002
11.212 -4.4250002 0.542
11.393 -4.4629998 0.551
11.374 -4.3889999 0.55000001
11.347 -4.3449998 0.54900002
11.278 -4.2859998 0.54500002
11.297 -4.2600002 0.546
11.324 -4.237 0.54699999
11.339 -4.21 0.54799998
11.375 -4.1900001 0.55000001
11.404 -4.1669998 0.551
11.416 -4.138 0.551
11.449 -4.1170001 0.55299997
11.47 -4.0910001 0.55400002
11.496 -4.066 0.55500001
11.532 -4.0450001 0.55699998
11.551 -4.0180001 0.55800003
11.58 -3.9949999 0.55900002
11.583 -3.9619999 0.55900002
11.628 -3.944 0.56099999
11.626 -3.9089999 0.56099999
11.659 -3.8859999 0.56199998
11.692 -3.8629999 0.56400001
11.726 -3.8399999 0.56599998
11.767 -3.819 0.56800002
11.783 -3.79 0.56800002
11.818 -3.767 0.56999999
11.914 -3.763 0.574
11.97 -3.7460001 0.57700002
11.947 -3.704 0.57599998
11.983 -3.6800001 0.57700002
11.992 -3.648 0.57800001
12.019 -3.6210001 0.579
12.027 -3.589 0.579
12.051 -3.5610001 0.57999998
12.1 -3.54 0.583
12.178 -3.5280001 0.58600003
12.22 -3.5039999 0.588
12.289 -3.4879999 0.59200001
12.297 -3.4549999 0.59200001
12.38 -3.4419999 0.59600002
12.37 -3.404 0.59500003
12.508 -3.405 0.602
12.536 -3.3399999 0.60299999
12.675 -3.3410001 0.61000001
12.882 -2.9849999 0.61799997
12.858 -2.9419999 0.61699998
12.847 -2.9030001 0.61699998
12.97 -2.8929999 0.62199998
13.001 -2.862 0.62400001
12.986 -2.8210001 0.62300003
12.969 -2.78 0.62199998
12.978 -2.7449999 0.62199998
12.973 -2.7060001 0.62199998
13.098 -2.6949999 0.62800002
13.75 -2.789 0.65899998
13.849 -2.7690001 0.66399997
13.812 -2.7219999 0.662
13.86 -2.691 0.66399997
13.994 -2.677 0.67000002
13.992 -2.6359999 0.67000002
14.042 -2.5650001 0.67199999
14.086 -2.5320001 0.67400002
14.063 -2.4879999 0.67299998
14.082 -2.45 0.67400002
14.118 -2.4159999 0.676
14.139 -2.3789999 0.67699999
14.331 -2.2880001 0.685
14.323 -2.2449999 0.685
14.355 -2.2090001 0.68599999
14.427 -2.1789999 0.69
14.442 -2.1389999 0.69
14.484 -2.1040001 0.69199997
14.514 -2.0669999 0.69300002
14.546 -2.029 0.69499999
14.57 -1.9910001 0.69599998
14.596 -1.9529999 0.69700003
14.713 -1.926 0.70200002
12.958 0.23100001 0.61199999
12.915 0.26800001 0.61000001
12.9 0.30399999 0.60900003
12.906 0.34099999 0.60900003
12.889 0.37799999 0.60900003
12.888 0.414 0.60799998
12.878 0.45100001 0.60799998
12.894 0.48800001 0.60799998
12.89 0.52499998 0.60799998
12.888 0.56199998 0.60799998
12.896 0.59899998 0.60799998
12.894 0.63599998 0.60799998
12.914 0.67400002 0.60900003
12.902 0.70999998 0.60799998
12.903 0.74699998 0.60799998
12.907 0.78399998 0.60799998
12.911 0.82200003 0.60799998
12.926 0.85900003 0.60799998
12.908 0.89499998 0.60699999
12.799 0.119 0.51300001
12.788 0.13 0.51200002
12.789 0.142 0.51200002
12.784 0.154 0.51099998
12.772 0.16599999 0.50999999
12.789 0.18000001 0.51099998
12.781 0.193 0.50999999
12.769 0.206 0.509
12.767 0.22 0.509
12.752 0.234 0.50800002
12.762 0.248 0.50800002
12.761 0.26300001 0.50800002
12.752 0.278 0.50700003
12.754 0.29300001 0.50700003
12.754 0.30899999 0.50700003
12.75 0.32499999 0.50700003
12.736 0.34099999 0.50599998
12.737 0.35800001 0.50599998
12.738 0.375 0.50599998
12.736 0.39199999 0.505
12.736 0.40900001 0.505
12.736 0.42699999 0.505
12.729 0.44499999 0.50400001
12.728 0.463 0.50400001
12.728 0.48199999 0.50400001
12.752 0.50199997 0.505
9.1669998 0.375 0.36300001
12.78 0.523 0.50599998
9.0450001 0.384 0.35800001
12.854 0.546 0.509
8.9890003 0.39500001 0.35499999
12.995 0.57200003 0.514
8.9610004 0.40799999 0.354
13.112 0.59799999 0.51800001
8.9309998 0.421 0.35299999
13.114 0.61900002 0.51800001
8.9209995 0.43599999 0.352
13.083 0.639 0.51700002
8.8920002 0.449 0.35100001
13.052 0.65899998 0.51599997
8.8409996 0.461 0.34900001
13.082 0.68300003 0.51700002
8.802 0.47400001 0.347
13.096 0.70499998 0.51700002
8.7679996 0.48699999 0.34599999
13.023 0.72399998 0.514
8.7480001 0.50099999 0.345
12.962 0.74299997 0.51200002
8.7360001 0.51599997 0.345
12.992 0.76800001 0.51300001
8.7209997 0.53100002 0.34400001
13.001 0.792 0.51300001
8.7229996 0.54699999 0.34400001
13.001 0.815 0.51300001
8.7340002 0.56300002 0.34400001
12.986 0.838 0.51200002
8.7309999 0.579 0.34400001
12.976 0.861 0.51200002
8.7600002 0.59799999 0.345
12.971 0.88499999 0.51200002
8.8409996 0.62 0.34900001
12.964 0.90899998 0.51099998
8.9890003 0.648 0.354
12.949 0.93300003 0.51099998
12.914 0.95499998 0.509
12.907 0.98000002 0.509
12.914 1.006 0.509
12.92 1.033 0.509
12.918 1.058 0.509
12.944 1.087 0.50999999
12.929 1.112 0.50999999
12.949 1.141 0.50999999
12.986 1.171 0.51200002
13.025 1.2029999 0.51300001
17.819 1.645 0.70300001
13.045 1.232 0.514
17.805 1.682 0.70200002
13.058 1.262 0.51499999
17.882 1.728 0.70499998
13.094 1.294 0.51599997
17.837999 1.763 0.70300001
13.13 1.326 0.51800001
17.846001 1.803 0.704
13.172 1.36 0.51899999
17.832001 1.841 0.70300001
13.268 1.399 0.523
17.893999 1.887 0.70599997
17.913 1.929 0.70700002
18.011999 1.9809999 0.70999998
18.058001 2.0280001 0.71200001
18.125 2.0769999 0.71499997
18.388 2.1500001 0.72600001
18.343 2.188 0.72399998
18.419001 2.2409999 0.727
18.483 2.2920001 0.73000002
18.545 2.345 0.73199999
18.563 2.392 0.73299998
18.573 2.4389999 0.73400003
18.582001 2.4860001 0.73400003
18.584 2.5320001 0.73400003
18.785999 2.6059999 0.74299997
18.792 2.655 0.74299997
18.798 2.7030001 0.74299997
18.858 2.76 0.74599999
11.817 1.7589999 0.46700001
19.183001 2.8559999 0.759
11.67 1.768 0.46200001
11.609 1.789 0.45899999
11.593 1.817 0.45899999
11.574 1.844 0.458
11.569 1.874 0.458
11.559 1.903 0.458
11.521 1.928 0.45699999
11.419 1.942 0.45300001
11.37 1.965 0.45100001
11.365 1.995 0.45100001
11.366 2.027 0.45100001
11.402 2.0650001 0.45300001
11.453 2.1059999 0.45500001
11.677 2.1800001 0.46399999
19.450001 3.631 0.773
13.335 2.527 0.52999997
19.782 3.7490001 0.787
13.095 2.5190001 0.52100003
13.012 2.54 0.51800001
12.995 2.5739999 0.51700002
13.029 2.619 0.51899999
13.099 2.671 0.52200001
13.185 2.727 0.52600002
13.204 2.77 0.52700001
13.251 2.819 0.52899998
13.343 2.878 0.53299999
19.702999 5.2319999 0.79500002
19.729 5.303 0.796
19.73 5.368 0.79699999
15.782 5.4320002 0.648
15.458 5.3759999 0.63499999
15.355 5.3959999 0.63200003
15.319 5.4390001 0.63099998
14.803 5.7509999 0.61500001
14.789 5.8010001 0.61500001
14.631 5.7950001 0.60900003
14.542 5.8150001 0.60600001
14.777 5.9660001 0.61699998
11.008 7.027 0.49399999
10.946 7.039 0.49200001
10.889 7.053 0.49000001
10.851 7.0799999 0.48899999
10.818 7.1100001 0.48800001
10.792 7.1440001 0.48800001
10.767 7.1789999 0.48800001
10.719 7.198 0.486
10.702 7.2379999 0.486
10.656 7.2579999 0.48500001
10.633 7.2940001 0.48500001
10.606 7.3270001 0.484
10.572 7.355 0.484
10.55 7.3909998 0.48300001
10.526 7.4250002 0.48300001
10.485 7.448 0.48199999
10.465 7.4850001 0.48199999
10.423 7.507 0.48100001
9.4429998 -6.2059999 0.48800001
9.4989996 -6.1830001 0.49000001
9.5319996 -6.1459999 0.49200001
9.5550003 -6.1009998 0.493
9.5909996 -6.066 0.49399999
9.6219997 -6.0279999 0.495
9.6599998 -5.994 0.49700001
9.7040005 -5.9640002 0.49900001
9.7370005 -5.927 0.5
9.757 -5.882 0.50099999
9.802 -5.8530002 0.50300002
9.8190002 -5.8070002 0.50300002
9.8699999 -5.7810001 0.505
9.8859997 -5.7350001 0.50599998
9.9300003 -5.7049999 0.50800002
9.9650002 -5.6700001 0.509
10.011 -5.6420002 0.51099998
10.044 -5.6059999 0.51300001
10.071 -5.5669999 0.514
10.092 -5.5250001 0.514
10.146 -5.5009999 0.51700002
10.18 -5.4660001 0.51800001
10.173 -5.4089999 0.51800001
10.208 -5.375 0.51899999
10.261 -5.3509998 0.52100003
10.288 -5.3119998 0.52200001
10.313 -5.2729998 0.523
10.367 -5.2490001 0.52600002
10.382 -5.2059999 0.52600002
10.409 -5.1680002 0.52700001
10.439 -5.132 0.52899998
10.454 -5.0879998 0.52899998
10.515 -5.0679998 0.53200001
10.545 -5.0320001 0.53299999
10.553 -4.9860001 0.53299999
10.602 -4.96 0.53500003
10.637 -4.9260001 0.537
10.658 -4.8870001 0.53799999
10.726 -4.869 0.54100001
10.756 -4.8330002 0.542
10.795 -4.802 0.54400003
10.825 -4.7670002 0.54500002
10.872 -4.7399998 0.54699999
10.906 -4.7069998 0.54900002
10.931 -4.6690001 0.55000001
10.98 -4.6420002 0.55199999
11.012 -4.6079998 0.55299997
11.046 -4.5749998 0.55500001
11.07 -4.5380001 0.55599999
11.101 -4.5040002 0.55699998
11.147 -4.4759998 0.55900002
11.17 -4.4380002 0.56
11.229 -4.4159999 0.56300002
11.296 -4.3959999 0.56599998
11.378 -4.381 0.56999999
11.538 -4.3959999 0.57700002
11.462 -4.3210001 0.57300001
11.437 -4.2659998 0.57200003
11.425 -4.2160001 0.57099998
11.464 -4.1849999 0.57300001
11.521 -4.1609998 0.57499999
11.535 -4.1209998 0.57599998
11.567 -4.0890002 0.57700002
11.624 -4.0640001 0.57999998
11.66 -4.0320001 0.58200002
11.691 -3.9990001 0.583
11.714 -3.9630001 0.58399999
11.793 -3.9460001 0.588
11.793 -3.902 0.58700001
11.848 -3.8770001 0.58999997
11.9 -3.8499999 0.59200001
11.948 -3.822 0.59500003
12.046 -3.8099999 0.59899998
12.168 -3.7620001 0.60500002
12.196 -3.7279999 0.60600001
12.266 -3.7060001 0.60900003
12.341 -3.6860001 0.61299998
12.393 -3.658 0.61500001
12.459 -3.635 0.61900002
12.555 -3.6199999 0.62300003
12.699 -3.618 0.63
13.413 -3.4679999 0.66399997
13.398 -3.4219999 0.66299999
13.452 -3.392 0.66600001
13.456 -3.3510001 0.66600001
13.532 -3.3269999 0.66900003
12.787 -3.0650001 0.63200003
12.788 -3.0250001 0.63200003
12.755 -2.9779999 0.63
12.807 -2.9519999 0.63300002
12.945 -2.944 0.63999999
13.038 -2.9260001 0.64399999
12.977 -2.8740001 0.64099997
12.948 -2.829 0.639
12.952 -2.7920001 0.639
12.991 -2.7620001 0.64099997
13.11 -2.7490001 0.64700001
14.008 -2.8970001 0.69099998
13.965 -2.848 0.68900001
14.035 -2.822 0.69199997
14.107 -2.7969999 0.69599998
14.138 -2.763 0.69700003
14.138 -2.723 0.69700003
14.201 -2.6960001 0.69999999
14.212 -2.6589999 0.70099998
14.338 -2.6040001 0.70700002
14.333 -2.5639999 0.70599997
14.342 -2.527 0.70700002
14.38 -2.4949999 0.708
14.397 -2.46 0.70899999
14.53 -2.368 0.71499997
14.498 -2.325 0.71399999
14.52 -2.2909999 0.71499997
14.573 -2.2620001 0.71700001
14.618 -2.2320001 0.71899998
14.599 -2.1919999 0.71899998
14.769 -2.1800001 0.727
14.682 -2.131 0.722
14.719 -2.0999999 0.72399998
14.814 -2.0769999 0.72899997
14.871 -2.0480001 0.73199999
12.99 0.082999997 0.64099997
12.877 0.1 0.63499999
12.833 0.117 0.63300002
12.817 0.134 0.63300002
12.824 0.152 0.63300002
12.829 0.169 0.634
12.834 0.186 0.634
12.826 0.20299999 0.634
12.846 0.22 0.63499999
12.847 0.236 0.63499999
12.86 0.25299999 0.63599998
12.866 0.26899999 0.63599998
12.869 0.285 0.63599998
12.874 0.301 0.63700002
12.875 0.317 0.63700002
12.879 0.333 0.63700002
12.903 0.34900001 0.63800001
12.924 0.36500001 0.63999999
12.956 0.38100001 0.64099997
12.972 0.39700001 0.64200002
12.98 0.412 0.64300001
13.003 0.428 0.64399999
12.702 0.18000001 0.542
12.725 0.20200001 0.54299998
12.727 0.22499999 0.54299998
12.709 0.248 0.542
12.726 0.27200001 0.542
12.72 0.29499999 0.542
12.714 0.31900001 0.542
12.713 0.34299999 0.54100001
12.724 0.368 0.542
12.714 0.39300001 0.54100001
12.725 0.41800001 0.54100001
9.2840004 0.32300001 0.39500001
12.733 0.44400001 0.542
9.0860004 0.33500001 0.38600001
12.759 0.47 0.54299998
9.0080004 0.34999999 0.38299999
12.83 0.49900001 0.54500002
8.9759998 0.36700001 0.38100001
12.977 0.53100002 0.55199999
8.9370003 0.384 0.38
13.012 0.55900002 0.55299997
8.9329996 0.403 0.37900001
13.009 0.58600003 0.55299997
8.8999996 0.41999999 0.37799999
12.973 0.61199999 0.551
8.8559999 0.43700001 0.37599999
12.988 0.64099997 0.55199999
8.8009996 0.45300001 0.37400001
13.005 0.66900003 0.55199999
8.7589998 0.47 0.37200001
12.973 0.69599998 0.551
8.7449999 0.48800001 0.37099999
12.953 0.72299999 0.55000001
8.7200003 0.50599998 0.37
12.92 0.75 0.54799998
8.7220001 0.52499998 0.37
12.948 0.77999997 0.54900002
8.7220001 0.54500002 0.37
12.945 0.80900002 0.54900002
8.7200003 0.56400001 0.37
12.927 0.83700001 0.54799998
8.7390003 0.58499998 0.37
12.914 0.86500001 0.54799998
8.7720003 0.60799998 0.37200001
12.908 0.89499998 0.54699999
8.8470001 0.63300002 0.375
12.88 0.92299998 0.546
12.86 0.95099998 0.54500002
12.851 0.98100001 0.54500002
12.863 1.012 0.54500002
12.871 1.043 0.546
12.874 1.074 0.546
12.888 1.107 0.546
12.895 1.1390001 0.54699999
12.907 1.171 0.54699999
12.945 1.207 0.54900002
12.96 1.24 0.54900002
17.958 1.719 0.76099998
12.976 1.274 0.55000001
17.914 1.76 0.759
13.001 1.3099999 0.551
17.979 1.811 0.76200002
13.021 1.345 0.55199999
17.99 1.858 0.76300001
13.045 1.38 0.55299997
18.027 1.908 0.764
13.094 1.419 0.55500001
18.034 1.955 0.76499999
13.162 1.461 0.55800003
18.249001 2.0250001 0.77399999
18.348 2.0840001 0.778
18.443001 2.1429999 0.78200001
13.098 1.556 0.55500001
18.465 2.194 0.78299999
13.019 1.581 0.55199999
18.503 2.247 0.78500003
13.21 1.64 0.56
18.533001 2.3 0.78600001
18.649 2.365 0.79100001
18.681999 2.4189999 0.79299998
18.754 2.4790001 0.796
18.743999 2.529 0.796
18.868 2.5969999 0.801
18.914 2.655 0.80299997
18.944 2.7119999 0.80500001
19.041 2.779 0.80900002
18.983999 2.823 0.80599999
11.814 1.79 0.50199997
19.268999 2.9200001 0.81900001
11.641 1.7970001 0.495
11.576 1.819 0.49200001
11.563 1.85 0.491
11.546 1.88 0.491
11.554 1.915 0.491
11.508 1.9400001 0.48899999
11.403 1.956 0.48500001
11.358 1.9809999 0.48300001
11.339 2.0109999 0.48300001
11.364 2.049 0.484
11.406 2.0899999 0.486
11.514 2.1440001 0.491
19.785 3.684 0.84299999
19.707001 3.7290001 0.83999997
13.1 2.517 0.55900002
13.012 2.54 0.55500001
13.008 2.5780001 0.55500001
13.025 2.6210001 0.55599999
13.107 2.677 0.56
13.203 2.737 0.56400001
13.267 2.7909999 0.56699997
13.465 2.8740001 0.57599998
21.042999 4.6220002 0.90100002
21.117001 4.7030001 0.90399998
21.167999 5.1139998 0.90899998
21.138 5.1739998 0.90799999
21.242001 5.2680001 0.91299999
19.757999 5.1539998 0.85100001
19.643999 5.1880002 0.84600002
19.653999 5.2550001 0.847
19.632 5.3130002 0.847
19.764999 5.414 0.85299999
17.941 5.27 0.77700001
17.877001 5.3109999 0.77399999
14.878 5.7550001 0.65600002
14.677 5.7290001 0.648
14.656 5.7729998 0.648
14.634 5.816 0.64700001
14.517 5.822 0.64300001
14.602 5.908 0.64700001
10.844 7.1960001 0.51800001
10.783 7.1919999 0.51599997
10.713 7.1820002 0.51300001
10.687 7.1999998 0.51300001
10.663 7.2210002 0.51200002
10.642 7.2420001 0.51200002
10.617 7.2600002 0.51099998
10.615 7.2940001 0.51200002
10.597 7.3169999 0.51099998
10.581 7.3410001 0.51099998
10.562 7.362 0.51099998
10.538 7.3800001 0.50999999
10.533 7.4099998 0.51099998
10.495 7.4169998 0.50999999
10.484 7.4429998 0.50999999
10.471 7.467 0.50999999
10.47 7.4990001 0.50999999
10.458 7.5240002 0.50999999
10.45 7.5500002 0.51099998
10.434 7.572 0.50999999
10.418 7.592 0.50999999
10.289 -6.1030002 0.54799998
10.365 -6.119 0.55199999
10.338 -6.073 0.551
10.363 -6.0580001 0.55199999
10.366 -6.0289998 0.55199999
10.379 -6.007 0.55299997
10.437 -6.0100002 0.55599999
10.431 -5.9770002 0.55500001
10.444 -5.954 0.55599999
10.456 -5.9310002 0.55699998
10.472 -5.9089999 0.55699998
10.494 -5.8909998 0.55800003
10.469 -5.8470001 0.55699998
10.483 -5.8239999 0.55800003
10.491 -5.7979999 0.55800003
10.501 -5.7729998 0.55900002
10.516 -5.7509999 0.55900002
10.531 -5.7290001 0.56
10.523 -5.6939998 0.56
10.549 -5.678 0.56099999
10.567 -5.6560001 0.56199998
10.59 -5.638 0.56300002
10.627 -5.6259999 0.565
10.688 -5.6279998 0.56800002
10.738 -5.6230001 0.57099998
10.679 -5.5609999 0.56800002
10.654 -5.5159998 0.56599998
10.68 -5.4990001 0.56800002
10.688 -5.4720001 0.56800002
10.727 -5.46 0.56999999
10.74 -5.4349999 0.57099998
10.759 -5.414 0.57200003
10.778 -5.3920002 0.57300001
10.809 -5.3759999 0.574
10.811 -5.3449998 0.574
10.855 -5.335 0.57700002
10.838 -5.2950001 0.57599998
10.868 -5.2779999 0.57700002
10.869 -5.2470002 0.57700002
10.916 -5.237 0.57999998
10.923 -5.2090001 0.57999998
10.938 -5.184 0.58099997
10.98 -5.1719999 0.583
10.996 -5.1469998 0.58399999
10.994 -5.1139998 0.583
11.028 -5.0970001 0.58499998
11.038 -5.0689998 0.58600003
11.044 -5.04 0.58600003
11.098 -5.0320001 0.58899999
11.118 -5.0089998 0.58999997
11.116 -4.9749999 0.58899999
11.148 -4.9569998 0.59100002
11.152 -4.9260001 0.59100002
11.177 -4.9039998 0.59200001
11.218 -4.8889999 0.59500003
11.243 -4.8670001 0.59600002
11.277 -4.849 0.59799999
11.292 -4.822 0.59799999
11.276 -4.783 0.597
11.311 -4.7639999 0.59899998
11.334 -4.7410002 0.60000002
11.373 -4.724 0.602
11.385 -4.6950002 0.60299999
11.416 -4.6739998 0.60399997
11.434 -4.6479998 0.60500002
11.433 -4.6149998 0.60500002
11.49 -4.6040001 0.60799998
11.524 -4.5840001 0.61000001
11.599 -4.5799999 0.61400002
11.586 -4.5409999 0.61299998
11.656 -4.5339999 0.61699998
11.681 -4.5089998 0.61799997
11.608 -4.448 0.61400002
11.649 -4.4289999 0.616
11.687 -4.4089999 0.61799997
11.708 -4.3829999 0.61900002
11.744 -4.362 0.62099999
11.761 -4.3340001 0.62199998
11.774 -4.3039999 0.62199998
11.808 -4.2820001 0.62400001
11.822 -4.2529998 0.625
11.852 -4.2290001 0.62599999
11.877 -4.2030001 0.62699997
11.923 -4.184 0.63
11.93 -4.152 0.63
11.955 -4.1259999 0.63099998
11.997 -4.105 0.63300002
12.007 -4.0739999 0.634
12.058 -4.0560002 0.63599998
12.134 -4.046 0.63999999
12.156 -4.0180001 0.64099997
12.209 -4 0.64399999
12.22 -3.9679999 0.64399999
12.45 -4.006 0.65700001
13.376 -3.7590001 0.704
13.46 -3.744 0.708
13.441 -3.6989999 0.70700002
13.375 -3.642 0.704
13.393 -3.608 0.704
13.374 -3.5639999 0.70300001
13.442 -3.5439999 0.70700002
13.541 -3.53 0.71200001
13.658 -3.5209999 0.71799999
13.531 -3.4489999 0.71100003
13.534 -3.411 0.71100003
13.559 -3.378 0.71200001
13.599 -3.348 0.71399999
13.699 -3.3329999 0.71899998
13.711 -3.2969999 0.72000003
12.836 -3.0120001 0.67400002
12.756 -2.9560001 0.66900003
12.741 -2.9159999 0.66900003
12.783 -2.888 0.671
12.89 -2.875 0.676
13.017 -2.8280001 0.68300003
12.96 -2.779 0.67900002
12.962 -2.7420001 0.67900002
12.974 -2.7060001 0.68000001
13.081 -2.691 0.685
14.212 -2.8829999 0.745
14.185 -2.836 0.74299997
14.25 -2.8080001 0.74599999
14.324 -2.7809999 0.75
14.309 -2.6960001 0.74900001
14.446 -2.6800001 0.75599998
14.478 -2.6029999 0.75700003
14.517 -2.5680001 0.759
14.548 -2.5309999 0.76099998
14.654 -2.5079999 0.76599997
14.787 -2.3599999 0.773
14.719 -2.3069999 0.76899999
14.743 -2.2679999 0.76999998
14.815 -2.237 0.77399999
14.834 -2.197 0.77499998
14.913 -2.1659999 0.77899998
13.089 0.199 0.67500001
12.881 0.23199999 0.66500002
12.815 0.26800001 0.66100001
12.804 0.30399999 0.66000003
12.812 0.34099999 0.66000003
12.809 0.37799999 0.66000003
12.811 0.414 0.66000003
12.809 0.45100001 0.66000003
12.811 0.48800001 0.66000003
12.818 0.52499998 0.66000003
12.82 0.56099999 0.66000003
12.837 0.59899998 0.66100001
12.828 0.63499999 0.66000003
12.823 0.67199999 0.66000003
12.836 0.70899999 0.66000003
12.85 0.74699998 0.66100001
12.862 0.78399998 0.66100001
12.874 0.82200003 0.662
12.875 0.85900003 0.66100001
12.86 0.89499998 0.66100001
12.652 0.12 0.56699997
12.649 0.131 0.56599998
12.658 0.14300001 0.56699997
12.658 0.155 0.56599998
12.655 0.168 0.56599998
12.641 0.18000001 0.565
12.651 0.193 0.565
12.648 0.207 0.565
12.649 0.22 0.56400001
12.651 0.234 0.56400001
12.648 0.249 0.56400001
12.645 0.26300001 0.56300002
12.657 0.278 0.56400001
12.656 0.29300001 0.56300002
12.656 0.30899999 0.56300002
12.653 0.32499999 0.56300002
12.643 0.34099999 0.56199998
12.649 0.35699999 0.56199998
12.65 0.37400001 0.56199998
12.651 0.391 0.56199998
12.658 0.40900001 0.56199998
12.659 0.42699999 0.56199998
12.654 0.44499999 0.56099999
12.646 0.463 0.56099999
9.2559996 0.352 0.41
12.677 0.48199999 0.56199998
9.0900002 0.359 0.403
12.694 0.50199997 0.56300002
9.0209999 0.37 0.40000001
12.754 0.52399999 0.565
8.9750004 0.382 0.39700001
12.831 0.54699999 0.56800002
8.948 0.39500001 0.396
12.953 0.57200003 0.574
8.9309998 0.40799999 0.39500001
12.969 0.59299999 0.574
8.9049997 0.42199999 0.39399999
12.99 0.61500001 0.57499999
8.8610001 0.43399999 0.39199999
13.007 0.63700002 0.57599998
8.816 0.44600001 0.38999999
13.015 0.65899998 0.57599998
8.7670002 0.458 0.38800001
13.008 0.68000001 0.57499999
8.7449999 0.472 0.38699999
12.986 0.70099998 0.574
8.7379999 0.48699999 0.38600001
12.964 0.722 0.57300001
8.7320004 0.50199997 0.38600001
12.964 0.745 0.57300001
8.7220001 0.51599997 0.38499999
12.921 0.76499999 0.57099998
8.724 0.53200001 0.38499999
12.902 0.787 0.56999999
8.7209997 0.54799998 0.38499999
12.885 0.80900002 0.56999999
8.7399998 0.565 0.38600001
12.891 0.833 0.56999999
8.7519999 0.58200002 0.38699999
12.86 0.85500002 0.56800002
8.7980003 0.60100001 0.389
12.825 0.87699997 0.56699997
8.901 0.625 0.39300001
12.811 0.89999998 0.56599998
12.816 0.92500001 0.56599998
12.801 0.949 0.56599998
12.802 0.97399998 0.56599998
12.798 0.99900001 0.565
12.804 1.025 0.56599998
12.809 1.051 0.56599998
12.822 1.0779999 0.56599998
12.845 1.1059999 0.56699997
12.871 1.135 0.56900001
12.888 1.164 0.56900001
12.895 1.192 0.56999999
12.939 1.224 0.57200003
12.951 1.253 0.57200003
12.964 1.2819999 0.57300001
12.984 1.312 0.574
12.999 1.3430001 0.57499999
13.046 1.377 0.57700002
19.326 2.04 0.85500002
13.094 1.411 0.579
19.25 2.075 0.85100001
13.136 1.446 0.58099997
19.301001 2.125 0.85399997
13.141 1.476 0.58099997
19.393999 2.1789999 0.85799998
13.126 1.505 0.58099997
19.351999 2.2190001 0.85600001
13.025 1.524 0.57599998
19.393999 2.2690001 0.85799998
13.017 1.554 0.57599998
19.511 2.329 0.86400002
13.062 1.59 0.57800001
19.360001 2.3559999 0.85699999
19.375999 2.405 0.85799998
19.382 2.4519999 0.85799998
19.451 2.5079999 0.86199999
19.493999 2.5610001 0.86400002
19.455999 2.6040001 0.86199999
19.461 2.6530001 0.86299998
19.555 2.714 0.86699998
19.628 2.7739999 0.87099999
13.025 1.873 0.57800001
19.621 2.823 0.87099999
13.094 1.9170001 0.58099997
19.667999 2.8789999 0.87300003
19.841 2.9560001 0.88099998
11.776 1.784 0.523
11.631 1.793 0.51599997
11.579 1.8150001 0.514
11.562 1.8430001 0.514
11.549 1.872 0.51300001
11.538 1.901 0.51300001
11.51 1.927 0.51200002
11.419 1.943 0.50800002
11.365 1.964 0.50599998
11.339 1.9910001 0.505
11.336 2.0220001 0.505
11.344 2.0550001 0.50599998
11.38 2.0929999 0.50800002
11.451 2.138 0.51099998
13.187 2.5369999 0.58899999
13.035 2.5450001 0.583
13.001 2.576 0.58099997
12.998 2.6129999 0.58099997
12.993 2.6500001 0.58200002
13.062 2.7019999 0.58499998
13.186 2.767 0.59100002
13.342 2.839 0.59799999
21.691999 4.8759999 0.97500002
21.724001 4.9489999 0.977
21.742001 5.02 0.97799999
19.676001 5.2249999 0.89200002
19.628 5.276 0.89099997
19.6 5.3330002 0.88999999
19.587999 5.3940001 0.88999999
19.688999 5.4860001 0.89499998
18.204 5.2540002 0.82999998
17.986 5.2519999 0.81999999
17.777 5.2509999 0.81199998
17.657 5.2750001 0.80699998
17.657 5.335 0.80699998
14.937 5.7459998 0.69800001
14.721 5.7189999 0.68900001
14.663 5.7519999 0.68699998
14.7 5.822 0.68900001
14.588 5.8340001 0.685
11.003 6.9720001 0.55599999
10.878 6.9439998 0.551
10.832 6.9660001 0.55000001
10.795 6.9920001 0.54900002
10.761 7.0219998 0.54799998
10.736 7.0560002 0.54699999
10.714 7.092 0.54699999
10.694 7.1300001 0.54699999
10.665 7.1620002 0.546
10.644 7.1989999 0.546
10.602 7.2220001 0.54500002
10.571 7.2519999 0.54400003
10.557 7.2930002 0.54500002
10.542 7.3340001 0.54500002
10.518 7.369 0.54500002
10.495 7.4039998 0.54400003
10.468 7.4359999 0.54400003
10.446 7.4720001 0.54400003
10.407 7.4949999 0.542
9.8059998 -6.4429998 0.55299997
9.8599997 -6.4169998 0.55500001
9.9049997 -6.3839998 0.55699998
9.9530001 -6.3540001 0.56
9.9899998 -6.3169999 0.56099999
10.049 -6.2940001 0.56400001
10.058 -6.2389998 0.56400001
10.115 -6.2150002 0.56699997
10.138 -6.1690001 0.56800002
10.162 -6.125 0.56900001
10.18 -6.0770001 0.56900001
10.211 -6.0380001 0.57099998
10.243 -5.9990001 0.57200003
10.29 -5.9679999 0.574
10.314 -5.9250002 0.57499999
10.336 -5.8800001 0.57599998
10.36 -5.8369999 0.57700002
10.397 -5.802 0.579
10.457 -5.7789998 0.58200002
10.544 -5.7709999 0.58600003
10.554 -5.7210002 0.58600003
10.539 -5.6570001 0.58499998
10.558 -5.6129999 0.58600003
10.607 -5.5840001 0.588
10.63 -5.5419998 0.58899999
10.664 -5.506 0.58999997
10.695 -5.4679999 0.59200001
10.749 -5.441 0.59399998
10.769 -5.3990002 0.59500003
10.793 -5.3569999 0.59600002
10.838 -5.3270001 0.59799999
10.849 -5.2800002 0.59899998
10.912 -5.2579999 0.602
10.935 -5.217 0.60299999
10.966 -5.1799998 0.60399997
11.002 -5.1459999 0.60600001
11.018 -5.1020002 0.60600001
11.058 -5.0689998 0.60799998
11.103 -5.039 0.61000001
11.116 -4.9949999 0.611
11.158 -4.9629998 0.61299998
11.206 -4.934 0.61500001
11.228 -4.8940001 0.616
11.259 -4.8579998 0.61699998
11.321 -4.835 0.62
11.361 -4.803 0.62199998
11.363 -4.7550001 0.62199998
11.389 -4.717 0.62300003
11.446 -4.6919999 0.62599999
11.486 -4.6599998 0.62800002
11.517 -4.6240001 0.62900001
11.569 -4.5960002 0.63200003
11.608 -4.5640001 0.634
11.652 -4.5339999 0.63599998
11.701 -4.5050001 0.63800001
11.757 -4.4790001 0.64099997
11.753 -4.4299998 0.64099997
11.807 -4.4039998 0.64300001
11.814 -4.3590002 0.64399999
11.869 -4.3330002 0.64600003
11.928 -4.3080001 0.64899999
11.971 -4.277 0.65100002
12.005 -4.243 0.653
12.049 -4.2119999 0.65499997
12.167 -4.2069998 0.66100001
12.227 -4.1820002 0.66399997
12.298 -4.1599998 0.66799998
12.357 -4.1339998 0.671
12.457 -4.1209998 0.676
13.411 -3.8670001 0.72500002
13.442 -3.8299999 0.727
13.435 -3.783 0.72600001
13.427 -3.7349999 0.72500002
13.478 -3.7049999 0.72799999
13.532 -3.675 0.73100001
13.605 -3.6500001 0.73400003
13.858 -3.6730001 0.74800003
13.728 -3.549 0.741
13.734 -3.507 0.741
13.772 -3.473 0.74299997
13.796 -3.4349999 0.74400002
13.964 -3.4330001 0.75300002
13.987 -3.3959999 0.75400001
12.791 -3.026 0.68900001
12.718 -2.97 0.685
12.744 -2.937 0.68599999
12.833 -2.9189999 0.69099998
13.104 -2.902 0.70499998
12.955 -2.8310001 0.69700003
12.939 -2.789 0.69599998
12.958 -2.7550001 0.69700003
13.042 -2.7349999 0.70099998
14.52 -2.7969999 0.77999997
14.628 -2.777 0.78500003
14.611 -2.734 0.78399998
14.798 -2.7279999 0.79400003
14.641 -2.6589999 0.78600001
14.718 -2.6329999 0.79000002
14.804 -2.609 0.79400003
15.001 -2.4059999 0.80400002
15.037 -2.3729999 0.80599999
15.172 -2.355 0.81300002
12.912 0.082000002 0.69300002
12.863 0.098999999 0.69099998
12.829 0.117 0.68900001
12.832 0.134 0.68900001
12.832 0.152 0.68900001
12.833 0.169 0.69
12.847 0.186 0.69
12.856 0.20299999 0.69099998
12.876 0.22 0.69199997
12.879 0.237 0.69199997
12.878 0.25299999 0.69300002
12.888 0.27000001 0.69300002
12.891 0.28600001 0.69300002
12.904 0.30199999 0.69400001
12.923 0.31799999 0.69499999
12.946 0.33500001 0.69700003
12.983 0.35100001 0.699
13.026 0.368 0.70099998
13.059 0.384 0.70300001
13.125 0.40099999 0.70700002
13.107 0.41600001 0.70599997
12.629 0.18000001 0.59899998
12.641 0.20299999 0.59899998
12.65 0.226 0.60000002
12.646 0.249 0.59899998
12.651 0.27200001 0.59899998
12.654 0.296 0.59899998
12.653 0.31900001 0.59899998
12.66 0.34400001 0.59899998
12.667 0.368 0.59899998
12.664 0.39300001 0.59899998
12.671 0.41800001 0.59899998
12.671 0.44299999 0.59899998
9.1020002 0.336 0.43000001
12.673 0.46900001 0.59899998
9.0299997 0.352 0.42699999
12.705 0.495 0.60000002
8.9770002 0.368 0.42399999
12.784 0.52499998 0.60399997
8.9379997 0.38499999 0.42199999
12.924 0.55699998 0.611
8.9180002 0.403 0.421
12.942 0.58499998 0.611
8.8979998 0.421 0.41999999
12.943 0.61199999 0.611
8.8339996 0.43700001 0.417
12.987 0.64200002 0.61299998
8.7790003 0.45300001 0.414
12.978 0.66900003 0.61299998
8.7650003 0.47099999 0.414
12.978 0.69700003 0.61299998
8.7370005 0.48800001 0.412
12.977 0.72600001 0.61199999
8.7279997 0.50700003 0.412
12.96 0.75300002 0.61199999
8.7080002 0.52499998 0.41100001
12.934 0.77999997 0.61000001
8.71 0.54500002 0.41100001
12.9 0.80699998 0.60900003
8.7040005 0.56400001 0.41
12.871 0.83499998 0.60699999
8.7220001 0.58499998 0.41100001
12.878 0.86400002 0.60699999
8.7360001 0.60600001 0.412
12.843 0.89099997 0.60600001
8.7740002 0.62900001 0.414
12.808 0.91900003 0.60399997
8.8850002 0.65799999 0.419
12.781 0.94599998 0.60299999
12.783 0.977 0.60299999
12.772 1.006 0.602
12.778 1.0369999 0.60299999
12.788 1.068 0.60299999
12.791 1.099 0.60299999
12.794 1.131 0.60299999
12.821 1.165 0.60500002
12.851 1.199 0.60600001
12.889 1.235 0.60799998
12.902 1.268 0.60900003
19.391001 1.906 0.91500002
12.941 1.3049999 0.61000001
19.353001 1.951 0.91299999
12.949 1.3380001 0.611
19.346001 1.999 0.91299999
12.979 1.374 0.61199999
19.344 2.049 0.91299999
12.99 1.409 0.61299998
19.458 2.1099999 0.91799998
13.05 1.449 0.616
19.527 2.168 0.92199999
13.105 1.489 0.61799997
19.433001 2.2079999 0.917
13.16 1.53 0.62099999
19.521 2.2690001 0.92199999
13.1 1.557 0.61799997
19.496 2.3180001 0.92000002
13.057 1.587 0.616
19.596001 2.381 0.92500001
13.044 1.62 0.616
19.568001 2.4300001 0.92400002
13.096 1.661 0.61799997
19.611 2.4879999 0.926
19.649 2.5450001 0.92799997
19.718 2.608 0.93199998
19.690001 2.6570001 0.93099999
19.757999 2.721 0.93400002
19.798 2.78 0.93599999
19.917 2.852 0.94199997
13.158 1.921 0.62199998
19.981001 2.9170001 0.94499999
13.031 1.938 0.616
19.989 2.974 0.94599998
20.007 3.0320001 0.94700003
11.796 1.821 0.55800003
11.627 1.8279999 0.55000001
11.563 1.851 0.54699999
11.545 1.881 0.54699999
11.532 1.9119999 0.546
11.514 1.942 0.546
11.43 1.961 0.542
11.348 1.98 0.53799999
11.326 2.0090001 0.537
11.328 2.043 0.537
11.352 2.0810001 0.53899997
11.414 2.1259999 0.542
11.604 2.1960001 0.551
13.233 2.543 0.62900001
13.062 2.55 0.62099999
12.99 2.575 0.61799997
12.981 2.612 0.61799997
13.001 2.6559999 0.61900002
13.093 2.7149999 0.62300003
13.242 2.786 0.63099998
21.936001 4.6830001 1.046
21.754 4.711 1.0369999
21.768 4.7810001 1.039
21.705 4.835 1.036
21.733999 4.9089999 1.038
19.771 5.0939999 0.949
19.653999 5.1269999 0.94400001
19.617001 5.1810002 0.94300002
19.605 5.2420001 0.94300002
19.569 5.296 0.94099998
19.625 5.3759999 0.94499999
19.775999 5.4819999 0.95200002
18.115999 5.1409998 0.87400001
17.892 5.1370001 0.86299998
17.761 5.158 0.85799998
17.636 5.1810002 0.852
17.579 5.223 0.85000002
17.67 5.309 0.85500002
15.04 5.7639999 0.741
14.843 5.7410002 0.73199999
14.808 5.7800002 0.73100001
14.867 5.8559999 0.73400003
14.848 5.901 0.73400003
10.978 7.2480001 0.588
10.797 7.165 0.579
10.743 7.1659999 0.57700002
10.711 7.1810002 0.57599998
10.7 7.21 0.57599998
10.673 7.2270002 0.57499999
10.656 7.2519999 0.57499999
10.652 7.2849998 0.57499999
10.638 7.3099999 0.57499999
10.617 7.3309999 0.57499999
10.596 7.3509998 0.57499999
10.574 7.3709998 0.574
10.55 7.3889999 0.574
10.533 7.4109998 0.57300001
10.536 7.447 0.574
10.512 7.4640002 0.574
10.522 7.5040002 0.57499999
10.513 7.5310001 0.57499999
10.502 7.5560002 0.57499999
10.48 7.573 0.57499999
10.462 7.592 0.57499999
10.454 7.619 0.57499999
10.669 -6.3330002 0.61699998
10.726 -6.3369999 0.62099999
10.707 -6.2940001 0.62
10.754 -6.2909999 0.62199998
10.785 -6.2779999 0.62400001
10.775 -6.2410002 0.62300003
10.767 -6.2059999 0.62300003
10.818 -6.204 0.62599999
10.828 -6.178 0.62599999
10.809 -6.1350002 0.625
10.874 -6.1409998 0.62900001
10.825 -6.0819998 0.62599999
10.848 -6.0630002 0.62699997
10.848 -6.0320001 0.62699997
10.869 -6.0120001 0.62800002
10.881 -5.987 0.62900001
10.897 -5.9640002 0.63
10.933 -5.9520001 0.63200003
10.939 -5.9239998 0.63200003
10.949 -5.8969998 0.63300002
10.995 -5.8899999 0.63499999
10.976 -5.8470001 0.634
11.103 -5.7849998 0.64099997
11.059 -5.73 0.639
11.047 -5.6919999 0.63800001
11.069 -5.671 0.639
11.093 -5.6500001 0.63999999
11.113 -5.6279998 0.64099997
11.134 -5.6059999 0.64300001
11.156 -5.585 0.64399999
11.19 -5.5689998 0.64600003
11.189 -5.5359998 0.64600003
11.219 -5.5180001 0.64700001
11.21 -5.48 0.64700001
11.248 -5.4660001 0.64899999
11.281 -5.4489999 0.65100002
11.29 -5.4200001 0.65100002
11.313 -5.3979998 0.65200001
11.31 -5.3639998 0.65200001
11.306 -5.3280001 0.65200001
11.378 -5.329 0.65600002
11.364 -5.289 0.65499997
11.385 -5.2649999 0.65600002
11.403 -5.2399998 0.65700001
11.434 -5.2210002 0.65899998
11.44 -5.1900001 0.65899998
11.463 -5.1669998 0.66000003
11.495 -5.1479998 0.662
11.507 -5.1199999 0.66299999
11.535 -5.098 0.66399997
11.559 -5.0749998 0.66500002
11.611 -5.0630002 0.66799998
11.619 -5.033 0.66900003
11.633 -5.0050001 0.66900003
11.656 -4.9809999 0.671
11.666 -4.9510002 0.671
11.694 -4.928 0.67299998
11.718 -4.9039998 0.67400002
11.746 -4.881 0.67500001
11.758 -4.8520002 0.676
11.782 -4.8270001 0.67699999
11.83 -4.8119998 0.68000001
11.859 -4.789 0.68199998
11.918 -4.7779999 0.685
11.977 -4.7670002 0.68800002
12.028 -4.7519999 0.69099998
12.021 -4.7129998 0.69
12.103 -4.71 0.69499999
12.097 -4.6719999 0.69499999
12.112 -4.6430001 0.69499999
12.161 -4.6259999 0.69800001
12.231 -4.6170001 0.70200002
12.252 -4.5890002 0.70300001
12.291 -4.5669999 0.70499998
12.256 -4.5190001 0.70300001
12.348 -4.5159998 0.708
12.361 -4.4850001 0.70899999
12.482 -4.4920001 0.71600002
12.563 -4.4850001 0.72000003
12.63 -4.4710002 0.72399998
12.633 -4.4359999 0.72399998
12.701 -4.4219999 0.72799999
12.822 -4.427 0.73500001
13.001 -4.4510002 0.745
12.882 -4.3720002 0.73799998
12.935 -4.3530002 0.741
13.047 -4.3520002 0.74699998
13.512 -4.152 0.773
13.507 -4.112 0.77200001
13.488 -4.066 0.77100003
13.435 -4.0120001 0.76800001
13.505 -3.993 0.77200001
13.51 -3.9549999 0.77200001
13.527 -3.921 0.773
13.557 -3.8900001 0.77399999
13.536 -3.845 0.773
13.552 -3.8099999 0.77399999
13.608 -3.786 0.77700001
13.677 -3.7650001 0.78100002
13.689 -3.7290001 0.78100002
13.769 -3.711 0.78600001
13.834 -3.688 0.78899997
13.85 -3.652 0.79000002
14 -3.651 0.79900002
13.958 -3.559 0.796
13.953 -3.517 0.79500002
13.938 -3.473 0.79400003
14.063 -3.4630001 0.801
14.157 -3.4449999 0.80699998
14.166 -3.4070001 0.80699998
14.201 -3.3740001 0.80900002
12.742 -2.9530001 0.72500002
12.722 -2.9119999 0.72399998
12.748 -2.881 0.72600001
12.838 -2.8640001 0.73100001
13.156 -2.859 0.74800003
12.984 -2.7839999 0.73799998
12.945 -2.7379999 0.736
12.959 -2.704 0.73699999
13.066 -2.688 0.74299997
14.627 -2.925 0.83099997
14.642 -2.885 0.83200002
14.663 -2.8469999 0.833
14.718 -2.816 0.83600003
14.732 -2.776 0.83700001
14.791 -2.744 0.83999997
14.86 -2.714 0.84299999
15.169 -2.421 0.86000001
15.296 -2.3970001 0.86699998
13.016 -0.20900001 0.73000002
13.042 -0.17200001 0.73100001
12.974 0.236 0.72500002
12.845 0.271 0.71799999
12.829 0.30700001 0.71700001
12.828 0.34400001 0.71700001
12.824 0.38 0.71600002
12.841 0.41800001 0.71700001
12.839 0.454 0.71700001
12.849 0.491 0.71700001
12.864 0.52899998 0.71799999
12.867 0.56599998 0.71799999
12.863 0.60299999 0.71700001
12.864 0.639 0.71700001
12.868 0.676 0.71700001
12.891 0.71499997 0.71799999
12.907 0.75300002 0.71899998
12.916 0.79000002 0.71899998
12.934 0.82800001 0.72000003
12.939 0.866 0.72000003
12.921 0.90200001 0.71899998
12.647 0.123 0.62699997
12.653 0.134 0.62699997
12.649 0.146 0.62599999
12.643 0.15800001 0.625
12.649 0.17 0.625
12.64 0.183 0.625
12.653 0.19599999 0.625
12.639 0.20900001 0.62400001
12.642 0.223 0.62400001
12.637 0.236 0.62300003
12.637 0.25099999 0.62300003
12.651 0.266 0.62300003
12.645 0.28 0.62300003
12.641 0.29499999 0.62199998
12.64 0.31099999 0.62199998
12.638 0.32699999 0.62199998
12.638 0.34299999 0.62199998
12.634 0.359 0.62099999
12.649 0.37599999 0.62199998
12.647 0.39300001 0.62099999
12.657 0.41100001 0.62199998
12.647 0.428 0.62099999
12.655 0.447 0.62099999
12.654 0.465 0.62099999
12.662 0.484 0.62099999
9.2469997 0.36700001 0.45300001
12.674 0.50300002 0.62199998
9.0819998 0.37400001 0.44499999
12.706 0.52399999 0.62300003
8.9989996 0.38499999 0.44100001
12.753 0.54500002 0.625
8.9580002 0.39700001 0.43900001
12.86 0.56999999 0.63
8.9209995 0.40900001 0.43700001
12.98 0.59600002 0.63599998
8.8970003 0.42199999 0.43599999
12.996 0.61699998 0.63700002
8.8140001 0.433 0.43200001
12.993 0.63800001 0.63599998
8.7629995 0.44499999 0.42899999
13.016 0.66100001 0.63700002
8.7379999 0.458 0.428
13.009 0.68199998 0.63700002
8.7189999 0.472 0.42699999
13.007 0.704 0.63700002
8.7340002 0.48800001 0.42699999
13.003 0.72600001 0.63700002
8.7220001 0.50199997 0.42699999
12.987 0.74800003 0.63599998
8.7080002 0.51700002 0.426
12.96 0.76899999 0.634
8.7200003 0.53299999 0.42699999
12.942 0.79100001 0.63300002
8.71 0.54799998 0.426
12.906 0.81199998 0.63200003
8.7320004 0.565 0.42699999
12.873 0.83399999 0.63
8.7440004 0.58200002 0.428
12.832 0.85500002 0.62800002
8.7779999 0.60100001 0.42899999
12.791 0.87599999 0.62599999
8.8369999 0.62199998 0.43200001
12.748 0.89700001 0.62400001
8.9989996 0.64999998 0.44
12.725 0.92000002 0.62199998
12.717 0.94400001 0.62199998
12.706 0.96799999 0.62199998
12.723 0.99400002 0.62199998
12.723 1.02 0.62199998
12.734 1.046 0.62300003
12.738 1.072 0.62300003
12.765 1.101 0.62400001
12.774 1.128 0.625
12.806 1.158 0.62699997
12.854 1.189 0.62900001
12.893 1.22 0.63099998
12.934 1.252 0.63300002
12.955 1.2819999 0.634
12.979 1.313 0.63499999
12.991 1.3430001 0.63599998
20.556 2.1259999 1.007
12.985 1.3710001 0.63599998
20.570999 2.1730001 1.008
13.055 1.408 0.639
20.617001 2.224 1.01
13.148 1.448 0.64399999
20.594999 2.2690001 1.0089999
13.282 1.493 0.65100002
20.625 2.319 1.011
20.587 2.362 1.0089999
20.625999 2.415 1.011
20.611 2.4619999 1.011
20.514 2.4990001 1.006
20.868999 2.592 1.024
20.785 2.631 1.02
20.704 2.671 1.016
20.721001 2.724 1.017
20.672001 2.7679999 1.015
20.711 2.8239999 1.017
20.645 2.8670001 1.015
20.649 2.9189999 1.015
20.862 3.0020001 1.026
20.893999 3.0599999 1.028
20.827999 3.1040001 1.025
20.863001 3.1630001 1.027
11.684 1.802 0.57499999
11.603 1.819 0.57099998
11.554 1.842 0.56900001
11.528 1.869 0.56800002
11.511 1.897 0.56800002
11.475 1.9220001 0.56599998
11.41 1.942 0.56300002
11.345 1.962 0.56
11.322 1.989 0.55900002
11.32 2.0190001 0.55900002
11.328 2.052 0.56
11.362 2.0899999 0.56199998
11.402 2.1289999 0.56400001
11.566 2.1930001 0.57300001
13.19 2.5380001 0.653
13.034 2.546 0.64600003
12.981 2.573 0.64399999
12.961 2.6059999 0.64300001
12.973 2.6459999 0.64399999
12.994 2.6889999 0.64600003
13.086 2.7460001 0.64999998
13.31 2.832 0.662
22.443001 4.776 1.117
22.076 4.7639999 1.099
21.945 4.8010001 1.0930001
21.860001 4.848 1.09
21.895 4.9219999 1.092
19.773001 5.1240001 0.99400002
19.664 5.1589999 0.98900002
19.611 5.2080002 0.98699999
19.598 5.2680001 0.98699999
19.552999 5.3200002 0.986
19.589001 5.3940001 0.98799998
19.725 5.4959998 0.99599999
18.084999 5.1589999 0.91500002
17.903 5.1669998 0.90600002
17.752001 5.1830001 0.89899999
17.632999 5.2080002 0.89399999
17.546 5.2420001 0.88999999
17.607 5.3200002 0.89399999
14.919 5.7389998 0.77499998
14.838 5.7639999 0.77200001
10.919 6.9710002 0.616
10.852 6.9790001 0.61400002
10.827 7.013 0.61299998
10.801 7.0479999 0.61299998
10.775 7.0819998 0.61199999
10.754 7.119 0.61199999
10.741 7.1620002 0.61199999
10.697 7.184 0.611
10.675 7.2199998 0.611
10.651 7.256 0.61000001
10.613 7.2810001 0.60900003
10.603 7.3260002 0.61000001
10.567 7.3520002 0.60900003
10.553 7.3930001 0.60900003
10.534 7.4320002 0.60900003
10.505 7.4629998 0.60799998
10.48 7.4970002 0.60799998
10.438 7.5180001 0.60699999
10.161 -6.6739998 0.62
10.218 -6.6479998 0.62300003
10.279 -6.6240001 0.62599999
10.308 -6.579 0.62800002
10.336 -6.5339999 0.62900001
10.392 -6.507 0.63200003
10.423 -6.4640002 0.63300002
10.461 -6.4260001 0.63499999
10.486 -6.3800001 0.63599998
10.513 -6.335 0.63700002
10.542 -6.2919998 0.63800001
10.568 -6.2470002 0.639
10.625 -6.2210002 0.64200002
10.646 -6.1729999 0.64300001
10.688 -6.138 0.64499998
10.711 -6.092 0.64600003
10.756 -6.059 0.648
10.783 -6.0159998 0.64999998
10.838 -5.9879999 0.653
10.867 -5.947 0.65399998
10.915 -5.915 0.65600002
10.936 -5.8699999 0.65700001
10.935 -5.8119998 0.65700001
10.964 -5.7709999 0.65799999
10.998 -5.7329998 0.66000003
11.042 -5.6999998 0.662
11.075 -5.6609998 0.66299999
11.108 -5.6220002 0.66500002
11.135 -5.5809999 0.66600001
11.169 -5.5430002 0.66799998
11.208 -5.5079999 0.67000002
11.235 -5.467 0.671
11.238 -5.414 0.671
11.285 -5.3829999 0.67299998
11.327 -5.3499999 0.67500001
11.373 -5.3179998 0.67799997
11.396 -5.276 0.67900002
11.416 -5.2329998 0.68000001
11.438 -5.191 0.68099999
11.49 -5.1620002 0.68300003
11.526 -5.1259999 0.685
11.555 -5.0869999 0.68599999
11.614 -5.0609999 0.69
11.638 -5.0209999 0.69099998
11.684 -4.9889998 0.69300002
11.726 -4.9559999 0.69499999
11.756 -4.9180002 0.69700003
11.789 -4.882 0.69800001
11.835 -4.8499999 0.70099998
11.875 -4.8169999 0.70300001
11.895 -4.7750001 0.704
12.013 -4.7719998 0.70999998
12.089 -4.7529998 0.71399999
12.186 -4.7410002 0.72000003
12.222 -4.7049999 0.722
12.261 -4.6700001 0.72399998
12.301 -4.6360002 0.72600001
12.372 -4.6139998 0.73000002
12.503 -4.6129999 0.73699999
12.528 -4.573 0.73799998
12.597 -4.5489998 0.74199998
12.649 -4.5190001 0.745
12.758 -4.5089998 0.75099999
12.816 -4.48 0.75400001
12.857 -4.4450002 0.75599998
12.99 -4.4429998 0.764
13.077 -4.4229999 0.76899999
13.04 -4.362 0.76599997
13.18 -4.3600001 0.77399999
13.589 -4.1529999 0.796
13.567 -4.099 0.79500002
13.608 -4.0640001 0.79699999
13.618 -4.02 0.79699999
13.657 -3.984 0.79900002
13.646 -3.934 0.79799998
13.661 -3.892 0.79900002
13.705 -3.859 0.801
13.81 -3.842 0.80699998
13.887 -3.8169999 0.81199998
13.982 -3.7969999 0.81699997
14.031 -3.7639999 0.81900001
14.178 -3.7119999 0.82800001
14.107 -3.6470001 0.82300001
14.127 -3.6070001 0.824
14.169 -3.573 0.82599998
14.229 -3.543 0.82999998
14.222 -3.497 0.829
14.338 -3.4809999 0.83600003
12.745 -3.0150001 0.74199998
12.701 -2.9660001 0.74000001
12.727 -2.9330001 0.741
12.833 -2.9189999 0.74699998
13.183 -2.9200001 0.76700002
12.958 -2.8310001 0.75400001
12.949 -2.7909999 0.75300002
12.971 -2.7579999 0.75400001
13.075 -2.7420001 0.75999999
15.122 -2.8710001 0.87800002
15.156 -2.836 0.88
13.03 -0.40000001 0.75400001
12.929 -0.375 0.74800003
12.877 -0.352 0.74599999
12.842 -0.329 0.74400002
12.841 -0.308 0.74400002
12.819 -0.28600001 0.74199998
12.809 -0.26499999 0.74199998
12.822 -0.245 0.74299997
